2751	2755	2755	2763	2767	2771	2775	2779	2779	2782	2786	2794	2794	2798	2798	2802	2806	2810	2814	2818	2822	2826	2830	2834	2838	2843	2851	2859	2871	2876	2884	2888	2892	2901	2909	2909	2918	2922	2927	2927	2922	2918	2905	2888	2863	2843	2802	2782	2767	2755	2748	2748	2755	2759	2763	2775	2790	2802	2814	2830	2843	2859	2876	2884	2897	2901	2909	2914	2909	2909	2897	2884	2867	2818	2775	0	2659	2638	2617	2610	2610	2606	2610	0	0	2617	2620	2627	2634	2641	2652	2662	2677	2688	2699	2706	2717	2729	2736	2740	2740	2740	2744	2744	2744	2744	2744	2748	2751	2755	2763	2775	2782	2794	2814	2838	2863	2892	2918	2940	2966	0	2984	3002	3021	3030	3039	3049	3053	3063	3072	3082	3092	3092	3096	3096	3096	3096	3092	3087	3082	3082	3087	3087	3087	3096	3096	3101	3111	3111	3116	3111	3116	3116	3121	3121	3121	3101	3101	3106	3111	3111	3116	3121	3131	3136	3141	3146	3151	3151	3146	3141	3141	3136	3126	3121	3116	3111	3106	3101	3101	3096	3096	3096	3101	3106	3106	3111	3121	3126	3136	3146	3156	3161	3161	3161	3141	3121	3101	3082	3049	3030	3007	2984	2966	2931	2922	2914	2905	2905	2901	2897	2892	2892	2892	2901	2914	2931	2944	2962	2975	2993	3007	3016	3021	3025	3025	3025	3021	3021	3021	3012	3007	2998	2984	2971	2957	2940	2927	2884	2859	2830	2802	2779	2751	2714	2706	2699	2695	2695	2699	2699	2706	2710	2714	2717	2725	2729	2732	2736	2736	2740	2740	2740	2744	2744	2744	2740	2740	2740	2740	2740	2744	2744	2748	2748	2751	2751	2755	2755	2759	2759	2763	2763	2763	2767	2771	2775	2775	2779	2782	2790	2790	2798	2802	2806	2814	2818	2826	2830	2830	2830	2830	2830	2822	2818	2810	2802	2790	2782	2775	2771	2767	2763	2759	2759	2759	2759	2759	2763	2767	2771	2779	2786	2794	2806	2818	2830	2838	2851	2859	2867	2880	2884	2884	2892	2897	2905	2909	0	2918	2927	2931	2940	2949	2957	2966	2980	2989	3002	3012	3016	0	0	0	0	0	0	0	0	5040	5040	5040	5040	5040	5040	5040	5053	5066	5079	5092	5092	5105	5118	5131	5131	5118	5092	5053	4976	4902	4830	4738	4562	0	4410	4332	4258	4133	4082	4040	4024	4007	4007	4015	4032	4073	4142	4239	0	4342	4439	0	0	4842	0	4989	5092	5172	5254	5339	5398	5457	5518	5534	5534	5534	5534	5534	5518	5518	5503	5503	5503	5488	5488	5488	5488	5457	5412	5368	5226	5145	5079	4989	0	0	0	4659	4616	4562	4531	4490	4439	4400	4351	4313	4239	4203	4168	4142	4124	4124	4142	4168	4194	0	0	0	0	0	0	0	5172	5296	5383	5457	5488	5503	5518	5518	5503	5503	5518	5518	5518	5565	5596	5661	5710	5776	5828	5880	5915	5933	5933	5950	5933	5933	5915	5880	5828	5760	5710	5644	5581	5518	5472	5383	5354	5339	5325	5311	5296	5282	5268	5240	5213	5185	5172	5158	5145	5131	5131	5158	5172	5213	5254	5296	5383	5457	5549	5644	5743	0	5828	5915	6005	6079	6116	6135	6154	6174	6193	6193	6193	6174	6174	6154	6154	6154	6135	6154	6154	6174	6193	6212	6232	6232	6272	6272	6292	6292	6272	6292	6272	6252	6232	6193	6135	6097	6041	5987	5933	5897	5828	5793	5776	5810	5828	5880	5950	6005	6079	6154	6193	6252	6312	6332	6352	6373	6373	6393	6393	6393	6414	6456	6520	6585	6629	6629	6629	6607	6542	6477	6373	6232	6005	5897	5810	5726	5644	0	0	0	0	4584	4459	4380	4304	4258	4212	4212	4203	4194	4185	4177	4168	4150	4142	4133	4124	4116	4107	4099	4099	4082	4082	4073	4073	4073	4073	4082	4073	4073	4065	4065	4057	4048	4048	4040	4024	4015	4032	4040	4048	4057	4065	4073	4082	4082	4090	4090	4090	4090	4082	4082	4073
2748	2751	2755	2755	2763	2763	2767	2771	2775	2779	2782	2790	2790	2790	2794	2798	2802	2806	2814	2818	2822	2830	2834	2838	2847	2851	2863	2867	2876	2884	2888	2892	2901	2905	2909	2914	2918	2922	2922	2922	2918	2909	2897	2876	2855	2830	2790	2775	2759	2751	2748	2748	2755	2759	2763	2775	2786	2802	2814	2830	2843	2859	2876	2888	2901	2909	2914	0	2922	2918	2905	2888	2867	2830	2786	2706	2677	2655	2638	2631	2624	2620	2620	2620	2624	2627	2631	2634	2641	2648	2659	2670	2681	2691	2703	2710	2721	2729	2736	2740	2740	2740	2744	2744	2744	2744	2744	2744	2748	2755	2763	2771	2782	2794	2814	2838	2867	2892	2922	2944	2966	0	2984	3002	3021	3030	3035	3044	3053	3063	3068	3072	3082	3082	3087	3087	3087	3082	3072	3068	3068	3068	3068	3068	3068	3072	3077	3082	3087	3092	3092	3092	3096	3077	3082	3082	3082	3082	3082	3082	3082	3087	3092	3096	3101	3106	3111	3111	3116	3111	3111	3106	3106	3101	3096	3092	3087	3082	3082	3077	3077	3077	3077	3082	3082	3087	3092	3092	3101	3111	3116	3126	3131	3141	3136	3126	3116	3101	3077	3058	3030	3007	2989	2971	2931	2922	2909	2905	2897	2892	2888	2884	2884	2884	2884	2897	2905	2922	2940	2953	2966	2984	2998	3012	3016	3021	3021	3021	3021	3016	3012	3007	3002	2989	2975	2962	2949	2931	2914	2871	2843	2818	2794	2771	2748	2710	2699	2691	2695	2691	2695	2695	2703	2706	2710	2714	2721	2725	2729	2729	2732	2736	2736	2740	2740	2736	2740	2736	2736	2736	2740	2740	2740	2744	2744	2744	2748	2751	2751	2751	2755	2755	2759	2759	2759	2763	2763	2767	2771	2775	2779	2782	2786	2794	2798	2806	2810	2818	2826	2830	2830	2834	2834	2834	2830	2822	2818	2810	2798	2794	2779	2775	2771	2767	2759	2759	2759	2759	2759	2763	2763	2767	2775	2782	2790	2802	2810	2822	2834	2847	2851	2863	2867	2876	2884	2888	2892	2901	2909	2914	0	2922	2931	2940	2949	2957	2966	2980	2989	3002	3007	3016	0	0	0	0	0	0	0	5053	5053	5053	5053	5053	5053	5053	5053	5066	5066	5066	5066	5066	5066	5066	5066	5053	5027	4976	4914	4842	0	0	4510	4429	4371	4304	4248	4142	4099	4065	4032	4024	4007	4007	4015	4024	4057	4124	4212	0	4304	4400	4500	4616	4760	0	0	0	0	5158	5240	5325	5398	5472	5472	5488	5518	5518	5518	5503	5503	5472	5457	5442	5427	5412	5398	5383	5339	5311	5199	5105	5040	4964	0	4795	4726	4616	4562	4521	4490	4459	4429	4400	4361	4342	4304	4276	4230	4212	4203	4194	4221	4276	0	4342	0	0	0	0	0	0	0	5383	5442	5503	5549	5565	5565	5565	5549	5534	5534	5534	5534	5549	5581	5628	5677	5726	5793	5845	5897	5915	5915	5915	5915	5915	5897	5880	5828	5776	5726	5661	5612	5549	5488	5398	5368	5339	5339	5325	5311	5296	5282	5268	5254	5226	5213	5185	5199	5185	5185	5185	5185	5199	5213	5254	5296	5354	5427	5518	5612	5693	5793	0	5897	5987	6060	6097	6135	6174	6174	6193	6193	6193	6193	6193	6174	6174	6174	6174	6174	6193	6212	6232	6252	6272	6292	6312	6332	6332	6332	6332	6312	6292	6292	6272	6232	6174	6097	6060	6023	5968	5915	5862	5810	5810	5845	5915	5968	6041	6116	6193	6272	6332	6393	6435	6456	6456	6477	6477	6456	6456	6456	6456	6477	6563	6607	6629	6652	6607	6542	6477	6414	6292	6174	5950	5862	5776	5693	5612	5518	5240	0	0	4659	4541	4429	4332	4276	4239	4230	4221	4212	4203	4194	4185	4177	4168	4150	4142	4133	4124	4116	4107	4099	4099	4090	4090	4082	4082	4090	4090	4073	4082	4073	4065	4065	4057	4048	4040	4040	4048	4057	4057	4057	4073	4082	4073	4082	4090	4090	4082	4090	4082	4082	4073
2744	2744	2748	2755	2755	2759	2763	2767	2771	2775	2779	2782	2782	2786	2790	2794	2798	2806	2814	2818	2826	2834	2843	2847	2851	2859	2871	2876	2884	2888	2892	2897	2901	2905	2909	2914	2918	2918	2914	2914	2905	2897	2880	2859	2838	2798	2782	2767	2755	2748	2744	2748	2751	2755	2763	2775	2786	2798	2814	2830	2843	2859	2876	2888	0	2905	0	2918	2922	2918	2905	2892	2867	2834	2794	2721	2695	2673	2652	2648	2638	2638	2634	2634	2634	2638	2641	2645	2652	2655	2662	2673	2684	2695	2703	2714	2721	2729	2736	2740	2744	2744	2744	2748	2748	2744	2748	2751	2751	2759	2767	2775	2786	2802	2818	2847	2871	2897	2922	2944	2966	0	2984	3002	3016	3025	3035	3044	3049	3053	3063	3068	3072	3072	3072	3072	3072	3063	3053	3049	3049	3049	3049	3049	3053	3053	3058	3063	3068	3049	3049	3053	3053	3058	3058	3063	3063	3058	3058	3063	3063	3063	3063	3068	3072	3077	3077	3082	3082	3077	3077	3072	3072	3068	3063	3058	3058	3063	3058	3063	3058	3063	3063	3068	3068	3072	3077	3082	3092	3096	3101	3111	3116	3111	3106	3101	3087	3072	3053	3035	3012	2989	2971	2935	2922	2909	2901	2892	2888	2880	2876	2876	2876	2876	2876	2888	2897	2909	2927	2940	2957	2971	2984	2998	3002	3007	3012	3007	3007	3007	3002	2998	2989	2980	2966	2953	2935	2922	2880	2859	2830	2806	2782	2759	2736	2710	2699	2695	2691	2695	2699	2699	2703	2703	2710	2710	2717	2721	2721	2725	2729	2729	2732	2732	2736	2732	2732	2736	2732	2732	2732	2736	2736	2736	2740	2740	2744	2748	2748	2748	2748	2751	2751	2751	2755	2755	2759	2759	2763	2767	2771	2775	2782	2786	2794	2802	2806	2814	2822	2826	2830	2834	2834	2834	2830	2826	2822	2814	2806	2798	2786	2779	2775	2767	2763	2763	2759	2759	2759	2763	2767	2767	2775	2779	2786	2798	2806	2818	2826	2838	2847	2859	2867	2876	2880	2884	2892	2897	2905	0	2914	0	2927	2935	2944	2953	2966	2980	2989	2993	3002	3007	0	0	0	0	0	0	0	5053	5053	5053	5053	5053	5053	5053	5053	5066	5066	5066	5053	5040	5040	5027	5001	4976	4927	4866	4795	0	4616	4449	4371	4304	4248	4212	4133	4099	4073	4040	4032	4015	4007	3999	4015	4032	4048	4107	4185	4276	0	4361	4449	4552	4681	4807	0	4914	4989	0	0	5213	5296	5383	5412	5442	5457	5472	5472	5472	5457	5442	5412	5383	5354	5325	5296	5268	5226	5118	5053	4976	4902	4818	4738	4616	4562	4510	4470	4439	4420	4410	4390	4361	4342	4313	4295	4267	4258	4258	4248	4267	0	4332	4410	0	0	0	0	0	0	0	5472	5549	5565	5581	5596	5612	5596	5596	5581	5565	5565	5565	5549	5581	5596	5644	5693	5743	5810	5845	5880	5897	5897	5897	5880	5880	5862	5828	5776	5726	5677	5612	5565	5518	5457	5383	5354	5339	5325	5325	5311	5296	5282	5268	5282	5268	5254	5240	5226	5226	5213	5213	5213	5226	5226	5254	5296	5354	5412	5503	5581	5677	5776	0	5862	5968	6060	6116	6135	6174	6193	6193	6212	6212	6212	6212	6212	6193	6193	6212	6212	6212	6252	6252	6292	6312	6332	6352	6373	6393	6393	6393	6373	6352	6312	6292	6252	6193	6135	6116	0	6023	5968	5915	5845	5845	5897	6005	6079	6174	6252	6332	6435	6499	6542	6585	6585	6585	6585	6585	6563	6542	6520	6499	0	0	0	0	0	0	0	6373	6292	6174	5968	5880	5810	5726	5644	5565	5503	5268	5158	5040	4878	4726	4459	4371	4304	4258	4258	4258	4248	4230	4221	4212	4203	4203	4185	4177	4159	4150	4142	4133	4124	4116	4116	4107	4099	4099	4107	4099	4099	4099	4090	4090	4090	4082	4082	4065	4057	4065	4065	4065	4065	4073	4073	4082	4082	4082	4082	4082	4082	4073	4073	4065
2744	2744	2748	2751	2755	2755	2759	2763	2767	2771	2775	2775	2779	2782	2786	2790	2798	2806	2810	2818	2826	2834	2843	2851	2859	2863	2867	2880	2884	2892	2892	2901	2901	2905	2905	2909	2909	2909	2905	2901	2892	2880	2863	2843	2822	2786	2775	2759	2751	2748	2748	2748	2755	2759	2767	2775	2786	2798	2814	2830	2843	2855	2871	2884	2901	2909	2914	2918	2922	2918	2905	2888	2863	2834	2802	2736	2710	2688	2673	2666	2655	2652	2648	2648	2648	2648	2652	2655	2659	2662	2673	2681	2691	2703	2710	2717	2725	2732	2740	2740	2744	2748	2748	2751	2751	2751	2755	2759	2763	2767	2775	2786	2794	2810	2826	2851	2876	2901	2922	2944	2966	0	2984	3002	3016	3025	3030	3039	3044	3049	3053	3058	3063	3063	3063	3058	3053	3049	3039	3035	3035	3035	3035	3035	3035	3021	3025	3030	3030	3030	3030	3035	3035	3039	3039	3039	3039	3039	3039	3039	3039	3039	3044	3044	3049	3049	3053	3053	3049	3044	3044	3044	3039	3039	3035	3035	3035	3039	3044	3044	3049	3049	3049	3053	3058	3063	3063	3072	3077	3082	3082	3087	3092	3087	3082	3072	3063	3053	3035	3016	2993	2975	2953	2927	2914	2901	2892	2884	2880	2876	2871	2867	2863	2863	2867	2876	2884	2897	2909	2922	2940	2953	2966	2980	2989	2989	2993	2993	2993	2989	2984	2980	2971	2962	2949	2940	2922	2909	2867	2843	2818	2794	2771	2751	2732	2710	2703	2699	2695	2695	2699	2699	2703	2706	2706	2710	2714	2717	2717	2721	2721	2725	2729	2729	2729	2729	2729	2729	2732	2729	2729	2732	2732	2732	2736	2740	2740	2744	2744	2744	2744	2744	2744	2744	2748	2748	2748	2751	2755	2759	2763	2767	2771	2779	2786	2794	2802	2806	2814	2822	2826	2830	2830	2834	2830	2826	2822	2818	2806	2802	2786	2782	2775	2771	2767	2763	2763	2763	2763	2763	2767	2771	2775	2779	2786	2794	2806	2814	2826	2838	2847	2855	2863	2871	2876	2884	2888	2897	2901	2909	0	2918	2927	2935	2944	2953	2962	2975	2984	2989	2998	3002	0	0	0	0	0	0	0	5066	5053	5066	5053	5066	5066	5066	5066	5066	5066	5053	5040	5027	5001	4976	4939	4890	4818	4760	0	0	4400	4323	4258	4212	4177	4116	4099	4073	4057	4032	4015	4015	4007	4007	4024	4032	4048	4099	4168	4248	0	4323	4400	4490	4594	4693	4795	4866	0	0	0	5092	5172	5268	5311	5354	5383	5412	5427	5442	5412	5398	5354	5325	5282	5240	5145	5092	5040	4964	4890	4807	4726	4594	4531	4490	4449	4410	4390	4361	4351	4351	4342	4323	4304	4285	4276	4267	4276	4285	4304	4313	4361	4459	0	0	0	0	0	5199	5368	0	5581	5612	5628	5628	5628	5628	5628	5628	5612	5581	5581	5565	5565	5581	5612	5644	5693	5726	5793	5845	5862	5880	5880	5862	5862	5845	5810	5776	5743	5693	5628	5581	5534	5488	5457	5368	5354	5339	5325	5325	5325	5311	5311	5311	5296	5296	5282	5282	5268	5268	5254	5254	5254	5254	5268	5282	5311	5354	5412	5503	5581	5677	5776	0	5862	5968	6041	6116	6154	6193	6212	6212	6232	6232	6232	6232	6232	6232	6232	6232	6232	6252	6272	6292	6312	6332	6352	6373	6414	6414	6414	6435	6435	6414	6393	6373	6292	6232	6174	6135	6097	6060	6005	5950	5880	5880	5968	6135	6252	6332	6435	6542	6629	6674	0	6742	6742	6742	6720	6697	6674	0	6585	0	0	0	0	0	0	0	0	6252	6174	5987	5897	5810	5743	5677	5596	5549	5472	5282	5185	5066	4927	4772	0	4400	4332	4285	4285	4285	4276	4267	4248	4248	4248	4230	4221	4212	4194	4185	4177	4168	4150	4142	4133	4133	4124	4124	4124	4124	4116	4116	4116	4107	4116	4107	4107	4099	4090	4099	4090	4082	4082	4082	4073	4073	4073	4073	4065	4073	4073	4073	4065	4057
2744	2744	2744	2748	2751	2755	2759	2759	2763	2767	2771	2775	2775	2779	2782	2790	2794	2802	2810	2822	2826	2838	2843	2855	2859	2867	2876	2880	2888	2892	2897	2897	2901	2905	2905	2905	2901	2901	2892	2884	2876	2859	2847	2826	2794	2779	2767	2755	2751	2748	2748	2755	2759	2767	2771	2779	2790	2802	2814	2830	2838	2851	2867	2880	2892	2901	2909	2914	2914	2914	2901	2884	2863	0	2806	2748	2725	2703	2691	2681	2673	2666	2666	2662	2659	2659	2662	2662	2670	2673	2677	2684	2695	2703	2714	2721	2729	2736	2740	2744	2751	2751	2755	2755	2759	2759	2767	2767	2771	2775	2786	2794	2802	2818	2834	2855	2880	2905	2927	2949	2966	0	2984	3002	3016	3021	3030	3035	3039	3044	3044	3049	3049	3053	3049	3044	3039	3030	3025	3021	3012	3012	3012	3012	3012	3012	3012	3012	3012	3016	3012	3012	3012	3016	3021	3021	3021	3021	3021	3021	3021	3021	3021	3021	3021	3021	3025	3021	3021	3016	3016	3012	3012	3016	3016	3021	3021	3030	3035	3039	3039	3044	3044	3049	3053	3053	3058	3058	3063	3068	3063	3068	3068	3063	3058	3049	3039	3025	3012	2993	2975	2957	2927	2914	2901	2892	2884	2880	2871	2867	2863	2859	2855	2855	2855	2859	2871	2880	2892	2905	2918	2931	2949	2957	2966	2971	2971	2971	2971	2971	2966	2957	2953	2944	2927	2918	2905	2871	2851	2830	2810	2790	2771	2751	2736	2714	2710	2703	2703	2703	2703	2703	2706	2706	2710	2710	2710	2714	2717	2717	2717	2721	2721	2725	2725	2725	2725	2725	2729	2725	2729	2729	2729	2732	2736	2736	2736	2736	2740	2740	2740	2736	2736	2736	2740	2740	2740	2740	2744	2748	2751	2755	2759	2771	2775	2782	2790	2798	2806	2810	2814	2822	2822	2826	2822	2822	2818	2814	2806	2802	2794	2786	2779	2775	2767	2767	2763	2763	2763	2763	2767	2771	2775	2782	2786	2794	2806	2814	2826	2834	2847	2855	2859	2871	2876	2880	2888	2892	2901	2909	0	2918	2927	2935	2944	2953	2962	2971	2980	2984	2984	2993	0	0	0	0	0	0	0	5079	5066	5066	5079	5079	5079	5079	5066	5066	5053	5040	5014	4989	4951	4914	4866	4795	4726	0	0	4390	4313	4248	4203	4168	4124	4099	4090	4065	4048	4032	4015	4015	4007	4007	4032	4048	4065	4107	4168	4230	0	4295	0	4429	4500	4584	4681	4738	4807	4878	0	4951	5027	5118	5172	5226	5282	5311	5339	5354	5354	5339	5311	5268	5199	5079	5014	4939	4866	4795	4715	4552	4500	4449	4410	4380	4351	4323	4313	4304	4295	4295	4295	4276	4258	4248	4239	4248	4258	4285	4313	4361	4439	4562	0	0	0	0	5158	5339	5472	5581	5612	5628	5644	5644	5644	5661	5644	5644	5644	5612	5596	5581	5581	5581	5612	5644	5677	5710	5760	5793	5828	5828	5845	5828	5810	5793	5776	5743	5693	5644	5596	5549	5518	5457	5427	5368	5368	5354	5339	5339	5339	5325	5325	5325	5325	5325	5325	5325	5311	5311	5311	5311	5296	5311	5311	5311	5339	5383	5442	5518	5596	5677	5776	0	5880	5968	6060	6116	6174	6212	6232	6252	6252	6252	6272	6272	6272	6272	6252	6252	6252	6272	6292	6312	6332	6332	6373	6393	6393	6435	6435	6456	6456	6435	6414	6393	6352	6292	6232	6193	6154	6116	6060	6005	0	0	0	0	0	0	0	6697	6766	6860	6883	6908	6908	6883	6883	6812	0	0	0	0	0	0	0	0	0	0	0	6135	5968	5897	5845	5760	5693	5628	5565	5503	5442	5383	5226	5118	4976	4807	0	4429	4351	4313	4313	4313	4304	4295	4295	4295	4295	4285	4267	4258	4239	4221	4212	4203	4185	4177	4168	4159	4150	4150	4150	4150	4142	4142	4142	4142	4142	4142	4150	4133	4124	4124	4116	4107	4090	4090	4082	4073	4065	4065	4065	4057	4057	4057	4048	4048
2748	2748	2748	2751	2751	2755	2755	2759	2759	2763	2767	2771	2775	2775	2782	2790	2794	2802	2810	2818	2830	2838	2847	2855	2863	2867	2876	2884	2888	2892	2897	2897	2897	2897	2897	2897	2892	2888	2880	2871	2859	2843	2826	2810	2782	2775	2763	2755	2755	2755	2755	2763	2767	2771	2779	2786	2798	2806	2814	2826	2838	2851	2863	2876	2888	2897	2901	2909	2909	2905	2892	2876	2855	2830	2806	2779	2732	2717	2703	2695	2688	2681	2677	2673	2673	2670	2670	2670	2673	2677	2684	2688	2695	2703	2714	2721	2732	2740	2744	2751	2755	2759	2767	2767	2771	2771	2779	2779	2782	2790	2798	2806	2818	2826	2843	2863	2888	2905	2927	2949	2966	0	2984	3002	3012	3021	3025	3030	3035	3039	3039	3044	3039	3039	3035	3035	3021	3016	3007	3007	3002	3007	3007	3007	3002	2998	3002	3002	3002	3002	3002	2998	2998	3002	3002	3002	3007	3007	3007	3002	3002	3002	3002	3002	2998	2998	2998	2998	2989	2989	2984	2989	2989	2989	2993	3002	3012	3021	3030	3035	3039	3044	3044	3049	3049	3053	3053	3053	3053	3053	3053	3053	3049	3039	3035	3025	3012	3002	2984	2971	2957	2927	2918	2905	2897	2888	2880	2871	2867	2863	2859	2851	2851	2847	2847	2847	2855	2863	2876	2888	2901	2914	2927	2940	2944	2949	2953	2949	2949	2944	2940	2935	2927	2918	2905	2892	2871	2855	2834	2818	2798	2782	2767	2755	2740	2729	2717	2714	2714	2710	2710	2710	2710	2710	2710	2710	2714	2714	2714	2714	2717	2717	2717	2721	2721	2721	2725	2725	2725	2725	2725	2729	2729	2729	2732	2732	2732	2732	2732	2732	2732	2732	2732	2732	2732	2732	2732	2732	2736	2736	2740	2744	2751	2755	2763	2771	2779	2786	2794	2798	2802	2810	2810	2814	2814	2814	2814	2810	2802	2798	2786	2786	2779	2775	2767	2767	2767	2767	2767	2767	2767	2771	2775	2782	2786	2794	2806	2814	2826	2834	2847	2851	2859	2867	2871	2880	2884	2892	2897	2909	0	2918	2927	2931	2944	2953	2962	2971	2980	2984	2984	2993	2998	0	0	0	0	0	0	5079	5079	5079	5079	5092	5092	5079	5079	5079	5053	5040	5001	4976	4914	4854	4795	4726	4637	4470	4390	4313	4258	4212	4177	4159	4116	4099	4082	4065	4048	4032	4015	4015	4015	4015	4040	4065	4082	4124	4185	4258	0	4313	4361	4420	4480	4531	4594	4648	4704	4760	4807	4866	4951	0	5001	5079	5131	5172	5226	5254	5282	5268	5254	5185	5040	4964	4902	4818	4738	4659	4510	4459	4410	4371	4342	4313	4304	4285	4276	4267	4267	4258	4248	4239	4221	4212	4221	0	4248	4285	4332	0	4480	4627	4807	0	4964	5105	5282	5427	5534	5596	5612	5644	5661	5661	5661	5677	5677	5661	5644	5612	5596	5581	5581	5581	5596	5612	5644	5661	5726	5743	5776	5776	5793	5776	5760	5743	5726	5693	5612	5581	5549	5518	5488	5457	5427	5398	5368	5354	5354	5354	5354	5339	5354	5354	5354	5368	5368	5368	5368	5368	5368	5354	5354	5354	5354	5354	5368	5398	5442	5518	5596	5693	0	5793	5897	5987	6079	6135	6193	6212	6232	6252	6272	6272	6292	6292	6292	6272	6292	6272	6272	6292	6292	6312	6312	6332	6352	6352	6393	6414	6435	6435	6456	6456	6435	6414	6393	6312	6272	6232	6193	6154	6116	0	0	0	0	0	0	0	0	6883	6981	7030	7081	7081	7056	7056	7030	7005	6956	0	0	0	0	0	0	0	0	0	0	0	5845	5793	5760	5710	5644	5581	5534	5472	5427	5368	5240	5145	5014	4854	0	4449	4371	4323	4323	4323	4323	4313	4313	4323	4323	4323	4323	4304	4276	4258	4248	4239	4230	4221	4203	4194	4185	4185	4177	4177	4177	4177	4177	4185	4185	4185	4194	4185	4168	4159	4150	4133	4116	4099	4082	4073	4057	4057	4048	4048	4048	4048	4048	4040
2748	2748	2748	2751	2751	2755	2755	2755	2759	2763	2763	2771	2775	2779	2782	2786	2794	2802	2814	2818	2830	2843	2851	2859	2867	2871	2876	2884	2888	2888	2892	2892	2892	2892	2888	2884	2880	2871	2863	2851	2838	2826	2814	2790	2779	2771	2767	2763	2763	2763	2767	2771	2779	2782	2786	2790	2802	2810	2818	2826	2834	2847	2859	2871	2880	2888	2892	2897	2901	2901	2892	2876	2855	2830	2810	2786	2740	2729	2714	2703	2699	2691	2688	2684	2681	2677	2677	2677	2677	2681	2684	2688	2699	2706	2717	2725	2732	2740	2748	2755	2763	2767	2775	2775	2779	2782	2790	2794	2798	2806	2814	2822	2830	2843	2859	2876	2892	2914	2931	2953	2966	0	2989	3002	3012	3021	3025	3030	3030	3035	3035	3035	3025	3025	3021	3016	3012	3007	3002	2998	2998	2993	2993	2993	2989	2989	2989	2989	2989	2989	2989	2989	2984	2989	2989	2989	2989	2989	2989	2984	2980	2980	2980	2975	2975	2971	2971	2966	2962	2962	2962	2962	2966	2971	2980	2989	2998	3012	3025	3035	3035	3044	3044	3049	3053	3053	3053	3049	3049	3044	3039	3035	3030	3021	3012	3002	2989	2980	2966	2953	2940	2918	2909	2897	2892	2884	2876	2871	2863	2859	2851	2847	2843	2838	2834	2838	2843	2851	2859	2871	2884	2892	2905	2918	2922	2927	2927	2927	2922	2918	2914	2909	2901	2892	2880	2863	2851	2834	2822	2806	2790	2779	2767	2755	2748	2740	2732	2732	2725	2721	2721	2721	2717	2717	2717	2714	2714	2714	2714	2714	2717	2717	2717	2717	2717	2721	2721	2721	2725	2725	2725	2725	2725	2729	2729	2729	2729	2729	2729	2729	2729	2725	2725	2725	2725	2725	2725	2725	2729	2729	2732	2736	2740	2748	2751	2759	2767	2775	2779	2786	2790	2794	2794	2798	2798	2798	2802	2798	2790	2790	2782	2775	2775	2767	2767	2767	2767	2767	2767	2767	2771	2775	2779	2782	2790	2798	2806	2814	2826	2834	2843	2851	2859	2867	2871	2876	2884	2888	2897	2905	2914	0	2922	2935	2944	2953	2962	2971	2975	2984	2984	2989	2998	0	0	0	0	0	0	5092	5092	5092	5092	5092	5092	5092	5092	5079	5053	5027	4989	4951	4890	4818	4749	4659	4490	4410	4332	4276	4239	4203	4177	4159	4116	4099	4082	4065	4048	4032	4024	4024	4024	4032	4057	4082	4090	4150	4221	0	4285	4351	4400	4449	4500	4541	4584	4616	4637	4670	4704	4738	4795	4842	4902	4976	0	5040	5105	5145	5172	5172	5145	5027	4951	4866	4795	4715	4637	4500	4449	4390	4351	4323	4304	4276	4267	4258	4248	4248	4239	4230	4221	4194	4194	4194	4203	4230	0	4267	0	4390	4500	4681	0	4866	0	5185	5354	5503	5565	5596	5628	5644	5661	5661	5677	5677	5677	5677	5661	5628	5596	5581	5581	5581	5565	5581	5596	5628	5677	5693	5710	5726	5726	5726	5661	5644	5628	5612	5581	5549	5518	5488	5457	5442	5412	5398	5383	5368	5368	5368	5368	5368	5383	5383	5398	5398	5412	5412	5427	5427	5427	5412	5412	5398	5398	5398	5398	5412	5472	5549	5628	5726	0	5810	5915	6023	6097	6174	6212	6252	6252	6272	6292	6312	6312	6312	6312	6312	6292	6292	6292	6292	6292	6292	6292	6312	6332	6332	6352	6393	6393	6435	6456	6435	6456	6435	6414	6332	6312	6252	6232	6193	0	0	0	0	0	0	0	0	0	7132	7184	7210	7236	7210	7210	7184	7158	7132	7081	0	0	0	0	0	0	0	0	0	0	0	5710	5677	5661	5628	5581	5534	5488	5457	5412	5354	5254	5172	5040	4902	4616	4480	4390	4332	4332	4332	4332	4323	4332	4332	4351	4351	4351	4332	4323	4295	4285	4276	4267	4258	4239	4230	4221	4212	4212	4212	4203	4212	4212	4221	4230	4230	4239	4230	4212	4203	4177	4159	4133	4107	4090	4082	4065	4048	4048	4048	4040	4040	4040	4040
2748	2751	2748	2751	2751	2755	2755	2755	2759	2763	2767	2771	2771	2779	2782	2786	2794	2802	2810	2818	2830	2843	2851	2859	2867	2871	2880	2880	2884	2888	2888	2888	2880	2880	2876	2867	2859	2851	2843	2830	2822	2806	2786	2782	2775	2767	2767	2767	2767	2771	2775	2782	2786	2790	2794	2798	2806	2810	2818	2826	2834	2847	2855	2863	2871	2876	2884	2888	2892	2888	2880	2867	2851	2830	2810	2790	2748	2736	2721	2714	2706	2703	2699	2691	2688	2684	2684	2681	2684	2684	2688	2691	2699	2706	2717	2725	2732	2744	2751	2759	2767	2771	2782	2786	2790	2798	2802	2810	2814	2822	2826	2830	2843	2851	2867	2884	2901	2918	2935	2953	2971	0	2984	3002	3012	3021	3025	3030	3030	3030	3025	3021	3021	3016	3012	3007	3002	2998	2993	2989	2984	2980	2975	2971	2971	2966	2966	2966	2966	2966	2966	2966	2966	2966	2966	2966	2966	2966	2962	2962	2962	2957	2957	2953	2953	2953	2949	2944	2940	2940	2940	2944	2949	2957	2971	2980	2998	3012	3030	3039	3044	3049	3053	3058	3058	3058	3053	3053	3049	3039	3035	3025	3016	3007	2993	2984	2971	2962	2949	2940	2918	2909	2901	2892	2884	2876	2871	2863	2859	2855	2847	2843	2834	2834	2826	2826	2830	2834	2847	2851	2863	2871	2880	2892	2901	2901	2905	2901	2897	2892	2888	2884	2876	2859	2847	2838	2826	2818	2806	2794	2782	2775	2767	2759	2751	2748	2744	2744	2740	2736	2732	2729	2725	2725	2721	2717	2717	2717	2714	2717	2717	2717	2717	2717	2717	2717	2717	2721	2721	2721	2721	2725	2725	2725	2721	2721	2721	2721	2721	2721	2721	2721	2721	2717	2717	2717	2717	2721	2721	2725	2725	2729	2732	2740	2744	2751	2755	2763	2767	2775	2779	2782	2786	2790	2790	2790	2790	2786	2782	2779	2775	2771	2767	2763	2763	2763	2763	2763	2763	2767	2771	2775	2779	2782	2790	2802	2810	2818	2826	2838	2847	2851	2859	2863	2871	2876	2884	2888	2897	2905	2914	0	2922	2935	2944	2953	2962	2971	2980	2980	2984	2993	3002	0	0	0	0	0	0	5105	5105	5105	5105	5105	5105	5105	5105	5092	5079	5027	4976	4939	4866	4783	4704	4521	4429	4361	4304	4258	4221	4203	4185	4159	4124	4099	4082	4065	4048	4040	4024	4024	4024	4040	4065	4090	4107	4168	4239	0	4313	4371	4439	4500	4541	4573	4605	4616	4627	4637	4659	4670	4704	4738	4807	4854	4927	4989	0	5040	0	5040	5001	4927	4854	4772	4693	4627	4500	4439	4390	4351	4323	4285	4276	4248	4248	4239	4230	4221	4212	4212	4203	4177	4177	4177	4185	4221	0	4258	4323	4390	4500	4681	0	4890	5053	5199	5368	5503	5581	5596	5628	5661	5661	5677	5693	5693	5693	5677	5661	5628	5596	5596	5581	5565	5565	5565	5581	5596	5628	5661	5661	5612	5612	5612	5612	5596	5581	5565	5549	5518	5488	5472	5442	5427	5412	5398	5368	5368	5368	5368	5383	5383	5398	5412	5427	5442	5442	5457	5472	5488	5488	5472	5457	5442	5442	5427	5427	5457	5488	5565	5644	5743	0	5845	5933	6023	6116	6174	6212	6252	6272	6292	6312	6312	6332	6332	6332	6312	6312	6292	6272	6272	6272	6252	6272	6272	6292	6312	6332	6352	6393	6414	6435	6435	6435	6414	6414	6332	6312	6292	6272	6232	0	0	0	0	0	0	0	0	2097	2099	2099	2099	2099	2099	2099	7290	7263	7263	0	0	0	0	0	0	0	0	0	0	0	0	5628	5612	5596	5581	5549	5503	5472	5442	5398	5354	5254	5185	5053	4927	4627	4490	4400	4342	4332	4323	4332	4323	4323	4342	4351	4361	4361	4351	4342	4332	4323	4304	4295	4285	4276	4267	4258	4248	4248	4248	4248	4248	4258	4258	4267	4276	4276	4267	4248	4230	4212	4177	4159	4124	4107	4082	4065	4065	4048	4048	4048	4040	4040	4040
2755	2755	2751	2755	2751	2755	2759	2759	2763	2767	2771	2775	2779	2782	2786	2794	2798	2806	2814	2822	2834	2843	2851	2859	2867	2871	2876	2880	2884	2884	2884	2880	2871	2871	2859	2851	2843	2834	2818	2810	2798	2786	2779	2775	2767	2767	2771	2771	2775	2782	2782	2786	2790	2798	2798	2802	2806	2814	2822	2830	2834	2838	2847	2855	2859	2867	2871	2876	2880	2876	2871	2859	2843	2826	2806	2790	2771	2740	2729	2721	2717	2710	2706	2699	2691	2691	2688	2684	2684	2688	2688	2695	2699	2710	2714	2721	2732	2740	2751	2759	2767	2775	2786	2790	2794	2802	2810	2818	2822	2830	2834	2843	2851	2859	2871	2888	2905	2922	2935	2957	2971	0	2984	2998	3002	3012	3021	3025	3025	3025	3016	3012	3012	3002	2998	2989	2980	2975	2966	2962	2957	2953	2949	2944	2940	2940	2944	2944	2944	2949	2949	2949	2953	2949	2949	2949	2944	2944	2944	2940	2940	2944	2944	2940	2935	2935	2927	2922	2922	2922	2922	2931	2940	2953	2971	2989	3007	3021	3035	3049	3053	3058	3063	3063	3063	3063	3058	3053	3044	3035	3025	3016	3007	2993	2984	2971	2957	2949	2935	2918	2909	2901	2892	2888	2880	2876	2867	2859	2855	2847	2843	2834	2830	2826	2818	2818	2818	2822	2830	2838	2843	2855	2859	2867	2876	2880	2880	2876	2871	2867	2863	2851	2838	2830	2826	2818	2810	2798	2790	2782	2779	2771	2767	2763	2759	2759	2755	2755	2755	2751	2748	2744	2736	2732	2729	2725	2721	2721	2721	2717	2717	2717	2717	2717	2717	2721	2721	2721	2721	2717	2721	2721	2721	2717	2717	2717	2714	2714	2714	2714	2710	2710	2710	2714	2710	2710	2714	2714	2714	2717	2721	2725	2729	2732	2740	2744	2748	2751	2759	2763	2767	2771	2775	2771	2771	2775	2779	2779	2775	2771	2767	2767	2763	2763	2759	2759	2763	2763	2763	2767	2771	2775	2779	2786	2794	2802	2810	2818	2826	2838	2847	2851	2859	2863	2867	2871	2880	2888	2897	2901	0	2914	2922	2931	2940	2953	2957	2971	2975	2984	2984	2993	0	0	0	0	0	0	0	5118	5118	5118	5118	5118	5118	5118	5105	5105	5092	5027	4976	4927	4842	4760	4670	4480	4400	4342	4285	4248	4230	4203	4185	4168	4124	4099	4082	4073	4057	4040	4024	4032	4032	4040	4065	4090	4116	4177	4248	0	4323	4390	4459	4521	4562	4594	4605	4605	4605	4605	4605	4616	4627	4648	4693	4726	4783	4830	4866	4890	4902	4878	4854	0	0	0	4605	4480	4429	4390	4342	4304	4276	4248	4239	4230	4221	4212	4212	4203	4194	4194	4177	4168	4159	4159	4177	4203	0	4248	0	4371	4490	4670	0	4866	5027	5172	5325	5457	5549	5596	5628	5661	5677	5677	5693	5693	5693	5677	5661	5628	5596	5581	5565	5565	5549	5549	5549	5534	5549	5565	5565	5581	5565	5565	5565	5565	5549	5534	5518	5503	5472	5457	5442	5412	5398	5383	5368	5368	5383	5383	5383	5398	5412	5427	5442	5472	5488	5503	5518	5534	5534	5518	5503	5488	5472	5457	5457	5472	5518	5581	5661	0	5760	5862	5950	6041	6116	6174	6212	6232	6272	6292	6312	6332	6332	6332	6332	6312	6312	6292	6272	6252	6252	6232	6252	6252	6272	6272	6312	6332	6352	6393	6393	6414	6435	6414	6414	6352	6352	6332	6292	6272	0	0	0	0	0	0	0	0	2097	2099	2099	2099	2099	2099	2102	7371	7371	0	0	0	0	0	0	0	0	0	0	0	0	0	0	5565	5549	5534	5503	5472	5442	5427	5383	5339	5240	5172	5053	4914	4616	4470	4371	0	4323	4313	4313	4313	4323	4323	4342	4351	4361	4361	4361	4351	4342	4342	4332	4323	4313	4304	4295	4285	4285	4285	4285	4295	4295	4304	4313	4323	4323	4313	4285	4276	4239	4212	4177	4150	4124	4107	4082	4082	4073	4065	4057	4057	4048	4048
2763	2763	2763	2767	2767	2767	2767	2771	2775	2775	2779	2782	2786	2790	2794	2802	2806	2810	2818	2830	2838	2843	2851	2859	2867	2871	2876	2880	2880	2880	2876	2871	2863	2855	2847	2834	2826	2814	2802	2790	2775	2771	2767	2767	2767	2767	2775	2779	2782	2786	2790	2798	2798	2802	2802	2806	2810	2814	2818	2822	2830	2834	2838	2847	2851	2855	2859	2863	2863	2859	2855	2847	2834	2818	2802	2786	2775	2744	2736	2729	2721	2714	2710	2703	2699	2695	2691	2688	2688	2684	2688	2691	2691	2699	2706	2714	2725	2732	2744	2751	2759	2767	2779	2786	2790	2802	2810	2818	2826	2834	2847	2851	2859	2867	2880	2892	2905	2918	2935	2949	2962	2975	2980	2989	2998	3002	3012	3016	3012	3007	3002	2998	2993	2984	2975	2971	2957	2949	2944	2940	2931	2922	2918	2914	2914	2909	2909	2914	2914	2914	2918	2918	2918	2918	2918	2914	2918	2918	2918	2918	2918	2918	2918	2918	2918	2914	2914	2914	2914	2918	2918	2927	2940	2957	2971	2989	3012	3030	0	3049	3053	3063	3068	3068	3068	3068	3058	3053	3044	3030	3021	3007	2993	2984	2971	2957	2949	2935	2927	2905	2901	2892	2884	2880	2871	2867	2859	2855	2847	2843	2834	2830	2822	2818	2814	2810	2810	2810	2818	2822	2826	2834	2843	2847	2851	2855	2855	2855	2851	2838	2830	2826	2818	2810	2802	2798	2790	2782	2779	2771	2767	2767	2767	2767	2767	2767	2767	2771	2767	2767	2763	2759	2755	2744	2740	2732	2732	2725	2725	2721	2721	2721	2717	2717	2717	2717	2717	2717	2717	2717	2717	2714	2714	2714	2710	2710	2706	2706	2706	2706	2706	2706	2706	2706	2710	2710	2710	2710	2714	2714	2717	2721	2725	2729	2732	2740	2744	2748	2751	2748	2751	2755	2763	2767	2767	2771	2771	2771	2767	2767	2763	2759	2759	2755	2755	2755	2759	2763	2763	2767	2771	2775	2782	2786	2794	2806	2814	2822	2830	2838	2847	2851	2859	2863	2867	2871	2880	2884	2892	2901	2909	0	2918	2931	2940	2949	2957	2971	2975	2980	2984	2993	0	0	0	0	0	0	5131	5131	5131	5131	5131	5131	5131	5131	5118	5105	5092	5040	4976	4927	4830	4738	4637	4449	4371	4323	4276	4248	4230	4203	4185	4168	4150	4107	4090	4073	4057	4040	4032	4032	4032	4040	4065	4090	4107	4168	4230	0	4304	4371	4420	4470	4510	4531	4541	4541	4541	4541	4531	4531	4541	4552	4573	4605	4637	4681	4704	4715	4726	4715	0	0	4605	4510	4449	4410	4371	4342	4304	4267	4248	4230	4203	4194	4194	4194	4194	4185	4177	4168	4159	4150	4142	4142	4159	4185	4230	0	4276	4351	4449	4605	4795	0	4951	5105	5254	5412	5534	5612	5628	5661	5677	5693	5693	5710	5710	5693	5677	5644	5596	5581	5549	5534	5518	5503	5503	5503	5503	5534	5549	5549	5549	5534	5534	5534	5518	5518	5503	5488	5457	5442	5427	5398	5383	5368	5368	5368	5368	5383	5398	5398	5427	5442	5472	5488	5518	5518	5534	5565	5565	5549	5534	5518	5503	5488	5488	5503	5534	5612	5693	0	5776	5862	5968	6041	6116	6193	6232	6252	6272	6292	6312	6312	6332	6332	6332	6312	6312	6292	6272	6252	6232	6232	6212	6232	6252	6272	6312	6312	6352	6393	6414	6414	6435	6414	6393	6393	6352	6332	6312	0	0	0	0	0	0	0	0	0	2099	2099	2102	2102	2102	2104	2104	7483	0	0	0	0	0	0	0	0	0	0	0	0	0	0	0	0	5488	5472	5472	5457	5427	5398	5368	5311	5282	0	0	0	0	4449	0	0	4304	4295	4304	4295	4304	4313	4332	4351	4361	4361	4361	4361	4361	4361	4351	4351	4351	4332	4323	4323	4323	4323	4323	4332	4342	4351	4361	4371	4371	4351	4323	4304	4267	4239	4203	4177	4142	4124	4107	4099	4099	4090	4082	4073	4073	4065
2771	2771	2775	2775	2779	2779	2782	2782	2786	2790	2790	2798	2798	2802	2806	2810	2814	2818	2830	2834	2843	2851	2855	2863	2871	2876	2876	2880	2880	2876	2876	2863	2855	2847	2834	2822	2810	2798	2786	2771	2767	2763	2763	2763	2767	2771	2779	2782	2790	2794	2798	2802	2806	2806	2806	2806	2810	2810	2814	2818	2822	2826	2830	2834	2838	2843	2847	2851	2851	2847	2843	2834	2822	2810	2798	2786	2771	2744	2736	2729	2725	2717	2714	2706	2703	2695	2691	2688	2684	2684	2684	2684	2684	2688	2695	2703	2710	2717	2729	2736	2744	2755	2767	2771	2779	2786	2798	2810	2822	2830	2838	2847	2859	2867	2880	2884	2897	2909	2927	2940	2953	2966	2980	2984	0	2993	2998	2998	2998	2989	2984	2980	2971	2962	2953	2944	2931	2927	2914	2909	2901	2892	2884	2876	2876	2876	2876	2876	2876	2880	2880	2880	2884	2880	2880	2880	2884	2884	2884	2884	2884	2884	2888	2892	2892	2892	2897	2901	2901	2909	2918	2931	2944	2962	2980	2998	3021	0	3039	3058	3063	3072	3072	3072	3072	3068	3058	3049	3039	3030	3016	3002	2989	2980	2966	2949	2935	2927	2905	2897	2888	2880	2876	2867	2863	2859	2851	2847	2843	2834	2830	2826	2818	2810	2806	2802	2802	2802	2806	2810	2814	2818	2826	2830	2834	2834	2834	2826	2822	2814	2810	2802	2798	2790	2782	2779	2775	2767	2767	2763	2763	2763	2767	2767	2771	2775	2779	2779	2782	2779	2779	2771	2767	2763	2755	2744	2740	2736	2732	2729	2725	2725	2725	2721	2721	2721	2717	2717	2717	2714	2714	2710	2710	2706	2703	2703	2703	2703	2703	2699	2699	2699	2703	2703	2703	2703	2706	2706	2706	2710	2714	2717	2721	2725	2729	2732	2736	2740	2740	2748	2751	2755	2759	2763	2767	2771	2771	2771	2767	2763	2759	2755	2751	2751	2755	2755	2755	2759	2763	2767	2771	2775	2782	2786	2798	2806	2814	2822	2830	2838	2847	2851	2855	2863	2867	2871	2880	2884	2892	2901	2909	0	2918	2927	2940	2949	2957	2966	2975	2984	2984	2993	0	0	0	0	0	0	5145	5145	5145	5145	5145	5145	5145	5131	5131	5118	5092	5027	4989	4939	4830	4726	4627	4429	4351	4304	4258	4239	4221	4212	4194	4177	4150	4116	4090	4082	4065	4040	4032	4032	4032	4040	4057	4082	4107	4159	4212	0	4267	4323	4380	4420	4449	4470	4490	4490	4480	4480	4480	4470	4470	4480	4490	4510	4541	4573	4584	4594	0	0	4562	4531	4459	4410	4380	4351	4313	4295	4267	4239	4221	4194	4185	4177	4177	4159	4159	4159	4150	4150	4142	4133	4133	4133	4142	4159	4194	4230	0	4285	4371	4500	0	0	4854	5027	5199	5368	5503	5612	5644	0	5677	5693	5710	5726	5726	5710	5693	5661	5612	5596	5565	5549	5518	5503	5503	5503	5503	5518	5534	5534	5518	5518	5503	5503	5503	5488	5472	5472	5442	5427	5412	5383	5383	5368	5354	5354	5368	5368	5383	5398	5427	5442	5472	5488	5518	0	5534	5549	5565	5581	5565	5549	5518	5518	5503	5518	5565	5628	5710	0	5793	5880	5968	6060	6116	6193	6232	6252	6272	6292	6312	6332	6332	6332	6332	6312	6312	6272	6272	6252	6232	6212	6193	6193	6232	6232	6272	6312	6332	6373	6393	6414	6414	6393	6393	6393	6393	6352	6352	0	0	0	0	0	0	0	0	0	2097	2099	2102	2102	2104	2104	2106	7569	0	0	0	0	0	0	0	0	0	0	0	0	0	0	0	0	0	5457	5442	5442	5398	5383	5339	5311	5226	5145	5014	4914	4795	4439	0	0	0	4285	4285	4285	4295	4295	4313	4332	4351	4361	4361	4371	4371	4371	4371	4371	4371	4371	4361	4351	4351	4361	4371	4371	4380	4390	4410	0	4420	4400	4371	4332	4295	4258	4221	4194	4159	4142	4124	4116	4116	4107	4107	4107	4116	4107
2779	2782	2786	2790	2794	2794	2794	2798	2802	2802	2802	2810	2810	2814	2818	2822	2826	2830	2838	2843	2847	2855	2863	2867	2876	2876	2880	2880	2880	2876	2871	2859	2847	2834	2818	2806	2794	2786	2767	2763	2763	2759	2763	2767	2771	2775	2782	2790	2798	2802	2806	2810	2810	2810	2810	2810	2806	2806	2810	2810	2814	2814	2818	2822	2826	2830	2830	2834	2838	2834	2830	2822	2814	2802	2786	2779	2751	2744	2736	2729	2721	2717	2714	2710	2703	2695	2691	2688	2688	2684	2681	2681	2681	2681	2684	2688	2695	2703	2714	2721	2729	2736	2748	2755	2763	2775	2782	2790	2802	2814	2826	2810	2826	2838	2855	2867	2884	2901	2914	2927	2944	2953	2966	2975	2975	2984	2984	2984	2980	2971	2966	2962	2949	2940	2927	2918	2905	2897	2884	2880	2867	2851	2843	2838	2838	2838	2838	2838	2838	2838	2838	2838	2838	2843	2843	2843	2843	2847	2847	2847	2851	2851	2855	2859	2863	2867	2871	2880	2888	2901	2914	2931	2944	2966	2984	3002	3030	0	3049	3063	3072	3072	3077	3072	3072	3068	3058	3049	3035	3021	3007	2993	2980	2966	2957	2940	2927	2901	2892	2880	2876	2867	2863	2859	2851	2851	2847	2843	2834	2830	2822	2818	2814	2806	2802	2798	2794	2794	2798	2802	2802	2806	2810	2814	2818	2814	2814	2810	2802	2798	2790	2786	2779	2775	2767	2763	2759	2755	2755	2751	2755	2755	2763	2771	2775	2779	2782	2790	2790	2790	2790	2786	2779	2775	2767	2763	2748	2744	2740	2736	2732	2732	2729	2729	2729	2725	2721	2717	2714	2714	2710	2706	2703	2699	2699	2699	2695	2695	2695	2695	2695	2695	2695	2699	2699	2703	2703	2703	2706	2710	2710	2714	2717	2721	2725	2729	2732	2736	2740	2748	2751	2755	2763	2767	2767	2771	2771	2775	2767	2763	2759	2755	2751	2751	2751	2751	2755	2759	2759	2767	2771	2775	2782	2790	2798	2806	2814	2822	2830	2838	2847	2851	2855	2859	2867	2871	2880	2884	2892	2897	2909	2914	0	2927	2935	2949	2957	2966	2971	2980	2984	2993	0	0	0	0	0	0	5158	5158	5158	5158	5158	5158	5158	5158	5131	5118	5105	5040	4989	4951	4830	4726	4616	4420	4332	4295	4258	4239	4230	4212	4194	4185	4159	4124	4099	4082	4065	4048	4032	4032	4032	4040	4057	4082	4090	4142	4185	4230	0	4285	4332	4371	4400	4429	4449	4449	4439	4429	4420	4420	4410	4410	4429	4439	4459	4480	4480	4480	0	4449	4429	4400	4371	4351	4323	4295	4276	4258	4239	4212	4194	4185	4168	4159	4150	4142	4133	4142	4133	4124	4124	4116	4116	4116	4124	4133	4159	4177	4221	0	4285	4400	4573	0	0	0	5105	5311	5457	5596	0	5644	5677	5693	5710	5743	5743	5726	5710	5693	5661	5612	5612	5581	5549	5534	5518	5503	5518	5534	5534	5518	5518	5503	5503	5488	5488	5472	5457	5442	5427	5412	5398	5383	5368	5354	5354	5354	5354	5368	5368	5383	5412	5442	5457	5488	5503	0	5534	5549	5581	5596	5581	5565	5549	5549	5534	5534	5565	5644	5710	0	5810	5897	5987	6060	6135	6174	6232	6252	6272	6292	6312	6312	6332	6332	6312	6312	6292	6272	6252	6232	6193	6174	6174	6174	6193	6193	6232	6272	6292	6332	6373	6373	6393	6393	6393	6393	6393	6373	0	0	0	0	0	0	0	0	0	2099	2099	2099	2102	2104	2104	2106	2106	0	0	0	0	0	0	0	0	0	0	0	0	0	0	0	0	0	0	0	5427	5427	5398	5368	5339	5311	5254	5185	5066	0	4648	4480	0	0	4295	4276	4276	4276	4285	4295	4313	4323	4342	4361	4371	4380	4380	4390	4390	4390	4390	4390	4380	4380	4371	4380	4390	4400	4400	4420	4429	4449	4449	4429	4390	4351	4313	4276	4230	4194	4168	4150	4142	4133	4150	4150	4142	4142	4133	4124
2786	2790	2794	2798	2802	2806	2806	2810	2814	2814	2818	2822	2822	2826	2830	2834	2838	2838	2847	2851	2855	2863	2867	2876	2876	2884	2884	2884	2880	2871	2863	2851	2838	2826	2810	2794	2786	2775	2763	2759	2759	2759	2763	2767	2775	2782	2790	2794	2802	2806	2810	2814	2814	2810	2810	2806	2806	2802	2802	2802	2806	2806	2810	2810	2814	2814	2818	2822	2822	2818	2814	2810	2802	2790	2779	2767	2751	2740	2732	2729	2721	2717	2710	2710	2703	2699	2691	2688	2684	2681	2681	2677	2673	2673	2673	2677	2684	2688	2699	2703	2710	2717	2729	2736	2744	2751	2759	2740	2751	2763	2771	2782	2798	2814	2830	2847	2863	2880	2897	2909	2927	2940	2949	2953	2962	2966	2966	2962	2962	2953	2944	2935	2931	2918	2905	2892	2880	2867	2851	2834	2826	2818	2806	2802	2802	2802	2802	2802	2798	2798	2798	2802	2802	2798	2806	2806	2810	2814	2810	2810	2814	2814	2818	2826	2830	2838	2847	2855	2871	2888	2905	2927	2944	2966	2984	3007	3025	0	3049	3058	3068	3072	3072	3072	3063	3058	3049	3039	3025	3012	2998	2984	2966	2957	2940	2922	2892	2884	2876	2863	2859	2851	2847	2847	2843	2838	2838	2834	2826	2822	2818	2814	2806	2802	2798	2794	2790	2790	2794	2794	2798	2802	2802	2806	2806	2806	2802	2798	2790	2786	2779	2775	2767	2763	2755	2751	2751	2748	2748	2748	2751	2755	2763	2771	2779	2782	2790	2794	2798	2798	2798	2794	2790	2782	2775	2771	2755	2751	2744	2744	2740	2736	2732	2732	2729	2725	2721	2721	2714	2710	2706	2703	2699	2691	2691	2688	2688	2688	2691	2691	2688	2691	2695	2695	2699	2699	2699	2703	2706	2710	2714	2717	2717	2721	2725	2729	2732	2736	2740	2744	2751	2759	2763	2771	2771	2775	2775	2775	2771	2763	2759	2751	2751	2751	2751	2751	2755	2755	2759	2763	2771	2775	2782	2790	2798	2806	2814	2822	2830	2838	2847	2851	2855	2859	2863	2871	2876	2884	2888	2897	2905	2914	0	2922	2935	2944	2957	2966	2971	2975	2984	2989	0	0	0	0	0	0	5158	5158	5172	5158	5172	5172	5158	5158	5145	5131	5105	5079	5001	4964	4842	4726	4627	4420	4332	4295	4258	4239	4230	4221	4203	4185	4168	4124	4107	4082	4065	4048	4032	4032	4024	4032	4048	4073	4082	4124	4168	4203	4248	0	4285	4323	4361	4380	4400	4410	4410	4400	4390	4371	4371	4380	4380	4390	4400	4400	4390	4380	4371	4361	4342	4323	4304	4285	4276	4267	4258	4248	4221	4212	4194	4177	4159	4142	4133	4124	4124	4116	4116	4116	4107	4099	4099	4090	4099	4107	4116	4133	4159	4203	0	4295	4439	4627	0	0	5027	5240	5412	5581	0	5661	5693	5710	5726	5743	5776	5760	5743	5710	5677	5644	5628	5596	5581	5565	5549	5534	5549	5549	5534	5534	5518	5518	5503	5488	5472	5472	5457	5442	5427	5398	5383	5368	5339	5339	5339	5339	5339	5354	5368	5383	5398	5427	5442	5472	5503	5518	0	5549	5565	5596	5596	5581	5549	5549	5549	5549	5581	5644	0	5726	5828	5897	6005	6060	6116	6193	6232	6252	6272	6272	6312	6312	6332	6312	6312	6312	6292	6252	6232	6212	6174	6154	6135	6154	6154	6174	6193	6232	6272	6292	6332	6352	6373	6373	6373	6373	6373	0	0	0	0	0	0	0	0	0	2099	2099	2099	2099	2102	2102	2104	2104	2104	2106	2108	0	0	0	0	0	0	0	0	0	0	0	0	0	0	0	0	0	0	0	0	5368	5354	5325	5296	5226	0	0	0	0	0	0	4295	4267	4267	4258	4267	4276	4295	4313	4332	4351	4371	4380	4390	4390	4400	4410	4410	4410	4400	4390	4390	4390	4400	4410	4420	4429	4449	4459	4470	4470	4400	4361	4313	4276	4230	4203	4177	4159	4159	4159	4159	4159	4159	4150	4142	4133
2790	2794	2798	2802	2806	2814	2818	2818	2822	2826	2826	2830	2834	2838	2838	2843	2847	2847	2855	2859	2863	2867	2876	2876	2880	2884	2884	2880	2876	2867	2859	2843	2826	2814	2798	2782	2775	2759	2755	2755	2759	2759	2763	2771	2775	2782	2790	2798	2802	2810	2810	2810	2810	2806	2806	2802	2802	2798	2794	2798	2794	2798	2798	2802	2802	2806	2806	2806	2806	2806	2798	2794	2786	2779	2767	2759	2744	2736	2729	2721	2717	2714	2710	2706	2703	2695	2691	2688	2681	2677	2677	2670	2670	2666	2666	2666	2670	2670	2673	2684	2688	2699	2706	2684	2691	2699	2706	2714	2721	2729	2740	2751	2767	2786	2802	2822	2843	2859	2876	2888	2901	2914	2918	2927	2931	2935	2935	2935	2931	2927	2918	2914	2905	2892	2880	2867	2859	2830	2818	2806	2798	2790	2782	2779	2775	2771	2767	2771	2767	2767	2763	2763	2767	2763	2767	2771	2771	2775	2771	2775	2779	2782	2782	2790	2794	2806	2814	2830	2847	2863	2888	2909	2931	2953	2975	2998	3016	0	3039	3049	3053	3063	3058	3058	3053	3044	3030	3021	3007	2998	2980	2962	2949	2931	2918	2884	2871	2859	2851	2843	2843	2834	2834	2830	2830	2826	2826	2822	2818	2814	2810	2810	2802	2798	2794	2790	2790	2786	2790	2790	2794	2794	2794	2794	2794	2794	2794	2786	2782	2779	2771	2767	2759	2755	2748	2744	2744	2744	2744	2744	2748	2755	2759	2767	2779	2782	2790	2794	2798	2802	2802	2798	2790	2786	2779	2775	2767	2755	2751	2748	2744	2740	2740	2736	2732	2729	2725	2721	2714	2710	2706	2699	2695	2688	2688	2684	2684	2684	2688	2688	2688	2688	2691	2695	2699	2703	2703	2706	2710	2714	2714	2717	2721	2721	2725	2729	2732	2736	2740	2744	2751	2755	2763	2771	2775	2779	2779	2779	2771	2763	2759	2755	2751	2751	2751	2751	2755	2755	2759	2763	2771	2775	2782	2786	2794	2802	2810	2818	2826	2834	2843	2847	2851	2859	2863	2867	2871	2880	2888	2897	2905	0	2914	2922	2931	2944	2953	2966	2971	2975	2980	2989	0	0	0	0	0	0	5158	5158	5172	5172	5172	5172	5172	5158	5145	5131	5118	5092	5001	4976	4854	0	4637	4420	4332	4295	4258	4248	4230	4221	4212	4194	4168	4124	4107	4090	4065	4048	4032	4024	4024	4024	4040	4057	4073	4099	4142	4177	4212	4258	4285	0	4323	4342	4371	4380	4380	4380	4361	4351	4342	4342	4342	4332	4342	4332	4332	4323	4313	4313	4295	4285	4276	4267	4267	4267	4248	4239	4221	4203	4194	4177	4159	4142	4124	4116	4116	4107	4107	4099	4099	4090	4090	4082	4082	4090	4099	4107	4124	4142	4221	0	4332	4510	0	0	4927	5145	5311	5534	0	5661	5693	5710	5743	5760	5776	5776	5776	5726	5693	5677	5661	5628	5612	5596	5581	5581	5581	5581	5581	5565	5549	5534	5518	5503	5488	5472	5457	5442	5427	5398	5368	5354	5325	5325	5311	5311	5325	5339	5339	5354	5383	5398	5427	5457	5457	5488	5518	5549	0	5581	5596	5581	0	0	0	0	0	0	0	0	0	0	0	0	0	0	0	0	0	6292	6292	6292	6312	6312	6312	6292	6272	6252	0	0	0	0	0	0	0	0	0	0	0	0	0	0	0	0	0	0	0	0	0	0	0	0	0	0	0	2099	2102	2099	2099	2099	2102	2102	2102	2104	2104	2104	2104	0	0	0	0	0	0	0	0	0	0	0	0	0	0	0	0	0	0	0	0	5383	5368	5339	5325	0	0	0	0	0	0	0	4276	4258	4258	4258	4267	4276	4295	4313	4332	4351	4371	4380	4390	4400	4410	4420	4420	4420	4410	4400	4400	4400	4410	4420	4429	4429	4449	4459	4480	4459	4390	4342	4304	4267	4221	4185	4168	4159	4159	4159	4168	4159	4159	4150	4142	4133
2794	2798	2802	2806	2814	2818	2822	2822	2826	2830	2834	2838	2843	2843	2847	2851	2855	2859	2863	2867	2871	2876	2880	2880	2884	2888	2884	2880	2871	2859	2847	2830	2818	2802	2786	2775	2759	2755	2751	2751	2755	2755	2763	2771	2775	2782	2790	2794	2802	2806	2806	2806	2806	2802	2802	2798	2794	2790	2790	2786	2786	2786	2786	2786	2790	2790	2794	2790	2794	2790	2786	2782	2775	2767	2759	2740	2732	2729	2721	2717	2714	2710	2706	2703	2699	2695	2691	2684	2681	2677	2673	2670	2662	2659	2659	2655	2652	2655	2652	2652	2655	2659	2662	2666	2673	2677	2681	2691	2695	0	2706	2717	2732	2748	2763	2782	2802	2822	2843	2855	2867	2880	2888	2897	2901	2905	2905	2905	2905	2897	2892	2884	2876	2867	2859	2847	2818	2806	2794	2786	2775	2767	2763	2755	2751	2748	2744	2744	2740	2736	2732	2732	2732	2732	2732	2736	2736	2736	2736	2740	2744	2748	2748	2755	2763	2775	2786	2802	2822	2843	2867	2892	2918	2940	2962	2984	3007	3025	3035	3044	3044	3044	3039	3039	3025	3021	3007	2993	2980	2962	2949	2931	2914	2901	2871	2859	2851	2838	2834	2826	2826	2818	2818	2818	2818	2814	2818	2814	2810	2806	2806	2802	2798	2794	2794	2790	2786	2786	2786	2786	2786	2790	2790	2790	2790	2790	2790	2782	2779	2775	2767	2763	2759	2751	2744	2744	2740	2740	2740	2744	2748	2751	2759	2767	2775	2782	2790	2794	2798	2802	2802	2798	2794	2786	2782	2775	2767	2755	2755	2748	2748	2744	2744	2740	2736	2732	2725	2721	2714	2710	2703	2699	2695	2691	2684	2684	2684	2684	2684	2684	2684	2688	2691	2699	2703	2706	2706	2710	2710	2714	2717	2717	2721	2725	2725	2729	2732	2736	2740	2744	2748	2759	2767	2771	2775	2779	2779	2779	2771	2763	2759	2755	2751	2751	2751	2751	2751	2755	2759	2763	2767	2771	2779	2782	2790	2798	2806	2814	2818	2826	2830	2838	2843	2847	2855	2859	2867	2876	2880	2888	2901	2909	0	2922	2931	2944	2953	2962	2971	2975	2980	2989	0	0	0	0	0	0	5172	5172	5172	5172	5172	5185	5172	5158	5158	5131	5118	5092	5027	4989	4878	0	0	4429	4342	4295	4267	4248	4239	4230	4212	4194	4177	4159	4107	4090	4065	4048	4032	4024	4024	4024	4032	4040	4057	4082	4116	4150	4185	4221	4248	4276	0	4304	4332	4351	4351	4361	4342	4332	4323	4313	4313	4304	4295	4285	4285	4276	4276	4285	4276	4258	4267	4258	4258	4258	4248	4239	4230	4212	4194	4185	4168	4150	4116	4107	4099	4099	4099	4090	4090	4082	4082	4082	4082	4082	4082	4090	4107	4124	4168	0	4276	4449	4584	0	0	5079	5268	5518	0	5661	5693	5710	5743	5760	5776	5776	5776	5760	5726	5710	5693	5661	5661	5644	5628	5628	5628	5628	5612	5596	5581	5565	5549	5534	5518	5503	5472	5457	5427	5398	5368	5354	5311	5296	5296	5296	5311	5325	5325	5325	5354	5368	5398	5412	5427	5442	5488	5518	0	5565	5565	0	0	0	0	0	0	0	0	0	0	0	0	0	0	1838	1838	1838	1838	1822	0	0	0	1811	1807	0	1809	1807	1811	0	0	0	0	0	0	0	0	0	0	0	0	0	0	0	0	0	0	0	0	0	0	0	0	0	0	2097	2099	2099	2099	2097	2102	2099	2102	2102	2104	2104	0	0	0	0	0	0	0	0	0	0	0	0	0	0	0	0	0	0	0	0	0	0	5368	5339	5325	5254	0	0	4976	4681	0	0	4295	4276	4267	4276	4276	4285	4295	4313	4342	4361	4371	4390	4390	4410	4410	4420	4429	4420	4420	4410	4410	4410	4410	4420	4429	4429	4429	4449	4449	4410	4361	4313	4267	4239	4203	4177	4159	4142	4150	4159	4159	4150	4150	4142	4133	4124
2794	2802	2806	2810	2814	2818	2822	2826	2826	2830	2834	2843	2843	2847	2851	2855	2863	2863	2867	2867	2871	2876	2876	2880	2880	2880	2876	2867	2855	2847	2830	2818	2802	2790	2779	2767	2755	2751	2748	2751	2755	2759	2763	2771	2775	2782	2786	2790	2798	2798	2802	2802	2802	2798	2794	2790	2790	2786	2782	2779	2779	2775	2775	2779	2779	2779	2779	2779	2779	2775	2771	2767	2759	2751	2740	2732	2729	2721	2717	2714	2710	2706	2706	2703	2699	2695	2691	2684	2681	2673	2673	2666	2662	2655	2652	2645	2645	2641	2641	2641	2641	2645	2645	2645	2645	2648	2652	2659	2666	2673	2688	2699	2714	0	2729	2744	2759	2775	2794	2806	2818	2830	2847	2863	2871	2876	2880	2876	2876	2871	2867	2859	2851	2843	2830	2810	2798	2782	2775	2763	2755	2748	2744	2736	2729	2729	2721	2717	2717	2714	2710	2706	2706	2710	2706	2706	2710	2710	2710	2710	2717	2717	2729	2732	2748	0	2759	2779	2798	2818	2843	2876	2901	2922	2949	2971	2989	3012	3021	3025	3025	3021	3021	3012	3002	2989	2975	2957	2940	2927	2914	2897	2871	2859	2851	2838	2830	2822	2814	2810	2810	2806	2806	2806	2806	2806	2806	2806	2802	2802	2798	2798	2794	2790	2790	2786	2786	2782	2782	2786	2786	2786	2786	2786	2786	2786	2786	2782	2782	2775	2767	2763	2755	2751	2748	2744	2740	2740	2744	2744	2748	2751	2759	2767	2775	2779	2786	2790	2794	2798	2798	2794	2790	2786	2779	2775	2771	2755	2751	2751	2748	2744	2744	2740	2736	2732	2725	2721	2714	2706	2703	2699	2695	2691	2688	2688	2684	2684	2684	2691	2691	2695	2699	2703	2706	2710	2710	2714	2714	2717	2717	2721	2721	2721	2725	2729	2729	2732	2736	2740	2748	2755	2763	2771	2775	2779	2779	2779	2775	2763	2755	2751	2748	2748	2748	2744	2748	2748	2751	2755	2755	2763	2767	2775	2782	2790	2798	2806	2810	2818	2826	2830	2838	2843	2851	2855	2863	2871	2880	2888	2897	2909	0	2918	2931	2940	2949	2962	2971	2975	2980	2989	0	0	0	0	0	0	5172	5172	5172	5185	5185	5185	5185	5158	5158	5145	5118	5105	5040	5014	4902	4783	4659	4449	4361	4313	4276	4258	4239	4230	4221	4203	4177	4159	4116	4090	4065	4048	4032	4024	4015	4015	4024	4032	4048	4065	4099	4124	4150	4185	4212	4239	4267	4295	0	4323	4332	4332	4332	4323	4313	4304	4304	4295	4285	4267	4267	4248	4258	4258	4258	4248	4248	4248	4248	4248	4258	4248	4239	4221	4203	4185	4177	4150	4116	4107	4099	4090	4090	4090	4082	4082	4073	4073	4073	4073	4082	4090	4099	4107	4142	4185	0	4361	4552	0	0	0	5226	5503	0	5677	5693	5710	5743	5760	5776	5793	5793	5760	5760	5726	5726	5710	5693	5693	5677	5677	5677	5677	5661	5644	5628	5612	5581	5565	5534	5518	5488	5457	5427	5398	5368	5311	5296	5282	5282	5282	5282	5296	5296	5296	5325	5325	5354	5354	5383	5398	5427	5457	5503	5534	0	0	0	0	0	0	0	0	0	0	0	0	1851	1851	1848	1848	1848	1850	1846	1841	1838	1838	1836	1836	1836	1836	1836	1834	1834	1836	1831	0	0	0	0	0	0	0	0	0	0	0	0	0	0	0	0	0	0	2080	2084	2086	2091	0	0	2097	2099	2099	2099	2099	2099	2099	2102	2102	2102	2106	2108	0	0	0	0	0	0	0	0	0	0	0	0	0	0	0	0	0	0	0	0	0	0	0	5354	5354	5199	5053	4627	4470	4390	0	4323	4295	4295	4295	4295	4304	4323	4332	4351	4371	4390	4390	4410	4410	4420	4429	4429	4420	4420	4410	4400	4400	4400	4400	4410	4410	4420	4429	4429	4371	4323	4267	4230	4212	4177	4150	4133	4124	4133	4133	4142	4142	4133	4124	4116	4107
2794	2798	2802	2806	2814	2818	2822	2822	2826	2830	2834	2838	2843	2847	2851	2855	2859	2859	2863	2863	2867	2867	2867	2871	2871	2867	2863	2851	2843	2830	2818	2802	2794	2779	2771	2763	2751	2751	2751	2755	2755	2759	2767	2771	2775	2779	2786	2786	2794	2794	2798	2798	2794	2790	2790	2786	2782	2779	2775	2771	2771	2767	2767	2767	2767	2767	2767	2767	2763	2763	2759	2755	2748	2736	2729	2725	2721	2717	2714	2710	2706	2706	2703	2699	2699	2695	2691	2684	2681	2677	2673	2666	2659	2655	2648	2648	2641	2638	2638	2634	2634	2634	2634	2631	2634	2638	2641	2645	2648	2659	2666	2677	2688	2699	2714	2729	0	2744	2748	2767	2771	2790	2810	2826	2838	2847	2851	2851	2855	2855	2847	2838	2830	2822	2806	2794	2782	2767	2755	2748	2740	2732	2725	2721	2714	2710	2706	2703	2695	2684	2684	2684	2684	2684	2684	2688	2688	2688	2688	2691	2691	2699	2703	2714	2721	2736	2751	0	2771	2790	2818	2847	2871	2897	2918	2944	2966	2989	2998	3002	2998	2993	2984	2975	2962	2949	2935	2922	2905	2892	2867	2859	2851	2838	2826	2818	2814	2806	2802	2794	2798	2794	2794	2794	2794	2794	2798	2798	2794	2794	2794	2794	2790	2786	2786	2786	2782	2782	2786	2786	2786	2786	2786	2786	2790	2790	2790	2786	2782	2779	2771	2767	2759	2755	2748	2744	2744	2740	2744	2748	2748	2751	2759	2763	2771	2779	2782	2786	2790	2794	2794	2790	2786	2782	2779	2771	2767	2755	2751	2748	2744	2744	2740	2736	2736	2732	2725	2717	2714	2710	2703	2699	2695	2691	2691	2695	2695	2695	2695	2699	2699	2699	2706	2710	2710	2714	2714	2714	2717	2721	2721	2721	2725	2725	2725	2729	2732	2732	2736	2744	2748	2755	2759	2767	2771	2775	2775	2775	2767	2759	2755	2748	2744	2744	2740	2740	2740	2740	2744	2748	2751	2755	2763	2767	2775	2786	2794	2802	2806	2810	2818	2822	2830	2834	2843	2847	2855	2863	2871	2880	2892	2905	0	2918	2927	2940	2949	2957	2966	2975	2980	0	0	0	0	0	0	0	5185	5185	5185	5185	5185	5185	5185	5158	5158	5145	5118	5105	5053	5027	4914	4807	4693	4470	4380	4323	4295	4267	4248	4230	4221	4212	4185	4168	4116	4099	4073	4048	4032	4024	4015	4015	4015	4024	4032	4048	4065	4099	4124	4150	4177	4212	4230	4267	4295	4313	4332	4332	4332	4323	4313	4304	4295	4285	4276	4258	4248	4239	4239	4239	4230	4239	4239	4239	4248	4258	4267	4258	4248	4230	4212	4194	4185	4159	4142	4107	4099	4099	4090	4082	4082	4073	4073	4073	4073	4073	4082	4082	4090	4099	4116	4159	0	4332	4521	0	0	0	5213	5488	0	5693	5693	5710	5743	5776	5793	5810	5810	5810	5776	5760	5760	5743	5743	5743	5743	5743	5743	5726	5726	5710	5677	5661	5628	5596	5581	5549	5518	5472	5427	5383	5354	5296	5282	5268	5254	5254	5268	5268	5268	5268	5282	5282	5296	5311	5325	5339	5354	5383	5427	0	0	0	0	0	0	0	0	0	0	0	1850	1851	1850	1850	1850	1850	1850	1850	1850	1845	1841	1841	1839	1839	1836	1836	1834	1833	1833	1833	1826	1826	1822	1824	0	0	0	0	0	0	0	0	0	0	0	0	2073	2075	2082	2084	2084	2088	2091	2093	2097	2099	2099	2099	2099	2099	2099	2099	2102	2102	2104	2108	2111	0	0	0	0	0	0	0	0	0	0	0	0	0	0	0	0	0	0	0	0	0	0	0	0	0	5240	5040	4594	4459	4400	0	4342	4323	4332	4323	4332	4342	4351	4371	4380	4390	4410	4410	4420	4429	4429	4429	4429	4429	4410	4400	4390	4390	4390	4380	4380	4380	0	4390	4371	4323	4276	4230	4203	4177	4150	4124	4116	4107	4107	4116	4124	4116	4116	4107	4099	4090
2790	2794	2798	2802	2810	2814	2814	2818	2822	2826	2826	2830	2834	2838	2843	2843	2847	2847	2851	2847	2851	2851	2851	2851	2851	2847	2838	2830	2822	2814	2802	2790	2779	2771	2763	2755	2751	2751	2755	2755	2759	2763	2767	2771	2775	2779	2782	2786	2786	2790	2790	2790	2790	2786	2782	2782	2779	2775	2767	2767	2763	2763	2759	2759	2759	2759	2755	2755	2755	2751	2748	2744	2740	2729	2725	2721	2717	2714	2710	2706	2706	2703	2703	2703	2699	2695	2691	2688	2684	2677	2677	2673	2666	2659	2655	2652	2641	2638	2638	2634	2634	2631	2631	2631	2631	2631	2634	2634	2638	2645	2652	2655	2666	2670	2684	2691	2706	2717	2729	2740	0	2755	2775	2794	2810	2818	2826	2830	2834	2834	2830	2822	2814	2806	2794	2782	2771	2759	2748	2736	2729	2717	2710	2703	2695	2688	2684	2673	2670	2666	2666	2662	2662	2662	2662	2662	2666	2666	2666	2673	2677	2681	2684	2695	2703	2717	2732	2748	0	2771	2790	2818	2843	2867	2888	2909	2931	2953	2962	2966	2962	2953	2944	2935	2922	2909	2897	2884	2871	2851	2843	2834	2830	2818	2814	2806	2802	2798	2794	2790	2790	2786	2786	2786	2786	2790	2790	2790	2790	2790	2790	2790	2786	2786	2786	2786	2786	2786	2786	2790	2790	2790	2790	2790	2790	2794	2790	2790	2786	2782	2775	2771	2763	2759	2751	2748	2748	2744	2748	2748	2751	2751	2759	2763	2771	2775	2779	2782	2782	2786	2786	2782	2779	2775	2771	2767	2763	2751	2744	2744	2744	2740	2736	2736	2732	2729	2721	2717	2714	2706	2706	2706	2706	2703	2703	2699	2703	2703	2703	2703	2706	2710	2710	2714	2717	2717	2721	2721	2721	2725	2725	2725	2725	2725	2729	2732	2732	2732	2736	2740	2748	2751	2759	2767	2767	2771	2771	2771	2763	2755	2748	2744	2740	2736	2736	2732	2732	2732	2732	2736	2740	2748	2755	2759	2767	2775	2782	2790	2794	2798	2806	2810	2814	2822	2826	2834	2843	2855	2863	2871	2888	2897	2905	2918	0	2935	2949	2957	2966	2975	0	0	0	0	0	0	0	0	5185	5185	5185	5185	5185	5185	5185	5172	5158	5145	5118	5105	5079	5040	4939	4830	4715	4510	4410	4351	4304	4285	4258	4239	4230	4212	4194	4177	4124	4099	4073	4048	4032	4024	4015	4007	4015	4015	4015	4032	4048	4073	4099	4124	4150	4177	4203	4239	4276	4304	4323	4332	4342	4332	4332	4332	4313	4304	4295	4267	4258	4239	4239	4230	4230	4230	4239	4248	4258	4267	4267	4267	4258	4239	4221	4203	4185	4168	4150	4116	4099	4090	4090	4082	4082	4073	4073	4065	4065	4073	4073	4082	4090	4107	4107	4133	0	4313	4510	0	0	0	5213	5472	0	5693	5710	5710	5743	5760	5793	5810	5810	5810	5793	5793	5793	5793	5793	5793	5793	5793	5793	5793	5776	5760	5726	5693	5661	5628	5596	5565	5518	5488	5442	5383	5354	5282	5268	5254	5240	5240	5254	5254	5254	5240	5254	5240	5254	5268	5254	5254	5282	5296	5325	0	0	0	0	0	0	0	0	0	0	1843	1850	1851	1848	1850	1850	1848	1850	1851	1850	1843	1841	1843	1839	1838	1836	1834	1833	1831	1831	1831	1824	1822	0	0	1816	1811	0	0	0	0	0	0	0	0	0	0	2080	2080	2084	2086	2088	2091	2093	2095	2097	2099	2102	2102	2099	2099	2102	2102	2102	2104	2104	2108	2113	2113	0	0	0	0	0	0	0	0	0	0	0	0	0	0	0	0	0	0	0	0	0	0	0	0	0	0	0	0	4420	0	4371	4361	4361	4361	4361	4371	4380	4400	4410	4420	4420	4429	4429	4429	4420	4420	4420	4400	4390	4380	4371	4361	4361	4351	4351	4351	4342	4342	4313	4276	4230	4194	4168	4142	4116	4099	4090	4082	4082	4090	4090	4090	4090	4090	4082	4065
2786	2790	2794	2798	2802	2802	2806	2806	2810	2810	2814	2818	2822	2826	2826	2830	2830	2830	2830	2830	2830	2830	2830	2830	2826	2826	2818	2810	2802	2794	2782	2775	2771	2763	2759	2751	2755	2755	2755	2759	2763	2767	2767	2771	2775	2779	2779	2779	2782	2786	2786	2782	2782	2779	2779	2775	2771	2771	2763	2759	2759	2755	2751	2748	2748	2748	2744	2744	2744	2740	2736	2736	2729	2725	2721	2717	2717	2714	2710	2710	2706	2706	2703	2703	2699	2699	2699	2695	2691	2688	2684	2681	2673	2670	2662	2659	2655	2645	2641	2638	2634	2634	2631	2627	2627	2624	2627	2631	2631	2634	2638	2645	2652	2659	2662	2673	2684	2691	2703	2714	2729	2748	0	2767	2782	2794	2802	2814	2818	2822	2814	2802	2798	2794	2786	2775	2763	2748	2736	2729	2717	2706	2699	2688	2681	2670	2662	2659	2655	2648	2648	2645	2645	2645	2645	2645	2648	2652	2652	2655	2659	2666	2673	2681	2688	2699	2710	2725	2740	2767	0	2786	2806	2826	2847	2867	2888	2905	2914	2918	2914	2909	2905	2892	2884	2871	2863	2843	2834	2826	2822	2818	2814	2806	2802	2798	2794	2790	2786	2786	2782	2782	2782	2779	2782	2782	2786	2786	2786	2786	2786	2786	2786	2786	2786	2786	2786	2786	2790	2790	2790	2794	2794	2794	2798	2798	2794	2794	2794	2790	2782	2779	2771	2763	2755	2751	2751	2748	2748	2751	2751	2751	2759	2759	2767	2771	2771	2775	2775	2779	2779	2775	2771	2767	2763	2759	2751	2744	2740	2736	2736	2736	2725	2725	2725	2721	2721	2717	2714	2714	2710	2710	2710	2706	2706	2706	2710	2710	2710	2710	2710	2714	2717	2717	2721	2725	2725	2725	2725	2725	2729	2729	2732	2732	2732	2732	2736	2740	2740	2744	2748	2755	2759	2763	2767	2767	2767	2759	2755	2751	2748	2740	2732	2729	2729	2725	2721	2721	2721	2725	2725	2732	2740	2744	2751	2759	2767	2775	2779	2782	2786	2790	2798	2806	2814	2818	2830	2838	2851	2863	2876	2888	2901	2918	0	2931	2940	2953	2966	0	0	0	0	0	0	0	0	0	5185	5185	5185	5185	5185	5185	5185	5172	5158	5145	5131	5105	5092	5040	4964	4866	4760	4648	4449	4390	4332	4304	4267	4248	4239	4221	4203	4177	4124	4107	4082	4057	4040	4024	4015	4015	4015	4015	4015	4032	4048	4065	4090	4107	4133	4168	4194	4239	4276	4313	0	4342	4351	4361	4361	4361	4351	4342	4323	4304	4295	4267	4258	4248	4248	4239	4239	4248	4258	4267	4276	4276	4276	4258	4239	4221	4203	4177	4159	4116	4099	4090	4090	4082	4073	4073	4065	4065	4073	4073	4073	4082	4090	4107	4107	4116	0	4304	4500	0	0	0	5199	5457	0	5693	5710	5710	5743	5776	5793	5810	5810	5810	5810	5810	5810	5810	5828	5828	5845	5845	5845	5845	5828	5810	5776	5743	5710	5661	5628	5581	5534	5488	5442	5398	5354	5282	5254	5240	5240	5226	5240	5226	5226	5213	5213	5213	5213	5226	5213	5213	5213	5226	0	0	0	0	0	0	0	0	0	0	0	1848	1851	0	1853	1855	1853	1853	1855	1857	1855	1848	1845	1846	1843	1841	1838	1836	1834	1833	1831	1829	1824	1824	1822	1822	1819	1816	1812	0	0	0	0	0	0	0	2062	0	2082	2082	2086	2088	2091	2091	2093	2095	2097	2102	2104	2102	2102	2102	2102	2104	2102	2104	2106	2108	2113	2115	2120	2124	0	0	0	0	0	0	0	0	0	0	0	0	0	0	0	0	0	0	0	0	0	0	0	0	0	0	4439	4420	4400	4390	4390	4390	4400	4410	4420	4420	4429	4429	4429	4429	4429	4429	4420	4410	4400	4390	4371	4361	4351	4342	4332	4323	4313	4313	4304	4285	4258	4221	4185	4159	4133	4116	4099	4082	4082	4073	4073	4082	4082	4073	4082	4065	4057	4040
2775	2779	2779	2782	2786	2790	2790	2794	2794	2798	2802	2806	2810	2810	2814	2814	2814	2814	2818	2814	2814	2814	2810	2810	2806	2802	2794	2790	2782	2775	2771	2763	2759	2755	2755	2755	2755	2755	2759	2759	2763	2767	2767	2771	2775	2775	2779	2779	2779	2779	2779	2779	2775	2775	2771	2771	2767	2763	2759	2751	2748	2744	2740	2744	2740	2740	2736	2736	2736	2732	2732	2732	2729	2721	2717	2717	2714	2714	2710	2710	2706	2710	2710	2710	2706	2706	2703	2699	2699	2695	2691	2688	2681	2677	2673	2670	2662	2659	2648	2645	2641	2638	2631	2631	2627	2624	2624	2624	2627	2627	2631	2638	2638	2645	2652	2659	2666	2673	2684	2695	2710	2725	2744	2759	2771	0	2782	2794	2802	2806	2798	2794	2790	2786	2775	2767	2755	2744	2729	2721	2710	2699	2684	2677	2662	2655	2648	2645	2641	2634	2634	2631	2631	2631	2631	2634	2638	2638	2641	2645	2648	2655	2662	2670	2677	2684	2695	2710	2725	2736	2755	2771	2786	0	2802	2822	2838	2855	2863	2867	2867	2863	2859	2855	2847	2834	2826	2822	2814	2814	2806	2802	2802	2798	2798	2794	2790	2790	2782	2786	2782	2782	2779	2779	2782	2782	2786	2786	2786	2786	2786	2786	2786	2786	2786	2786	2786	2790	2790	2790	2794	2798	2798	2798	2802	2802	2802	2802	2798	2798	2790	2786	2779	2771	2763	2759	2755	2751	2755	2751	2751	2755	2759	2759	2763	2767	2767	2767	2767	2767	2767	2767	2759	2759	2755	2748	2740	2736	2725	2725	2721	2721	2721	2717	2717	2721	2717	2717	2717	2714	2714	2714	2714	2714	2710	2714	2714	2714	2714	2717	2717	2717	2721	2721	2725	2725	2729	2732	2732	2732	2732	2736	2736	2736	2740	2740	2740	2744	2748	2751	2751	2755	2759	2763	2763	2763	2759	2755	2748	2744	2736	2732	2725	2721	2717	2714	2710	2706	2706	2710	2706	2710	2717	2721	2725	2729	2732	2740	2740	2744	2751	2755	2763	2771	2782	2790	2806	2818	2830	2847	2863	2880	2892	2909	2922	0	0	0	0	0	0	0	0	0	0	0	0	5185	5199	5199	5199	5185	5185	5185	5185	5172	5172	5145	5131	5118	5092	5053	4976	4890	4795	4693	4500	4429	4371	4323	4285	4267	4248	4230	4212	4194	4168	4116	4090	4065	4048	4040	4032	4024	4024	4024	4032	4032	4057	4073	4090	4116	4150	4177	4212	4267	0	4313	4371	4380	4400	4400	4400	4400	4400	4371	4361	4342	4323	4304	4295	4285	4276	4276	4276	4276	4295	4304	4313	4313	4304	4285	4267	4248	4230	4203	4177	4159	4116	4099	4090	4099	4090	4082	4073	4073	4073	4073	4082	4090	4099	4116	4116	4133	0	4313	4521	0	0	0	5226	5472	0	5693	5710	5710	5743	5776	5793	5810	5828	5828	5828	5828	5828	5845	5862	5862	5880	5880	5880	5897	5880	5862	5810	5776	5726	5693	5661	5596	5549	5503	5457	5398	5354	5282	5254	5240	5226	5213	5213	5213	5213	5199	5199	5185	5172	5185	5185	5172	5172	0	0	0	0	0	0	0	0	0	0	0	1846	0	1850	1855	1858	1862	1864	1869	1873	1874	1873	1865	1864	1860	1855	1850	1846	1845	1841	1839	1838	1834	1829	1828	1824	1824	1822	1821	1819	0	0	0	0	0	0	2032	2060	0	2084	2086	2091	2091	2091	2093	2095	2097	2097	2102	2102	2102	2104	2104	2104	2104	2104	2104	2108	2111	2113	2117	2120	2124	2131	0	0	0	0	0	0	0	0	0	0	0	0	0	0	0	0	0	0	0	0	0	0	0	0	0	4439	4420	4420	4420	4420	4420	4429	4439	4439	4449	4449	4449	4439	4429	4420	4410	4410	4400	4380	4371	4361	4351	4323	4313	4304	4295	4285	4267	4258	4239	4212	4185	4159	4124	4107	4099	4090	4082	4082	4082	4082	4073	4082	4073	4073	4057	4032	4024
2763	2767	2767	2771	2771	2775	2779	2779	2782	2782	2786	2790	2790	2794	2794	2794	2794	2794	2794	2794	2790	2790	2786	2790	2782	2779	2775	2771	2767	2759	2755	2751	2751	2751	2751	2751	2755	2755	2759	2763	2763	2767	2771	2771	2775	2775	2775	2775	2775	2775	2775	2771	2767	2767	2763	2759	2759	2755	2748	2748	2744	2740	2736	2732	2736	2732	2732	2729	2729	2725	2725	2725	2721	2717	2717	2717	2717	2717	2717	2717	2717	2714	2714	2714	2714	2710	2710	2706	2706	2703	2699	2695	2688	2684	2681	2677	2673	2670	2662	2652	2648	2645	2641	2634	2631	2627	2627	2624	2624	2627	2624	2631	2631	2634	2641	2645	2652	2659	2673	2681	2691	2706	2721	2736	2751	2763	2771	2782	2786	2786	2782	2779	2779	2775	2767	2759	2748	2736	2725	2714	2703	2691	2677	2655	2648	2641	2638	2631	2627	2624	2620	2620	2620	2620	2620	2624	2627	2627	2634	2638	2641	2648	2652	2662	2666	2673	2684	2695	2703	2717	2725	2740	2751	2767	2779	2794	0	2806	2814	2818	2822	2826	2826	2822	2814	2810	2806	2806	2802	2802	2798	2798	2794	2794	2790	2786	2786	2786	2782	2782	2782	2779	2779	2782	2782	2782	2786	2786	2786	2786	2786	2786	2786	2786	2786	2786	2790	2790	2790	2794	2794	2798	2802	2802	2806	2806	2806	2806	2806	2806	2802	2794	2786	2779	2775	2767	2763	2759	2755	2755	2755	2759	2759	2759	2759	2759	2759	2759	2759	2755	2755	2755	2751	2732	2729	2725	2721	2721	2717	2714	2714	2714	2710	2714	2714	2714	2717	2714	2717	2714	2717	2717	2717	2721	2717	2717	2717	2717	2717	2717	2717	2721	2721	2725	2725	2729	2729	2729	2732	2736	2740	2740	2740	2744	2748	2748	2748	2751	2751	2755	2755	2759	2759	2759	2759	2755	2751	2744	2740	2732	2725	2721	2714	2710	2706	2703	2699	2695	2691	2691	2691	2691	2691	2695	2695	2699	2699	2703	2703	2706	2710	2714	2721	2732	2744	2755	2771	2790	2802	2822	2847	2863	2880	2901	2918	0	0	0	0	0	0	0	0	0	0	0	5185	5199	5199	5199	5199	5199	5199	5199	5199	5185	5172	5158	5145	5131	5105	5092	5001	4927	4842	4738	4637	4470	4400	4351	4304	4285	4267	4239	4221	4194	4177	4133	4107	4090	4065	4057	4048	4040	4040	4032	4040	4040	4057	4082	4107	4133	4168	4212	4267	0	4332	4390	4439	4459	4470	0	4480	4480	4480	4470	4449	4439	4400	4390	4371	4361	4342	4342	4332	4323	4342	4361	4361	4351	4342	4332	4304	4285	4267	4239	4203	4221	4185	4168	4133	4116	4107	4099	4090	4090	4090	4090	4090	4099	4107	4116	4124	4159	0	4351	4562	0	0	0	5268	5503	0	5677	5710	5726	5743	5760	5793	5810	5828	5845	5845	5828	5845	5862	5880	5915	5915	5933	5933	5933	5915	5880	5862	5810	5760	5726	5677	5628	5565	5503	5457	5398	5339	5268	5240	5226	5213	5199	5199	5185	5185	5172	5172	5158	5158	5145	5145	5131	5131	0	0	0	0	0	0	0	0	0	0	0	0	0	1851	1857	1862	1864	1867	1873	1878	1880	1878	1878	1873	1865	1860	1853	1850	1846	1843	1838	1836	1831	1828	1824	1821	1822	1822	1821	1821	0	0	0	0	0	0	2028	2056	2077	2088	2091	2093	2093	2095	2097	2099	2102	2102	2104	2104	2104	2104	2104	2104	2106	2106	2106	2108	2113	2115	2117	2122	2124	2129	2136	0	0	0	0	0	0	0	0	0	0	0	0	0	0	0	0	0	0	0	0	0	0	0	0	4420	4429	4439	4439	4439	4439	4449	4459	4459	4459	4449	4439	4429	4420	4410	4400	4390	4380	4371	4351	4342	4332	4313	4304	4295	4285	4276	4258	4239	4230	4203	4177	4159	4133	4124	4107	4107	4090	4090	4082	4082	4073	4082	4065	4057	4032	4024	4007
2751	2751	2755	2755	2759	2759	2763	2767	2771	2771	2771	2775	2775	2779	2775	2775	2775	2775	2775	2771	2771	2767	2767	2767	2763	2759	2755	2751	2751	2748	2744	2744	2744	2748	2748	2751	2755	2755	2759	2763	2763	2767	2771	2771	2771	2771	2775	2771	2771	2771	2767	2763	2763	2759	2755	2751	2748	2744	2736	2732	2729	2725	2721	2721	2721	2717	2717	2714	2703	2706	2710	2714	2714	2717	2717	2721	2721	2721	2721	2725	2725	2721	2721	2721	2721	2717	2717	2714	2714	2710	2706	2703	2699	2695	2691	2684	2681	2677	2673	2666	2659	2652	2648	2645	2641	2638	2634	2634	2631	2631	2631	2634	2631	2634	2638	2641	2645	2652	2662	2670	2677	2691	2703	2717	2732	2744	2755	2763	2771	2771	2771	2775	2771	2767	2763	2751	2744	2729	2717	2706	2695	2681	2655	2645	2638	2631	2624	2617	2613	2610	2610	2610	2606	2606	2610	2613	2617	2620	2624	2631	2634	2641	2645	2652	2659	2666	2673	2681	2688	2695	2706	2717	2721	2732	2740	2755	2767	2771	2782	2790	2790	2798	2798	2798	2798	2798	2798	2794	2794	2794	2790	2790	2790	2786	2786	2786	2782	2786	2782	2782	2782	2782	2782	2782	2782	2786	2786	2786	2786	2790	2790	2790	2786	2786	2786	2786	2790	2790	2790	2794	2794	2798	2802	2802	2806	2806	2810	2814	2810	2810	2806	2802	2794	2786	2779	2775	2771	2767	2763	2763	2759	2759	2759	2759	2759	2755	2755	2751	2748	2748	2736	2729	2725	2721	2717	2717	2714	2710	2706	2710	2706	2706	2706	2706	2710	2710	2710	2714	2714	2717	2717	2721	2721	2717	2717	2717	2717	2717	2717	2717	2717	2721	2721	2725	2725	2729	2729	2732	2736	2740	2740	2748	2748	2751	2755	2755	2759	2759	2759	2759	2759	2759	2759	2755	2748	2744	2736	2732	2725	2721	2714	2706	2703	2695	2691	2688	2684	2677	2677	2673	2673	2673	2673	2673	2670	2670	2670	2670	2670	2670	2673	2677	2684	2691	2699	2717	2732	2751	2771	2794	2818	2838	2859	2880	0	0	0	0	0	0	0	0	0	0	5199	5199	5199	5213	5213	5213	5213	5213	5213	5213	5213	5199	5185	5185	5172	5145	5131	5118	5040	4976	4890	4795	4704	4616	4459	4390	4342	4295	4285	4267	4239	4212	4194	4168	4124	4107	4090	4082	4065	4065	4057	4057	4057	4057	4073	4099	4124	4177	4221	0	4285	0	0	0	0	0	0	0	4552	4562	4552	4552	4531	4521	4500	4490	4470	4439	4420	4410	4390	4410	4410	4420	4420	4400	4390	4380	4351	4380	4351	4313	4285	4258	4221	4203	4177	4150	4133	4124	4116	4116	4107	4099	4099	4107	4116	4133	4133	4185	0	4390	4605	0	0	0	5311	5518	0	5693	5710	5726	5743	5776	5793	5810	5828	5828	5845	5828	5862	5880	5915	5933	5950	5968	5968	5968	5950	5915	5880	5828	5776	5726	5677	5628	5565	5503	5442	5398	5339	5268	5240	5226	5199	5185	5185	5172	5158	5145	5145	5145	5131	5131	5118	5092	5092	0	0	0	0	0	0	0	0	0	0	0	1846	0	1855	1860	1864	1867	1871	1874	1878	1880	0	1876	1871	1862	1857	1851	1845	1839	1836	1831	1826	1822	1819	1816	1816	1816	1819	1821	1819	1831	1855	0	0	0	0	0	2060	2080	2095	2095	2097	2097	2097	2099	2099	2102	2102	2104	2104	2106	2106	2106	2106	2106	2106	2108	2111	2113	2117	2120	2124	2127	2129	2133	2138	0	0	0	0	0	0	0	0	0	0	0	0	0	0	0	0	0	0	0	0	0	0	0	4410	4410	4429	4439	4439	4439	4449	4459	4449	4449	4439	4429	4420	4410	4390	4380	4371	4361	4351	4332	4323	4313	4304	4295	4285	4285	4267	0	0	4230	4212	4185	4168	4142	4133	4124	4116	4107	4099	4090	4082	4082	4082	4065	4057	4032	4024	3999
2736	2740	2744	2744	2744	2748	2748	2751	2755	2759	2759	2759	2759	2759	2755	2755	2751	2751	2755	2751	2748	2748	2744	2744	2744	2740	2736	2736	2732	2736	2736	2740	2740	2744	2748	2751	2751	2755	2759	2759	2763	2767	2767	2771	2771	2771	2771	2771	2767	2767	2763	2759	2755	2748	2744	2740	2736	2732	2725	2721	2714	2710	2706	2706	2688	2688	2688	2691	2695	2695	2703	2706	2710	2714	2717	2721	2725	2725	2729	2729	2729	2729	2729	2729	2725	2725	2725	2721	2717	2714	2714	2710	2703	2703	2699	2695	2688	2684	2681	2677	2670	2659	2659	2652	2652	2648	2645	2645	2641	2641	2638	2638	2638	2638	2638	2641	2645	2648	2655	2662	2670	2681	2691	2703	2717	2729	2740	2748	2759	2759	2763	2763	2763	2759	2755	2748	2736	2725	2714	2699	2688	2673	2645	2634	2627	2620	2613	2606	2603	2599	2596	2596	2596	2599	2599	2603	2606	2610	2617	2624	2627	2634	2638	2645	2652	2655	2666	2670	2677	2684	2691	2699	2710	2717	2729	2740	2744	2755	2767	2771	2775	2779	2782	2786	2782	2786	2786	2786	2786	2786	2786	2782	2786	2786	2786	2786	2786	2786	2786	2786	2786	2786	2786	2786	2786	2790	2790	2790	2790	2790	2790	2790	2790	2786	2786	2786	2790	2790	2790	2794	2794	2798	2798	2802	2806	2806	2810	2810	2814	2814	2810	2806	2802	2794	2786	2782	2779	2775	2767	2763	2763	2759	2759	2759	2755	2751	2740	2736	2729	2729	2721	2717	2717	2714	2710	2706	2703	2703	2703	2699	2699	2699	2699	2703	2703	2703	2706	2710	2714	2714	2714	2714	2717	2717	2717	2717	2717	2717	2717	2717	2717	2717	2721	2721	2721	2729	2729	2732	2736	2740	2744	2748	2755	2755	2763	2763	2763	2763	2763	2763	2763	2759	2751	2744	2736	2732	2725	2717	2710	2706	2699	2695	2688	2684	2677	2673	2670	2662	2662	2659	2655	2655	2652	2652	2648	2645	2641	2641	2638	2638	2645	2645	2652	2659	2670	0	2684	2703	2721	2740	2771	2790	2814	0	0	0	0	0	0	0	0	0	0	5213	5213	5213	5226	5226	5226	5226	5226	5226	5226	5226	5226	5213	5199	5199	5185	5172	5158	5145	5118	5014	4951	4866	4783	4693	4531	4449	4390	4342	4323	4285	4258	4230	4212	4194	4168	4133	4116	4107	4090	4082	4082	4073	4073	4073	4099	4124	4168	4221	0	4295	0	0	4541	4594	0	0	0	4681	4681	4693	4670	4693	4681	4670	4670	4659	4637	4616	4605	4573	4562	4531	4521	4521	4510	4573	4510	4480	4459	4429	4410	4361	4332	4295	4267	4239	4221	4194	4177	4150	4142	4133	4124	4124	4116	4124	4133	4142	4142	4221	0	4420	4648	0	0	0	5354	5549	0	5693	5693	5726	5743	5760	5793	5810	5828	5845	5845	5845	5862	5915	5933	5968	5987	5987	5987	5987	5968	5933	5880	5845	5776	5726	5677	5612	5565	5503	5442	5383	5339	5268	5226	5213	5185	5172	5172	5158	5145	5131	5131	5118	5105	5105	5092	5079	5053	5053	0	0	0	0	0	0	0	0	0	0	0	0	1857	1860	1864	1865	1869	1871	1874	1874	1874	1871	1862	1857	1851	1846	1839	1833	1829	1824	1819	1817	1814	1811	1811	1812	1816	1821	1821	1855	1892	0	0	0	0	2026	2058	2082	2097	2099	2099	2099	2099	2099	2102	2102	2104	2104	2104	2106	2108	2108	2108	2108	2108	2111	2115	2117	2120	2122	2124	2129	2131	2133	2138	2138	0	0	0	0	0	0	0	0	0	0	0	0	0	0	0	0	0	0	0	0	0	0	4380	4400	4410	4420	4420	4420	4429	4439	4439	4429	4420	4410	4400	4390	4371	4361	4351	4342	4332	4323	4304	4304	4304	4295	4285	4285	4285	4276	4276	4258	4239	4212	4185	4168	4159	4142	4133	4116	4107	4107	4099	4099	4099	4082	4073	4057	4024	4007
2725	2729	2729	2732	2736	2736	2740	2740	2744	2744	2744	2744	2744	2740	2736	2736	2732	2729	2732	2729	2725	2725	2725	2721	2725	2721	2721	2721	2725	2729	2732	2732	2736	2744	2748	2748	2751	2751	2755	2759	2763	2763	2767	2767	2771	2771	2767	2767	2763	2759	2755	2751	2744	2740	2736	2729	2725	2721	2714	2710	2691	2684	2677	2677	2673	2673	2677	2681	2681	2688	2691	2699	2703	2706	2714	2717	2721	2725	2732	2732	2732	2736	2736	2732	2732	2729	2729	2725	2721	2717	2717	2714	2710	2703	2703	2699	2695	2688	2684	2681	2677	2673	2670	2666	2662	2659	2659	2655	2652	2652	2648	2645	2645	2641	2638	2641	2641	2645	2652	2659	2670	2677	2684	2695	2710	2717	2729	2744	2748	2755	2755	2759	2759	2759	2751	2748	2736	2725	2710	2699	2684	2666	2634	2624	2620	2610	2603	2596	2589	2589	2586	2586	2586	2589	2589	2593	2599	2606	2613	2617	2624	2631	2634	2638	2645	2648	2655	2659	2662	2673	2681	2688	2695	2706	2714	2725	2732	2744	2755	2759	2763	2767	2771	2771	2775	2775	2779	2779	2782	2779	2779	2782	2782	2786	2786	2790	2790	2790	2790	2790	2790	2790	2790	2790	2794	2794	2794	2794	2794	2794	2794	2790	2790	2790	2786	2786	2786	2790	2790	2790	2794	2794	2798	2798	2802	2802	2806	2810	2810	2814	2814	2810	2806	2798	2794	2790	2782	2775	2771	2767	2763	2759	2755	2751	2744	2736	2732	2729	2721	2714	2714	2710	2706	2706	2706	2703	2699	2699	2695	2695	2695	2695	2695	2695	2699	2703	2703	2706	2710	2710	2714	2717	2717	2714	2714	2714	2714	2714	2714	2714	2714	2714	2717	2717	2721	2721	2725	2729	2732	2740	2744	2748	2755	2759	2763	2763	2767	2767	2767	2763	2759	2755	2740	2736	2729	2721	2710	2703	2699	2691	2688	2681	2677	2670	2666	2662	2655	2652	2648	2648	2645	2641	2638	2631	2627	2620	2620	2617	2613	2613	2617	2617	2624	2631	2641	2652	2666	2681	0	2703	2725	2740	0	0	0	0	0	0	0	0	0	0	5226	5226	5240	5226	5240	5240	5254	5254	5254	5254	5254	5240	5240	5240	5226	5213	5213	5199	5185	5172	5158	5066	5014	4927	4854	4760	4681	4521	4449	4400	4351	4323	4285	4258	4239	4212	4194	4177	4142	4124	4116	4116	4107	4099	4099	4107	4142	4177	4230	0	4313	0	4480	4594	4704	4760	0	4807	4818	4818	4830	4830	4807	4818	4807	4807	4807	0	4902	4772	4749	4726	4704	4772	4749	4715	4693	4648	4616	4541	4510	4490	4449	4420	4380	4351	4323	4285	4267	4239	4221	4203	4168	4168	4150	4150	4142	4142	4159	4168	4177	0	4267	4449	4670	0	0	0	5368	5549	0	5677	5693	5710	5726	5743	5776	5793	5810	5828	5828	5845	5862	5897	5933	5968	5968	6005	5987	5987	5987	5915	5880	5828	5776	5710	5661	5596	5549	5488	5427	5383	5339	5268	5240	5199	5185	5158	5158	5145	5131	5118	5105	5105	5092	5079	5066	5053	5040	5027	5027	5027	0	0	0	0	0	0	0	0	0	0	1857	1860	1862	1864	1865	1869	1871	1871	1871	1862	1857	1853	1846	1839	1834	1828	1821	1816	1811	1809	1807	1806	1806	1807	1814	1819	1821	1858	0	1896	1935	0	0	2024	2060	2082	2102	2104	2104	2104	2102	2104	2102	2104	2104	2104	2106	2106	2108	2108	2111	2111	2111	2113	2115	2117	2120	2122	2127	2127	2129	2133	2136	2136	0	0	0	0	0	0	0	0	0	0	0	0	0	0	0	0	0	0	0	0	0	0	4371	4371	4380	4390	4400	4400	4410	4410	4410	4400	4400	4390	4380	4361	4351	4342	4332	4323	4313	4304	4295	4295	4295	4295	4304	4304	4304	4304	4304	4285	4267	4248	4221	4194	4177	4159	4150	4133	4124	4116	4107	4107	4107	4099	4090	4073	4040	4015
2714	2714	2717	2717	2721	2721	2725	2729	2729	2729	2729	2729	2729	2725	2717	2714	2710	2706	2706	2706	2703	2703	2706	2710	2710	2714	2714	2717	0	2725	2729	2732	2736	2740	2744	2744	2744	2748	2751	2755	2755	2759	2763	2763	2763	2763	2763	2759	2759	2751	2748	2740	2736	2729	2725	2717	2699	2695	2688	2681	2673	2670	2666	2662	2662	2662	2662	2666	2670	2677	2681	2688	2695	2699	2706	2714	2717	2725	2729	2732	2736	2740	2740	2736	2736	2732	2729	2729	2721	2721	2717	2714	2710	2706	2703	2699	2695	2691	2688	2684	2681	2681	2677	2673	2670	2670	2670	2666	2662	2659	2655	2652	2645	2645	2645	2641	2641	2645	2652	2659	2666	2677	2684	2691	2703	2714	2725	2736	2740	2748	2751	2755	2755	2751	2748	2740	2732	2717	2710	2695	2677	2641	2627	2617	2606	2599	2593	2586	2582	2579	2579	2579	2579	2582	2586	2586	2593	2599	2606	2613	2617	2624	2631	2631	2638	2641	2645	2652	2655	2662	2673	2677	2688	2695	2706	2714	2721	2732	2740	2748	2755	2759	2763	2767	2767	2767	2771	2775	2775	2779	2779	2782	2786	2790	2790	2790	2794	2794	2794	2798	2798	2798	2798	2798	2798	2798	2802	2798	2798	2798	2794	2794	2790	2790	2786	2786	2786	2786	2786	2786	2790	2790	2794	2794	2798	2798	2802	2806	2810	2810	2814	2810	2806	2802	2798	2794	2786	2779	2775	2767	2767	2759	2755	2748	2740	2732	2729	2721	2714	2710	2706	2703	2703	2703	2699	2699	2695	2691	2691	2691	2691	2691	2691	2695	2695	2699	2703	2703	2706	2710	2710	2714	2714	2714	2714	2714	2714	2714	2710	2710	2710	2714	2714	2710	2714	2717	2717	2721	2725	2732	2736	2744	2748	2755	2759	2763	2763	2767	2763	2759	2751	2736	2732	2725	2714	2706	2699	2691	2684	2681	2673	2670	2666	2659	2655	2652	2648	2645	2641	2638	2634	2634	2624	2620	2613	2610	2606	2603	2603	2599	2599	2606	2610	2617	2624	2638	2645	2662	2677	2691	0	0	0	0	0	0	0	0	0	0	0	0	5254	5268	5268	5268	5268	5268	5282	5282	5282	5282	5268	5268	5268	5254	5254	5240	5240	5226	5213	5199	5185	5145	5066	5001	4927	0	4772	4693	4531	4470	4410	4361	4323	4295	4267	4239	4221	4203	4177	4159	4142	4133	4133	4124	4124	4150	4185	4230	0	4304	0	4500	4605	4726	0	4854	4890	4927	4927	4939	4927	4927	4939	4927	4927	4914	4927	4914	4989	4976	4964	4939	4914	4866	4842	4807	4783	4726	4681	4637	4605	4541	4510	4470	4429	4400	4371	4342	4313	4285	4267	4239	4230	4203	4185	4177	4168	4177	4185	4185	4212	0	4332	4510	0	0	0	5158	5383	5534	0	5661	5677	5677	5693	5726	5743	5760	5760	5793	5793	5810	5828	5862	5897	5915	5950	5950	5968	5950	5950	5897	5845	5793	5743	5677	5628	5565	5518	5457	5412	5368	5325	5254	5226	5199	5185	5158	5145	5131	5118	5105	5092	5092	5079	5066	5053	5040	5027	5014	5014	5001	0	0	0	0	0	0	0	0	0	0	1855	1858	1860	1862	1862	1865	1864	1864	1860	1855	1851	1845	1839	1834	1826	1819	1814	1807	1804	1801	1801	1799	1799	1804	1811	1816	1821	1853	0	1896	1937	0	0	2035	2069	2086	2108	2106	2108	2106	2104	2106	2104	2104	2104	2106	2106	2106	2108	2108	2111	2113	2113	2115	2115	2117	2120	2122	2127	2129	2129	2131	2133	2136	0	0	0	0	0	0	0	0	0	0	0	0	0	0	0	0	0	0	0	0	0	0	4351	4361	4371	4380	4380	4380	4380	4390	4390	4380	4371	4361	4351	4342	4332	4332	4323	4313	4304	4295	4295	4295	4304	4304	4313	4323	4332	4332	4332	4323	4304	4285	4258	4221	4203	4185	4168	4159	4142	4133	4133	4124	4124	4107	4099	4090	4073	4032
2703	2703	2706	2706	2710	2714	2714	2717	2717	2721	2717	2717	2714	2710	2703	2699	2695	2691	2691	2691	2691	2691	2691	2699	2699	2703	2706	2710	2717	2721	2725	2729	2729	2732	2736	2736	2736	2740	2740	2748	2748	2751	2755	2755	2755	2755	2755	2751	2748	2744	2736	2717	2710	2703	2695	2688	2684	2681	2666	2662	2659	2652	2652	2648	2648	2648	2652	2652	2659	2666	2673	2677	2684	2688	2695	2706	2710	2717	2725	2729	2732	2736	2736	2736	2732	2729	2729	2721	2721	2714	2714	2710	2706	2703	2699	2695	2695	2691	2688	2688	2684	2681	2681	2681	2677	2673	2673	2670	2666	2666	2662	2655	2655	2652	2648	2648	2648	2648	2655	2662	2673	2677	2684	2691	2699	2714	2725	2729	2732	2740	2748	2748	2748	2748	2744	2736	2729	2717	2703	2688	2673	2641	2624	2610	2599	2593	2586	2582	2579	2572	2572	2572	2572	2576	2579	2582	2589	2593	2603	2606	2613	2617	2624	2627	2634	2638	2641	2648	2652	2659	2662	2670	2681	2688	2695	2703	2710	2721	2729	2736	2744	2751	2755	2759	2763	2763	2763	2767	2771	2775	2779	2782	2782	2790	2790	2794	2794	2794	2798	2798	2798	2802	2802	2806	2806	2806	2806	2806	2802	2802	2802	2798	2794	2790	2786	2786	2782	2782	2782	2782	2782	2782	2786	2786	2790	2794	2798	2802	2806	2810	2810	2810	2806	2802	2798	2794	2790	2786	2779	2771	2767	2759	2751	2744	2736	2729	2721	2710	2706	2706	2703	2699	2699	2695	2695	2691	2688	2688	2688	2688	2688	2688	2691	2691	2695	2699	2699	2703	2703	2706	2710	2710	2710	2710	2710	2710	2710	2710	2706	2706	2706	2706	2706	2706	2706	2706	2710	2714	2717	2721	2725	2732	2736	2740	2748	2748	2751	2751	2751	2748	2740	2725	2717	2710	2703	2691	2684	2677	2670	2666	2659	2655	2655	2652	2648	2645	2641	2638	2638	2634	2627	2620	2617	2610	2603	2603	2596	2596	2593	2593	2593	2596	2603	2610	2613	2627	2634	2648	2662	2670	0	0	0	0	0	0	0	0	0	0	0	0	5296	5296	5296	5296	5296	5311	5311	5311	5311	5296	5296	5296	5282	5282	5268	5268	5268	5254	5240	5226	5213	5185	5158	5079	5014	4939	0	4795	4715	4552	4480	4420	4371	4332	4295	4267	4248	4221	4203	4194	4168	4168	4159	4159	4159	4194	0	4239	4304	4380	0	4627	4738	0	4878	4976	5001	5027	5040	5027	5027	5014	5014	5014	5001	5079	5066	5066	5066	5053	5027	5014	4989	4951	4914	4878	4842	4795	4749	4704	4659	4627	4562	4521	4480	4449	4420	4390	4361	4332	4313	4285	4267	4248	4230	4221	4212	4203	4212	4221	0	4239	4361	4531	4715	0	0	5145	5354	5518	0	5628	5644	5644	5661	5677	5677	5693	5710	5726	0	5743	0	5776	5828	5845	5880	5897	5880	5897	5862	5845	5793	5743	5693	5628	5581	5534	5488	5427	5398	5354	5311	5254	5213	5199	5172	5158	5145	5131	5118	5105	5092	5079	5066	5066	5040	5027	5014	5001	5001	4989	0	0	0	0	0	0	0	0	0	0	1858	1860	1860	1862	1862	1864	1864	1860	1855	1851	1846	1839	1834	1826	1821	1814	1807	1803	1799	1796	1796	1794	1796	1801	1807	1814	1819	1845	1894	0	1943	0	0	2047	2071	2097	2113	2111	2111	2111	2108	2106	2106	2106	2106	2106	2106	2106	2108	2108	2111	2113	2113	2113	2117	2120	2120	2122	2124	2127	2129	2131	2131	2133	0	0	0	0	0	0	0	0	0	0	0	0	0	0	0	0	0	0	0	0	0	0	4342	4342	4351	4361	4361	4351	4361	4371	4361	4361	4351	4342	4342	4332	4323	4313	4304	4304	4295	4295	4295	4304	4304	4313	0	4332	4342	4351	4361	4351	4332	4304	4276	4248	4221	4203	4185	4168	4159	4142	4133	4133	4124	4116	4107	4090	4073	4040
2688	2688	2691	2691	2695	2699	2699	2703	2706	2706	2703	2703	2699	2695	2688	2684	2684	2681	2681	2681	2681	2684	2688	2691	2695	2695	2699	2703	2706	2714	2714	2717	2721	2721	2725	2725	2729	2729	2732	2736	2740	2740	2744	2748	2748	2748	2748	2729	2721	2714	2710	2699	2691	2688	2681	2673	2666	2659	2652	2648	2645	2641	2638	2638	2638	2641	2641	2648	2652	2655	2662	2670	2673	2681	2688	2695	2703	2710	2717	2721	2725	2729	2729	2729	2725	2721	2717	2714	2710	2706	2703	2699	2699	2695	2691	2688	2688	2688	2684	2684	2681	2681	2681	2681	2677	2677	2677	2673	2670	2673	2666	2662	2659	2659	2655	2652	2652	2652	2659	2666	2670	2677	2681	2688	2695	2706	2717	2721	2729	2732	2740	2744	2740	2740	2736	2729	2721	2710	2695	2684	2666	2631	2613	2603	2589	2582	2576	2572	2569	2566	2566	2566	2566	2569	2572	2576	2582	2589	2596	2603	2606	2613	2617	2620	2627	2631	2634	2641	2645	2652	2659	2662	2670	2677	2688	2695	2703	2714	2721	2729	2736	2744	2751	2755	2759	2759	2759	2767	2771	2775	2779	2782	2786	2790	2790	2794	2798	2798	2798	2802	2802	2806	2806	2810	2810	2810	2810	2806	2806	2802	2798	2794	2790	2790	2790	2782	2782	2779	2779	2779	2779	2779	2779	2782	2786	2790	2790	2794	2798	2798	2798	2802	2802	2798	2798	2794	2790	2786	2779	2771	2767	2759	2751	2740	2732	2725	2717	2706	2703	2699	2695	2695	2691	2691	2688	2691	2688	2688	2684	2688	2688	2688	2688	2691	2695	2699	2699	2703	2703	2706	2706	2706	2706	2706	2706	2706	2706	2706	2703	2703	2703	2699	2703	2699	2699	2699	2703	2703	2706	2710	2714	2717	2725	2729	2732	2736	2736	2736	2732	2725	2721	2710	2703	2695	2684	2677	2670	2662	2655	2652	2648	2648	2645	2645	2641	2641	2638	2634	2631	2631	2620	2617	2610	2606	2603	2596	2593	2593	2586	2586	2589	2589	2599	2603	2610	2620	2627	2638	2655	2666	0	0	0	0	0	0	0	0	0	0	0	0	5325	5339	5354	5339	5339	5354	5354	5339	5339	5325	5325	5311	5311	5296	5296	5282	5282	5268	5268	5254	5240	5226	5199	5185	5079	5027	4976	4902	4818	4738	4562	4500	4429	4380	4332	4304	4276	4248	4230	4221	4203	4203	4203	4194	4203	0	4239	4304	4380	4490	4605	4726	0	4830	4951	5040	5053	5066	5066	5066	5066	5105	5105	5105	5105	5105	5105	5092	5092	5092	5092	5092	5053	5001	4964	4939	4890	4842	4795	4749	4704	4670	4637	4573	4531	4500	4470	4449	4410	4390	4361	4332	4313	4285	4267	4258	4248	4230	4230	4248	4248	4276	4390	4541	0	0	0	5131	5325	5488	0	5596	5612	5628	5612	5628	5628	5628	5628	5644	5661	5677	5710	5743	5776	5793	5810	5828	5828	5828	5810	5776	5743	5693	5628	5596	5549	5488	5442	5412	5368	5339	5296	5240	5213	5199	5172	5158	5145	5131	5118	5092	5092	5079	5066	5053	5040	5014	5001	5001	5001	4989	0	0	0	0	0	0	0	0	0	0	1858	1858	1862	1862	1860	1860	1858	1857	1853	1848	1841	1834	1828	1821	1814	1807	1803	1798	1789	1789	1789	1789	0	1796	1804	1811	1816	1834	1878	0	1950	0	0	2051	2084	2099	2115	2115	2115	2111	2111	2111	2111	2108	2108	2106	2106	2106	2108	2108	2111	2113	2113	2115	2115	2117	2120	2122	2124	2124	2124	2127	2129	2129	0	0	0	0	0	0	0	0	0	0	0	0	0	0	0	0	0	0	0	0	0	0	4323	4332	4332	4342	4342	4342	4342	4351	4351	4342	4342	4332	4323	4323	4313	4313	4304	4304	4304	4295	4304	4313	4313	4323	4323	4351	4361	4380	4400	4390	4361	4332	4304	4267	4239	4212	4194	4177	4168	4159	4150	4142	4133	4124	4107	4090	4082	4040
2677	2677	2677	2681	2684	2688	2691	2688	2688	2688	2688	2688	2681	2681	2673	2670	2666	2666	2666	2666	2670	2670	2677	2677	2681	2684	2691	2695	2699	2703	2706	2706	2710	2714	2714	2714	2717	2714	2717	2721	2725	2729	2714	2717	2717	2717	2714	2710	2706	2699	2688	2681	2677	2670	2662	2652	2652	2645	2641	2638	2634	2631	2631	2631	2631	2631	2634	2641	2645	2648	2652	2659	2662	2670	2677	2684	2691	2695	2703	2710	2714	2717	2717	2717	2714	2710	2706	2706	2699	2695	2691	2691	2688	2688	2684	2681	2681	2677	2677	2677	2677	2677	2677	2677	2677	2677	2677	2673	2673	2670	2666	2662	2659	2655	2655	2652	2652	2652	2655	2662	2666	2670	2673	2681	2688	2695	2703	2706	2714	2717	2725	2729	2729	2729	2725	2717	2710	2699	2688	2670	2638	2620	2603	2593	2582	2576	2572	2566	2566	2559	2559	2562	2562	2566	2569	2569	2576	2582	2589	2593	2599	2603	2606	2613	2617	2620	2627	2631	2634	2641	2645	2652	2662	2666	2681	2688	2699	2710	2714	2725	2732	2740	2744	2751	2755	2755	2759	2763	2767	2771	2779	2782	2782	2790	2794	2798	2798	2802	2802	2806	2810	2810	2814	2814	2814	2814	2814	2810	2806	2802	2798	2794	2790	2786	2782	2779	2775	2771	2771	2771	2767	2771	2771	2775	2771	2771	2775	2779	2786	2790	2794	2794	2794	2794	2790	2790	2786	2782	2779	2771	2763	2755	2748	2736	2729	2721	2714	2703	2699	2695	2691	2691	2688	2688	2688	2688	2684	2684	2684	2688	2688	2691	2691	2695	2695	2699	2699	2699	2703	2703	2706	2706	2706	2706	2706	2703	2703	2703	2699	2699	2695	2695	2691	2691	2691	2691	2691	2691	2695	2703	2703	2706	2710	2714	2717	2717	2721	2717	2714	2710	2703	2695	2684	2677	2670	2662	2655	2652	2645	2641	2641	2641	2638	2638	2638	2638	2638	2638	2634	2634	2631	2620	2613	2606	2603	2599	2593	2593	2593	2589	2593	2596	2606	2613	2624	2634	2648	2659	2677	0	2691	0	0	0	0	0	0	0	0	0	0	0	5368	5398	5383	5398	5398	5398	5398	5383	5383	5368	5339	5325	5325	5325	5311	5311	5296	5296	5282	5282	5268	5254	5240	5213	5172	5092	5053	4989	4914	4830	4738	4573	4490	4429	4371	4332	4295	4258	4239	4230	4221	4221	4230	4230	4239	4258	4313	4390	4480	4605	4726	0	4830	4927	5014	5079	5092	5131	5131	5131	5131	5145	5131	5131	5131	5118	5118	5118	5118	5105	5105	5105	5079	5040	5014	4976	4927	4878	4830	4783	4738	4704	4670	4637	4584	4552	4521	4490	4459	4439	4410	4380	4351	4323	4304	4285	4267	4258	4248	4267	4267	4285	4410	4531	4704	0	0	5092	5296	5472	5549	5549	5565	5549	5565	5549	5549	5565	5565	5565	5581	5596	5628	5661	5693	5710	5726	5743	5760	5760	5743	5726	5677	5644	5596	5549	5503	5457	5427	5383	5354	5311	5282	5240	5213	5185	5172	5158	5145	5131	5118	5105	5092	5079	5066	5040	5027	5001	5001	4989	4989	4976	0	0	0	0	0	0	0	0	0	0	1853	1855	1855	1857	1853	1853	1851	1850	1845	1839	1833	1828	1821	1814	1807	1803	1794	1786	1783	1783	1781	1781	1788	1796	0	1804	0	1819	1834	0	1909	0	0	2066	0	2099	0	2120	2117	2115	2113	2113	2113	2111	2108	2108	2108	2108	2108	2108	2111	2111	2113	2115	2115	2120	2120	2120	2124	2124	2124	2124	2127	2127	0	0	0	0	0	0	0	0	0	0	0	0	0	0	0	0	0	0	0	0	0	0	0	4323	4323	4332	4332	4332	4332	4332	4342	4332	4332	4332	4323	4323	4323	4313	4313	4313	4313	4304	4313	4323	4323	4342	4351	4380	4390	4410	4420	4420	4400	4351	4323	4285	4258	4239	4212	4194	4177	4168	4159	4150	4142	4133	4116	4099	4082	4065
2666	2666	2666	2670	2670	2673	2673	2673	2673	2673	2670	2670	2666	2662	2652	2652	2648	2648	2652	2652	2655	2659	2659	2662	2666	2673	2677	2681	2684	2688	2691	2695	2695	2699	2703	2703	2699	2699	2691	2691	2695	2699	2699	2699	2699	2699	2695	2691	2688	2677	2673	2666	2659	2652	2641	2634	2631	2631	2624	2624	2624	2624	2624	2624	2624	2627	2631	2634	2638	2641	2645	2652	2655	2662	2666	2673	2681	2684	2691	2695	2703	2703	2703	2703	2703	2699	2695	2691	2688	2684	2681	2677	2677	2677	2673	2673	2670	2670	2670	2670	2673	2673	2670	2673	2673	2673	2673	2673	2670	2670	2666	2659	2659	2652	2652	2648	2648	2645	2652	2655	2662	2666	2666	2670	2681	2684	2691	2699	2703	2706	2714	2717	2717	2717	2714	2706	2699	2688	2673	2659	2624	2606	2596	2582	2576	2569	2566	2562	2559	2559	2559	2559	2562	2566	2566	2569	2572	2579	2582	2589	2593	2596	2599	2603	2606	2610	2617	2620	2620	2624	2631	2638	2648	2655	2666	2677	2688	2703	2714	2721	2725	2736	2740	2748	2748	2751	2755	2763	2767	2771	2775	2779	2786	2790	2794	2798	2802	2802	2806	2806	2814	2818	2818	2818	2814	2814	2810	2810	2806	2798	2794	2790	2786	2782	2779	2771	2767	2767	2763	2763	2755	2755	2755	2755	2763	2763	2771	2775	2775	2782	2782	2786	2786	2786	2786	2782	2779	2775	2771	2767	2759	2751	2740	2732	2721	2717	2703	2699	2695	2691	2688	2688	2688	2688	2684	2688	2684	2684	2684	2688	2691	2691	2695	2695	2695	2699	2703	2703	2703	2706	2706	2706	2706	2706	2706	2703	2703	2699	2699	2695	2691	2691	2688	2688	2688	2684	2684	2684	2684	2691	2691	2695	2699	2699	2703	2703	2703	2703	2699	2691	2684	2677	2670	2662	2655	2648	2645	2641	2638	2634	2634	2634	2638	2641	2641	2645	2645	2645	2645	2645	2641	2634	2624	2617	2613	2606	2603	2603	2603	2603	2606	2617	2624	2634	2645	2655	2673	0	2688	2710	2725	0	0	0	0	0	0	0	0	0	0	0	5427	5442	5442	5442	5442	5442	5427	5427	5412	5383	5368	5354	5339	5325	5325	5311	5311	5311	5296	5282	5282	5268	5268	5240	5213	5185	5118	5066	5001	4914	4830	4738	4552	4470	4400	4342	4304	4267	4248	4239	4239	4239	4258	4267	4295	4323	4400	4480	4573	4693	4783	4818	4902	5027	5079	5118	5131	5131	5145	5145	5145	5131	5131	5131	5118	5105	5105	5092	5092	5092	5079	5079	5079	5053	5014	4989	4951	4902	4854	4807	4760	4726	4693	4670	4637	4573	4552	4531	4500	4470	4439	4410	4380	4351	4323	4304	4285	4276	4267	4267	4276	4295	4420	4541	4704	0	4878	5066	5254	5412	5503	5503	5503	5503	5488	5488	5488	5488	5488	5488	5503	5534	5565	5581	5612	5644	5677	5693	5693	5693	5677	5661	5612	5596	5549	5503	5457	5427	5398	5354	5339	5311	5254	5226	5213	5199	5185	5172	5158	5145	5131	5105	5092	5079	5066	5040	5027	5014	4989	4989	4989	4976	4964	0	0	0	0	0	0	0	0	1848	1850	1851	1851	1850	1848	1845	1843	1841	1836	1829	1822	1817	1811	1806	1801	1794	1785	1781	1778	1777	1777	1777	1781	1788	1796	0	0	1806	1814	0	0	0	0	2097	2102	2106	0	2122	2124	2120	2117	2117	2117	2115	2115	2113	2113	2111	2111	2111	2111	2113	2113	2115	2117	2120	2120	2122	2122	2122	2122	2124	2124	0	0	0	0	0	0	0	0	0	0	0	0	0	0	0	0	0	0	0	0	0	0	0	0	4323	4323	4323	4323	4323	4323	4332	4332	4332	4332	4332	4332	4332	4323	4323	4323	4323	4323	4323	4332	4342	4351	4361	4380	4400	4429	4439	4459	4449	4420	4410	4342	4313	4276	4258	4230	4212	4194	4177	4168	4159	4150	4133	4116	4107	4090	4065
2652	2652	2652	2652	2655	2659	2659	2659	2655	2655	2655	2655	2648	2641	2638	2638	2634	2634	2638	2638	2638	2641	2645	2648	2652	2659	2659	2666	2670	2677	2681	2681	2684	2688	2673	2673	2677	2673	2673	2677	2677	2681	2684	2684	2684	2681	2677	2673	2666	2659	2655	2645	2634	2631	2624	2620	2620	2617	2617	2617	2613	2617	2617	2617	2620	2620	2624	2627	2631	2634	2638	2641	2645	2652	2655	2662	2666	2673	2677	2684	2688	2688	2688	2688	2688	2684	2681	2681	2677	2670	2670	2666	2666	2662	2662	2662	2662	2662	2662	2662	2662	2662	2666	2666	2670	2670	2670	2666	2666	2666	2662	2659	2655	2652	2652	2648	2645	2641	2645	2652	2655	2659	2662	2666	2670	2677	2684	2688	2691	2695	2703	2706	2706	2703	2699	2688	2681	2666	2652	2624	2610	2596	2582	2576	2572	2569	2566	2562	2559	2559	2559	2562	2562	2562	2566	2569	2569	2572	2576	2582	2582	2586	2589	2593	2596	2599	2603	2603	2606	2610	2613	2620	2631	2638	2645	2659	2670	2684	2699	2706	2717	2725	2732	2740	2744	2748	2755	2759	2763	2767	2775	2779	2786	2794	2798	2802	2802	2810	2810	2814	2818	2818	2822	2818	2814	2814	2810	2806	2806	2798	2790	2786	2782	2775	2775	2767	2759	2755	2751	2751	2748	2751	2751	2751	2755	2755	2759	2763	2767	2771	2775	2771	2775	2775	2779	2775	2771	2767	2763	2759	2751	2744	2736	2729	2717	2714	2703	2699	2695	2691	2688	2688	2688	2688	2691	2688	2688	2688	2691	2691	2695	2695	2695	2695	2699	2703	2703	2706	2706	2706	2706	2710	2710	2710	2706	2706	2703	2703	2699	2695	2691	2688	2688	2684	2681	2681	2681	2681	2681	2681	2684	2684	2684	2688	2688	2688	2688	2684	2681	2673	2670	2662	2655	2652	2641	2638	2634	2631	2631	2631	2631	2634	2638	2638	2645	2648	2648	2652	2652	2648	2645	2641	2638	2627	2624	2617	2620	2624	2624	2631	2638	2645	2659	0	2670	2681	2688	2703	2725	2744	0	0	0	2802	0	0	0	0	0	0	0	0	0	5488	5503	5503	5503	5488	5488	5457	5442	5412	5398	5368	5354	5339	5325	5325	5311	5311	5311	5296	5296	5282	5268	5254	5240	5213	5185	5105	5040	4964	4890	4807	4715	4510	4429	4361	4313	4267	4248	4239	4248	4258	4276	4304	4351	4400	4470	4562	4670	0	4842	4927	4989	5027	5079	5118	5131	5145	5158	5145	5145	5131	5131	5118	5105	5092	5079	5066	5066	5066	5053	5066	5066	5040	5014	4989	4951	4914	4866	4818	4783	4738	4704	4681	4659	4627	4573	4541	4521	4490	4459	4429	4400	4371	4342	4323	4295	4285	4276	4285	4295	4313	4420	4531	4681	0	0	5014	5199	5339	5442	5442	5442	5442	5427	5427	5412	5412	5412	5412	5442	5472	5488	5518	5534	5581	5596	5628	5628	5628	5628	5596	5565	5534	5503	5457	5427	5398	5368	5339	5311	5296	5254	5240	5213	5199	5185	5185	5172	5158	5131	5118	5105	5092	5079	5066	5040	5027	5014	5001	5001	4989	4976	0	0	0	0	0	0	0	0	0	1845	1846	1845	1843	1841	1839	1836	1833	1828	1822	1816	1811	1804	1799	1796	1789	1781	1777	1775	1775	1775	1775	1780	1785	1791	0	0	0	0	0	0	0	2097	0	2122	2117	2117	2127	2127	2129	2127	2122	2122	2122	2120	2120	2115	2115	2115	2113	2115	2115	2115	2115	2115	2117	2117	2120	2120	2122	2122	2122	2122	2122	0	0	0	0	0	0	0	0	0	0	0	0	0	0	0	0	0	0	0	0	0	0	0	4323	4323	4332	4332	4323	4332	4332	4342	4342	4342	4342	4342	4342	4342	4342	4342	4342	4332	4332	4342	4361	4361	4380	4400	4420	4449	4459	4480	4470	4449	4429	4361	4332	4304	4276	4248	4230	4212	4203	4194	4177	4168	4142	4124	4116	4099	4082
