3282	3271	3260	3255	3249	3233	3218	3212	3192	3136	3106	3092	3072	3072	3082	3092	3106	3136	3166	3192	0	3223	3244	3255	3260	3271	3271	3271	3271	3271	3265	3265	3271	3276	3282	3293	3309	3309	3320	3337	3348	3354	3360	3365	3371	3377	3377	3389	3394	3406	3412	3418	3418	3424	3424	3424	3424	3418	3406	3394	3383	3360	3326	3287	3260	3212	3197	3181	3166	3156	3151	3151	3151	3146	3146	3141	3136	3131	3131	3131	3131	3136	3136	3141	3141	3141	3141	3141	3136	3131	3121	3116	3116	3111	3111	3116	3126	3141	3166	0	3192	3207	3223	3233	3244	3244	3239	3212	3197	3186	3171	3161	3156	3146	3136	3121	3116	3116	3116	3121	3131	3141	3156	3176	3207	3233	3260	3287	3309	3331	3354	3360	3371	3383	3383	3389	3394	3400	3406	3412	3412	3418	3424	3430	3436	3442	3448	3448	3442	3442	3448	3448	3448	3448	3448	3454	3454	3454	3454	3454	3448	3436	3424	3406	3383	3354	3304	3282	3249	3223	0	0	2798	2714	2613	2599	2596	2586	2579	2576	2572	2572	2572	2576	2576	2576	2576	2576	2576	2572	2572	2569	2569	2566	2562	2559	2559	2559	2562	2569	2576	2582	2593	0	2603	2613	2624	2638	2652	2666	2673	2684	2695	2706	2721	2732	2748	2759	2771	2782	2794	2802	2810	2818	2822	2826	2830	2830	2830	2830	2826	2822	2822	2822	2822	2822	2826	2830	2830	2838	2847	2851	2859	2867	2876	2880	2888	2901	2909	2918	2931	2944	2962	2984	3016	0	3053	3092	3136	3181	3233	3276	3315	0	3337	3354	3365	3377	3389	3389	3389	3389	3394	3406	3412	3424	3436	3460	3503	3560	3618	3713	0	3806	3904	3999	4065	4124	4168	4194	4212	4221	4221	4212	4203	4194	4185	4168	4150	4142	4133	4116	4133	4177	4248	4351	0	4490	4681	0	0	0	0	5398	5503	5518	5534	5534	5534	5534	5534	5534	5518	5518	5518	5503	5488	5488	5472	5457	5442	5427	5383	5339	5311	5268	5226	5185	5118	5027	4818	4693	4584	4480	4276	4194	4133	4099	4073	4048	4032	4007	3991	3959	3935	3928	3912	3897	3881	3874	3858	3851	3851	3843	3843	3851	3858	3874	3889	3912	3943	3983	4032	4099	0	4159	4230	4295	4490	0	4715	4927	0	0	5427	5565	5644	5726	5776	5810	5828	5828	5828	5845	5845	5845	5845	5828	5828	5810	5810	5810	5810	5810	5810	5810	5810	5810	5793	5776	5776	5760	5726	5710	5661	5628	5581	5534	5472	5427	5398	5368	5339	5325	5325	5311	5311	5311	5311	5311	5325	5339	5354	0	5383	5398	5427	5442	5472	5503	5549	5565	5581	5596	5628	5644	5677	5693	5693	5693	5710	5710	5693	5693	5677	5677	5677	5661	5661	5661	5661	5661	5661	5661	5661	5677	5677	5677	5693	5693	5693	5710	5710	5726	5726	5726	5743	5743	5760	5760	5760	5776	5793	5793	5810	5828	5845	5862	5880	5933	5987	6060	6116	6174	6252	6352	0	6414	6499	6542	6563	6542	6435	6352	6232	6116	5968	5862	5628	5503	0	0	0	0	4073	4057	4040	4024	4015	3983	3983	3983	3991	3991	3999	4007	4007	4007	4015	4015	4015	4015	4015	4007	4007	4007	3999	3999	3991	3991	3983	3975	3951	3943	3935	3912	3897	3881	3866	3858	3843	3836	3821	3814	3821	3821	3821	3821	3821	3829	3829	3836	3836	3843	3843	3843	3843	3843	3843	3843	3843	3843	3851	3851	3851	3858	3866	3866	3874	3874	3881	3889	3897	3897	3912	3920	3935	3959	3975	3991	4015	4024	4032	4048	4048	4040	4024	4015	3999	4007	4015	4024	4048	4073	4090	4116	4133	4150	4159	4159	4159	4168	4150	4150	4133	4124	4107	4090	4073	4048	4032	4015	3999	3991	3975	3959	3959	3943	3928	3928	3928	3920	3920	3920	3920	3920	3920	3920	3912	3912	3904	3897	3897	3889	3881	3874	3874	3866	3858	3858	3851	3843	3836	3829	3829	3821	3814	3806
3282	3271	3260	3249	3239	3228	3218	3202	3186	3131	3106	3087	3072	3072	3077	3087	3106	3126	3156	3186	3218	0	3239	3244	3255	3260	3265	3260	3260	3260	3260	3255	3260	3255	3265	3271	3282	3293	3309	3320	3337	3343	3348	3354	3360	3365	3371	3377	3389	3400	3406	3412	3418	3418	3418	3418	3412	3406	3394	3383	3365	3343	3320	3282	3255	3212	3192	3186	3171	3161	3156	3161	3156	3151	3151	3146	3136	3131	3131	3131	3131	3131	3131	3136	3136	3136	3136	3131	3126	3121	3111	3106	3106	3106	3106	3111	3121	3141	3156	0	0	3197	3207	3223	3228	3228	3218	3202	3197	3181	3166	3161	3151	3141	3141	3126	3126	3121	3121	3126	3131	3141	3156	3176	3202	3233	3260	3287	3309	3331	3354	3365	3377	3389	3394	3394	3394	3400	3412	3412	3418	3424	3430	3436	3442	3448	3448	3448	3448	3448	3448	3448	3454	3454	3460	3460	3460	3460	3460	3454	3448	3436	3424	3400	3377	3348	3293	3265	0	3218	3186	3053	0	0	2620	2610	2593	2589	2579	2576	2572	2572	2572	2572	2576	2576	2576	2576	2572	2572	2572	2572	2569	2569	2566	2566	2562	2566	2566	2572	2576	2586	2593	0	2603	2613	2620	2631	2645	2655	2670	2681	2691	2706	2717	2729	2740	2751	2767	2775	2786	2798	2806	2814	2818	2822	2826	2830	2830	2830	2826	2826	2826	2826	2826	2830	2830	2834	2838	2847	2855	2863	2871	2876	2884	2897	2905	2914	2927	2940	2953	2962	2980	3002	0	3030	3063	3096	3141	3186	3233	3276	3309	0	3337	3348	3365	3377	3377	3377	3377	3377	3383	3394	0	3412	3424	3448	3509	3585	3658	3777	0	3889	3999	4082	4150	4203	4230	4248	4258	4258	4258	4248	4239	4230	4221	4203	4185	4177	4159	4168	4203	4267	4361	0	4480	0	0	5040	0	5185	5296	5398	5488	5503	5518	5534	5534	5534	5534	5534	5518	5518	5518	5518	5503	5488	5472	5457	5442	5427	5368	5339	5311	5254	5213	5172	5105	5014	4795	4681	4573	4470	4276	4194	4133	4099	4065	4040	4024	3999	3983	3943	3935	3920	3904	3889	3874	3858	3851	3843	3843	3843	3843	3843	3858	3874	3889	3920	3959	4007	4082	0	4168	4258	4342	4420	0	4726	4927	5092	0	5383	0	5534	5612	5726	5760	5793	5810	5810	5810	5810	5828	5828	5810	5828	5810	5810	5810	5810	5810	5810	5810	5810	5810	5810	5793	5793	5776	5760	5726	5710	5661	5612	5565	5518	5472	5427	5398	5354	5339	5325	5311	5296	5296	5311	5311	5311	5325	5339	5339	5354	5383	5398	5427	5442	5472	5518	5549	5565	5596	5628	5644	5661	5677	5710	5710	5710	5693	5693	5693	5677	5677	5661	5661	5661	5661	5661	5661	5661	5661	5661	5661	5677	5677	5677	5677	5693	5693	5693	5710	5710	5710	5726	5726	5743	5743	5760	5760	5776	5793	5810	5810	5828	5845	5862	5897	5950	6005	6079	6135	6212	6292	0	6393	6477	6585	6629	6652	6652	6629	6477	6352	6212	6079	5968	5880	5661	5503	0	0	0	4048	4032	4024	4015	3991	3983	3983	3983	3991	3999	4007	4007	4015	4015	4015	4024	4024	4024	4024	4024	4024	4015	4015	4007	3999	3999	3991	3983	3959	3943	3928	3912	3897	3874	3858	3851	3843	3836	3829	3829	3829	3829	3829	3829	3829	3836	3836	3836	3843	3843	3843	3843	3843	3843	3843	3843	3843	3843	3851	3851	3851	3858	3858	3866	3874	3874	3881	3881	3881	3889	3897	3920	3928	3943	3967	3983	4007	4015	4032	4048	4048	4048	4040	4032	4024	4040	4048	4073	4090	4107	4124	4150	4168	4177	4168	4177	4168	4177	4159	4150	4133	4124	4107	4090	4073	4057	4040	4015	4007	3999	3983	3975	3967	3967	3959	3951	3943	3935	3935	3935	3935	3935	3935	3935	3928	3928	3920	3912	3904	3897	3889	3881	3874	3874	3866	3858	3851	3851	3836	3829	3829	3821	3814	3806
3282	3271	3260	3249	3239	3228	3218	3207	3192	3141	3111	3096	3077	3082	3082	3096	3111	3131	3156	3181	3207	0	3233	3244	3249	3255	3255	3255	3244	3244	3244	3239	3239	3244	3255	3260	3265	3276	3293	3304	3315	3320	3331	3331	3337	3348	3360	3365	3377	3389	3400	3406	3406	3406	3406	3406	3400	3389	3383	3365	3354	3326	3304	3271	3228	3207	3192	3186	3176	3166	3166	3166	3166	3156	3156	3146	3141	3136	3126	3126	3126	3126	3126	3126	3126	3126	3126	3121	3116	3106	3106	3096	3101	3101	3101	3101	3121	3126	3146	3156	3176	0	0	0	3207	3207	3202	3186	3181	3166	3161	3151	3146	3141	3131	3126	3126	3121	3121	3126	3131	3141	3156	3176	3202	3233	3260	3282	3309	3337	3360	3371	3383	3389	3394	3400	3400	3406	3412	3418	3424	3424	3430	3436	3442	3448	3448	3448	3448	3454	3454	3454	3460	3460	3466	3466	3466	3466	3466	3460	3448	3436	3424	3400	3377	3348	3293	3260	3239	3212	3181	3151	3082	0	2631	2617	2596	2589	2579	2579	2576	2576	2576	2576	2576	2576	2579	2576	2572	2572	2572	2572	2569	2569	2569	2569	2569	2569	2572	2572	2576	2582	0	2593	2603	2610	2620	2631	2641	2652	2666	2677	2688	2699	2710	2721	2736	2748	2759	2771	2779	2794	2802	2806	2814	2822	2826	2826	2830	2830	2830	2830	2826	2830	2830	2834	2838	2843	2851	2855	2867	2871	2884	2892	2901	2914	2922	2935	2944	2957	2966	2980	2993	3016	0	3039	3068	3106	3136	3186	3233	3276	3315	3331	0	3348	3365	3371	3377	3365	3365	3365	3371	3377	3394	0	3412	3436	3484	3566	3713	0	0	4040	4142	4203	4248	0	4285	4295	4304	4304	4295	4285	4276	4267	4248	4230	4212	4212	4212	4230	4285	4361	0	4470	4616	0	4976	0	5131	5254	5354	5412	5472	5503	5518	5518	5534	5534	5534	5534	5534	5534	5534	5518	5503	5488	5472	5457	5442	5427	5368	5339	5296	5254	5213	5158	5092	4989	4783	4670	4562	4459	4267	4194	4124	4090	4057	4032	4007	3991	3951	3935	3920	3904	3897	3874	3866	3858	3843	3843	3843	3836	3843	3851	3858	3881	3897	3935	3991	4040	0	4133	4239	4420	4510	4584	0	4760	4927	5053	0	5296	0	5427	5534	5661	5710	5743	5760	5776	5776	5776	5793	5793	5793	5793	5793	5793	5793	5793	5810	5810	5810	5810	5810	5810	5810	5793	5776	5760	5726	5693	5661	5612	5565	5518	5472	5412	5383	5354	5339	5325	5311	5311	5325	5311	5325	5325	5339	5354	5354	5383	5398	5427	5442	5472	5503	5534	5565	5581	5612	5628	5661	5677	5693	5710	5710	5710	5693	5693	5693	5677	5661	5661	5661	5661	5661	5661	5661	5661	5661	5661	5661	5661	5677	5677	5677	5677	5693	5693	5693	5693	5710	5710	5726	5726	5743	5743	5760	5760	5776	5793	5810	5828	5845	5880	5897	5950	6023	6097	6135	6232	6312	0	6414	6499	6607	6674	6720	6742	6720	6652	6499	6373	6232	6116	6023	5915	5828	5693	0	0	4015	4007	3999	3999	3991	3983	3983	3983	3999	4007	4015	4015	4024	4024	4032	4032	4040	4040	4032	4040	4032	4032	4024	4024	4015	4015	3999	3991	3959	3951	3928	3904	3889	3866	3858	3851	3843	3843	3836	3836	3836	3836	3836	3836	3836	3843	3843	3843	3843	3843	3843	3843	3843	3843	3843	3843	3843	3843	3851	3851	3858	3858	3858	3858	3866	3866	3874	3874	3874	3881	3889	3904	3920	3943	3959	3975	3991	4007	4032	4040	4048	4048	4032	4032	4024	4040	4065	4073	4107	4116	4133	4159	4177	4185	4168	4177	4168	4168	4150	4150	4133	4124	4107	4090	4073	4057	4040	4032	4015	4007	3999	3991	3983	3983	3975	3967	3959	3951	3951	3951	3951	3951	3951	3951	3943	3935	3928	3920	3912	3904	3897	3881	3881	3874	3874	3866	3851	3851	3836	3829	3829	3814	3806	3799
3276	3271	3255	3244	3233	3223	3212	3202	3192	3146	3126	3106	3087	3092	3092	3101	3116	3131	3156	3181	3202	0	3228	3239	3244	3244	3244	3244	3244	3239	3239	3233	3233	3239	3244	3249	3255	3265	3271	3282	3293	3304	3309	3315	3320	3331	3337	3348	3360	3371	3383	3394	3394	3394	3394	3394	3389	3377	3365	3348	3331	3315	3287	3260	3223	3202	3197	3192	3181	3176	3176	3181	3176	3166	3161	3151	3141	3131	3131	3121	3121	3121	3121	3121	3121	3116	3116	3116	3106	3101	3101	3096	3096	3096	3101	3106	3116	3126	3131	3141	3161	3171	3176	3181	3186	3181	3171	3166	3156	3146	3146	3146	3136	3136	3121	3121	3121	3121	3121	3121	3131	3136	3151	3171	3202	3228	3255	3282	3309	3337	3360	3371	3383	3389	3394	3400	3406	3412	3418	3424	3424	3430	3436	3442	3442	3448	3448	3448	3448	3454	3454	3454	3460	3460	3466	3466	3466	3466	3466	3460	3448	3436	3424	3400	3377	3348	3287	3260	3233	3218	3181	3151	3082	0	2645	2627	2603	2593	2586	2582	2579	2579	2579	2579	2579	2579	2579	2579	2579	2576	2576	2576	2576	2572	2572	2576	2572	2576	2576	2579	2582	2589	2593	2599	2603	2613	2620	2627	2638	2648	2662	2673	2684	2695	2706	2721	2732	2744	2755	2763	2775	2786	2798	2802	2810	2818	2822	2826	2830	2830	2830	2830	2830	2834	2838	2843	2847	2855	2859	2867	2876	2888	2897	2909	2918	2927	2940	2949	2962	2971	2984	2998	0	3012	3030	3049	3072	3106	3141	3181	3233	3276	3309	3331	0	3343	3354	3360	3360	3354	3348	3348	3354	3360	3371	3389	3412	0	3472	0	0	0	0	4203	0	4276	4323	4342	4361	4351	4351	4342	4342	4313	4304	4295	4285	4267	4258	4267	4285	4323	4380	0	4470	4594	0	4914	0	5079	5213	5311	5383	5427	5472	5488	5503	5518	5534	5534	5549	5549	5549	5549	5549	5534	5534	5518	5503	5488	5457	5442	5368	5339	5282	5240	5199	5131	5066	4976	4760	4659	4552	4449	4258	4185	4116	4073	4048	4015	3991	3975	3943	3928	3912	3897	3881	3874	3858	3851	3843	3836	3843	3843	3851	3858	3874	3889	3920	3967	4057	0	0	0	0	4480	4552	4616	0	4749	4890	5001	5131	5226	5339	0	5457	5581	5661	5677	5710	5726	5743	5743	5743	5743	5743	5743	5760	5760	5760	5760	5776	5793	5793	5793	5793	5793	5793	5776	5760	5743	5726	5693	5644	5596	5549	5503	5457	5412	5383	5354	5325	5311	5311	5311	5311	5311	5311	5325	5339	5354	5354	5383	5412	5427	5442	5472	5503	5549	5581	5596	5628	5644	5677	5693	5710	5726	5726	5726	5710	5693	5693	5677	5661	5661	5661	5661	5661	5661	5661	5661	5661	5661	5661	5661	5661	5661	5677	5677	5677	5677	5693	5693	5693	5693	5710	5710	5726	5743	5743	5760	5776	5793	5810	5828	5845	5880	5915	5968	6023	6097	6154	6232	6312	0	6414	6499	6629	6697	6742	6789	6789	6766	6697	6499	6373	6252	6174	6079	5987	5880	5693	4040	3999	3991	3991	3991	3983	3983	3991	3991	4007	4015	4024	4024	4032	4040	4048	4048	4048	4057	4057	4048	4048	4048	4040	4040	4032	4024	4015	3999	3975	3959	3935	3912	3889	3874	3858	3851	3851	3843	3843	3843	3843	3843	3843	3843	3843	3843	3851	3843	3843	3843	3843	3843	3843	3843	3843	3843	3843	3851	3851	3851	3858	3851	3851	3858	3858	3858	3866	3866	3866	3866	3881	3889	3904	3928	3943	3967	3983	3999	4015	4024	4032	4032	4024	4015	4007	4032	4048	4073	4090	4116	4133	4159	4168	4177	4168	4168	4159	4159	4142	4133	4124	4107	4090	4082	4065	4048	4040	4032	4024	4015	4007	3999	3991	3991	3991	3975	3975	3975	3967	3967	3967	3967	3959	3959	3951	3943	3935	3920	3912	3897	3889	3881	3874	3874	3866	3858	3851	3843	3836	3821	3821	3814	3799	3792
3265	3255	3244	3233	3228	3218	3207	3202	3186	3151	3136	3116	3106	3101	3106	3116	3131	3146	3161	3181	3202	3223	3228	3233	3239	3239	3239	3239	3239	3233	3233	3228	3228	3228	3233	3233	3239	3244	3255	3265	3276	3282	3287	3293	3298	3309	3320	3331	3343	3354	3365	3377	3383	3377	3377	3377	3371	3360	3343	3326	3315	3293	3276	3249	3218	3202	3197	3192	3186	3186	3186	3186	3186	3176	3166	3161	3146	3136	3126	3121	3116	3116	3116	3116	3111	3111	3111	3106	3101	3101	3096	3101	3096	3101	3101	3106	3111	3116	3121	3126	3136	3146	3151	3156	3156	3156	3151	3146	3131	3131	3131	3131	3126	3121	3121	3116	3111	3116	3116	3121	3131	3136	3151	3171	3197	3223	3255	3282	3315	3337	3360	3371	3383	0	3394	3400	3406	3412	3424	3424	3430	3430	3436	3442	3448	3448	3448	3448	3448	3454	3454	3460	3466	3466	3466	3472	3472	3472	3472	3460	3454	3436	3424	3400	3377	3348	3287	3265	3233	3212	3181	3156	3035	0	2652	2634	2606	2599	2593	2589	2586	2582	2582	2582	2582	2586	2582	2582	2582	2582	2582	2579	2579	2579	2582	2579	2582	2582	2593	2593	2593	2593	2596	2599	2606	2613	2617	2624	2634	2645	2659	2670	2681	2691	2703	2717	2729	2740	2751	2763	2771	2782	2790	2798	2806	2814	2818	2822	2826	2830	2834	2834	2838	2843	2847	2851	2855	2863	2871	2880	2888	2901	2914	2922	2931	2944	2957	2971	2980	2989	2998	0	3012	3021	3039	3058	3082	3106	3136	3181	3228	3271	3304	3326	3337	3343	0	3354	3348	3343	3331	3326	3331	3337	3343	3360	0	0	0	0	0	0	0	0	4400	4420	4420	4420	4410	4400	4400	4380	4371	4351	4342	4323	4323	4313	4313	4332	4361	0	4410	4490	4594	4726	0	5027	0	5172	5268	5339	5398	5442	5472	5472	5503	5518	5534	5534	5549	5549	5565	5565	5549	5549	5534	5518	5503	5488	5472	5457	5383	5339	5282	5240	5185	5118	5053	4964	4760	4659	4552	4449	4258	4177	4107	4065	4032	3999	3983	3959	3935	3920	3904	3889	3881	3866	3858	3843	3843	3843	3851	3858	3866	3866	3889	3928	3959	4024	0	0	0	0	4390	4521	4584	4637	0	4749	4866	4964	5053	5158	5254	5368	0	5488	5596	5612	5644	5661	5693	5693	5693	5693	5693	5710	5710	5710	5726	5726	5743	5760	5776	5776	5776	5776	5776	5760	5743	5726	5693	5661	5628	5581	5534	5488	5457	5412	5368	5339	5325	5296	5296	5296	5296	5296	5311	5311	5325	5339	5368	5383	5412	5427	5457	5488	5518	5565	5612	5628	5661	5693	5710	5743	5743	5760	5743	5743	5726	5710	5693	5693	5677	5661	5661	5644	5661	5644	5644	5644	5644	5661	5661	5661	5661	5661	5661	5661	5677	5677	5677	5677	5677	5677	5693	5710	5726	5743	5760	5776	5793	5810	5828	5845	5862	5880	5915	5968	6023	6079	6135	6212	6292	0	6393	6499	6585	6674	6742	6789	6836	6812	6789	6720	6520	0	6332	6232	6154	0	0	4024	3983	3983	3975	3983	3983	3983	3991	3999	4007	0	4024	4032	4040	4048	4057	4057	4065	4065	4065	4065	4065	4057	4057	4057	4057	4073	4057	4040	3999	3967	3943	3920	3889	3874	3858	3858	3858	3851	3851	3858	3851	3858	3858	3858	3858	3858	3858	3858	3858	3851	3851	3851	3851	3843	3843	3843	3843	3851	3851	3851	3858	3851	3858	3858	3858	3858	3858	3858	3866	3866	3881	3889	3904	3928	3943	3959	3975	3991	4007	4015	4024	4015	4007	4007	4007	4032	4048	4082	4099	4124	4142	4150	4168	4168	4159	4150	4150	4133	4124	4116	4107	4090	4082	4065	4057	4040	4032	4032	4024	4015	4007	4007	4007	3999	3999	3991	3983	3983	3975	3975	3975	3967	3967	3959	3951	3935	3928	3920	3904	3897	3881	3874	3874	3866	3858	3851	3843	3836	3821	3821	3806	3799	3792	3785
3255	3249	3233	3228	3218	3207	3202	3192	3181	3171	3141	3131	3116	3116	3116	3126	3136	3151	3166	3186	3202	3223	3223	3233	3233	3233	3233	3233	3228	3228	3228	3223	3223	3223	3223	3223	3228	3228	3233	3244	3249	3260	3265	3271	3282	3293	3304	3309	3326	3343	3354	3365	3371	3365	3365	3360	3354	3343	3331	3315	3298	3282	3260	3244	3218	3207	3202	3202	3197	3202	3202	3202	3197	3186	3176	3166	3156	3141	3131	3121	3121	3116	3111	3111	3111	3106	3106	3101	3101	3096	3096	3096	3096	3101	3101	3101	3106	3111	3111	3116	3121	3126	3126	3131	3131	3131	3126	3121	3121	3116	3116	3116	3116	3116	3111	3111	3106	3116	3116	3116	3121	3136	3151	3171	3197	3223	3255	3287	3315	3343	3360	3377	0	3389	3394	3400	3406	3412	0	3430	3436	3436	3442	3448	3448	3454	3454	3454	3454	3454	3454	3460	3466	3466	3472	3472	3472	3472	3472	3466	3454	3442	3430	3412	3383	3354	3293	3265	3233	3212	3181	3166	3116	2957	0	2648	2617	2613	2603	2603	2599	2596	2596	2593	2593	2593	2593	2593	2589	2589	2589	2586	2586	2589	2596	2596	2596	2596	2599	2599	2599	2599	2599	2603	2606	2610	2617	2620	2627	2638	2652	2662	2673	2688	2699	2714	2725	2736	2744	2755	2767	2775	2786	2790	2798	2806	2810	2818	2826	2830	2834	2838	2843	2847	2855	2859	2867	2876	2884	2892	2905	2914	2927	2935	2949	2966	2975	0	2989	2998	3007	3016	3025	3035	3049	3063	3087	3111	3141	3171	3223	3260	3293	3315	3331	3337	3348	3348	3343	3331	3320	3315	3315	3320	0	0	0	0	0	0	0	0	0	0	4552	4531	4490	4480	4459	4439	4429	4410	4400	4380	4371	4361	4351	4351	4361	0	4400	4439	4510	0	4715	0	5001	0	5131	5254	5325	5383	5427	5442	5457	5488	5503	5503	5518	5534	5549	5565	5565	5565	5565	5565	5565	5549	5534	5503	5488	5457	5383	5339	5282	5226	5172	5118	5040	4951	4760	4659	4541	4439	4248	4168	4099	4057	4024	3991	3975	3935	3920	3912	3897	3881	3874	3866	3858	3851	3851	3851	3858	3881	3897	3912	3928	3951	3991	4048	0	4116	0	4304	4429	4552	0	4648	0	4749	4842	4914	5001	5079	5158	5254	5398	0	5488	5549	5581	5596	5644	5644	5644	5644	5661	5661	5677	5677	5677	5693	5710	5726	5743	5743	5760	5743	5743	5726	5710	5693	5677	5644	5612	5565	5518	5488	5442	5398	5354	5325	5311	5282	5282	5282	5282	5296	5296	5296	5311	5339	5354	5398	5427	5442	5488	5518	5565	5596	5644	5677	5710	5726	5743	5760	5760	5776	5776	5760	5726	5710	5693	5693	5677	5661	5644	5644	5644	5644	5644	5644	5644	5644	5644	5644	5661	5661	5644	5661	5661	5661	5661	5661	5677	5677	5693	5710	5726	5743	5760	5776	5793	5810	5828	5845	5862	5897	5915	5968	6023	6079	6135	6193	6272	6352	0	6456	6542	6629	6720	6766	6812	6836	6836	6789	6720	6542	0	0	0	0	0	0	3975	3967	3967	3975	0	3983	3991	3999	0	4015	4024	4032	4040	4048	4057	4057	4065	4073	4082	4082	4082	4090	4090	4099	4099	4090	4082	4065	4015	3983	3943	3920	3889	3874	3866	3866	3858	3858	3858	3866	3866	3866	3866	3866	3866	3866	3866	3866	3858	3858	3858	3858	3858	3851	3851	3851	3851	3851	3851	3858	3858	3851	3851	3858	3858	3858	3858	3858	3866	3874	3881	3889	3912	3928	3943	3959	3975	3991	4007	4015	4024	4024	4007	4015	4024	4040	4065	4090	4107	4133	4142	4150	4159	4159	4150	4133	4124	4116	4099	4099	4082	4073	4065	4057	4048	4040	4032	4024	4024	4015	4015	4007	4007	4007	3999	3999	3991	3983	3983	3983	3975	3967	3959	3951	3943	3928	3912	3904	3889	3881	3866	3858	3858	3851	3843	3836	3829	3821	3814	3806	3799	3792	3785	3777
3228	3223	3218	3212	3207	3202	3192	3186	3176	3171	3151	3136	3126	3121	3126	3131	3146	3156	3171	3181	3202	3218	3223	3228	3228	3228	3223	3223	3223	3223	3223	3218	3218	3218	3218	3218	3218	3218	3223	3228	3233	3239	3244	3255	3265	3271	3282	3293	3309	3320	3337	3348	3354	3348	3348	3348	3337	3326	3315	3298	3282	3265	3249	3233	3218	3207	3207	3202	3207	3207	3212	3212	3207	3197	3186	3171	3161	3146	3136	3126	3121	3116	3116	3116	3111	3106	3106	3101	3101	3106	3101	3101	3101	3106	3106	3106	3111	3111	3111	3111	3116	3121	3116	3111	3111	3116	3121	3116	3116	3111	3111	3111	3111	3111	3111	3111	3106	3111	3111	3116	3121	3131	3151	3171	3192	3223	3255	3287	3315	3343	3360	3377	0	3389	3394	3400	3412	3412	3424	3430	3436	3442	3448	3448	3454	3454	3454	3454	3454	3454	3460	3466	3466	3466	3472	3472	3472	3478	3472	3466	3460	3448	3430	3412	3389	3360	3304	3271	3244	3218	3186	3161	3121	2962	0	0	2645	2634	2620	2617	2613	2610	2610	2606	2606	2606	2606	2603	2603	2613	2610	2610	2606	2606	2606	2606	2606	2606	2606	2606	2606	2603	2603	2606	2606	2610	2613	2617	2624	2634	2645	2655	2666	2681	2691	2706	2717	2732	2740	2751	2759	2771	2779	2786	2794	2798	2806	2814	2818	2826	2834	2838	2847	2855	2859	2867	2876	2884	2892	2905	2918	2931	2940	2953	2966	0	2980	2993	3002	3012	3021	3030	3039	3049	3063	3072	3092	3116	3136	3171	3212	3249	3282	3309	3320	3331	3337	3337	3337	3315	3304	0	0	0	0	0	0	0	0	0	0	0	4878	4715	4659	4594	4552	4521	4490	4459	4449	4439	4420	4400	4390	4390	4380	4390	4390	4410	4449	4510	0	4704	4818	4951	0	5079	5199	5282	5354	5383	5412	5442	5457	5472	5503	5518	5534	5549	5565	5565	5581	5581	5581	5581	5565	5565	5549	5518	5503	5472	5383	5325	5268	5213	5158	5105	5027	4951	4760	4659	4541	4439	4230	4150	4082	4040	4015	3983	3959	3928	3912	3904	3889	3874	3866	3866	3858	3866	3866	3874	3889	3897	3912	3928	3951	3975	4007	4065	0	4142	4212	4313	4439	4552	4616	0	4659	4726	4818	4878	4939	5014	5092	5185	5296	0	0	5488	5518	5549	5581	5596	5612	5612	5628	5628	5644	5661	5661	5677	5693	5710	5726	5726	5743	5743	5726	5726	5693	5677	5644	5628	5596	5549	5518	5472	5427	5398	5354	5325	5296	5282	5268	5268	5268	5268	5282	5282	5296	5325	5354	5398	5427	5457	5503	5534	5581	5644	5677	5726	5743	5776	5793	5793	5793	5793	5793	5776	5743	5726	5710	5693	5677	5661	5644	5644	5644	5644	5644	5644	5644	5644	5644	5644	5644	5644	5644	5644	5661	5661	5661	5661	5677	5693	5693	5710	5726	5743	5776	5793	5810	5828	5845	5862	5880	5897	5915	5950	6005	6060	6097	6154	6232	6312	0	6373	6477	6563	6652	6720	6789	6836	6860	6860	6812	6742	6697	6563	0	0	0	0	0	3967	3967	3967	3975	3983	3991	3999	0	4015	4024	4040	4040	4048	4057	4065	4073	4073	4090	4090	4099	4099	4099	4107	4116	4107	4099	4082	4032	3991	0	3935	3904	3881	3874	3874	3866	3874	3874	3874	3881	3881	3881	3881	3881	3881	3881	3874	3874	3874	3874	3866	3866	3858	3858	3858	3858	3858	3858	3858	3858	3851	3851	3851	3851	3858	3858	3858	3858	3866	3881	3889	3904	3928	3943	3959	3967	3983	3999	4015	4024	4024	4015	4015	4024	4048	4073	4107	4116	4133	4150	4150	4150	4150	4133	4124	4107	4090	4082	4073	4065	4057	4048	4040	4032	4032	4032	4024	4032	4024	4024	4024	4024	4024	4015	4007	4007	3991	3991	3983	3983	3975	3951	3943	3928	3912	3904	3889	3874	3866	3858	3851	3843	3836	3829	3821	3814	3814	3799	3792	3785	3777	3770	3763
3186	3186	3192	3186	3186	3186	3181	3181	3171	3171	3156	3151	3136	3136	3136	3146	3151	3161	3166	3181	3197	3212	3223	3223	3228	3223	3223	3218	3218	3218	3218	3212	3212	3207	3207	3207	3212	3212	3212	3218	3223	3223	3228	3239	3249	3255	3265	3276	3293	3309	3320	3331	3337	3337	3337	3331	3320	3309	3298	3282	3265	3249	3239	3218	3212	3212	3207	3212	3218	3218	3223	3218	3218	3202	3192	3181	3166	3151	3141	3131	3126	3121	3121	3116	3116	3111	3111	3111	3106	3111	3111	3106	3106	3111	3116	3116	3116	3116	3116	3116	3126	3126	3126	3121	3121	3121	3121	3116	3111	3111	3111	3111	3111	3111	3111	3111	3111	3111	3116	3116	3126	3136	3151	3171	3197	3223	3255	3287	3320	3343	3365	0	3377	3389	3394	3400	3412	3418	3424	3430	3436	3442	3448	3454	3454	3460	3454	3454	3454	3460	3460	3466	3466	3466	3472	3472	3472	3472	3472	3472	3460	3448	3436	3418	3394	3371	3309	3282	3255	3218	3192	3156	3121	2980	2818	2748	2710	2659	2645	2638	2634	2627	2627	2624	2620	2638	2634	2631	2627	2624	2624	2620	2620	2617	2617	2613	2613	2613	2610	2610	2610	2606	2606	2606	2606	2610	2610	2613	2620	2627	2638	2648	2662	2673	2688	2699	2714	2725	2736	2744	2755	2763	2771	2779	2786	2790	2798	2806	2818	2822	2830	2838	2847	2855	2867	2876	2884	2892	2901	2914	2927	2940	2953	0	2966	2980	2998	3007	3016	3025	3035	3044	3049	3058	3068	3077	3096	3116	3136	3171	3212	3249	3282	3298	3309	3326	3331	3326	0	0	0	0	0	0	0	0	0	0	5145	5105	5053	4976	4890	4818	4670	4627	4573	4531	4500	4480	4470	4459	4429	4420	4410	4400	4410	4410	4420	4449	4500	4584	4681	4795	4914	0	5027	5158	5254	5325	5368	5398	5427	5442	5472	5488	5503	5518	5534	5549	5565	5581	5581	5596	5596	5596	5596	5581	5565	5549	5518	5488	5457	5339	5282	5226	5158	5105	5027	4951	4783	4659	4552	4429	4212	4133	4073	4032	4007	3975	3951	3912	3904	3889	3881	3874	3866	3866	3866	3874	3881	3889	3904	3920	3935	3951	3975	4007	4032	0	4082	4150	4212	4323	4439	4552	4637	0	4670	4726	4807	4854	4902	4951	5014	0	5226	5339	5398	5457	0	5488	5534	5549	5565	5565	5581	5596	5612	5628	5644	5677	5693	5710	5726	5726	5726	5726	5710	5693	5677	5661	5628	5596	5581	5534	5503	5457	5412	5383	5354	5325	5296	5282	5268	5268	5268	5268	5282	5282	5296	5325	5339	5383	5427	5472	5503	5549	5628	5677	5726	5760	5793	5810	5828	5828	5828	5828	5810	5776	5760	5743	5710	5693	5677	5661	5644	5644	5644	5644	5644	5644	5644	5644	5644	5644	5644	5644	5644	5644	5661	5661	5661	5661	5677	5693	5710	5726	5743	5760	5776	5793	5810	5828	5845	5862	5880	5897	5915	5950	5987	6023	6060	6116	6174	6252	6312	0	6393	6477	6585	6674	6742	6812	6860	6908	6883	6836	6812	6766	6720	6674	0	0	0	3959	3967	3975	3975	3983	0	3999	4007	4015	4032	4040	4048	4048	4065	4065	4073	4082	4090	4090	4099	4099	4099	4116	4124	4124	4107	4090	4040	0	0	3943	3920	3889	3889	3889	3881	3881	3881	3889	3889	3897	3897	3897	3897	3897	3897	3897	3889	3889	3881	3881	3881	3874	3866	3866	3866	3866	3866	3858	3858	3851	3843	3851	3851	3851	3858	3858	3858	3866	3874	3889	3904	3928	3943	3959	3975	3991	3999	4015	4024	4032	4024	4024	4032	4065	4082	4107	4116	4124	4133	4142	4133	4133	4116	4099	4082	4073	4057	4057	4048	4040	4040	4032	4032	4032	4032	4032	4032	4032	4032	4032	4032	4032	4032	4024	4015	4007	3999	3991	3991	3975	3951	3935	3920	3912	3889	3881	3858	3851	3843	3836	3829	3829	3821	3821	3814	3806	3792	3792	3785	3777	3763	3763
3141	3151	3161	3161	3141	3146	3151	3156	3161	3166	3166	3151	3136	3136	3141	3146	3156	3161	3166	3181	3197	3212	3218	3223	3223	3218	3212	3212	3207	3207	3207	3202	3202	3202	3202	3202	3202	3202	3202	3207	3212	3218	3223	3228	3239	3244	3255	3271	3282	3293	3309	3320	3326	3326	3320	3320	3315	3298	3287	3271	3255	3244	3233	3218	3212	3218	3218	3223	3228	3233	3233	3228	3223	3212	3197	3186	3171	3156	3146	3136	3131	3126	3126	3121	3121	3121	3116	3116	3116	3116	3116	3116	3116	3121	3121	3126	3126	3126	3126	3126	3131	3136	3131	3126	3126	3126	3121	3116	3111	3111	3111	3111	3111	3111	3116	3111	3111	3111	3116	3121	3126	3136	3156	3176	3197	3228	3260	3293	3320	3343	3360	3371	0	3383	3394	3400	3406	3412	3418	3424	3436	3442	3448	3454	3454	3460	3460	3460	3460	3460	3466	3466	3466	3466	3472	3472	3472	3472	3472	3472	3460	3454	3442	3424	3400	3377	3354	3293	3255	3223	3186	3156	3116	0	0	0	2748	2710	2673	2662	2681	2673	2666	2662	2659	2655	2648	2645	2641	2641	2634	2631	2627	2624	2624	2620	2620	2617	2617	2613	2613	2610	2606	2606	2606	2606	2610	2613	2617	2624	2634	2645	2655	2666	2681	2691	2706	2717	2729	2740	2748	2759	2767	2771	2779	2782	2790	2802	2810	2818	2826	2838	2847	2859	2867	2880	2888	2901	2909	2922	2935	2949	0	2966	2980	2993	3012	3021	3030	3039	3049	3053	3058	3068	3077	3087	3101	3111	3136	3166	3202	3239	3260	3287	0	0	0	0	0	0	0	0	0	0	0	5199	5199	5172	5145	5092	5040	4964	4890	4818	4681	4637	4594	4541	4510	4490	4480	4459	4439	4429	4420	4420	4420	4439	4449	4490	4552	4648	4760	4878	0	5001	5118	5226	5311	5368	5398	5412	5442	5457	5472	5488	5503	5518	5534	5549	5565	5581	5596	5596	5596	5596	5596	5596	5581	5549	5534	5503	5457	5339	5282	5213	5158	5092	5027	4951	4795	4670	4562	4439	4212	4116	4057	4024	3991	3967	3943	3912	3897	3889	3881	3874	3874	3874	3874	3881	3889	3904	3920	3928	3951	3967	3991	4015	4048	0	4099	4150	4212	4304	4410	4552	4616	0	4659	4704	4760	4807	4854	4890	4951	5027	5131	5268	5339	5398	5442	5472	5488	5503	5534	5549	5565	5581	5596	0	5628	5644	5677	5693	5710	5726	5726	5710	5693	5677	5661	5644	5612	5581	5565	5518	5488	5442	5412	5383	5354	5325	5296	5282	5268	5254	5268	5268	5268	5282	5296	0	5339	5383	5412	5472	5534	5596	5661	5726	5760	5793	5845	5845	5862	5862	5845	5845	5828	5793	5776	5743	5726	5693	5677	5644	5644	5628	5644	5644	5644	5628	5628	5644	5644	5644	5644	5644	5644	5644	5661	5661	5677	5677	5677	5693	5710	5726	5743	5760	5776	5793	5810	5828	5845	5845	5862	5880	5915	5933	5968	5987	6023	6060	6116	6174	6232	6292	6373	0	6477	6585	6674	6766	6812	6883	6908	6908	6908	6883	6883	6860	0	0	0	3967	3967	3975	3983	3983	3991	3999	4007	4015	4032	4040	4048	4057	4057	4073	4073	4082	4090	4099	4099	4099	0	4107	4116	4107	4099	4082	4040	0	0	3951	3935	3912	3904	3904	3897	3897	3897	3904	3904	3904	3904	3904	3904	3912	3912	3904	3904	3904	3904	3897	3889	3889	3881	3881	3874	3874	3874	3866	3858	3858	3851	3851	3851	3851	3851	3851	3858	3866	3874	3889	3912	3928	3943	3951	3967	3991	3999	4024	4024	4024	4024	4024	4032	4057	4073	4090	4107	4116	4124	4124	4124	4116	4099	4090	4065	4057	4040	4040	4032	4032	4032	4032	4032	4032	4032	4040	4048	4048	4040	4048	4048	4048	4048	4040	4024	4015	4007	3999	3999	3959	3943	3928	3912	3897	3874	3866	3843	3836	3829	3829	3821	3814	3814	3806	3806	3799	3792	3785	3777	3777	3770	3763
3092	3121	3101	3116	3126	3131	3141	3146	3146	3156	3151	3141	3131	3131	3136	3146	3151	3161	3166	3176	3192	3207	3212	3218	3218	3212	3212	3207	3212	3207	3207	3207	3207	3202	3207	3202	3202	3202	3202	3202	3207	3207	3212	3218	3233	3239	3249	3260	3271	3287	3298	3309	3320	3315	3315	3315	3304	3298	3282	3265	3255	3244	3233	3218	3218	3223	3223	3228	3233	3239	3239	3233	3228	3218	3207	3192	3176	3161	3151	3141	3136	3136	3131	3131	3131	3126	3126	3126	3131	3131	3131	3131	3131	3136	3136	3136	3141	3141	3141	3136	3141	3141	3141	3136	3136	3131	3131	3121	3116	3116	3111	3111	3116	3116	3116	3111	3111	3116	3116	3121	3131	3141	3161	3176	3197	3228	3260	3287	3320	3343	3360	3365	3377	3383	3394	3400	3406	3412	0	3424	3436	3442	3448	3454	3460	3460	3460	3460	3460	3460	3460	3466	3466	3466	3472	3472	3472	3472	3472	3472	3460	3454	3442	3430	3412	3389	3365	3304	3265	3233	3192	3151	3063	2998	2949	2847	2814	2779	2755	2732	2717	2706	2688	2681	2677	2673	2666	2662	2659	2655	2648	2645	2638	2634	2631	2627	2624	2620	2620	2617	2613	2610	2606	2606	2603	2603	2606	2606	2613	2617	2627	2638	2648	2662	2673	2688	2699	2714	2721	2732	2744	2751	2759	2767	2771	2779	2786	2794	2802	2814	2822	2834	2843	2855	2867	2880	2888	2901	2914	2927	2944	0	2957	2975	2989	3007	3021	3035	3039	3049	3058	3058	3068	3072	3077	3087	3096	3106	3126	3146	3176	3202	0	0	0	0	0	0	0	0	0	0	0	5213	5199	5199	5185	5172	5131	5092	5027	4951	4890	4818	4681	4637	4584	4552	4510	4490	4480	4470	4449	4439	4420	4420	4439	4459	4470	4521	4605	4715	4830	4939	0	5066	5172	5282	5354	5398	5427	5442	5457	5472	5488	5503	5503	5518	5534	5549	5565	5581	5581	5596	5596	5596	5596	5596	5581	5565	5534	5503	5472	5325	5268	5213	5145	5092	5014	4939	4807	4681	4562	0	4203	4107	4040	4015	3991	3959	3943	3912	3897	3889	3881	3874	3874	3874	3881	3889	3904	3912	3928	3943	3959	3975	4007	4024	4048	0	4099	4142	4185	4267	4371	4500	4594	4627	0	4681	4726	4772	4818	4866	4914	4989	5105	5240	5311	5383	5412	5457	5488	5488	5503	5518	5534	5565	5581	5612	5628	0	5661	5677	5693	5710	5710	5693	5677	5661	5628	5596	5581	5565	5534	5503	5472	5427	5398	5383	5339	5311	5282	5268	5254	5254	5254	5254	5254	5268	0	5296	5325	5368	5427	5472	5534	5612	5710	5743	5793	5828	5862	5880	5880	5880	5880	5845	5828	5810	5776	5743	5726	5693	5677	5644	5644	5628	5628	5628	5628	5628	5628	5628	5644	5644	5644	5644	5644	5661	5661	5677	5677	5677	5693	5710	5726	5743	5760	5776	5776	5793	5810	5828	5828	5845	5862	5862	5897	5915	5933	5950	5987	6005	6041	6079	6135	6193	6272	6352	0	6456	6563	6652	6742	6812	6883	6932	6932	6981	6956	6956	0	0	0	3975	3975	3983	3991	3991	3991	4007	4015	4024	4032	4040	4048	4057	4065	4065	4073	4073	4082	4090	4090	4090	4090	4090	4099	4099	4082	4065	4040	0	0	3967	3943	3928	3920	3920	3920	3912	3912	3912	3920	3920	3920	3920	3920	3920	3920	3920	3920	3920	3912	3912	3904	3904	3897	3889	3889	3881	3881	3874	3866	3858	3851	3858	3851	3858	3858	3851	3858	3866	3866	3889	3912	3928	3943	3959	3975	3991	4007	4024	4032	4024	4024	4024	4040	4048	4065	4082	4090	4099	4107	4107	4116	4099	4090	4073	4057	4048	4040	4032	4032	4032	4032	4032	4032	4040	4048	4057	4057	4065	4065	4065	4065	4065	4065	4057	4040	4024	4015	4007	3999	3983	3943	3920	3897	3881	3866	3851	3836	3829	3821	3814	3814	3814	3814	3806	3799	3799	3792	3792	3777	3777	3770	3763
3063	3077	3092	3106	3116	0	3126	3131	3136	3146	3136	3131	3126	3121	3126	3136	3146	3151	3156	3166	3181	3197	3202	3207	3207	3207	3207	3207	3207	3207	3207	3207	3207	3207	3202	3207	3207	3202	3202	3202	3202	3202	3207	3212	3223	3228	3239	3249	3265	3276	3293	3298	3304	3309	3309	3309	3304	3293	3287	3271	3260	3249	3239	3233	3228	3228	3233	3239	3244	3244	3244	3239	3233	3223	3212	3197	3181	3171	3156	3151	3146	3141	3141	3141	3141	3141	3141	3141	3141	3141	3146	3146	3146	3146	3151	3151	3151	3151	3151	3151	3156	3156	3156	3146	3146	3141	3136	3131	3126	3121	3116	3121	3121	3121	3121	3121	3121	3121	3121	3131	3136	3146	3161	3176	3197	3228	3255	3293	3320	3337	3354	3365	3371	3377	3377	3394	3400	3406	3418	3424	0	3436	3448	3454	3460	3466	3460	3466	3466	3466	3466	3466	3466	3466	3472	3466	3472	3472	3472	3472	3460	3454	3448	3436	3418	3394	3371	3309	3271	3233	3192	3151	3058	3007	2957	2914	2838	2806	2786	2759	2744	2732	2721	2710	2695	2691	2684	2681	2673	2666	2662	2655	2648	2641	2638	2631	2627	2624	2620	2617	2613	2610	2606	2603	2603	2603	2603	2606	2610	2617	2624	2634	2645	2655	2670	2681	2691	2706	2714	2725	2732	2744	2751	2759	2763	2771	2775	2786	2794	2806	2814	2826	2838	2851	2863	2876	2888	2901	2914	2927	2944	0	2962	2975	2993	3012	3025	3039	3049	3053	3063	3068	3072	3072	3077	3082	3087	3096	3106	3126	3151	0	0	0	0	0	0	0	0	0	0	0	5213	5213	5213	5199	5185	5172	5131	5079	5014	4951	4878	4807	4681	4627	4584	4541	4510	4480	4470	4459	4439	4439	4439	4439	4449	4459	4480	4541	4637	4760	4866	0	4989	5118	5226	5311	5383	5427	5457	5472	5488	5488	5503	5518	5518	5534	5549	5549	5565	5581	5581	5581	5596	5581	5596	5581	5581	5549	5534	5503	5472	5339	5268	5213	5145	5092	5027	4951	4795	4670	0	0	4203	4107	4040	4015	3991	3959	3943	3912	3897	3889	3881	3881	3881	3881	3889	3897	3912	3920	3935	3951	3959	3983	4007	4032	4048	0	4090	4133	4185	0	4371	0	0	4637	0	4681	4738	4783	4818	4866	4927	4989	5079	5213	5282	5354	5398	5442	5457	5472	5488	5503	5518	5549	5565	5596	5612	5644	0	5677	5693	5693	5693	5677	5644	5628	5596	5581	5549	5534	5503	5488	5457	5427	5383	5354	5325	5296	5268	5254	5226	5226	5213	5226	5226	5240	5268	5296	0	5354	5398	5472	5534	5612	5710	5760	5810	5845	5880	5897	5897	5897	5880	5845	5828	5793	5776	5743	5710	5693	5677	5644	5628	5628	5628	5628	5628	5628	5628	5628	5644	5644	5644	5644	5661	5661	5661	5677	5693	5693	5710	5710	5726	5743	5760	5776	5776	5793	5810	5810	5828	5828	5845	5845	5862	5880	5897	5915	5933	5968	5987	6023	6041	6097	6174	6252	6332	0	6456	6563	6674	6766	6860	6908	6932	6981	6981	0	0	0	3991	3975	3983	3999	3999	4007	4007	4015	4024	4032	4032	4040	4048	4048	4057	4065	4065	4065	4073	4073	4082	4082	4073	4073	4082	4082	4073	4048	4032	4015	3999	3975	3959	3943	3935	3935	3935	3928	3928	3928	3928	3935	3928	3928	3928	3928	3928	3928	3928	3928	3928	3920	3920	3912	3912	3904	3897	3889	3889	3881	3874	3866	3858	3858	3858	3858	3858	3866	3866	3874	3874	3897	3920	3935	3951	3967	3983	3999	4007	4024	4032	4024	4024	4024	4032	4040	4048	4065	4082	4090	4099	4099	4090	4090	4082	4065	4057	4048	4040	4040	4040	4040	4040	4048	4048	4057	4065	4073	4073	4082	4082	4090	4090	4082	4082	4073	4065	4048	4032	4024	4007	3983	3943	3920	3889	3874	3858	3843	3829	3821	3814	3814	3806	3814	3806	3806	3799	3799	3792	3792	3785	3777	3770	3763
3035	3049	3068	3082	3092	3101	3106	3116	3121	3121	3116	3111	3106	3106	3111	3121	3131	3136	3146	3156	3166	3176	3192	3197	3197	3197	3202	3202	3202	3207	3207	3207	3207	3207	3207	3207	3207	3207	3207	3202	3202	3202	3202	3207	3218	3218	3228	3239	3249	3265	3276	3287	3298	3298	3304	3309	3309	3298	3287	3282	3265	3260	3249	3244	3239	3233	3239	3244	3249	3255	3249	3244	3239	3228	3218	3202	3192	3181	3171	3161	3156	3156	3156	3151	3156	3151	3151	3156	3156	3161	3166	3166	3166	3161	3166	3166	3166	3166	3161	3166	3166	3171	3166	3161	3156	3156	3146	3141	3131	3131	3126	3126	3126	3126	3131	3126	3126	3126	3131	3136	3141	3151	3166	3181	3202	3228	3260	3287	3309	3331	3343	3354	3360	3371	3377	3383	3389	3394	3406	3418	3424	0	3442	3448	3460	3460	3466	3466	3466	3466	3466	3466	3466	3466	3466	3466	3472	3466	3466	3466	3460	3454	3448	3436	3418	3406	3383	3354	3282	3239	3197	3151	3063	3016	2971	2931	2863	2834	2814	2790	2771	2759	2748	2736	2725	2717	2703	2695	2688	2681	2673	2662	2655	2648	2641	2634	2627	2624	2617	2613	2610	2606	2603	2599	2599	2599	2599	2603	2610	2613	2624	2631	2641	2652	2666	2677	2688	2699	2706	2717	2725	2732	2740	2751	2755	2759	2767	2779	2786	2798	2810	2822	2830	2843	2855	2867	2880	2892	2909	2922	2944	0	2957	2975	2993	3012	3030	3039	3053	3058	3068	3068	3072	3072	3077	3077	3082	3087	3092	0	0	0	0	0	0	0	0	0	0	0	5199	5199	5213	5213	5213	5199	5185	5158	5131	5079	5014	4939	4866	4795	4670	4616	4562	4521	4490	4480	4459	4449	4449	4429	4429	4429	4449	4470	4500	4552	4659	4772	4890	0	5001	5131	5240	5325	5412	5457	5488	5488	5503	5518	5534	5534	5549	5549	5565	5565	5581	5581	5581	5581	5581	5581	5581	5581	5565	5549	5534	5503	5472	5339	5268	5213	5145	5079	5014	4939	4783	4670	4541	0	4194	4099	4048	4015	3999	3967	3943	3920	3904	3897	3889	3889	3889	3889	3897	3904	3912	3928	3943	3951	3967	3983	4007	4024	4040	4073	0	4124	4177	0	0	0	0	0	0	4749	4807	4842	4878	4927	4976	5040	5118	5226	5311	5354	5383	5427	5457	5472	5488	5503	5518	5534	5565	5596	5612	0	5661	5677	5677	5693	5677	5661	5628	5612	5565	5549	5518	5503	5488	5457	5427	5398	5368	5339	5296	5268	5240	5226	5199	5199	5199	5199	5199	5213	5240	5282	0	5325	5383	5442	5534	5612	5710	5760	5810	5862	5897	5915	5915	5897	5880	5845	5810	5793	5776	5743	5710	5693	5661	5644	5628	5628	5612	5612	5612	5612	5612	5628	5644	5644	5644	5644	5661	5661	5677	5693	5693	5710	5710	5726	5743	5760	5776	5776	5793	5793	5793	5793	5810	5810	5810	5828	5828	5845	5862	5862	5880	5897	5933	5968	5987	6023	6079	6174	6252	6352	0	6456	6563	6674	6789	6812	6932	6981	0	0	4007	3999	4007	4007	4007	4007	4015	4015	4015	4024	4032	4032	4040	4040	4040	4048	4057	4057	4057	4065	4065	4065	4065	4065	4073	4065	4073	4065	4057	4040	4032	4024	4007	3991	3975	3959	3959	3951	3951	3951	3943	3943	3943	3943	3935	3935	3935	3935	3935	3935	3935	3935	3935	3935	3928	3928	3920	3920	3912	3904	3897	3897	3889	3881	3874	3874	3874	3874	3874	3881	3889	3889	3897	3920	3935	3959	3967	3983	3999	4007	4015	4040	4032	4040	4032	4032	4040	4040	4048	4065	4073	4082	4090	4090	4090	4090	4082	4073	4073	4057	4057	4057	4057	4057	4065	4065	4073	4073	4082	4090	4099	4099	4107	4107	4116	4107	4099	4090	4082	4073	4057	4040	4024	3999	3951	3920	3897	3874	3851	3836	3821	3821	3814	3814	3814	3814	3814	3806	3799	3799	3799	3792	3785	3777	3770	3763
3007	3021	3039	3053	3068	3077	3087	3087	3092	3092	3092	3092	3087	3087	3092	3101	3111	3116	3126	3136	3151	3161	3171	3181	3186	3192	3192	3197	3197	3202	3207	3212	3212	3212	3212	3212	3212	3212	3207	3207	3202	3202	3202	3202	3212	3212	3218	3228	3239	3255	3265	3276	3287	3293	3304	3304	3309	3304	3293	3287	3276	3271	3265	3260	3255	3249	3255	3260	3260	3260	3260	3255	3244	3239	3223	3207	3197	3186	3176	3171	3171	3166	3166	3166	3166	3166	3166	3171	3171	3176	3181	3181	3176	3176	3181	3181	3176	3176	3176	3171	3176	3181	3181	3176	3176	3166	3161	3156	3151	3146	3141	3141	3136	3141	3136	3136	3136	3141	3141	3146	3156	3166	3176	3192	3207	3228	3255	3276	3304	3320	3331	3337	3348	3360	3365	3371	3377	3389	3394	3406	3418	3436	3442	0	3454	3460	3466	3466	3466	3466	3466	3466	3466	3466	3466	3466	3466	3466	3460	3454	3454	3448	3442	3436	3424	3412	3394	3365	3287	3244	3197	3151	3063	3016	2980	2944	2914	2859	2834	2814	2798	2782	2771	2759	2748	2736	2729	2721	2706	2695	2684	2673	2662	2652	2645	2634	2627	2620	2613	2610	2606	2603	2599	2599	2599	2599	2599	2603	2606	2613	2620	2627	2638	2648	2659	2670	2681	2691	2699	2706	2714	2725	2732	2740	2748	2751	2759	2767	2779	2790	2798	2810	2822	2834	2847	2859	2871	2884	2901	2918	2935	0	2953	2971	2993	3012	3025	3044	3053	3058	3068	3072	3077	3077	3077	3077	3077	3077	3082	0	0	0	0	0	0	0	0	0	0	5199	5199	5199	5213	5199	5199	5185	5172	5158	5131	5079	5014	4927	4854	4715	4659	4594	4541	4500	4480	4470	4459	4439	4429	4420	4420	4420	4439	4459	4480	4541	4648	4760	4878	0	5001	5131	5254	5339	5427	5472	5503	5518	5534	5534	5549	5549	5565	5565	5565	5581	5581	5581	5581	5581	5581	5581	5581	5565	5565	5549	5518	5503	5457	5339	5254	5199	5145	5079	5014	4939	4772	4659	4531	4295	4185	4099	4057	4032	3999	3975	3959	3943	3912	3904	3904	3897	3897	3897	3904	3912	3928	3935	3943	3951	3967	3983	3999	4024	4040	4065	0	4107	0	0	0	0	0	0	0	0	4866	4914	4939	5001	5040	5105	5185	5268	5339	5383	5412	5442	5472	5488	5488	5518	5534	5565	0	5596	5628	5644	5677	5693	5693	5677	5661	5644	5612	5581	5549	5518	5503	5472	5457	5427	5398	5368	5325	5296	5268	5226	5199	5172	5172	5172	5172	5172	5172	5185	5226	5254	0	5311	5368	5427	5503	5596	5677	5760	5810	5845	5880	5915	5933	5897	5880	5845	5828	5793	5760	5726	5710	5677	5661	5628	5628	5612	5612	5612	5612	5612	5612	5628	5644	5644	5644	5661	5661	5677	5693	5693	5710	5710	5726	5743	5760	5760	5776	5776	5793	5793	5793	5793	5793	5793	5793	5793	5793	5810	5828	5828	5845	5862	5880	5897	5933	5968	6005	6079	6154	6252	6352	6373	0	6585	6607	0	0	0	4024	4015	4007	4015	4015	4015	4015	4024	4015	4024	4032	4032	4040	4040	4040	4048	4048	4048	4048	4048	4057	4057	4065	4065	4065	4057	4057	4057	4057	4048	4048	4032	4032	4024	4007	3999	3983	3983	3967	3967	3959	3959	3951	3951	3951	3951	3943	3943	3943	3943	3943	3943	3943	3943	3943	3935	3935	3935	3928	3928	3920	3912	3904	3904	3904	3897	3897	3897	3897	3904	3904	3904	3912	3920	3920	3943	3959	3983	3991	3999	4015	4024	4032	4048	4048	4048	4048	4048	4048	4057	4065	4073	4082	4090	4099	4099	4099	4099	4099	4090	4082	4082	4073	4082	4082	4082	4082	4082	4090	4099	4099	4107	4116	4124	4124	4133	4133	4124	4124	4116	4107	4090	4073	4065	4040	4015	3991	3935	3904	3881	3866	3851	3836	3829	3821	3821	3821	3821	3814	3814	3806	3799	3799	3792	3785	3777	3770	3763
2980	2998	3016	3030	3044	3053	3058	3063	3068	3068	3068	3072	3068	3068	3077	3082	3092	3101	3111	3121	3131	3141	3151	3166	3171	3176	3181	3192	3192	3202	3207	3212	3218	3218	3218	3218	3218	3218	3218	3212	3207	3202	3207	3202	3207	3207	3212	3218	3228	3244	3255	3265	3276	3282	3287	3298	3304	3298	3293	3287	3282	3276	3271	3265	3260	3255	3255	3265	3265	3265	3260	3255	3249	3239	3228	3212	3207	3192	3186	3181	3181	3181	3181	3181	3181	3181	3181	3181	3186	3186	3186	3186	3186	3186	3186	3186	3186	3186	3181	3181	3181	3186	3186	3181	3181	3176	3171	3171	3161	3161	3156	3156	3151	3151	3151	3151	3151	3156	3156	3161	3171	3176	3186	3202	3212	3228	3255	3271	3287	3298	3315	3320	3331	3343	3343	3354	3365	3371	3383	3394	3406	3424	3436	3448	3454	3460	3466	3466	3466	3472	3472	3472	3472	3472	3466	3460	3460	3454	3454	3448	3448	3442	3436	3430	3424	3412	3394	3371	3298	3249	3202	3156	3063	3021	2984	2953	2927	2901	2855	2834	2818	2802	2790	2779	2767	2759	2748	2736	2729	2706	2695	2684	2673	2659	2648	2638	2627	2620	2617	2610	2606	2603	2599	2596	2596	2599	2599	2606	2610	2613	2620	2631	2638	2645	2652	2659	2670	2681	2691	2699	2706	2717	2725	2732	2740	2748	2751	2759	2771	2782	2790	2802	2814	2826	2838	2851	2863	2876	2888	2905	2927	2944	0	2966	2984	3007	3025	3039	3053	3063	3068	3072	3072	3077	3072	3072	3072	3072	3072	0	0	0	0	0	0	0	0	0	0	5185	5185	5199	5199	5199	5185	5185	5172	5145	5118	5066	5001	4927	4854	4715	4659	4594	4541	4500	4470	4459	4449	4429	4420	4410	4410	4410	4420	4449	4459	4510	4616	4738	4854	4964	0	5105	5213	5325	5412	5472	5503	5518	5534	5549	5565	5565	5565	5565	5581	5581	5581	5581	5581	5581	5581	5581	5581	5565	5549	5534	5518	5488	5457	5339	5268	5213	5145	5092	5001	4939	4760	4648	4521	4285	4185	4099	4065	4040	4007	3983	3959	3943	3920	3912	3912	3912	3912	3912	3912	3920	3928	3943	3951	3959	3967	3983	3999	4015	4032	4048	0	4090	0	0	0	0	0	0	4818	4866	4927	4976	5001	5040	5092	5145	5213	5296	5354	5398	5427	5472	5488	5503	5518	0	5549	5565	5581	5612	5628	5661	5693	5693	5677	5661	5644	5628	5596	5565	5518	5488	5457	5442	5412	5383	5354	5311	5268	5240	5226	5158	5158	5145	5145	5145	5145	5145	5158	5185	5199	5240	0	5311	5354	5427	5503	5596	5677	5743	5793	5845	5880	5915	5915	5915	5880	5845	5828	5793	5760	5726	5710	5677	5661	5628	5628	5612	5612	5612	5612	5612	5612	5628	5644	5644	5661	5661	5677	5693	5693	5710	5710	5726	5743	5743	5760	5760	5776	5776	5776	5793	5776	5776	5760	5776	5776	5760	5776	5776	5776	5793	5810	5828	5845	5862	5897	5933	5968	6023	6023	6097	6193	0	0	0	0	0	0	4032	4024	4032	4032	4032	4032	4032	4032	4040	4040	4040	4040	4048	4048	4048	4048	4048	4048	4057	4057	4057	4057	4057	4057	4057	4057	4048	4048	4048	4040	4040	4032	4024	4024	4015	4007	4007	3999	3991	3991	3983	3983	3975	3967	3967	3959	3959	3951	3951	3951	3943	3943	3943	3943	3943	3943	3943	3935	3935	3935	3935	3935	3920	3920	3920	3920	3920	3912	3912	3912	3920	3928	3928	3928	3935	3935	3959	3983	3999	4007	4024	4024	4040	4048	4057	4057	4048	4048	4048	4057	4057	4065	4073	4082	4090	4099	4107	4107	4107	4107	4107	4107	4099	4099	4099	4099	4107	4107	4107	4107	4107	4116	4116	4124	4133	4133	4142	4142	4133	4133	4124	4116	4107	4090	4082	4057	4032	4007	3951	3920	3897	3874	3858	3851	3836	3836	3829	3829	3829	3821	3814	3806	3799	3799	3792	3785	3777	3770	3756
2957	2971	2989	3002	3021	3030	3035	3039	3044	3044	3049	3053	3058	3053	3058	3068	3072	3082	3092	3096	3111	3121	3131	3146	3156	3161	3171	3181	3192	3202	3212	3223	3228	3228	3228	3228	3228	3228	3228	3223	3218	3212	3207	3207	3207	3202	3207	3212	3223	3233	3244	3255	3265	3271	3276	3287	3293	3293	3287	3282	3282	3276	3271	3265	3260	3260	3260	3260	3265	3265	3260	3255	3249	3239	3228	3218	3212	3202	3197	3192	3192	3192	3186	3192	3197	3192	3192	3192	3192	3197	3197	3197	3192	3192	3192	3192	3192	3192	3186	3186	3192	3192	3192	3192	3186	3186	3181	3176	3176	3166	3166	3166	3166	3166	3166	3166	3161	3166	3166	3171	3181	3186	3197	3207	3218	3228	3244	3260	3271	3282	3293	3304	3309	3320	3326	3337	3348	3354	3365	3383	3394	3412	3430	3442	3448	3454	3460	3466	3466	3466	3466	3466	3460	3460	3454	3448	3448	3442	3442	3436	3436	3430	3430	3424	3412	3406	3394	3371	3298	3255	3207	3166	3072	3030	2993	2966	2935	2914	2871	2851	2834	2818	2806	2794	2782	2775	2759	2751	2740	2717	2706	2691	2681	2666	2655	2645	2634	2624	2613	2610	2606	2603	2599	2599	2599	2599	2603	2606	2613	2617	2624	2627	2634	2645	2652	2655	2666	2673	2681	2691	2699	2706	2717	2725	2732	2740	2744	2755	2763	2775	2782	2790	2802	2814	2826	2838	2851	2863	2876	2892	2914	2931	2953	0	2975	2998	3016	3030	3049	3058	3063	3068	3068	3072	3072	3068	3072	3068	3068	0	0	0	0	0	0	0	0	0	5172	5185	5185	5199	5199	5185	5185	5185	5172	5145	5118	5066	5001	4939	4854	4783	4670	4605	4541	4500	4470	4449	4439	4420	4410	4400	4390	4390	4400	4420	4429	4470	4573	4681	4807	4927	0	5066	5199	5325	5412	5488	5518	5534	5549	5549	5565	5565	5581	5581	5596	5596	5596	5596	5596	5581	5596	5581	5581	5565	5549	5534	5518	5488	5457	5339	5268	5213	5158	5092	5001	4927	4738	4627	4521	4285	4203	4116	4082	4048	4024	3991	3975	3959	3943	3928	3920	3920	3920	3920	3928	3928	3935	3943	3951	3959	3967	3983	3999	4015	4024	4040	0	4082	0	0	0	0	4715	4890	4902	4951	5001	5040	5066	5105	5145	5185	5254	5325	5383	5412	5427	5472	5488	5503	0	5534	5549	5581	5596	5628	5644	5661	5661	5677	5661	5644	5628	5581	5549	5534	5488	5457	5427	5398	5368	5325	5296	5254	5226	5199	5172	5131	5118	5105	5118	5118	5118	5131	5131	5172	5199	5240	5296	0	5354	5412	5503	5581	5661	5726	5793	5845	5880	5915	5915	5897	5862	5845	5810	5776	5760	5726	5710	5677	5661	5644	5628	5612	5612	5612	5612	5612	5628	5628	5644	5661	5661	5677	5677	5693	5710	5710	5726	5743	5743	5760	5776	5776	5776	5776	5776	5776	5776	5760	5760	5743	5743	5743	5743	5743	5760	5760	5776	5793	5810	5845	5828	5880	5897	5933	5968	6041	6116	0	0	0	4057	4057	4048	4040	4040	4032	4032	4040	4040	4040	4040	4040	4048	4048	4057	4057	4057	4057	4057	4057	4057	4057	4057	4057	4057	4057	4048	4057	4048	4048	4040	4040	4040	4040	4032	4024	4024	4015	4015	4007	4007	3999	3991	3991	3983	3983	3975	3975	3967	3967	3959	3959	3951	3951	3951	3943	3943	3943	3943	3935	3935	3935	3935	3935	3935	3935	3928	3935	3935	3935	3935	3935	3943	3943	3951	3951	3951	3959	3959	3983	4007	4024	4024	4040	4040	4048	4057	4057	4057	4048	4048	4048	4048	4057	4065	4073	4073	4082	4090	4099	4107	4116	4116	4116	4116	4116	4116	4116	4116	4116	4116	4116	4116	4116	4116	4124	4124	4133	4133	4142	4142	4133	4133	4124	4116	4107	4090	4082	4065	4040	4015	3991	3935	3912	3897	3881	3866	3858	3851	3851	3843	3836	3829	3821	3814	3806	3799	3792	3785	3777	3763	3756
2935	2953	2962	2975	2989	2998	3007	3012	3016	3021	3025	3030	3030	3035	3044	3049	3053	3063	3072	3077	3087	3101	3116	3126	3141	3151	3161	3176	3192	3207	3218	3228	3239	3244	3244	3244	3244	3239	3239	3233	3228	3223	3218	3212	3212	3207	3207	3207	3218	3223	3233	3244	3255	3260	3271	3276	3287	3282	3276	3276	3276	3276	3271	3265	3260	3255	3260	3260	3260	3260	3255	3255	3244	3239	3228	3218	3212	3207	3202	3197	3197	3192	3192	3197	3197	3197	3197	3197	3197	3197	3197	3197	3197	3192	3192	3186	3192	3186	3186	3186	3186	3192	3192	3192	3186	3186	3181	3181	3176	3171	3166	3166	3166	3171	3171	3171	3176	3176	3181	3186	3192	3197	3207	3212	3218	3228	3239	3249	3260	3271	3276	3287	3298	3304	3309	3320	3331	3337	3354	3371	3389	3400	3418	3430	3442	3448	3448	3454	3454	3454	3454	3454	3448	3448	3442	3442	3436	3430	3424	3424	3418	3418	3412	3412	3406	3400	3389	3365	3298	3255	3212	3166	3121	3035	3002	2971	2944	2922	2901	2867	2851	2834	2822	2810	2798	2786	2775	2763	2751	2740	2717	2703	2691	2677	2662	2652	2638	2627	2617	2610	2606	2603	2603	2603	2603	2603	2610	2613	2617	2620	2627	2631	2638	2645	2648	2652	2659	2666	2677	2681	2691	2699	2706	2717	2725	2732	2740	2748	2759	2763	2775	2782	2790	2802	2810	2822	2838	2851	2863	2880	2901	2918	2940	0	2962	2984	3007	3025	3039	3053	3058	3063	3068	3068	3068	3068	3063	3063	3068	0	0	0	0	0	0	0	0	5172	5172	5172	5185	5185	5199	5199	5185	5185	5172	5158	5118	5079	5014	4951	4878	0	4670	4616	4552	4510	4470	4439	4429	4420	4390	4380	4371	4371	4380	4390	4410	4449	4531	4648	4772	0	0	5066	5199	5325	5412	5488	5534	5549	5565	5581	5581	5596	5596	5596	5596	5612	5628	5612	5628	5612	5612	5596	5581	5565	5534	5518	5503	5472	5442	5325	5282	5213	5158	5092	5001	4927	4726	4616	0	4285	4203	4133	4090	4065	4032	3999	3983	3967	3959	3943	3935	3935	3935	3935	3935	3943	3943	3959	3967	3967	3975	3983	3991	4015	4015	4032	0	0	0	0	0	0	4807	4976	4989	5040	5066	5118	5131	5172	5199	5240	5282	5339	5398	5427	5442	0	5472	5488	0	5518	5549	5549	5581	5596	5596	5612	5628	5628	5612	5596	5581	5549	5518	5472	5442	5412	5368	5325	5296	5254	5226	5199	5158	5105	5092	5079	5079	5066	5079	5092	5105	5118	5145	5172	5199	5254	0	5311	5354	5427	5488	5565	5661	5726	5793	5828	5862	5897	5915	5897	5880	5845	5810	5793	5760	5726	5710	5693	5677	5661	5628	5628	5612	5612	5612	5628	5628	5644	5644	5661	5677	5677	5693	5693	5710	5726	5743	5743	5760	5776	5776	5776	5776	5776	5776	5776	5760	5760	5743	5726	5726	5726	5710	5726	5726	5743	5760	5760	5776	5793	5828	5845	5862	5880	5915	5950	6005	0	0	4090	4082	4073	4065	4057	4057	4048	4048	4048	4048	4048	4057	4057	4065	4065	4065	4065	4057	4057	4057	4057	4057	4057	4057	4057	4057	4057	4057	4057	4057	4048	4040	4040	4040	4040	4032	4024	4015	4015	4015	4007	4007	4007	3999	3999	3991	3983	3983	3975	3975	3967	3959	3951	3951	3951	3943	3943	3943	3935	3935	3935	3935	3935	3935	3935	3935	3935	3935	3935	3951	3951	3951	3959	3959	3967	0	3983	3983	3991	3991	4015	0	4040	4040	4048	4057	4057	4065	4065	4048	4048	4040	4048	4040	4048	4048	4057	4065	4073	4082	4090	4099	4107	4116	4116	4116	4124	4124	4124	4124	4124	4124	4124	4116	4116	4116	4116	4116	4124	4133	4133	4133	4124	4133	4124	4116	4099	4090	4082	4065	4048	4024	3999	3951	3928	3912	3897	3881	3874	3874	3858	3851	3843	3836	3821	3814	3806	3799	3792	3785	3777	3763	3749
2922	2935	2940	2949	2957	2971	2975	2984	2989	2993	2998	3007	3012	3016	3021	3025	3035	3039	3049	3058	3068	3082	3096	3106	3121	3136	3151	3171	3186	3207	3223	3239	3249	3255	3260	3255	3260	3255	3249	3249	3244	3233	3223	3223	3218	3212	3212	3212	3218	3223	3233	3239	3249	3255	3260	3271	3271	3271	3271	3271	3271	3265	3265	3260	3255	3255	3249	3255	3255	3249	3249	3244	3239	3233	3228	3218	3212	3207	3202	3202	3197	3197	3197	3197	3197	3192	3192	3192	3197	3192	3192	3192	3192	3186	3186	3186	3186	3186	3186	3186	3181	3186	3186	3186	3186	3181	3176	3176	3176	3166	3166	3166	3166	3171	3171	3171	3171	3176	3181	3186	3192	3197	3202	3212	3218	3223	3239	3244	3249	3260	3265	3276	3282	3293	3298	3309	3320	3326	3337	3354	3371	3389	3394	3406	3424	3430	3436	3442	3442	3442	3442	3442	3436	3430	3424	3418	3418	3412	3406	3400	3400	3394	3394	3394	3389	3383	3377	3354	3293	3249	3207	3166	3126	3039	3007	2975	2949	2927	2909	2876	2863	2847	2834	2818	2810	2798	2786	2775	2759	2751	2736	2714	2699	2684	2673	2659	2645	2631	2624	2613	2610	2606	2606	2606	2606	2610	2613	2620	2624	2627	2631	2634	2638	2645	2648	2652	2655	2662	2670	2677	2684	2691	2703	2710	2721	2729	2736	2740	2748	2759	2767	2775	2782	2790	2798	2810	2822	2834	2851	2867	2884	2909	2931	2953	0	2975	2993	3016	3030	3044	3053	3058	3063	3068	3063	3063	3063	3063	3058	0	0	0	0	0	0	0	0	5158	5172	5185	5185	5199	5199	5199	5199	5185	5172	5158	5131	5092	5040	4964	4902	4830	4681	4627	4552	4500	4459	4439	4420	4400	4380	4371	4351	4351	4361	4361	4371	4420	4500	4605	4726	4902	0	5079	5213	5339	5427	5488	5549	5549	5565	5581	5596	5612	5612	5628	5628	5644	5644	5644	5644	5628	5628	5612	5581	5565	5549	5518	5503	5472	5442	5339	5296	5226	5172	5105	5014	4939	4818	4594	0	4285	4203	4142	4107	4073	4040	4007	3991	3975	3967	3959	3951	3951	3951	3943	3951	3951	3959	3967	3967	3975	3983	3991	3999	4015	4015	4032	0	0	4159	0	0	0	0	0	0	0	0	5172	0	5226	5254	5282	5339	5383	5412	0	5442	5457	5488	5488	5503	5534	5549	5565	5565	5565	5565	5565	5565	5565	5549	5534	5503	5488	5457	5427	5383	5354	5296	5268	5226	5199	5158	5092	5079	5040	5027	5027	5027	5053	5066	5079	5105	5118	5145	5185	5213	5268	0	5311	5368	5427	5503	5581	5644	5710	5776	5828	5862	5897	5915	5897	5880	5845	5828	5793	5776	5743	5726	5710	5677	5661	5644	5628	5628	5628	5628	5628	5644	5644	5661	5661	5677	5693	5693	5710	5710	5726	5743	5760	5760	5776	5776	5776	5776	5776	5776	5776	5760	5743	5743	5726	5710	5710	5710	5710	5710	5726	5743	5760	5776	5810	5828	5845	5845	5862	5828	5793	0	0	0	4116	4107	4099	4090	4073	4065	4073	4073	4065	4065	4065	4065	4065	4065	4073	4065	4065	4065	4073	4065	4065	4065	4057	4057	4057	4057	4057	4057	4057	4057	4048	4048	4040	4040	4040	4032	4024	4024	4015	4015	4007	4007	4007	3999	3999	3991	3991	3983	3983	3975	3967	3959	3951	3951	3943	3943	3935	3935	3935	3935	3935	3935	3935	3928	3928	3935	3935	3935	3943	3951	3959	3967	3967	3983	3991	3999	4007	3999	4007	4015	4015	4040	4057	4057	4065	4065	4065	4065	4057	4048	4040	4032	4032	4032	4032	4040	4040	4057	4065	4073	4082	4090	4099	4107	4107	4116	4124	4124	4124	4124	4124	4124	4116	4107	4107	4107	4107	4107	4116	4116	4116	4116	4116	4116	4107	4099	4090	4073	4065	4057	4040	4024	4007	3959	3943	3928	3912	3904	3889	3881	3874	3858	3851	3843	3829	3814	3806	3799	3785	3777	3770	3763	3749
2905	2918	2927	2935	2940	2949	2957	2962	2966	2971	2975	2989	2993	2998	3002	3012	3012	3016	3025	3035	3044	3058	3072	3087	3106	3126	3141	3166	3186	3207	3228	3244	3260	3260	3265	3265	3271	3265	3265	3260	3255	3244	3239	3233	3228	3223	3218	3218	3223	3228	3233	3239	3244	3249	3255	3260	3265	3265	3260	3260	3260	3255	3255	3249	3244	3244	3244	3249	3244	3244	3239	3239	3233	3228	3223	3218	3212	3207	3202	3202	3197	3197	3197	3192	3192	3192	3192	3192	3186	3186	3186	3192	3186	3181	3181	3176	3176	3176	3176	3176	3176	3176	3181	3181	3181	3176	3176	3171	3171	3166	3161	3166	3166	3171	3171	3176	3176	3181	3181	3192	3197	3202	3212	3212	3218	3223	3233	3239	3249	3249	3255	3260	3271	3282	3282	3293	3304	3315	3309	3331	3343	3360	3383	3394	3406	3418	3424	3430	3430	3430	3430	3430	3424	3424	3418	3412	3400	3400	3389	3383	3377	3377	3371	3371	3371	3360	3354	3337	3282	3239	3202	3161	3116	3044	3007	2980	2953	2935	2918	2901	2867	2855	2843	2830	2818	2806	2794	2782	2771	2759	2744	2721	2706	2691	2681	2666	2652	2638	2627	2617	2613	2610	2613	2613	2617	2617	2620	2627	2631	2631	2634	2638	2638	2645	2645	2648	2652	2659	2662	2670	2677	2684	2695	2706	2714	2721	2729	2736	2744	2751	2759	2767	2775	2779	2790	2802	2810	2826	2838	2855	2871	2892	2914	2940	0	2962	2980	3002	3016	3035	3044	3053	3058	3058	3063	3058	3058	3058	3058	0	0	0	0	0	0	0	5145	5158	5158	5172	5185	5199	5213	5213	5199	5199	5185	5172	5145	5105	5053	4989	4927	4854	4704	4637	4562	4510	4459	4429	4420	4400	4371	4351	4342	4332	4332	4342	4351	4380	4449	4541	4670	4878	0	5066	0	5325	5412	5488	5549	5565	5565	5596	5612	5628	5644	5644	5661	5661	5661	5661	5661	5644	5644	5612	5596	5565	5549	5518	5503	5472	5442	5354	5311	5254	5199	5131	5027	4951	4704	4594	0	4276	4203	4142	4107	4073	4040	4015	3999	3983	3975	3967	3959	3959	3959	3959	3959	3967	3975	3975	3975	3983	3983	3999	3999	4015	4024	0	4082	0	0	0	0	0	0	0	5199	0	0	0	5268	5296	5311	5339	5383	0	5412	5442	5457	5472	5488	5503	5518	5534	5565	5565	5565	5549	5549	5534	5534	5518	5503	5488	5457	5427	5412	5368	5339	5296	5254	5213	5172	5131	5066	5040	5027	5027	5014	5001	5027	5040	5066	5105	5131	5145	5185	5213	5254	0	5311	5354	5412	5457	5518	5596	5661	5710	5776	5828	5862	5862	5880	5880	5880	5845	5828	5810	5776	5760	5726	5710	5693	5677	5661	5644	5628	5628	5644	5644	5644	5644	5661	5661	5677	5693	5693	5710	5710	5726	5743	5760	5760	5776	5776	5793	5793	5793	5793	5776	5776	5760	5743	5726	5726	5710	5710	5726	5726	5726	5743	5776	5810	5828	5845	5862	5880	5880	5845	0	5079	0	4159	4142	4124	4116	4107	4099	4090	4082	4082	4082	4073	4082	4073	4073	4082	4082	4073	4073	4073	4073	4065	4065	4065	4057	4057	4057	4048	4048	4048	4048	4048	4048	4048	4040	4048	4040	4040	4032	4024	4024	4015	4007	4007	4007	3999	3999	3991	3983	3975	3975	3975	3967	3959	3951	3951	3943	3943	3935	3935	3935	3935	3928	3928	3928	3928	3928	3935	3943	3943	3951	3959	3967	3983	3991	3999	4015	4015	4024	4032	4032	4048	4048	4065	4082	4082	4082	4082	4082	4082	4065	4048	4032	4032	4024	4032	4032	4032	4040	4048	4057	4065	4073	4082	4090	4099	4107	4116	4116	4124	4124	4124	4124	4107	4107	4099	4099	4090	4090	4090	4099	4107	4099	4099	4099	4090	4082	4073	4065	4057	4048	4040	4032	4015	4007	3983	3951	3935	3928	3912	3904	3897	3881	3874	3858	3843	3829	3814	3806	3792	3785	3777	3770	3763	3756
2892	2905	2909	2918	2927	2931	2940	2944	2949	2953	2957	2971	2975	2980	2984	2993	2993	2998	3002	3012	3025	3039	3053	3068	3082	3101	3121	3146	3171	3192	3212	3233	3255	3260	3265	3271	3276	3276	3282	3271	3265	3260	3255	3244	3233	3233	3228	3223	3228	3233	3233	3239	3244	3244	3244	3249	3255	3255	3249	3244	3244	3244	3244	3239	3233	3233	3233	3233	3233	3233	3233	3233	3228	3223	3218	3212	3207	3207	3202	3202	3197	3197	3197	3192	3192	3192	3192	3186	3186	3186	3186	3186	3181	3176	3171	3171	3166	3166	3166	3161	3166	3171	3171	3176	3176	3176	3171	3171	3171	3161	3166	3166	3166	3171	3176	3176	3181	3181	3186	3197	3207	3212	3212	3223	3223	3228	3233	3239	3239	3244	3249	3249	3255	3265	3255	3260	3271	3287	3298	3315	3331	3348	3365	3383	3394	3406	3406	3412	3412	3418	3418	3418	3412	3406	3400	3394	3389	3383	3377	3365	3360	3354	3354	3354	3348	3337	3326	3287	3255	3218	3181	3146	3111	3039	3007	2975	2953	2935	2918	2901	2871	2859	2847	2834	2826	2814	2802	2786	2775	2763	2751	2740	2714	2703	2691	2677	2662	2648	2638	2627	2624	2620	2620	2620	2624	2624	2627	2631	2634	2638	2638	2638	2641	2641	2645	2648	2652	2655	2662	2666	2673	2681	2691	2699	2710	2717	2725	2732	2740	2748	2755	2759	2767	2775	2782	2790	2802	2814	2830	2843	2859	2880	2901	2922	2944	0	2966	2984	3007	3021	3035	3044	3049	3053	3058	3053	3058	3058	3058	0	0	0	0	0	0	0	5131	5145	5158	5158	5172	5199	5213	5213	5213	5199	5199	5185	5158	5131	5092	5040	4976	4890	4818	4648	4562	4500	4459	4429	4400	4380	4361	4342	4323	4304	4313	4313	4332	0	4371	4429	0	4818	0	5040	0	5325	5412	5472	5534	5549	5565	5596	5612	5628	5644	5661	5661	5677	5677	5677	5677	5677	5644	5628	5612	5581	5565	5534	5503	5488	5442	5412	5325	5282	5226	5172	5066	5001	4854	4616	4490	4267	4194	4133	4107	4073	4040	4024	3999	3991	3975	3967	3967	3967	3967	3959	3967	3975	3983	3975	3983	4007	0	4032	4048	4065	4116	4212	4371	0	0	0	0	0	0	0	0	0	5339	5339	5368	5368	5383	5398	5398	5427	5457	5472	5488	5503	5518	5534	5534	5549	5581	5581	5581	5549	5549	5518	5518	5503	5472	5457	5427	5398	5368	5339	5311	5268	5226	5172	5145	5105	5053	5027	5014	5027	5027	5040	5053	5092	5118	5158	5185	0	5226	5254	5282	5325	5368	5412	5472	5518	5581	5628	5693	5743	5793	5845	5880	5897	5897	5897	5880	5862	5845	5810	5793	5760	5743	5743	5710	5693	5677	5644	5644	5644	5644	5644	5644	5661	5661	5677	5693	5693	5693	5710	5710	5726	5743	5760	5776	5776	5793	5793	5793	5793	5793	5793	5793	5776	5760	5776	5760	5760	5743	5743	5743	5760	5776	5810	5845	5862	5897	5915	5915	5915	0	0	0	4177	4168	4150	4142	4124	4116	4116	4107	4099	4099	4090	4090	4090	4090	4090	4090	4090	4082	4082	4073	4082	4073	4073	4065	4065	4057	4057	4048	4048	4040	4048	4048	4048	4048	4048	4048	4048	4040	4032	4024	4024	4015	4007	3999	3999	3991	3991	3983	3983	3975	3975	3967	3967	3959	3951	3951	3943	3943	3935	3935	3928	3928	3928	3928	3928	3928	3935	3935	3943	3943	3959	3967	3983	3991	3999	4007	4032	4040	4048	4048	4057	4065	4073	4090	4090	4099	4099	4099	4099	4090	4082	4048	4040	4032	4024	4032	4032	4032	4040	4048	4057	4065	4073	4082	4082	4090	4099	4107	4116	4116	4116	4116	4107	4099	4090	4082	4073	4073	4073	4073	4073	4082	4082	4073	4073	4065	4065	4057	4048	4048	4040	4032	4024	4007	3999	3983	3951	3943	3928	3920	3912	3904	3889	3881	3866	3851	3829	3821	3799	3792	3785	3777	3770	3763	3763
2884	2892	2905	2909	2918	2918	2927	2931	2935	2940	2944	2953	2957	2966	2971	2975	2980	2984	2993	2998	3012	3025	3039	3053	3068	3092	3111	3131	3156	3176	3202	3218	3233	3249	3255	3265	3271	3282	3287	3282	3282	3276	3265	3260	3249	3244	3239	3233	3233	3239	3239	3239	3244	3239	3239	3244	3244	3239	3233	3233	3228	3228	3223	3223	3218	3218	3223	3223	3223	3223	3223	3218	3223	3218	3212	3207	3202	3202	3202	3197	3197	3197	3192	3192	3192	3186	3186	3186	3181	3181	3181	3181	3176	3171	3166	3166	3161	3156	3156	3156	3156	3161	3166	3171	3166	3171	3166	3166	3166	3161	3161	3166	3166	3171	3176	3181	3181	3192	3197	3207	3218	3218	3223	3228	3228	3228	3233	3233	3233	3233	3223	3228	3233	3233	3239	3244	3249	3260	3271	3282	3304	3315	3331	3348	3365	3377	3383	3389	3394	3400	3400	3394	3394	3389	3377	3371	3360	3354	3348	3343	3337	3331	3326	3320	3315	3293	3276	3249	3223	3192	3156	3126	3063	3030	3002	2975	2953	2935	2918	2901	2876	2863	2851	2838	2830	2818	2806	2794	2782	2771	2759	2748	2725	2714	2703	2691	2677	2662	2652	2645	2638	2634	2631	2631	2631	2634	2634	2638	2638	2641	2638	2641	2641	2645	2645	2645	2648	2652	2659	2662	2670	2677	2688	2695	2706	2714	2721	2729	2736	2744	2751	2755	2759	2767	2775	2782	2794	2806	2818	2834	2851	2867	2888	2909	2931	2953	0	2975	2989	3007	3021	3035	3044	3044	3049	3053	3053	3053	0	0	0	0	0	0	0	0	5105	5118	5131	5145	5172	5199	5213	5213	5226	5213	5213	5199	5185	5172	5131	5079	5014	4939	4854	4670	4584	4510	4459	4429	4400	4371	4342	4323	4295	4285	4285	4313	4332	0	0	0	0	0	0	0	0	0	5412	5472	5534	5549	5565	5596	5612	5612	5628	5644	5644	5677	5677	5677	5677	5677	5661	5644	5612	5596	5565	5534	5518	5488	5457	5412	5339	5296	5254	5199	5105	5014	4738	4616	0	4258	4185	4133	4099	4073	4040	4024	4007	3991	3983	3975	3967	3967	3967	3975	3975	3975	3983	3991	0	4007	4057	4090	4159	4185	4239	4400	0	0	0	0	0	0	0	0	0	0	5549	0	5518	5503	5518	5503	5518	5518	5534	5549	5549	5565	5565	5565	5581	5581	5612	5612	5596	5565	5534	5518	5503	5488	5457	5442	5398	5383	5354	5325	5296	5268	5226	5185	5158	5105	5066	5079	5079	5079	5105	5131	0	5158	5185	5226	5268	5296	5325	5354	5383	5412	5442	5488	5534	5596	5644	5693	5743	5793	5845	5880	5915	5915	5915	5915	5897	5880	5845	5828	5810	5776	5776	5760	5743	5710	5693	5677	5661	5661	5661	5661	5661	5661	5661	5677	5693	5693	5693	5710	5726	5726	5743	5760	5776	5776	5793	5793	5793	5810	5810	5828	5810	5810	5810	5793	5793	5776	5776	5793	5776	5810	5828	5862	5897	5915	5950	5950	5968	5968	0	0	0	4194	4185	4177	4159	4150	4133	4124	4124	4116	4116	4107	4099	4099	4107	4099	4099	4099	4090	4090	4082	4082	4082	4073	4073	4065	4057	4048	4048	4040	4040	4048	4040	4048	4048	4048	4048	4048	4040	4032	4024	4015	4007	3999	3999	3991	3983	3983	3975	3975	3967	3967	3967	3967	3959	3951	3951	3943	3943	3935	3935	3928	3928	3928	3928	3928	3928	3928	3935	3943	3943	3959	3975	3983	3999	4015	4024	4040	4048	4057	4073	4073	4082	4090	4107	4116	4124	4124	4116	4116	4116	4099	4057	4040	4040	4032	4032	4032	4032	4040	4048	4057	4057	4065	4073	4073	4082	4082	4090	4099	4099	4099	4099	4090	4082	4073	4065	4057	4057	4048	4048	4048	4048	4048	4040	4040	4040	4032	4032	4024	4024	4024	4015	4007	3999	3991	3975	3967	3943	3935	3928	3920	3904	3897	3881	3874	3858	3836	3814	3799	3792	3785	3777	3777	3770	3770
2880	2892	2901	2905	2909	2914	2922	2927	2927	2931	2935	2944	2949	2953	2957	2966	2966	2975	2980	2989	3002	3012	3030	3044	3063	3077	3101	3121	3141	3166	3181	3202	3218	3239	3249	3260	3271	3276	3287	3287	3287	3282	3276	3271	3265	3255	3255	3249	3249	3249	3244	3244	3239	3239	3233	3233	3233	3228	3218	3212	3212	3212	3207	3207	3207	3207	3207	3207	3212	3212	3212	3212	3212	3207	3207	3202	3202	3202	3197	3197	3197	3192	3192	3192	3186	3186	3186	3181	3181	3181	3181	3176	3171	3166	3161	3156	3151	3146	3146	3146	3151	3156	3156	3156	3161	3161	3161	3161	3161	3156	3161	3161	3166	0	0	0	0	0	0	0	3223	3223	3228	3228	3228	3228	3223	3223	3223	3218	3218	3218	3218	3218	3223	3223	3228	3233	3244	3255	3265	3282	3298	3315	3331	3343	3354	3360	3371	3371	3371	3365	3360	3354	3348	3343	3331	3320	3315	3304	3293	3282	3271	3260	3249	3239	3223	3207	3181	3156	3126	3101	3049	3021	2993	2971	2949	2931	2914	2901	2876	2863	2851	2843	2830	2818	2806	2798	2786	2775	2767	2755	2748	2729	2717	2706	2691	2681	2670	2659	2655	2648	2645	2645	2641	2641	2641	2641	2645	2641	2641	2641	2641	2645	2645	2645	2648	2652	2655	2659	2666	2673	2681	2691	2699	2710	2717	2725	2732	2740	2748	2751	2755	2763	2771	2779	2790	2798	2814	2826	2843	2859	2880	2897	2918	2940	2957	0	2980	2998	3012	3025	3035	3039	3044	3044	3049	3049	3049	0	0	0	0	0	0	5079	5105	0	5131	5145	5172	5199	5213	5226	5240	5226	5226	5213	5213	5199	5172	5118	5066	4989	4890	4704	4605	4521	4459	4420	4380	4342	4313	4258	4258	4258	4276	0	4323	0	0	0	0	0	0	0	0	0	5442	5488	5534	5549	5565	5581	5596	5612	5628	5644	5644	5661	5661	5661	5677	5677	5661	5644	5628	5596	5565	5549	5518	5488	5457	5427	5368	5325	5282	5226	5131	5040	4760	4627	4490	4248	4177	4124	4099	4065	4040	4015	3999	3991	3983	3975	3967	3967	3967	3975	3975	3975	3983	3983	4007	4057	4133	4230	4342	0	0	0	0	0	0	0	0	0	0	0	0	0	0	0	0	5628	5628	5612	5596	5596	5612	5596	5612	5612	5596	5612	5612	5612	5644	5644	5612	5565	5534	5503	5488	5472	5427	5398	5383	5354	5325	5311	5282	5254	5213	5213	5185	5185	5158	5145	5172	5185	5213	5240	5254	5282	5311	5354	5368	5412	5442	5442	5472	5503	5534	5581	5628	5661	5710	5776	5810	5845	5897	5933	5933	5933	5933	5933	5915	5897	5880	5862	5845	5810	5793	5776	5760	5726	5710	5693	5677	5677	5677	5661	5661	5661	5677	5677	5693	5693	5710	5710	5726	5726	5743	5760	5776	5776	5793	5810	5810	5828	5828	5828	5828	5845	5828	5828	5828	5828	5828	5828	5845	5880	5915	5933	5968	5987	6023	6041	6060	0	0	0	4239	4212	4203	4185	4168	4159	4150	4142	4133	4133	4124	4116	4116	4107	4116	4107	4107	4107	4099	4099	4099	4090	4090	4082	4073	4073	4057	4057	4057	4048	4048	4040	4048	4048	4048	4048	4048	4040	4040	4032	4024	4007	3999	3991	3991	3983	3975	3975	3967	3967	3967	3959	3959	3959	3951	3951	3951	3943	3943	3935	3935	3935	3928	3928	3928	3928	3928	3928	3935	3943	3951	3959	3975	3991	4007	4015	4032	4048	4065	4073	4082	4082	4099	4107	4124	4133	4150	4150	4142	4142	4142	4133	4107	4065	4048	4048	4048	4048	4048	4048	4048	4057	4057	4065	4065	4065	4065	4073	4082	4082	4090	4090	4082	4082	4065	4065	4048	4040	4040	4032	4032	4024	4024	4015	4015	4015	4007	4007	3999	3999	3999	3999	3999	3991	3991	3983	3975	3967	3943	3935	3928	3920	3904	3897	3881	3866	3858	3836	3821	3799	3792	3785	3785	3785	3777	3785
2880	2888	2897	2905	2914	2918	2918	2922	2922	2927	2927	2931	2935	2940	2949	2953	2953	2962	2971	2980	2993	3007	3021	3035	3053	3068	3087	3106	3126	3146	3166	3181	3202	3218	3228	3244	3255	3265	3271	3282	3287	3287	3282	3282	3276	3271	3265	3260	3260	3255	3255	3249	3244	3239	3233	3228	3223	3212	3207	3197	3192	3192	3186	3186	3186	3186	3192	3192	3197	3197	3202	3202	3202	3202	3202	3202	3197	3197	3197	3197	3192	3192	3192	3192	3186	3186	3181	3181	3181	3181	3181	3176	3166	3161	3156	3141	3141	3136	3131	3131	3136	3141	3141	3146	3151	3151	3151	3151	3151	3151	0	0	0	0	0	0	0	0	0	0	0	3223	3223	3223	3223	3218	3218	3212	3212	3207	3202	3202	3202	3197	3197	3202	3202	3207	3212	3223	3233	3244	3265	3282	3298	3315	3326	3337	3337	3343	3337	3331	3326	3315	3309	3298	3287	3276	3271	3244	3233	3223	3212	3202	3197	3181	3171	3156	3141	3121	3101	3053	3030	3007	2984	2962	2944	2927	2909	2897	2871	2863	2851	2838	2830	2818	2810	2798	2790	2779	2771	2763	2759	2748	2732	2725	2714	2703	2691	2681	2673	2666	2662	2659	2652	2648	2648	2648	2645	2645	2645	2641	2641	2641	2641	2645	2648	2648	2652	2659	2662	2673	2677	2688	2699	2706	2714	2721	2729	2736	2744	2748	2751	2759	2767	2775	2786	2798	2810	2822	2834	2851	2867	2888	2905	2927	2944	2962	0	2984	2998	3016	3025	3030	3039	3044	3044	3044	3053	0	0	0	0	0	5040	5079	5092	5118	5131	0	5172	5199	5226	5240	5240	5254	5240	5240	5240	5213	5199	5145	5105	5027	4939	4842	4616	4521	4439	4380	4342	4258	4230	4212	4221	4239	4285	4323	4371	4562	4704	0	0	0	0	0	0	5472	5488	5518	5534	5549	5565	5581	5596	5612	5628	5644	5661	5661	5661	5677	5677	5677	5661	5644	5628	5612	5581	5549	5534	5488	5472	5442	5412	5354	5311	5268	5172	5053	4760	4616	4480	4239	4168	4116	4090	4057	4032	4015	3999	3983	3975	3967	3967	3967	3967	3975	3975	3975	3975	3999	4048	4133	4248	0	0	0	0	0	0	0	0	0	5612	5710	5726	5760	5760	5726	5693	5710	5693	5677	5677	5677	5661	5661	5661	5661	5661	5644	5644	5628	5644	5628	5644	5644	5612	5549	5518	5488	5457	5442	5398	5383	5368	5339	5325	5311	5282	5254	5254	5268	5268	5268	5254	5282	5296	5325	5339	5383	5383	5412	5457	5472	5503	5518	5534	5549	5565	5596	5628	5661	5710	5743	5793	5828	5862	5915	5933	5950	5950	5950	5950	5933	5915	5897	5897	5880	5845	5828	5810	5793	5776	5743	5726	5710	5693	5693	5677	5677	5677	5677	5677	5693	5693	5693	5710	5710	5726	5743	5760	5776	5776	5793	5810	5828	5828	5828	5845	5862	5862	5880	5880	5880	5880	5897	5897	5915	5933	5987	6005	6023	6041	6060	6079	6097	6097	0	0	0	4221	4221	4212	4194	4185	4168	4159	4159	4150	4142	4133	4124	4116	4116	4124	4116	4116	4116	4107	4107	4099	4099	4090	4090	4082	4082	4073	4065	4057	4057	4057	4048	4057	4057	4048	4040	4048	4040	4032	4024	4015	4007	3999	3991	3983	3975	3967	3967	3967	3967	3959	3959	3959	3959	3959	3951	3951	3951	3943	3943	3943	3935	3935	3935	3928	3928	3928	3928	3935	3943	3951	3967	3975	3999	4015	4024	4040	4057	4073	4082	4099	4107	4116	4133	4142	4159	4168	4168	4168	4168	4168	4150	4133	4107	4090	4073	4065	4065	4065	4057	4057	4065	4057	4057	4057	4057	4057	4065	4065	4065	4073	4073	4073	4073	4065	4057	4048	4040	4040	4032	4032	4024	4015	4007	3999	3999	3991	3991	3983	3983	3983	3983	3975	3983	3975	3967	3959	3951	3943	3935	3920	3904	3904	3889	3874	3851	3836	3821	3814	3799	3799	3792	3792	3792	3792	3799
2880	2892	2901	2909	2914	2918	2922	2922	2918	2922	2922	2922	2927	2935	2935	2940	2944	2953	2962	2971	2984	2998	3016	3030	3044	3063	3077	3101	3116	3136	3151	3171	3181	3202	3212	3228	3239	3249	3260	3271	3282	3282	3282	3282	3276	3276	3271	3260	3260	3255	3255	3249	3244	3233	3228	3223	3212	3202	3197	3181	3176	3176	3171	3171	3171	3171	3176	3181	3186	3192	3192	3197	3197	3197	3197	3197	3197	3197	3197	3197	3197	3192	3192	3186	3186	3186	3186	3181	3181	3181	3181	3176	3171	3166	3156	3141	3136	3131	3126	3126	3131	3136	3131	3141	3146	3141	3141	3141	3141	3141	3141	0	0	0	0	0	0	0	0	0	3212	3218	3218	3218	3212	3212	3207	3207	3197	3192	3186	3181	3181	3176	3176	3176	3181	3181	3186	3197	3207	3218	3233	3255	3265	3276	3287	3298	3298	3293	3287	3282	3271	3260	3244	3223	3218	3207	3192	3181	3166	3161	3151	3141	3136	3126	3116	3106	3096	3082	3049	3030	3012	2993	2971	2953	2935	2918	2905	2892	2867	2859	2847	2834	2826	2818	2810	2798	2790	2782	2775	2771	2763	2755	2748	2729	2721	2710	2703	2691	2681	2673	2670	2662	2655	2655	2652	2652	2648	2648	2645	2641	2641	2641	2641	2645	2645	2648	2652	2659	2666	2670	2677	2688	2695	2703	2710	2717	2725	2732	2740	2748	2751	2755	2763	2775	2786	2794	2806	2818	2830	2847	2863	2880	2897	2918	2935	2953	2971	0	2989	3002	3016	3025	3035	3035	3039	3044	3049	0	0	0	0	0	5027	5053	5092	5118	5131	0	5172	5213	5240	5254	5268	5268	5268	5268	5254	5240	5226	5172	5131	5066	4989	4890	4627	4521	4429	4351	4295	4168	4150	4150	4194	4267	0	4371	4500	0	0	0	5066	5226	5383	5457	5488	5503	5518	5534	5534	5549	5565	5581	5596	5612	5628	5628	5644	5644	5644	5661	5661	5661	5644	5644	5628	5612	5581	5565	5534	5503	5472	5457	5427	5368	5339	5282	5199	5066	4760	0	0	4221	4159	4107	4082	4048	4024	4007	3991	3975	3967	3967	3959	3959	3959	3959	3967	3967	3991	4040	4124	0	0	0	0	0	0	0	5145	5311	5488	5612	5677	5726	5743	5760	5760	5760	5743	5743	5760	5743	5743	5743	5743	5726	5726	5726	5710	5710	5693	5693	5661	5661	5677	5661	5628	5565	5534	5503	5472	5442	5398	5383	5368	5354	5339	5325	5325	5311	5311	5339	5354	5368	5383	5398	5427	5457	5488	5503	5534	5565	5581	5581	5612	5628	5644	5661	5677	5693	5726	5776	5810	5828	5862	5897	5915	5950	5968	5968	5950	5933	5933	5933	5915	5915	5897	5880	5862	5845	5828	5810	5793	5760	5743	5726	5710	5710	5693	5677	5677	5677	5693	5693	5693	5710	5710	5726	5743	5760	5776	5793	5793	5810	5828	5828	5845	5862	5880	5897	5915	5933	5933	5950	5968	5987	6005	6023	6060	6079	6116	6116	6135	6135	6116	6116	0	6079	0	0	4212	4221	4212	4203	4194	4177	4168	4168	4159	4150	4133	4124	4124	4124	4116	4124	4116	4116	4116	4107	4107	4107	4107	4099	4099	4090	4090	4082	4082	4073	4065	4057	4057	4048	4048	4040	4040	4032	4024	4024	4007	3999	3991	3983	3975	3975	3967	3959	3959	3959	3959	3959	3959	3959	3959	3959	3951	3951	3951	3951	3943	3943	3943	3943	3935	3935	3935	3943	3943	3951	3959	3975	3991	4007	4024	4040	4057	4073	4082	4099	4107	4116	4133	4150	4159	4177	4185	4185	4177	4185	4177	4168	4150	4124	4116	4099	4090	4082	4073	4065	4065	4065	4057	4057	4057	4048	4048	4048	4048	4057	4057	4065	4065	4065	4065	4057	4048	4048	4040	4040	4032	4024	4015	4015	3999	3991	3991	3975	3975	3967	3975	3967	3967	3967	3967	3959	3959	3943	3928	3920	3912	3889	3874	3866	3858	3843	3829	3821	3806	3799	3806	3799	3799	3799	3799	3814
2901	2914	2922	2935	2935	2944	2940	2935	2931	2927	2927	2927	2927	2927	2927	2935	0	2944	2957	2966	2980	2993	3012	3025	3039	3058	3077	3092	3111	3126	3146	3161	3171	3186	3202	3218	3233	3244	3255	3260	3271	3276	3276	3271	3271	3265	3265	3255	3255	3249	3244	3239	3233	3228	3218	3212	3202	3192	3171	3166	3166	3161	3161	3161	3161	3161	3171	3171	3176	3181	3186	3192	3192	3192	3197	3197	3197	3197	3197	3197	3197	3197	3197	3192	3192	3192	3192	3186	3186	3186	3181	3181	3171	3166	3161	3151	3136	3131	3121	3121	3121	3121	3126	3131	3131	3136	3136	3136	3131	3131	0	0	0	0	0	0	0	0	0	0	3212	3212	3212	3207	3202	3202	3197	3192	3186	3181	3171	3166	3161	3161	3156	3156	3156	3161	3161	3166	3176	3192	3202	3218	3228	3239	3244	3249	3249	3244	3233	3228	3192	3171	3156	3141	3131	3121	3106	3096	3087	3082	3077	3072	3068	3063	3063	3053	3039	3025	3016	3002	2984	2971	2953	2935	2922	2909	2897	2871	2859	2851	2838	2826	2822	2814	2806	2798	2790	2782	2779	2775	2767	2763	2755	2736	2729	2717	2706	2695	2688	2681	2673	2666	2662	2655	2652	2652	2648	2648	2645	2641	2641	2641	2641	2641	2645	2648	2652	2659	2662	2670	2677	2688	2695	2703	2710	2717	2725	2732	2740	2744	2751	2759	2767	2775	2782	2794	2806	2818	2830	2843	2855	2871	2892	2909	2927	2944	2962	0	2980	2998	3012	3021	3030	3030	3039	3044	3044	0	0	0	0	0	5014	5053	5079	5118	5118	0	5172	5226	5254	5268	5282	5282	5282	5282	5268	5254	5240	5199	5158	5105	5014	4927	4616	4490	4371	4203	4150	4124	4116	4116	4177	4276	0	4410	4562	0	0	4939	5158	5296	5412	5457	5488	5503	5518	5534	5534	5549	5565	5565	5581	5596	5596	5612	5612	5628	5628	5628	5644	5644	5644	5628	5612	5612	5581	5565	5534	5503	5472	5457	5427	5368	5325	5268	5199	5066	4749	4594	4449	4212	4142	4099	4065	4040	4015	3999	3983	3975	3959	3951	3951	3951	3951	3951	3959	0	4032	4040	0	0	0	0	0	0	0	5226	5368	5503	5596	5644	5677	5710	5726	5760	5776	5776	5776	5810	5793	5810	5793	5810	5793	5776	5793	5793	5776	5776	5760	5743	5726	5726	5710	5710	5661	5628	5549	5518	5488	5457	5412	5398	5383	5368	5354	5354	5339	5368	5368	5412	5442	5457	5472	5518	5549	5565	5612	5628	5661	5661	5693	5693	5726	5743	5776	5776	5793	5810	5828	5862	5897	5915	5915	5950	5968	5987	5987	5968	5968	5950	5933	5933	5915	5915	5897	5897	5880	5862	5828	5810	5793	5776	5760	5743	5726	5710	5710	5693	5693	5693	5693	5710	5710	5726	5726	5743	5760	5776	5793	5810	5828	5828	5845	5862	5880	5897	5915	5933	5950	5968	6005	6023	6060	6079	6116	6135	0	6154	6193	6193	6193	6174	6135	0	6116	0	0	0	4221	4212	4221	4212	4194	4185	4168	4168	4159	4150	4133	4124	4124	4116	4124	4116	4124	4116	4116	4116	4116	4116	4116	4116	4107	4107	4099	4099	4090	4090	4082	4073	4065	4048	4048	4040	4032	4032	4024	4015	4007	3999	3991	3983	3975	3967	3959	3959	3951	3951	3959	3959	3959	3959	3959	3959	3959	3959	3959	3959	3951	3951	3951	3951	3943	3943	3943	3951	3951	3967	3975	3983	3999	4024	4040	4057	4073	4090	4099	4116	4124	4133	4150	4168	4177	4185	4185	4194	4185	4194	4185	4185	4159	4150	4124	4116	4107	4090	4082	4073	4065	4065	4057	4057	4040	4032	4032	4040	4040	4048	4048	4057	4065	4065	4065	4065	4057	4057	4057	4048	4048	4040	4024	4015	3999	3999	3983	3983	3967	3967	3967	3959	3959	3959	3959	3951	3943	3920	3912	3897	3889	3874	3866	3858	3843	3836	3829	3814	3806	3806	3806	3806	3814	3821	3821	3829
2935	2953	2962	2971	2971	2975	2966	2953	2949	2940	2935	2931	2927	2927	2927	2931	2940	2949	2962	2971	2984	2998	3012	3030	3044	3058	3072	3087	3101	3121	3136	3146	3161	3171	3186	3202	3218	3228	3239	3249	3260	3265	3265	3265	3265	3260	3255	3249	3244	3239	3233	3228	3223	3218	3207	3197	3192	3171	3166	3161	3156	3156	3151	3151	3156	3156	3166	3166	3176	3181	3186	3186	3192	3197	3197	3197	3197	3197	3202	3202	3197	3197	3197	3197	3197	3197	3197	3197	3197	3192	3192	3186	3181	3171	3166	3156	3136	3131	3121	3116	3121	3121	3121	3126	3126	3126	3131	3126	3126	3116	0	0	0	0	0	0	0	0	0	0	0	3212	3207	3207	3197	3197	3192	3181	3176	3166	3161	3151	3151	3146	3141	3136	3131	3136	3136	3141	3146	3156	3166	3171	3181	3186	3197	3197	3181	3171	3156	3131	3111	3092	3072	3053	3039	3030	3021	3016	3016	3016	3012	3012	3012	3007	3007	3002	2998	2993	2984	2975	2962	2953	2935	2922	2909	2892	2880	2859	2847	2838	2830	2818	2810	2806	2798	2794	2786	2782	2779	2775	2771	2763	2759	2748	2732	2725	2714	2703	2691	2684	2677	2666	2659	2655	2655	2648	2648	2648	2645	2641	2641	2641	2641	2641	2645	2648	2652	2659	2666	2673	2681	2688	2695	2703	2710	2717	2725	2732	2740	2748	2751	2759	2763	2775	2782	2794	2806	2814	2826	2838	2851	2867	2884	2897	2914	2931	2953	2966	0	2984	3002	3012	3021	3035	3035	3035	3039	0	0	0	0	0	5001	5040	5079	5105	0	5131	5185	5226	5254	5282	5282	5282	5282	5282	5282	5268	5254	5213	5172	5105	5027	4927	4605	0	4342	4159	4116	4082	4082	4090	4168	4285	0	4429	4616	4795	0	5014	5226	5339	5442	5472	5488	5503	5518	5534	5534	5549	5549	5565	5565	5565	5581	5581	5581	5596	5596	5612	5612	5612	5612	5612	5596	5596	5581	5549	5534	5503	5488	5442	5427	5368	5325	5254	5185	5053	4738	4573	4429	4194	4124	4090	4057	4032	4007	3991	3975	3967	3951	3943	3943	3935	3935	3943	3951	3959	3967	0	0	0	0	0	0	0	5325	5442	5518	5581	5596	5644	5661	5693	5726	5743	5776	5793	5810	5828	5845	5845	5862	5862	5862	5845	5845	5845	5828	5828	5810	5793	5776	5743	5726	5693	5661	5612	5565	5534	5503	5457	5442	5412	5398	5383	5383	5368	5398	5398	5442	5472	5503	5549	5565	5628	5644	5677	5710	5743	5760	5776	5810	5828	5845	5862	5880	5897	5897	5915	5933	5950	5987	5987	6005	6005	6005	6005	6005	5987	5987	5968	5968	5933	5933	5915	5915	5897	5897	5862	5845	5828	5810	5793	5776	5760	5743	5726	5726	5710	5693	5693	5693	5710	5726	5743	5743	5760	5776	5793	5810	5828	5845	5862	5880	5897	5915	5933	5968	5987	6005	6023	0	6060	6097	6116	6154	6174	6232	6232	6252	6252	6212	6193	0	6116	6097	0	0	0	4221	4221	4212	4203	4194	4177	4168	4168	4159	4142	4124	4124	4116	4116	4116	4116	4116	4124	4124	4124	4124	4124	4133	4133	4124	4124	4116	4116	4107	4099	4090	4082	4065	4048	4040	4032	4024	4015	4015	4007	3999	3991	3983	3983	3975	3967	3959	3959	3951	3951	3959	3959	3959	3959	3959	3967	3967	3967	3967	3967	3959	3959	3959	3959	3959	3959	3959	3967	3975	3991	3999	4007	4024	4048	4057	4073	4090	4107	4124	4133	4150	4150	4168	4177	4185	4194	4203	4203	4203	4203	4203	4194	4177	4159	4150	4133	4116	4107	4090	4073	4065	4057	4057	4048	4032	4024	4024	4024	4032	4040	4048	4057	4065	4073	4073	4073	4073	4073	4073	4065	4057	4048	4040	4024	4015	4007	3991	3983	3975	3967	3959	3959	3959	3951	3943	3928	3920	3904	3897	3889	3874	3866	3858	3851	3843	3836	3829	3821	3821	3821	3821	3821	3836	3836	3836	3843
2966	2989	2989	3002	3002	3002	2989	2975	2962	2953	2944	2940	2931	2931	2931	2935	2940	2949	2962	2975	2989	3002	3016	3030	3049	3063	3072	3087	3096	3111	3126	3136	3146	3156	3171	3186	3197	3207	3223	3233	3244	3249	3255	3255	3255	3249	3244	3239	3233	3223	3218	3212	3207	3197	3192	3186	3166	3161	3151	3146	3146	3146	3141	3146	3146	3151	3161	3166	3171	3181	3181	3192	3192	3197	3197	3197	3202	3202	3202	3202	3202	3197	3197	3197	3202	3202	3197	3202	3202	3202	3202	3197	3192	3186	3176	3166	3156	3136	3131	3121	3121	3121	3121	3121	3126	3121	3121	3116	3121	3121	3116	3116	0	0	0	3116	3141	3166	3186	3202	3207	3207	3207	3202	3197	3192	3181	3171	3166	3151	3151	3141	3131	3121	3116	3101	3101	3096	3096	3101	3106	3111	3121	3126	3131	3131	3136	3121	3111	3096	3077	3053	3030	3007	2971	2971	2957	2953	2953	2957	2957	2957	2957	2966	2962	2962	2962	2966	2966	2962	2957	2949	2940	2931	2914	2901	2888	2876	2851	2843	2830	2822	2814	2806	2802	2798	2794	2786	2786	2782	2775	2775	2771	2767	2759	2751	2736	2725	2714	2703	2691	2684	2677	2670	2662	2655	2652	2648	2648	2645	2641	2641	2641	2641	2641	2645	2648	2652	2655	2662	2666	2673	2681	2691	2699	2706	2714	2717	2725	2732	2736	2748	2751	2759	2763	2775	2782	2790	2802	2814	2826	2838	2851	2863	2876	2892	2905	2922	2940	2957	2975	0	2993	3002	3016	3021	3025	3035	3039	3039	0	0	0	0	5014	5053	5079	5105	0	5131	5185	5240	5268	5282	5296	5296	5296	5296	5268	5268	5254	5213	5172	5105	5027	4902	4738	0	4194	4116	4082	4057	4057	4082	4177	0	4304	0	4648	4854	0	5053	5254	5354	5427	5457	5488	5503	5518	5518	5518	5534	5534	5549	5549	5549	5549	5549	5549	5565	5565	5581	5581	5581	5596	5581	5596	5581	5565	5549	5518	5503	5472	5442	5412	5354	5311	5226	5172	5027	0	0	4410	4185	4116	4090	4057	4032	4007	3991	3975	3959	3951	3935	3935	3928	3928	3928	3935	3943	0	0	0	0	0	0	0	5398	5488	5534	5565	5596	5612	5628	5644	5677	5710	5743	5776	5793	5810	5845	5862	5880	5897	5897	5897	5897	5880	5880	5862	5828	5828	5793	5760	5743	5710	5677	5644	5612	5549	5534	5503	5457	5427	5412	5398	5398	5383	5383	5412	5442	5472	5518	5565	5596	5661	5693	5726	5760	5793	5845	5862	5897	5915	5933	5950	5968	6005	6005	6005	6023	6023	6041	6041	6041	6041	6041	6041	6041	6023	6005	5987	5987	5968	5987	5950	5950	5933	5915	5915	5880	5862	5845	5828	5810	5793	5776	5743	5743	5726	5726	5710	5710	5710	5710	5743	5743	5760	5776	5793	5810	0	5845	5862	5880	5897	5915	5950	5968	5987	6005	6041	6079	6079	6116	6135	6174	6193	6232	6252	6272	6272	6272	6212	0	6097	6079	6041	6005	5933	0	4212	4212	4212	4203	4194	4177	4168	4159	4150	4133	4124	4116	4107	4107	4107	4107	4107	4116	4116	4124	4124	4133	4124	4133	4133	4124	4124	4124	4116	4107	4107	4090	4073	4048	4040	4032	4015	4015	4007	3999	3999	3991	3983	3983	3975	3967	3967	3959	3959	3959	3959	3967	3967	3967	3967	3967	3975	3975	3975	3975	3975	3975	3975	3975	3975	3983	3983	3991	4007	4024	4032	4048	4057	4082	4099	4107	4124	4133	4150	4168	4177	4177	4185	4194	4212	4212	4212	4212	4212	4212	4203	4194	4177	4168	4150	4142	4133	4124	4107	4082	4065	4065	4048	4040	4032	4015	4015	4024	4032	4040	4048	4065	4073	4082	4090	4099	4090	4090	4082	4082	4082	4065	4048	4040	4024	4015	3999	3991	3975	3967	3959	3951	3951	3943	3935	3920	3912	3897	3889	3881	3866	3858	3851	3851	3843	3843	3836	3836	3836	3836	3843	3851	3851	3851	3851	3851
0	0	3012	3016	3016	3016	3002	2984	2971	2962	2953	2944	2940	2935	2935	2935	2944	2953	2971	2984	2998	3012	3021	3035	3049	3063	3077	3087	3096	3106	3116	3131	3136	3141	3156	3166	3176	3192	3202	3212	3223	3228	3239	3233	3233	3228	3223	3223	3218	3202	3202	3192	3186	3176	3176	3156	3151	3146	3141	3141	3136	3136	3136	3136	3141	3151	3156	3161	3171	3176	3181	3192	3192	3192	3197	3197	3202	3202	3202	3202	3202	3202	3197	3202	3202	3202	3207	3207	3207	3207	3212	3207	3202	3197	3186	3176	3166	3146	3136	3131	3126	3126	3121	3116	3121	3126	3121	3126	3121	3121	3116	3111	3111	3116	3101	3087	3072	3092	3101	3121	3131	3136	3136	3136	3141	3136	3131	3121	3111	3101	3101	3087	3082	3077	3068	3063	3058	3053	3044	3044	3039	3039	3039	3044	3044	3044	3039	3030	3016	3007	2989	2953	2935	2927	2914	2914	2914	2909	2909	2914	2914	2918	2922	2927	2927	2927	2931	2935	2935	2935	2931	2927	2918	2909	2897	2884	2871	2847	2834	2826	2818	2810	2802	2794	2790	2786	2782	2782	2779	2775	2775	2771	2767	2763	2755	2751	2732	2721	2714	2703	2695	2684	2673	2666	2659	2655	2648	2648	2645	2641	2641	2641	2641	2641	2641	2645	2648	2652	2655	2662	2670	2677	2684	2691	2699	2703	2710	2717	2725	2732	2736	2744	2751	2759	2763	2775	2782	2790	2802	2810	2822	2834	2843	2859	2871	2884	2901	2914	2931	2949	2966	2980	0	2993	3007	3016	3021	3030	3030	3039	0	0	0	0	5027	5066	5092	0	5118	5145	5199	5254	5268	5296	5296	5296	5296	5282	5268	5254	5226	5199	5145	5092	5014	4890	0	4380	4150	4082	4048	4040	4048	4065	4177	0	4323	4500	4693	0	4902	5118	5311	5398	5457	5472	5488	5503	5503	5503	5518	5503	5503	5518	5518	5503	5503	5503	5503	5503	5518	5534	5534	5549	5565	5565	5565	5549	5549	5534	5503	5488	5457	5427	5354	5325	5254	5185	5131	4976	4681	0	4390	4185	4124	4099	4065	4040	4015	3999	3975	3967	3951	3943	3928	3920	3928	3920	0	0	0	0	0	0	0	0	5412	5518	5549	5581	5581	5596	5596	5612	5628	5677	5710	5743	5776	5810	5828	5862	5897	5915	5933	5933	5933	5933	5897	5897	5862	5862	5828	5793	5743	5726	5693	5661	5628	5549	5534	5503	5472	5442	5412	5398	5383	5368	5368	5383	5412	5457	5503	5549	5612	5644	5710	5760	5810	5845	0	5897	5915	5950	5968	6005	6023	6041	6041	6060	6060	6060	6079	6079	6079	6079	6079	6060	6041	6041	6023	6023	6023	6005	6005	5987	5987	5968	5968	5950	5933	5915	5880	5862	5862	5845	5828	5810	5776	5760	5743	5726	5726	5710	5710	5726	0	5743	5760	5793	5810	5828	5845	5880	5897	5933	5950	5968	6005	6023	6041	6079	6097	6116	6135	6174	6193	6212	6232	6252	6272	6272	6272	6232	6212	6116	6060	6023	5987	5933	5862	0	4239	4230	4212	4203	4185	4177	4168	4159	4142	4133	4107	4099	4090	4090	4090	4090	4099	4107	4107	4116	4116	4124	4124	4124	4133	4133	4133	4133	4133	4124	4116	4099	4090	4082	4040	4032	4015	4007	3999	3999	3991	3991	3983	3983	3975	3975	3967	3967	3959	3959	3967	3967	3975	3975	3975	3975	3983	3983	3991	3983	3983	3991	3991	3999	3999	4007	4007	4024	4032	4048	4065	4082	4090	4107	4124	4142	4150	4159	4177	4185	4194	4194	4212	4212	4221	4221	4221	4212	4203	4194	4194	4185	4177	4159	4150	4142	4133	4124	4090	4082	4065	4048	4040	4032	4024	4007	4015	4015	4024	4040	4048	4065	4082	4099	4107	4116	4116	4116	4116	4116	4107	4090	4073	4057	4040	4032	4015	3999	3983	3967	3959	3959	3951	3935	3928	3912	3897	3889	3881	3874	3866	3858	3858	3851	3858	3851	3851	3851	3851	3851	3858	3866	3866	3866	3858	3858
2980	2998	3012	3025	3030	3025	3016	2998	2980	2966	2957	2953	2944	2940	2940	2940	2953	2962	2975	2989	3007	3016	3030	3044	3053	3068	3077	3087	3092	3101	3111	3121	3126	3131	3141	3151	3161	3171	3176	3186	3202	3212	3218	3218	3212	3212	3207	3202	3197	3192	3181	3176	3166	3161	3151	3146	3141	3131	3131	3126	3126	3131	3126	3136	3141	3146	3156	3161	3171	3176	3186	3186	3192	3192	3197	3197	3197	3197	3197	3197	3197	3197	3202	3202	3202	3207	3207	3212	3212	3218	3218	3218	3212	3207	3202	3192	3176	3166	3146	3141	3146	3141	3141	3131	3136	3131	3131	3131	3126	3121	0	3111	0	0	0	3025	0	0	0	0	0	0	0	3072	3077	3082	3082	3063	3063	3058	3049	3049	3044	3039	3025	3021	3012	3007	2993	2989	2980	2971	2971	2966	2962	2957	2949	2935	2927	2914	2905	2888	2888	2884	2876	2880	2880	2884	2888	2892	2897	2901	2901	2905	2909	2914	2918	2918	2918	2918	2914	2909	2901	2892	2880	2867	2843	2830	2822	2810	2802	2794	2790	2782	2779	2775	2771	2771	2771	2767	2767	2767	2763	2759	2751	2744	2729	2721	2706	2699	2688	2677	2670	2662	2655	2652	2645	2645	2641	2641	2641	2641	2641	2641	2645	2648	2648	2655	2659	2666	2670	2677	2684	2691	2699	2706	2710	2717	2725	2732	2736	2744	2748	2755	2763	2771	2779	2790	2798	2810	2818	2830	2838	2855	2867	2880	2892	2909	2922	2940	2953	2971	2984	0	2998	3007	3016	3025	3030	3030	0	0	0	0	5040	5079	0	5105	5131	5158	5213	5254	5282	5282	5282	5282	5282	5268	5240	5213	5185	5131	5079	5014	4927	4627	4470	4203	4107	4048	4024	4024	4024	4057	4168	0	4332	0	0	0	4890	5105	5296	5398	5442	5457	5472	5488	5488	5503	5488	5488	5488	5488	5488	5472	5472	5457	5457	5472	5472	5472	5488	5503	5518	5518	5534	5534	5518	5503	5488	5457	5427	5398	5325	5268	5199	5118	5053	4914	4637	0	4380	4203	4150	4116	4082	4048	4032	4015	3999	3983	3967	3951	3935	3928	3920	3912	3904	0	0	0	0	0	0	5518	5534	5565	5565	5565	5565	5581	5581	5596	5628	5661	5710	5743	5776	5810	5845	5880	5915	5915	5933	5950	5933	5933	5915	5897	5880	5845	5810	5760	5726	5693	5661	5628	5581	5518	5503	5472	5442	5412	5383	5383	5368	5354	5354	5368	5398	5457	5503	5549	5612	5677	5726	5776	5845	0	5880	5933	5968	5987	6023	6041	6060	6060	6079	6097	6097	6097	6097	6097	6097	6097	6079	6060	6060	6041	6041	6023	6023	6023	6005	6005	5987	5987	5968	5968	5950	5933	5915	5897	5880	5862	5845	5810	5793	5776	5760	5743	5726	5726	5710	5726	5743	5760	5793	5810	5828	5862	5897	5933	5968	5987	6005	6041	6060	6097	6116	6135	6154	6174	6193	6212	6232	6252	6272	6272	6292	6272	6252	6252	6154	6097	6023	5987	5950	5880	5810	0	0	4295	4230	4203	4185	4168	4159	4142	4133	4116	4107	4090	4082	4082	4082	4082	4082	4090	4099	4099	4107	4107	4116	4124	4124	4133	4133	4133	4133	4133	4124	4116	4099	4090	4048	4032	4015	4007	4007	3999	3999	3991	3991	3991	3983	3975	3975	3975	3975	3975	3975	3975	3975	3983	3983	3983	3991	3991	3999	3991	3999	3999	4007	4015	4015	4024	4032	4048	4065	4082	4099	4116	4124	4142	4159	4168	4185	4194	4203	4212	4221	4221	4221	4230	4230	4221	4221	4212	4194	4185	4177	4168	4159	4150	4142	4133	4124	4116	4107	4073	4057	4048	4040	4015	4015	4007	4007	4015	4024	4040	4057	4073	4090	4107	4116	4133	4133	4133	4133	4133	4124	4107	4090	4073	4065	4040	4024	4015	3991	3975	3967	3951	3943	3935	3928	3904	3897	3881	3874	3874	3866	3858	3858	3858	3858	3858	3866	3866	3866	3874	3874	3874	3874	3874	3866	3866
2971	2993	3012	3025	3035	3030	3021	3002	2984	2975	2962	2953	2944	2940	2940	2944	2953	2966	2980	2993	3007	3021	3030	3044	3058	3068	3082	3087	3092	3101	3106	3116	3121	3126	3131	3136	3146	3151	3161	3166	3176	3186	3197	3197	3192	3192	3186	3181	3181	3171	3161	3156	3141	3141	3136	3131	3126	3121	3116	3116	3116	3121	3126	3131	3136	3146	3151	3161	3171	3176	3181	3186	3186	3192	3192	3192	3192	3192	3192	3192	3192	3197	3197	3197	3202	3207	3207	3212	3218	3223	3223	3223	3223	3218	3212	3202	3186	3197	3186	3176	3166	3161	3156	3151	3146	3141	3136	3136	3131	3126	3126	3121	3096	3082	3044	0	0	0	0	0	0	0	0	0	0	3021	3016	3007	3002	3002	2998	2998	2998	2993	2980	2975	2971	2966	2953	2944	2931	2922	2909	2905	2897	2888	2880	2876	2871	2867	2863	2863	2863	2855	2863	2867	2867	2871	2880	2884	2888	2897	2897	2901	2901	2905	2905	2909	2905	2909	2905	2897	2888	2880	2867	2843	2830	2818	2806	2798	2790	2782	2775	2771	2767	2763	2763	2759	2759	2755	2755	2755	2751	2748	2740	2729	2717	2710	2703	2688	2681	2673	2666	2659	2652	2648	2645	2641	2641	2638	2641	2641	2641	2645	2645	2648	2652	2655	2659	2666	2670	2677	2684	2688	2695	2703	2710	2714	2721	2729	2736	2740	2748	2755	2763	2771	2779	2786	2794	2806	2818	2826	2838	2851	2863	2876	2888	2901	2914	2927	2944	2962	2975	2989	2998	0	3007	3012	3021	3025	0	0	0	0	0	5066	5092	5118	5145	5158	5199	5240	5254	5254	5254	5254	5254	5226	5213	5172	5131	5066	5001	4927	4681	0	4390	4159	4073	4032	4015	4007	4024	4048	4168	0	4313	0	0	4830	0	5027	5213	5311	5368	5398	5427	5457	5472	5472	5472	5472	5472	5457	5457	5442	5427	5427	5427	5427	5427	5427	5442	5457	5472	5488	5488	5488	5488	5472	5442	5427	5383	5311	5268	5213	5145	5053	4976	4715	4594	0	4361	4212	4159	4133	4099	4073	4057	4040	4024	3999	3983	3967	3951	3928	3920	3912	0	0	0	0	0	0	5596	5596	5581	5581	5565	5565	5565	5565	5581	5596	5612	5644	5693	5743	5776	5810	5845	5897	5915	5933	5933	5950	5950	5933	5915	5880	5862	5828	5776	5726	5677	5644	5612	5581	5518	5488	5472	5457	5427	5398	5368	5354	5339	5339	5339	5354	5383	5427	5472	5534	5596	5644	5710	5776	5828	0	5880	5933	5968	5987	6023	6041	6079	6079	6097	6116	6097	6116	6116	6116	6097	6079	6079	6060	6041	6041	6041	6041	6023	6023	6023	6023	6041	6023	6005	5987	5968	5950	5915	5915	5897	5880	5862	5828	5810	5776	5760	5760	5743	5726	5726	5743	5760	5776	5810	5828	5880	5897	5933	5968	6005	6060	6079	6097	6135	6154	6174	6193	6212	6232	6252	6272	6292	6292	6312	6312	6292	6272	6252	6232	6135	6079	6023	5968	5915	5862	5776	0	0	4342	4239	4212	4185	4168	4150	4142	4124	4116	4099	4082	4073	4065	4065	4065	4065	4073	4082	4082	4090	4099	4107	4116	4116	4124	4124	4133	4142	4133	4133	4116	4107	4099	4073	4040	4024	4007	4007	4007	4007	3999	3999	3999	3991	3991	3991	3983	3983	3983	3983	3983	3991	3991	3991	3991	3999	3999	3999	4007	4007	4015	4024	4032	4032	4048	4065	4082	4099	4124	4142	4150	4168	4185	4203	4212	4221	4230	4239	4248	4258	4248	4248	4248	4239	4221	4212	4194	4185	4177	4168	4159	4150	4142	4133	4133	4124	4116	4099	4073	4057	4040	4032	4015	4007	4007	4007	4015	4024	4040	4057	4073	4090	4116	4133	4142	4150	4142	4142	4142	4133	4124	4107	4090	4065	4048	4024	4007	3991	3975	3959	3951	3935	3928	3920	3897	3897	3881	3881	3874	3874	3866	3874	3874	3874	3874	3881	3881	3881	3881	3881	3881	3889	3881	3874	3866
