737	736	732	729	726	725	722	720	719	719	719	719	720	720	722	723	726	729	733	739	742	746	749	754	757	760	760	760	761	761	761	760	760	758	758	758	757	757	758	760	761	764	766	769	772	776	777	779	779	779	777	777	776	772	771	769	766	764	763	763	761	760	760	760	760	761	761	761	761	761	761	763	763	763	763	763	764	764	766	766	766	766	766	766	764	763	761	760	758	758	757	755	754	752	751	749	748	746	745	745	742	740	737	735	733	732	729	727	726	725	725	725	725	725	725	725	725	725	725	725	725	725	725	726	726	726	726	727	727	729	729	730	732	733	733	733	735	735	736	736	739	740	740	743	743	745	746	746	746	746	746	746	746	746	746	746	746	745	745	743	743	742	742	742	742	742	742	743	745	745	748	749	751	752	754	757	758	761	764	768	769	772	774	774	772	771	769	768	764	763	760	758	757	754	754	751	749	748	748	746	746	746	748	748	749	749	751	752	754	755	755	757	757	757	757	757	755	755	755	755	754	754	752	752	751	751	751	751	751	751	751	752	752	754	754	754	755	755	755	755	754	754	752	752	752	751	751	751	749	748	746	745	743	742	740	739	739	737	736	736	735	733	733	732	730	730	727	727	727	726	725	725	723	723	726	726	729	730	733	736	739	743	746	749	751	754	755	757	757	757	757	757	757	757	757	755	755	755	754	754	755	755	755	757	757	757	758	760	761	761	761	760	760	758	757	757	755	752	752	751	749	749	748	748	748	748	749	754	755	757	760	763	764	768	771	772	772	776	777	777	777	777	776	776	774	772	772	771	769	769	768	768	768	766	766	764	763	763	761	761	760	760	760	757	757	755	755	752	752	752	751	751	751	751	752	754	755	755	757	757	758	760	761	763	763	764	766	766	766	766	766	764	764	764	763	763	763	763	763	763	761	761	761	763	763	763	764	764	766	768	769	769	771	772	774	776	777	777	777	777	777	777	776	776	776	777	777	779	780	782	784	785	785	787	789	789	789	790	790	790	792	792	792	794	797	799	802	807	813	821	829	836	840	844	844	844	844	840	832	823	823	0	0	0	0	0	0	6141	6141	6141	6141	6141	6243	6349	6572	6811	7068	7204	7645	7970	8143	8514	8712	8712	8514	8324	8143	7804	7645	7345	7204	7068	6937	6811	6689	6572	6572	6572	6572	6572	6572	6572	6689	6689	6811	7068	7068	7204	7492	7492	7645	7645	7492	7492	7345	7345	7204	7068	6937	6937	6937	6937	7068	7068	7204	7345	7492	7645	7645	7804	7970	7970	8143	8324	8324	8324	8324	8324	8324	0	0	0	0	0	0	0	0	0	7970	7804	7804	7645	7645	7492	7345	7204	7068	6937	6811	6811	6689	6689	6811	6811	6811	6937	7068	7204	7345	7492	7645	7970	8143	8324	8514	8712	8919	8712	8324	7970	7492	6937	6689	6349	5946	5763	5509	5429	5351	5351	5276	5203	5132	5062	5062	4995	4995	4995	4995	4929	4929	4929	4995	5062	5132	5132	5203	5203	5276	5351	5351	5276	5276	5276	5276	5132	5062	4995	4929	4803	4625	4460	4306	4162	4072	3985	3862	3822	3746	3746	3746	3746	3746	3746	3784	3862	3943	4116	4162	4257	4356	4460	4568	4683	4742	4742	4742	4742	4683	4683	4742	4742	4742	4683	4683	4625	4625	4568	4513	4407	4356	4356	4306	4306	4306	4257	4257	4306	4306	4356	4356	4407	4460	4513	4568	4568	4625	4625	4683	4683	4742	4742	4803	4742	4742	4742	4742	4742	4683	4683	4683	4625	4568	4568	4513	4460	4407	4407	4356	4356	4356	4407	4460	4460	4513	4513	4568	4568	4568	4568	4625	4683	4683	4742	4803	4865	4995	5062	5062	5132	5062	5062	5062	5062	4995	4929	4929	0	0	0	0	0	0	0
737	736	732	729	726	723	722	720	719	718	718	718	719	720	722	723	726	729	733	739	742	746	749	754	755	758	758	760	760	760	758	758	758	758	758	758	758	758	760	761	763	766	768	771	774	776	777	779	779	779	779	777	776	774	772	769	768	766	764	763	761	760	760	760	760	760	760	760	760	760	761	761	761	761	763	763	764	764	766	768	768	768	768	768	766	764	763	761	760	757	757	755	754	751	749	748	746	746	745	743	742	739	737	735	733	732	729	727	726	726	726	725	725	725	726	726	726	726	726	726	726	727	727	727	727	727	727	729	729	730	730	732	733	735	735	736	737	737	739	740	742	743	743	745	746	746	748	748	746	746	746	746	746	746	746	745	745	745	745	743	743	743	742	742	742	742	742	743	745	746	749	751	754	755	758	760	763	768	769	772	776	777	779	777	777	774	771	768	766	763	761	760	757	755	754	752	749	749	748	746	746	746	748	748	749	749	751	752	754	755	755	755	755	757	755	755	754	754	752	752	752	751	751	749	749	749	749	748	748	748	748	749	751	752	752	752	752	752	751	751	751	751	749	749	748	748	749	748	748	746	746	745	743	742	740	739	737	737	736	736	735	733	733	732	730	730	729	727	727	726	725	725	725	725	726	726	729	730	733	736	739	742	745	748	751	751	752	755	755	755	754	754	754	752	752	751	751	749	749	749	749	749	749	749	751	751	752	754	755	757	757	755	755	755	754	752	752	751	749	748	748	746	746	746	746	748	749	752	755	757	760	763	764	768	769	771	772	774	774	776	776	776	776	774	772	771	771	769	769	768	768	768	766	764	764	763	763	761	760	760	760	758	758	757	755	754	754	752	752	752	752	752	752	754	755	757	758	760	760	763	763	764	764	766	768	768	768	768	768	768	766	764	764	763	763	763	763	763	763	761	761	761	761	763	763	764	764	764	766	768	769	771	772	774	774	777	777	779	779	779	779	779	779	779	779	779	780	782	784	785	785	787	789	789	790	790	790	792	792	794	794	795	795	799	802	806	811	816	823	832	842	849	853	855	855	855	853	849	842	842	0	0	0	0	0	0	6243	6141	6141	6141	6141	6243	6349	6459	6811	7068	7345	7645	7970	8143	8324	8514	8712	8712	8514	8324	8143	7804	7645	7345	7068	7068	6937	6811	6689	6572	6572	6572	6572	6572	6572	6572	6689	6689	6811	6937	7068	7204	7345	7492	7645	7645	7492	7345	7345	7204	7068	7068	6811	6811	6811	6937	6937	7068	7068	7204	7345	7492	7645	7645	7804	7970	7970	8143	8143	8143	8143	8143	8143	0	0	0	0	0	0	7970	7970	7970	7804	7804	7804	7645	7492	7345	7345	7204	6937	6811	6689	6689	6689	6689	6811	6811	6811	6937	7068	7204	7345	7492	7804	7970	8324	8514	8514	8514	8712	8324	7970	7345	6937	6572	6141	5853	5591	5351	5276	5203	5203	5203	5203	5276	5203	5203	5203	5203	5276	5203	5203	5132	5132	5132	5203	5276	5276	5276	5351	5351	5351	5351	5276	5203	5203	5132	4995	4995	4929	4865	4865	4625	4513	4407	4257	4162	4072	3985	3902	3902	3862	3862	3862	3862	3862	3862	3902	3985	4028	4116	4209	4257	4407	4513	4568	4683	4742	4742	4742	4683	4683	4683	4683	4625	4625	4568	4568	4513	4513	4513	4460	4356	4306	4257	4257	4257	4209	4209	4209	4209	4257	4306	4306	4356	4407	4460	4513	4568	4568	4625	4625	4625	4683	4683	4742	4742	4742	4742	4742	4742	4742	4742	4742	4683	4625	4568	4513	4513	4460	4460	4460	4407	4407	4460	4513	4513	4568	4568	4568	4568	4568	4568	4625	4683	4742	4742	4803	4803	4865	4929	4995	4995	5062	5062	5062	5062	5062	0	0	0	0	0	0	0	0	0
739	736	732	729	726	723	722	720	719	718	718	718	719	720	722	723	726	730	733	739	742	746	749	754	755	757	758	758	758	758	758	757	757	757	757	757	758	758	758	761	761	764	766	769	771	772	774	776	777	777	777	777	776	774	772	769	768	766	764	763	761	761	760	760	760	760	758	758	758	760	760	760	760	760	761	763	764	764	766	768	768	768	769	769	768	766	764	761	760	757	754	754	752	749	748	746	745	743	742	742	740	737	736	735	733	732	730	727	727	727	727	726	726	726	727	727	729	729	729	729	730	730	732	732	732	732	732	732	732	732	733	733	735	736	737	739	742	743	745	745	746	748	749	749	749	749	749	749	748	746	746	746	746	746	746	745	745	745	745	745	743	743	743	742	742	742	743	745	746	749	752	755	757	760	763	766	769	772	776	779	780	782	782	780	779	776	774	771	768	764	763	760	758	757	754	754	752	751	749	749	749	749	748	748	749	751	751	752	752	754	754	754	754	755	754	754	752	752	752	751	751	749	749	748	748	748	748	746	746	746	746	746	748	748	749	749	748	748	748	748	748	748	746	746	746	748	748	748	746	746	745	743	742	740	740	739	737	737	736	736	735	735	733	733	732	730	729	729	729	727	727	726	726	726	726	727	729	730	733	736	739	742	745	746	749	751	752	752	752	752	751	751	749	748	748	746	746	745	745	745	745	745	745	745	746	748	748	749	749	751	751	751	751	751	749	749	748	748	746	746	745	745	745	745	745	746	748	751	754	755	758	761	764	766	768	769	771	771	772	772	774	774	772	772	771	769	769	768	768	766	766	764	764	763	761	761	760	758	758	757	757	757	757	755	755	754	754	752	752	752	752	752	754	757	758	761	763	764	766	768	768	769	769	771	771	771	771	769	769	768	766	766	764	763	763	763	763	761	761	761	761	761	763	763	763	764	766	766	768	768	771	771	772	774	776	777	779	780	780	780	782	782	782	782	782	784	784	785	785	787	790	790	790	792	792	792	794	794	794	795	797	800	802	806	811	816	821	829	836	846	855	863	867	867	867	867	867	865	865	0	0	6349	6243	6243	6141	6141	6243	6243	6349	6349	6349	6459	6572	6811	7204	7345	7804	7970	8324	8514	8712	8919	8919	8712	8712	8324	8143	7804	7645	7345	7068	7068	6937	6811	6689	6572	6572	6572	6572	6572	6572	6572	6689	6689	6811	6811	7068	7204	7204	7345	7492	7492	7492	7345	7345	7204	7068	6937	6811	6811	6811	6811	6811	6937	7068	7204	7204	7345	7492	7645	7645	7804	7970	7970	7970	7970	8143	8143	8143	8143	7970	7804	7804	7804	7804	7804	7804	7804	7645	7645	7645	7645	7492	7345	7204	6937	6811	6689	6572	6572	6572	6572	6689	6689	6811	6811	6937	7204	7345	7492	7645	7970	8143	8324	8324	8143	8143	7804	7345	6937	6459	6141	5853	5591	5351	5203	5132	5132	5132	5203	5203	5276	5351	5351	5429	5429	5509	5509	5429	5429	5429	5429	5351	5351	5429	5429	5429	5429	5429	5351	5203	5062	5062	4995	4929	4865	4803	4742	4683	4625	4513	4407	4257	4209	4116	4072	3985	3943	3943	3943	3943	3943	3943	3985	3985	4072	4116	4209	4306	4356	4460	4513	4568	4625	4683	4625	4625	4513	4513	4513	4513	4460	4407	4407	4356	4306	4306	4306	4306	4209	4162	4162	4116	4116	4116	4116	4116	4116	4116	4162	4209	4257	4306	4356	4407	4460	4460	4513	4568	4568	4625	4625	4742	4742	4803	4803	4803	4803	4742	4742	4742	4742	4625	4625	4568	4513	4513	4460	4460	4460	4460	4513	4513	4568	4625	4625	4625	4625	4625	4625	4625	4683	4742	4742	4742	4742	4742	4803	4865	4865	4865	5062	5062	5062	0	0	0	0	0	0	0	0	0	0
740	736	733	730	727	725	722	720	720	720	720	720	720	722	723	726	727	732	735	739	743	746	749	754	755	757	757	757	757	757	757	757	757	757	757	757	757	757	758	760	760	763	764	766	769	771	772	774	774	776	774	774	774	772	771	769	768	766	764	763	761	760	760	760	758	758	758	758	758	758	758	760	760	760	760	761	763	764	766	768	768	769	769	769	768	766	764	761	758	757	754	751	751	748	745	743	742	742	740	739	737	736	736	733	733	732	730	729	729	729	729	729	729	730	730	730	732	732	732	732	733	735	735	735	735	735	735	735	735	736	736	737	737	740	743	745	748	749	749	751	751	752	752	751	749	749	749	749	748	746	746	746	746	746	746	745	745	745	745	745	745	745	745	745	745	745	746	748	749	752	755	758	761	764	768	771	774	779	780	784	785	785	785	784	780	777	776	772	768	766	763	761	760	757	755	754	752	752	751	749	749	749	749	749	749	751	751	752	752	754	754	754	754	754	754	752	752	751	751	751	749	749	748	748	746	746	746	746	746	746	746	746	748	748	748	748	746	746	748	748	748	746	746	746	746	746	746	748	746	746	745	743	742	740	740	739	737	737	736	736	735	735	735	735	733	732	732	730	730	729	729	729	727	727	729	729	732	732	735	736	739	740	742	745	746	746	748	748	748	748	746	745	745	743	742	742	740	740	739	739	739	739	739	739	740	742	743	743	745	746	746	746	746	746	746	746	746	745	745	745	743	743	743	743	743	745	746	749	751	754	757	760	763	764	766	768	769	769	771	771	771	771	771	769	768	768	766	766	764	764	763	761	761	761	760	758	757	757	755	755	755	755	755	754	754	754	754	754	754	754	754	755	755	758	761	764	766	769	769	771	772	774	774	774	774	774	772	772	771	769	768	766	764	764	763	763	761	761	761	761	761	761	761	761	764	764	766	766	768	768	771	771	772	774	776	777	779	780	780	782	782	782	784	784	785	785	787	787	789	790	792	794	795	795	795	795	797	797	797	799	800	806	809	814	820	825	834	842	851	859	867	877	881	881	881	883	0	0	0	0	0	6349	6243	6243	6141	6141	6349	6349	6459	6572	6689	6689	6937	7345	7645	7970	8143	8514	8712	8919	9137	9137	8919	8919	8712	8324	8143	7804	7645	7345	7204	7068	7068	6937	6811	6689	6572	6572	6572	6572	6572	6689	6689	6689	6811	6811	7068	7204	7204	7345	7492	7492	7345	7345	7345	7204	7068	6937	6811	6689	6689	6689	6811	6811	6937	7068	7204	7345	7345	7492	7645	7645	7804	7970	7970	7970	7970	7970	7970	7970	7970	7804	7804	7804	7645	7645	7645	7645	7645	7492	7492	7345	7345	7204	7068	6811	6689	6572	6459	6459	6349	6349	6459	6459	6572	6689	6811	6937	7204	7345	7492	7645	7804	7970	7970	7804	7645	7345	6937	6459	6141	5763	5591	5351	5203	5132	5062	5062	5132	5203	5276	5351	5509	5591	5763	5763	5853	5853	5763	5676	5676	5676	5591	5591	5509	5429	5429	5429	5276	5276	5132	5062	5062	4929	4929	4865	4803	4742	4683	4683	4568	4460	4356	4257	4209	4162	4116	4028	4028	4028	4028	4028	4072	4072	4116	4162	4209	4306	4407	4407	4460	4568	4513	4513	4513	4460	4407	4306	4257	4257	4257	4257	4209	4209	4162	4162	4162	4116	4116	4028	3985	3943	3943	3943	3943	3943	3985	3985	3985	4028	4072	4116	4162	4209	4257	4306	4356	4407	4460	4460	4625	4625	4625	4742	4742	4803	4803	4803	4803	4803	4803	4742	4683	4625	4625	4568	4568	4513	4513	4513	4513	4513	4568	4625	4625	4683	4683	4683	4683	4683	4683	4683	4683	4683	4683	4683	4683	4683	4683	4683	4683	0	0	0	0	0	0	0	0	0	0	0	0	0
742	739	735	730	727	725	723	722	722	722	722	722	723	725	726	729	732	733	737	742	745	748	752	754	757	758	757	757	757	757	757	755	755	755	755	755	757	757	757	758	758	760	763	764	766	768	769	771	771	772	772	771	771	769	768	768	766	764	763	761	761	760	760	758	758	757	757	757	757	758	758	758	758	758	760	761	763	764	766	768	769	769	771	771	769	768	764	761	758	755	752	749	749	746	743	740	740	739	739	737	737	736	735	733	733	733	730	730	730	730	732	732	732	733	733	733	735	735	736	736	737	737	739	739	739	739	739	739	739	739	740	742	743	746	749	751	754	754	755	755	755	755	755	752	752	751	751	749	748	746	746	746	746	746	745	745	745	745	745	745	746	746	746	746	746	748	749	751	754	757	760	764	766	771	772	776	779	784	785	787	789	789	787	785	782	779	776	771	769	766	763	761	760	758	757	755	754	752	752	751	751	751	751	751	751	751	752	752	752	754	752	752	754	754	754	752	752	751	751	751	749	749	748	748	746	746	746	746	746	746	746	746	748	748	748	748	746	746	748	748	748	746	746	746	746	746	746	746	746	746	745	743	743	740	740	739	739	737	737	736	736	736	736	736	735	735	733	733	732	732	732	730	730	730	730	730	732	733	735	736	739	740	742	743	743	745	745	745	745	743	743	742	742	740	739	739	737	737	737	737	737	737	737	739	739	740	742	743	745	746	746	746	746	746	746	746	745	745	745	743	743	743	743	743	743	745	746	748	749	754	755	758	760	761	763	764	766	766	768	768	768	768	768	766	766	764	764	764	763	761	761	760	758	758	757	755	754	754	752	752	752	752	752	754	754	754	754	754	754	754	755	757	758	761	764	768	769	771	774	777	777	777	779	779	777	777	776	774	772	769	768	768	764	764	763	763	761	761	761	761	761	761	761	761	764	766	766	768	768	769	771	772	772	774	776	777	779	780	780	782	782	784	784	785	787	787	789	789	792	794	795	795	797	797	797	799	799	799	800	802	806	811	816	821	829	838	848	857	865	875	883	890	896	898	898	900	0	0	0	0	6243	6243	6349	6243	6243	6243	6572	6572	6689	6811	6937	6937	7204	7645	7970	8143	8514	8712	8919	9137	9137	9137	8919	8919	8712	8324	8143	7804	7645	7492	7204	7204	7068	6937	6937	6811	6689	6689	6572	6572	6572	6689	6689	6689	6811	6811	7068	7204	7204	7345	7492	7492	7345	7345	7204	7068	6937	6811	6689	6572	6572	6572	6572	6572	6689	6811	6937	7204	7345	7345	7645	7645	7804	7804	7804	7804	7804	7804	7804	7804	7804	7804	7645	7645	7645	7645	7492	7204	7204	7204	7068	7068	6937	6811	6689	6689	6459	6349	6243	6141	6141	6243	6243	6349	6459	6572	6689	6811	7068	7204	7345	7492	7645	7804	7492	7492	7204	6937	6572	6243	5853	5591	5351	5276	5132	5062	5062	5062	5132	5203	5351	5429	5676	5763	5946	6042	6141	6042	5946	5946	5853	5853	5763	5591	5509	5429	5351	5276	5203	5203	5132	4995	4929	4929	4865	4865	4803	4742	4683	4683	4625	4513	4407	4356	4306	4306	4257	4162	4162	4162	4162	4209	4257	4257	4306	4356	4356	4407	4513	4513	4513	4513	4460	4407	4356	4306	4257	4162	4162	4072	4072	4116	4072	4072	4028	3985	3943	3902	3862	3784	3709	3709	3673	3673	3673	3673	3746	3746	3746	3822	3862	3943	3985	4028	4116	4162	4209	4257	4306	4356	4407	4460	4513	4568	4625	4683	4683	4742	4742	4803	4803	4803	4742	4683	4683	4568	4568	4568	4568	4513	4513	4568	4625	4683	4683	4683	4683	4683	4742	4683	4683	4683	4683	4683	4683	4683	4683	4683	4683	4683	4683	0	0	0	0	0	0	0	0	0	0	0	0	0
743	740	736	733	730	727	726	725	723	723	725	725	726	727	729	732	733	737	742	745	748	751	754	757	758	758	758	757	757	757	755	755	755	755	755	755	755	755	757	757	757	758	760	761	763	764	764	766	768	769	769	768	768	766	766	764	764	763	761	761	760	760	758	757	757	757	755	755	757	757	757	757	757	757	758	760	761	763	766	768	768	771	771	771	769	768	763	761	758	754	751	746	743	743	742	739	737	736	736	736	736	736	735	735	733	733	733	732	732	733	735	735	736	736	737	739	739	739	740	740	740	742	743	743	743	743	743	743	743	743	743	746	748	751	752	754	755	757	757	757	757	757	755	754	752	751	751	749	748	748	746	745	745	745	745	745	745	745	745	746	746	748	748	749	749	749	752	755	757	760	763	768	769	774	777	780	784	785	789	790	790	789	787	784	782	777	774	771	768	766	763	761	760	758	757	755	754	754	754	754	752	752	752	752	752	752	752	752	754	754	752	752	754	754	752	752	751	751	751	751	751	749	749	749	748	748	748	748	746	746	746	748	748	748	748	748	748	748	748	748	748	746	746	746	746	746	746	746	746	746	745	745	743	742	740	740	739	739	737	737	737	737	737	736	736	736	736	735	735	735	735	733	733	733	733	735	735	736	736	737	739	739	740	740	742	742	742	742	742	742	740	739	739	737	737	736	736	736	736	736	736	736	737	737	739	740	742	743	745	746	746	746	746	746	746	746	745	745	745	743	743	743	743	743	743	745	746	748	749	752	754	755	758	758	760	761	763	764	764	766	766	764	764	764	764	763	761	761	760	760	758	757	755	755	754	752	751	749	749	749	749	751	751	751	752	752	754	754	755	755	757	758	760	763	768	769	774	777	779	780	782	782	784	782	782	780	777	776	774	771	769	768	766	764	763	763	761	761	761	761	761	761	761	763	764	766	766	768	769	769	771	772	772	774	776	777	779	779	780	782	782	784	785	785	787	789	790	792	794	795	797	799	799	800	800	800	800	802	802	806	809	816	823	831	840	851	861	873	881	892	898	905	911	911	914	916	932	932	0	6243	6243	6243	6349	6243	6243	6459	6689	6689	6937	6937	7068	7204	7492	7970	8324	8324	8514	8712	9137	9137	9137	9137	8919	8919	8712	8324	8143	7804	7492	7492	7345	7345	7204	7068	6937	6937	6689	6689	6689	6572	6572	6689	6689	6811	6811	6811	7068	7068	7204	7204	7345	7345	7345	7204	7068	6937	6811	6689	6459	6349	6349	6243	6243	6349	6349	6572	6689	7204	7345	7345	7492	7645	7645	7645	7804	7804	7804	7804	7804	7804	7804	7804	7645	7492	7345	7345	7204	7204	7068	7068	6937	6937	6811	6689	6572	6459	6243	6141	6141	6042	6042	6042	6042	6042	6141	6243	6459	6572	6689	6811	6937	7068	7204	7204	7068	6937	6811	6459	6243	5946	5676	5509	5351	5276	5132	5062	5062	5132	5203	5351	5509	5591	5853	5946	6141	6349	6349	6349	6243	6141	6042	5946	5763	5591	5429	5351	5276	5276	5203	5132	5132	4995	4929	4865	4865	4803	4803	4742	4683	4683	4625	4568	4513	4460	4460	4460	4407	4356	4356	4356	4407	4460	4460	4460	4513	4513	4513	4568	4568	4568	4568	4460	4356	4306	4257	4162	4116	4028	3985	3943	3943	3943	3943	3902	3862	3862	3784	3746	3709	3637	3568	3534	3501	3501	3501	3501	3568	3568	3602	3637	3673	3746	3784	3822	3902	3985	4028	4162	4209	4257	4306	4356	4407	4513	4568	4625	4683	4742	4742	4803	4803	4803	4742	4683	4683	4625	4625	4625	4625	4568	4568	4625	4683	4742	4742	4803	4742	4742	4742	4742	4742	4742	4742	4683	4683	4683	4683	4683	4683	4683	4683	0	0	0	0	0	0	0	0	0	0	0	0	0
745	742	739	736	733	730	730	729	727	727	729	729	730	732	733	735	737	742	745	749	752	755	757	760	760	761	760	758	758	757	755	755	755	755	755	755	755	754	754	755	755	757	758	758	760	761	763	763	764	766	766	766	766	764	764	763	763	761	761	760	758	758	757	757	755	755	755	755	755	755	755	755	755	755	757	758	760	763	764	766	768	769	771	771	769	768	763	761	758	754	749	745	742	742	739	737	736	736	736	736	736	736	736	735	735	735	735	735	735	735	736	737	739	739	742	742	743	743	743	743	745	746	746	746	746	748	748	746	746	746	748	748	749	752	754	755	757	758	758	758	757	757	755	754	752	751	749	749	748	746	745	745	745	745	745	745	745	745	746	746	748	749	749	749	751	752	755	758	761	763	766	771	774	777	780	784	785	789	790	789	789	787	784	782	779	776	772	769	768	764	763	761	760	758	757	757	755	755	755	754	754	752	752	752	752	752	754	754	754	754	752	752	754	754	752	752	751	751	751	751	751	751	751	751	751	751	751	751	749	748	748	748	749	749	749	749	748	748	748	748	748	748	746	746	746	746	746	746	746	746	745	745	743	743	742	740	740	739	739	739	739	739	739	739	739	737	737	737	737	737	736	736	736	736	736	736	736	736	736	736	736	736	737	737	739	739	740	739	739	739	737	736	736	736	735	735	735	733	733	735	735	736	736	737	739	742	742	743	745	746	746	748	748	746	746	746	746	745	745	745	745	743	743	743	743	745	746	748	749	751	752	755	755	757	758	760	760	761	763	763	763	763	763	763	761	760	760	758	758	757	755	754	752	751	751	749	748	748	746	746	746	748	748	749	751	752	754	754	755	757	758	760	761	766	769	772	777	779	780	784	784	785	785	785	784	780	779	777	774	772	769	768	766	764	763	761	761	761	761	761	761	761	761	763	764	766	766	769	769	771	771	772	774	774	776	776	777	777	780	782	782	784	785	787	789	790	792	794	795	797	800	802	802	802	802	802	804	804	806	809	814	821	831	840	851	863	875	888	896	905	909	918	923	923	925	930	932	932	5946	5946	6141	6141	6243	6243	6243	6459	6689	6937	6937	7204	7345	7345	7645	7970	8324	8324	8514	8712	8919	9137	9137	8919	8919	8712	8514	8324	7970	7804	7492	7345	7345	7345	7204	7068	7068	6937	6811	6689	6689	6689	6689	6689	6689	6689	6689	6811	6937	7068	7204	7204	7204	7345	7204	7204	6937	6811	6689	6459	6349	6243	6141	6042	6042	6042	6349	6572	6689	6811	7068	7204	7345	7492	7645	7645	7645	7645	7645	7804	7804	7804	7804	7804	7645	7492	7345	7204	7204	7068	7068	6937	6811	6689	6572	6459	6349	6243	6141	5946	5853	5853	5763	5763	5853	5853	5853	6042	6141	6141	6349	6349	6459	6459	6572	6572	6459	6459	6349	6141	5853	5676	5591	5509	5351	5276	5203	5203	5203	5203	5429	5509	5676	5853	6042	6243	6349	6572	6572	6349	6349	6243	6042	5763	5591	5429	5351	5276	5132	5132	5132	5062	4995	4929	4865	4865	4803	4803	4742	4683	4683	4683	4683	4683	4625	4625	4568	4568	4568	4568	4568	4568	4568	4568	4625	4625	4625	4625	4625	4625	4625	4568	4568	4407	4257	4162	4116	4028	3902	3822	3784	3784	3784	3784	3784	3746	3746	3709	3673	3602	3568	3534	3437	3405	3375	3375	3375	3405	3405	3469	3501	3501	3602	3637	3673	3709	3746	3822	3902	3985	4072	4162	4209	4257	4356	4407	4513	4568	4625	4683	4742	4742	4803	4803	4683	4683	4625	4625	4625	4625	4625	4625	4625	4683	4742	4803	4803	4803	4803	4803	4803	4803	4803	4742	4742	4742	4742	4683	4683	4683	0	0	0	0	0	0	0	0	0	0	0	0	0	0	0	0
745	743	740	737	735	733	732	732	732	732	732	733	733	735	736	739	742	746	749	754	757	760	761	763	763	763	761	760	758	758	757	755	755	754	754	754	754	754	754	754	755	755	755	757	758	760	760	761	763	763	763	763	763	763	761	761	761	760	760	758	757	757	755	754	754	754	754	752	752	752	752	754	754	754	755	757	758	761	764	766	768	769	771	772	771	768	764	761	758	754	749	745	740	739	739	736	736	735	735	735	736	736	736	736	736	736	736	736	736	737	739	740	740	742	743	745	745	746	746	746	748	749	749	749	749	749	749	749	749	749	749	751	752	754	755	757	758	758	758	758	757	757	755	754	752	751	749	749	748	746	745	745	745	745	745	745	745	745	746	746	748	749	749	751	752	755	757	760	763	766	769	772	776	779	782	785	787	787	787	787	785	784	780	779	776	772	769	768	766	764	763	761	760	758	758	757	757	757	755	755	755	754	754	754	754	754	754	754	754	754	752	752	754	754	752	752	752	752	752	752	752	754	754	754	754	754	754	752	752	751	751	751	751	751	749	749	749	748	748	749	749	748	748	748	748	748	748	748	748	748	746	746	745	743	743	742	742	740	740	740	740	740	740	740	740	740	740	740	740	740	739	739	737	737	737	737	736	735	735	735	733	733	735	735	736	736	736	736	736	736	735	735	733	733	732	732	732	732	732	733	733	735	736	737	739	740	742	743	745	746	748	748	748	746	746	746	746	746	745	745	745	745	745	745	745	746	746	748	749	751	752	754	754	755	757	757	758	758	760	761	761	760	760	760	760	758	758	757	755	755	754	752	749	748	748	746	745	743	743	743	743	745	746	748	749	752	754	754	757	758	758	761	764	768	771	774	779	780	782	784	785	785	785	785	782	779	777	776	772	769	768	766	764	764	763	761	761	761	761	761	761	761	763	763	766	768	768	769	771	771	771	772	772	774	774	776	776	777	779	780	782	784	785	787	789	790	794	795	797	799	800	804	804	804	806	806	806	807	809	813	818	827	836	848	859	871	886	898	907	914	920	925	927	930	932	934	937	0	5853	5853	5946	6042	6042	6042	6141	6243	6459	6572	6689	6937	7068	7345	7492	7804	8143	8143	8324	8514	8712	8919	8919	8919	8919	8712	8514	8324	7970	7804	7345	7345	7204	7068	7068	6937	6937	6811	6811	6689	6689	6572	6572	6572	6572	6572	6572	6689	6811	6937	7068	7068	7204	7204	7204	7068	6811	6689	6572	6349	6243	6042	6042	6042	6042	6042	6243	6349	6572	6689	6811	7068	7345	7492	7645	7645	7645	7645	7645	7804	7804	7804	7804	7804	7645	7492	7345	7204	7204	6937	6937	6811	6689	6572	6459	6349	6243	6141	5946	5853	5763	5676	5676	5591	5591	5676	5676	5676	5763	5763	5853	5946	5946	5946	5946	5853	5763	5763	5763	5763	5591	5509	5429	5351	5351	5351	5351	5276	5276	5351	5429	5676	5853	5946	6141	6349	6572	6572	6572	6459	6243	6042	5853	5676	5509	5351	5276	5203	5132	5062	5062	4995	4929	4865	4803	4742	4683	4683	4625	4625	4625	4625	4625	4683	4625	4625	4625	4625	4683	4683	4683	4683	4742	4742	4803	4803	4803	4742	4742	4742	4683	4568	4460	4306	4162	4072	3943	3902	3784	3709	3673	3637	3637	3637	3637	3637	3602	3568	3568	3501	3469	3405	3375	3315	3315	3315	3315	3315	3345	3375	3437	3469	3501	3534	3568	3602	3673	3709	3784	3862	3943	4072	4116	4162	4257	4356	4407	4513	4568	4625	4683	4742	4803	4742	4683	4683	4625	4625	4625	4625	4625	4625	4683	4742	4803	4803	4865	4865	4865	4865	4865	4865	4865	4803	4803	4803	4742	4742	4742	4742	4803	0	0	0	0	0	0	0	0	0	0	0	0	0	0	0
745	743	742	739	737	736	735	735	735	735	735	736	736	737	739	745	748	751	754	758	761	763	766	766	766	766	763	763	760	758	757	757	755	754	754	754	754	752	752	754	754	754	755	755	757	757	758	758	760	761	761	761	761	761	760	760	758	758	758	757	757	755	754	754	752	752	751	751	749	749	751	751	751	752	754	755	757	760	764	766	768	769	771	772	771	768	764	761	758	754	749	745	740	739	736	736	736	735	735	735	736	736	737	737	737	737	737	739	739	740	742	743	745	745	746	748	748	748	748	749	751	751	752	752	752	752	752	752	751	751	751	752	752	754	755	757	758	758	758	758	757	757	754	754	751	751	749	748	746	746	745	745	745	745	745	745	745	745	746	746	748	751	752	754	755	758	760	763	766	769	772	776	779	780	784	784	785	785	784	784	782	780	779	776	772	771	768	766	763	763	761	760	760	758	758	757	757	757	757	755	755	755	755	755	755	755	754	754	754	754	754	754	754	754	754	754	754	754	754	754	755	757	755	755	755	755	755	755	754	752	752	752	752	752	752	752	751	751	751	751	751	751	749	749	749	749	749	749	749	749	748	748	746	745	745	743	743	742	742	742	742	742	742	743	743	743	743	743	743	742	742	740	739	739	737	736	735	733	732	732	730	730	730	732	732	732	733	733	733	733	732	732	732	730	729	729	729	729	730	732	732	733	735	736	737	740	742	743	745	746	748	748	748	746	746	746	746	746	745	745	745	745	745	745	745	746	746	748	749	751	751	752	754	755	755	755	757	757	758	758	760	758	758	758	758	758	757	755	755	754	752	749	748	746	745	745	742	742	740	740	742	742	745	746	749	751	754	755	757	758	761	764	766	769	772	776	779	780	782	784	784	784	784	782	779	776	776	772	771	768	766	764	763	763	761	760	760	760	760	761	761	761	763	764	766	768	768	769	771	771	771	772	772	774	774	774	776	776	779	780	782	784	785	787	790	792	795	797	799	800	804	804	806	806	806	807	807	809	811	816	821	832	842	853	867	879	892	905	911	918	923	927	930	932	934	937	937	0	5853	5763	5763	5853	5853	5853	5946	6042	6243	6349	6459	6689	6811	7068	7204	7492	7804	7804	8143	8143	8324	8514	8712	8712	8712	8514	8514	8324	7970	7804	7345	7345	7204	7068	7068	6937	6811	6811	6689	6689	6572	6572	6572	6459	6459	6459	6459	6572	6689	6811	6937	6937	7068	7068	7068	6937	6811	6572	6459	6349	6243	6042	5946	5946	5946	5946	6042	6141	6349	6572	6689	6937	7204	7492	7645	7970	7970	8143	8143	8143	8143	8143	8143	7804	7645	7492	7345	7068	7068	6811	6811	6572	6572	6459	6349	6243	6141	6042	5946	5763	5676	5591	5509	5429	5429	5429	5429	5429	5429	5429	5509	5509	5509	5509	5429	5429	5509	5509	5509	5509	5509	5429	5429	5351	5351	5351	5351	5351	5351	5429	5591	5763	5853	6042	6243	6349	6459	6459	6349	6243	6042	5853	5676	5509	5351	5276	5203	5132	5062	5062	4995	4929	4865	4803	4803	4683	4625	4625	4568	4568	4513	4513	4568	4625	4625	4683	4683	4683	4742	4803	4865	4865	4929	4929	4929	4929	4929	4865	4865	4742	4683	4568	4407	4257	4072	3985	3902	3822	3709	3673	3602	3568	3568	3568	3568	3534	3534	3501	3469	3469	3405	3345	3286	3286	3257	3257	3257	3286	3315	3375	3375	3405	3469	3501	3534	3568	3602	3637	3709	3784	3862	3943	4028	4072	4162	4257	4356	4407	4513	4568	4625	4683	4742	4742	4742	4683	4683	4683	4683	4683	4683	4683	4742	4742	4803	4865	4929	4929	4929	4929	4929	4929	4929	4865	4865	4865	4803	4803	4803	4803	4803	4865	0	0	0	0	0	0	0	0	0	0	0	0	0	0
743	743	742	740	739	737	737	737	739	739	739	739	740	743	745	749	752	755	760	763	764	768	769	771	769	768	766	763	763	760	758	757	755	754	754	754	754	752	752	752	752	752	754	754	754	755	757	757	758	758	760	760	760	760	758	758	757	757	757	755	755	754	752	752	752	751	749	749	748	748	749	749	751	751	752	755	757	760	763	764	768	769	772	772	771	768	764	761	758	754	749	745	742	739	736	736	736	736	736	737	739	739	739	740	740	740	740	740	740	742	745	745	746	746	746	748	748	748	748	748	749	752	752	752	754	754	752	752	751	751	751	752	752	754	755	757	758	758	758	758	757	757	754	752	751	749	749	748	746	746	746	746	745	745	745	745	745	745	746	749	751	752	755	757	758	760	763	766	769	771	774	776	779	780	782	782	782	782	782	780	779	777	776	772	771	768	766	764	763	761	761	760	760	760	758	758	758	758	757	757	757	757	757	755	755	755	755	755	755	755	754	754	754	754	754	754	754	754	754	755	757	758	758	758	758	758	758	758	757	755	755	755	755	755	755	755	755	755	755	755	755	754	752	752	752	752	752	752	752	751	749	749	748	746	746	745	743	743	743	743	743	743	743	743	745	745	745	745	745	743	743	742	739	737	736	735	733	732	730	729	729	729	729	729	729	730	730	732	732	730	730	729	729	729	726	726	726	727	727	729	730	732	733	735	737	740	742	745	746	746	748	748	748	748	748	746	746	746	746	745	745	745	745	745	745	746	746	748	748	749	751	752	752	754	754	755	755	757	757	758	758	758	758	757	757	757	755	755	754	752	751	749	746	745	743	743	742	740	739	739	740	742	743	745	748	751	752	755	758	760	763	764	768	769	772	776	777	779	780	780	782	780	780	779	777	774	772	771	768	766	763	763	761	760	760	760	758	758	760	760	761	761	763	764	768	768	769	771	771	772	772	772	772	774	774	774	776	776	777	779	782	784	785	789	790	794	797	799	800	802	804	807	807	807	807	807	809	811	814	820	827	836	848	859	871	883	894	905	914	920	923	927	932	934	934	937	939	0	5591	5591	5591	5676	5676	5676	5853	5853	6042	6141	6243	6459	6572	6811	6937	7204	7345	7645	7645	7970	8143	8324	8514	8514	8514	8514	8324	8143	7804	7645	7345	7204	7204	7068	6937	6937	6811	6689	6689	6572	6572	6459	6459	6459	6459	6459	6459	6572	6572	6811	6811	6937	6937	7068	6937	6811	6811	6572	6459	6243	6141	5946	5853	5853	5853	5853	5946	6042	6141	6349	6572	6689	7068	7345	7804	8143	8143	8324	8324	8324	8324	8324	8143	7970	7645	7492	7204	6937	6811	6811	6689	6572	6459	6349	6243	6141	6042	5946	5853	5763	5591	5509	5429	5351	5276	5203	5203	5203	5132	5132	5132	5132	5062	5062	5132	5132	5203	5203	5351	5429	5429	5429	5429	5429	5429	5429	5509	5509	5591	5591	5763	5853	6042	6141	6243	6243	6243	6243	6141	6042	5946	5763	5591	5429	5351	5276	5203	5132	5062	5062	4995	4929	4865	4742	4742	4625	4568	4513	4513	4513	4513	4513	4513	4625	4625	4683	4683	4742	4865	4929	4929	4995	4995	5062	5132	5132	5062	4995	4929	4865	4742	4625	4407	4209	4028	3902	3822	3746	3673	3602	3568	3501	3501	3534	3534	3501	3501	3469	3405	3375	3345	3286	3257	3229	3229	3229	3229	3257	3286	3315	3345	3405	3405	3469	3501	3501	3534	3602	3637	3709	3784	3862	3943	3985	4072	4162	4257	4306	4407	4460	4513	4568	4625	4683	4683	4742	4742	4742	4742	4742	4742	4742	4742	4803	4865	4929	4995	4995	4995	4995	4995	4995	4995	4929	4929	4929	4929	4865	4865	4865	4865	4865	0	0	0	0	0	0	0	0	0	0	0	0	0	0
742	740	740	740	740	740	740	740	740	742	742	743	745	748	751	754	757	760	764	768	769	771	772	772	771	771	768	766	763	761	760	758	757	755	754	754	754	752	752	752	752	752	752	754	754	754	755	755	757	757	758	758	758	758	757	757	757	755	755	755	754	754	752	751	751	749	749	748	748	748	748	749	749	749	752	754	757	760	763	764	768	769	772	772	771	769	764	761	758	754	749	746	743	740	739	739	739	739	739	740	742	742	742	743	743	743	743	743	743	743	745	745	746	746	746	746	746	748	748	748	749	751	751	752	752	752	752	752	751	751	752	752	754	754	755	757	757	758	757	757	757	755	754	752	751	749	749	749	749	746	746	746	746	746	746	746	746	746	748	751	752	755	757	758	761	763	764	768	771	772	774	776	777	777	779	779	779	779	777	776	776	772	771	769	768	766	763	763	761	761	760	760	760	760	758	758	758	758	758	758	758	758	758	757	757	757	757	757	757	757	757	755	755	755	755	757	757	757	757	758	760	761	761	761	761	761	761	760	760	758	758	758	758	760	760	758	758	758	758	760	758	758	758	758	757	757	757	755	754	752	751	749	749	748	746	745	745	743	743	743	743	743	745	745	746	746	746	746	746	745	742	740	739	736	735	733	732	729	727	726	726	726	726	726	726	726	729	729	729	729	727	727	726	726	725	725	725	725	726	726	729	729	732	733	736	739	742	743	746	748	748	749	749	749	748	748	746	746	746	746	745	745	745	745	746	746	746	748	748	749	751	751	752	752	754	754	755	755	757	757	757	757	757	757	755	755	755	754	754	752	751	748	746	745	743	743	742	740	739	739	740	742	742	745	748	749	752	754	757	760	761	764	766	769	771	774	776	777	777	777	779	779	777	776	772	771	769	768	764	763	761	760	758	758	758	757	757	758	758	758	760	761	763	764	768	769	771	772	772	772	774	774	774	774	774	774	776	776	777	779	782	784	785	789	792	795	799	800	802	804	807	807	809	809	811	811	813	814	818	823	831	840	849	861	873	883	894	905	911	918	923	927	932	932	934	937	939	0	5429	5429	5429	5509	5509	5509	5591	5591	5763	5946	6042	6243	6459	6572	6811	6937	7068	7345	7492	7645	7970	8143	8143	8324	8324	8324	8143	7970	7804	7492	7204	7204	7068	6937	6811	6811	6689	6572	6572	6572	6459	6459	6459	6349	6349	6349	6459	6459	6572	6689	6811	6811	6811	6937	6937	6811	6689	6459	6349	6141	6042	5853	5763	5763	5763	5763	5763	5946	6042	6243	6459	6689	6937	7345	7804	8143	8324	8324	8514	8514	8324	8324	8143	7970	7645	7345	7204	6937	6811	6811	6572	6459	6349	6141	6042	6042	6042	5946	5763	5676	5591	5429	5351	5276	5132	5062	5062	4995	4929	4865	4865	4865	4865	4929	4995	4995	5132	5203	5351	5429	5429	5509	5509	5591	5676	5676	5763	5853	5853	5853	5946	6042	6042	6042	6042	5946	5946	5946	5946	5853	5853	5676	5591	5429	5351	5351	5203	5203	5132	5132	5062	4995	4865	4683	4683	4625	4513	4513	4513	4513	4460	4460	4513	4625	4625	4683	4683	4742	4865	4929	5062	5062	5132	5132	5203	5203	5203	5132	5062	4929	4742	4568	4356	4162	3985	3862	3746	3709	3637	3568	3534	3501	3501	3469	3469	3469	3437	3405	3375	3315	3315	3257	3229	3229	3229	3229	3229	3229	3257	3315	3345	3375	3405	3437	3469	3501	3534	3568	3602	3673	3746	3784	3862	3943	3985	4072	4162	4209	4306	4306	4407	4460	4513	4568	4568	4625	4625	4683	4683	4683	4683	4683	4742	4742	4803	4803	4803	4803	4803	4803	4803	4803	4803	4803	4803	4803	4865	4865	4865	4865	4865	4995	0	0	0	0	0	0	0	0	0	0	0	5591	5509	5509
739	739	739	739	739	740	740	740	742	743	745	748	749	752	755	760	763	766	771	772	774	774	776	774	772	772	769	768	764	763	761	758	758	755	755	754	754	754	752	752	752	752	752	752	752	754	754	755	755	757	757	757	757	757	757	757	755	755	755	754	754	752	751	751	751	749	749	748	748	748	748	749	749	749	752	754	757	760	763	764	768	769	771	772	771	769	764	761	758	755	752	748	745	743	742	742	743	743	743	743	743	745	745	745	745	745	745	745	745	745	745	745	745	745	745	745	745	745	746	746	748	751	751	752	752	752	752	752	752	752	752	752	754	754	755	755	755	755	755	755	754	754	754	754	752	752	752	752	751	751	749	749	749	748	748	748	748	749	751	754	755	757	760	760	763	764	766	769	771	772	772	774	776	776	776	776	776	774	774	772	771	769	768	768	764	763	763	763	761	761	760	760	760	760	760	760	760	758	758	758	758	760	760	758	758	758	758	758	758	758	758	758	758	758	758	760	760	760	760	761	763	764	764	764	764	764	764	763	763	761	761	761	761	763	763	763	763	763	763	763	763	764	763	763	761	761	760	758	757	754	752	751	749	746	745	745	743	743	743	743	743	743	745	745	746	746	746	746	745	745	742	740	737	735	733	730	729	727	726	725	725	725	725	725	725	725	727	727	726	726	726	726	725	725	723	723	723	723	725	725	726	729	730	733	735	737	740	743	746	748	749	749	749	749	748	748	748	748	748	746	746	746	745	745	746	746	748	748	749	749	751	751	752	752	754	754	754	755	755	757	757	757	757	757	755	755	754	754	752	752	751	748	746	745	743	742	742	740	739	739	740	742	742	745	748	749	751	754	755	757	760	761	764	766	768	771	772	774	774	776	776	774	774	772	769	768	766	764	761	760	758	757	755	755	755	755	755	755	757	758	760	761	763	764	766	769	771	771	772	774	774	776	776	776	776	776	776	777	777	780	782	784	785	789	792	795	799	802	804	807	809	811	811	813	814	814	816	820	823	827	834	844	853	865	875	883	894	903	909	914	920	925	930	932	934	937	939	0	5276	5203	5203	5276	5276	5276	5351	5429	5509	5676	5763	6042	6141	6349	6572	6689	6937	7068	7204	7492	7645	7804	7804	7970	7970	7970	7804	7804	7492	7345	7204	7068	6937	6811	6689	6689	6572	6572	6459	6459	6459	6459	6349	6349	6349	6349	6349	6459	6572	6689	6689	6811	6811	6937	6811	6811	6572	6349	6243	6042	5946	5853	5676	5676	5676	5763	5763	5853	6042	6243	6349	6689	6937	7204	7804	8143	8324	8324	8514	8514	8514	8324	8143	7804	7645	7345	7204	6937	6689	6689	6572	6349	6243	6042	5946	5946	5853	5853	5763	5591	5509	5351	5276	5203	5062	4929	4865	4865	4803	4742	4742	4803	4803	4865	4929	4995	5132	5276	5429	5591	5591	5763	5763	5853	5946	5946	5946	6042	6042	6042	6042	6042	5946	5946	5946	5763	5763	5853	5853	5763	5763	5676	5591	5509	5509	5429	5429	5276	5276	5203	5062	4995	4865	4683	4625	4568	4513	4513	4460	4460	4460	4460	4460	4568	4568	4625	4683	4742	4803	4995	5062	5062	5203	5276	5351	5351	5351	5276	5132	4995	4803	4568	4356	4116	3985	3862	3746	3709	3637	3568	3534	3501	3501	3469	3469	3469	3437	3405	3375	3315	3315	3257	3229	3229	3229	3229	3229	3229	3257	3315	3345	3375	3437	3437	3469	3501	3534	3568	3602	3673	3709	3784	3822	3902	3943	3985	4072	4116	4209	4257	4306	4356	4407	4460	4513	4568	4568	4625	4625	4625	4625	4625	4625	4625	4625	4625	4625	4568	4568	4513	4513	4460	4460	4513	4625	4625	4683	4742	4742	4742	4803	0	0	0	0	0	0	0	0	0	0	0	0	5509	5509	5509
736	737	737	737	737	739	740	742	743	743	746	749	752	755	758	761	764	768	771	771	772	774	774	774	774	772	771	769	766	764	763	760	758	757	755	755	754	754	752	752	752	752	752	752	752	754	754	754	755	757	757	757	757	757	757	755	755	755	755	754	754	752	751	751	751	749	749	748	748	748	748	749	749	749	752	754	755	760	763	764	766	769	771	772	772	769	766	763	761	757	754	751	748	746	746	746	746	746	746	746	748	748	748	748	746	746	745	745	745	745	745	743	743	743	743	743	743	745	745	746	748	749	749	751	752	752	752	752	752	752	752	752	754	754	754	754	755	755	754	754	754	754	754	754	754	754	754	754	754	754	754	752	752	752	752	752	754	754	755	758	760	761	761	763	764	766	768	769	771	771	772	772	772	772	772	772	771	771	771	769	769	768	766	766	764	763	763	763	761	761	761	760	760	760	760	760	760	760	760	760	760	760	760	760	760	760	760	760	760	760	761	761	761	761	761	763	763	763	763	764	764	768	768	768	768	768	766	766	766	764	764	764	764	766	766	766	766	766	768	768	768	768	766	766	764	763	761	760	757	754	752	749	746	745	743	743	742	742	742	742	743	743	743	745	746	746	746	745	745	743	740	739	736	733	730	729	727	726	725	723	723	723	723	723	723	723	726	726	726	726	726	725	725	723	722	722	722	722	722	723	725	726	729	730	735	737	740	743	746	748	749	751	751	751	751	749	749	748	748	748	746	746	746	746	746	746	748	748	749	749	751	752	752	754	754	754	754	755	755	757	757	757	757	757	755	755	754	754	752	752	751	748	748	745	743	742	742	742	740	740	740	742	743	745	746	748	749	751	754	755	757	760	761	763	766	768	769	771	771	772	772	771	769	769	766	764	763	760	758	757	755	754	754	754	754	754	754	754	755	757	758	760	761	764	766	768	771	771	772	774	774	776	776	776	776	776	777	777	779	780	784	785	789	792	795	799	802	804	807	809	811	814	816	818	818	820	821	825	829	832	840	848	857	865	875	883	892	898	907	911	916	923	927	930	932	934	937	0	4929	4929	4929	4929	4929	4929	4995	4995	5203	5276	5509	5676	5853	5946	6243	6349	6459	6689	6811	6937	7068	7204	7345	7492	7492	7492	7492	7345	7345	7204	6937	6937	6811	6689	6572	6572	6459	6459	6459	6459	6349	6349	6349	6349	6349	6349	6349	6459	6572	6689	6689	6689	6811	6937	6811	6689	6459	6243	6141	6042	5853	5763	5676	5676	5676	5676	5763	5853	6042	6141	6349	6689	6937	7204	7804	8143	8324	8514	8514	8514	8324	8143	7970	7804	7492	7204	7068	6811	6572	6349	6349	6243	6042	5946	5853	5853	5763	5763	5676	5591	5429	5351	5276	5132	5062	4865	4803	4742	4683	4683	4683	4742	4803	4865	4929	5132	5276	5429	5676	5853	5946	6042	6042	6243	6243	6243	6243	6243	6243	6141	6042	5946	5946	5853	5853	5763	5763	5763	5763	5763	5763	5676	5676	5676	5676	5676	5591	5429	5429	5351	5062	5062	4865	4803	4625	4568	4513	4513	4460	4460	4460	4460	4460	4568	4568	4625	4683	4742	4803	4995	5132	5132	5203	5276	5351	5351	5351	5276	5203	5203	4803	4568	4356	4116	4028	3862	3784	3746	3673	3602	3568	3534	3501	3501	3501	3469	3469	3437	3405	3345	3315	3315	3286	3257	3257	3257	3257	3286	3315	3375	3375	3437	3437	3469	3501	3534	3534	3568	3637	3673	3709	3784	3822	3862	3902	3943	3985	4028	4116	4162	4209	4257	4356	4407	4460	4460	4513	4568	4568	4568	4568	4568	4513	4513	4460	4460	4407	4356	4306	4257	4257	4257	4460	4306	4306	4356	4460	4513	4513	4568	4803	0	0	0	0	0	0	0	0	0	5276	5276	5351	5429	5429	5429
733	733	735	736	737	739	740	742	743	743	746	749	752	757	758	761	764	766	769	769	771	771	772	772	772	771	771	769	766	764	763	761	760	758	757	755	755	754	754	752	752	752	752	752	752	754	754	754	755	755	757	757	757	757	757	755	755	755	755	754	754	752	751	751	751	749	749	748	748	748	748	749	749	751	752	754	755	760	763	764	766	769	771	772	772	769	766	764	761	758	755	752	751	749	749	749	749	749	749	749	751	751	751	749	749	748	746	745	745	743	742	742	742	742	742	742	742	743	743	745	746	748	749	751	752	752	752	752	752	752	751	751	752	752	752	752	752	754	754	754	754	754	755	755	755	757	757	757	757	757	757	757	757	757	757	758	760	760	761	761	763	764	764	764	766	766	768	769	769	771	771	771	771	771	769	769	769	768	768	766	766	766	766	766	764	764	763	763	763	763	763	761	761	761	761	760	760	760	760	761	761	761	761	761	761	761	761	763	763	763	763	764	764	764	766	766	766	766	768	768	768	769	769	769	769	769	769	768	766	764	764	764	766	766	768	768	768	769	769	769	769	768	768	768	766	764	763	760	755	752	751	748	745	742	742	740	740	740	740	742	742	743	743	745	745	746	746	745	743	742	739	736	735	732	730	727	726	725	723	723	723	722	722	722	723	723	725	725	725	725	725	725	723	723	722	720	720	722	722	722	723	725	727	729	732	736	739	743	746	748	749	751	752	751	751	751	751	749	749	749	748	748	748	746	746	748	748	749	749	751	751	752	754	754	754	755	755	755	757	757	757	757	757	757	757	755	755	754	754	752	751	749	748	746	745	743	743	742	742	742	742	743	743	745	746	748	749	751	752	754	755	757	758	760	763	764	768	768	769	769	769	768	768	766	763	761	760	758	757	755	752	752	751	751	751	751	751	752	752	754	755	758	760	761	764	766	769	769	771	772	774	776	776	776	776	776	777	779	780	782	785	789	792	795	797	802	806	807	811	813	816	818	820	821	823	825	827	831	834	840	846	851	859	867	875	883	890	898	905	909	914	920	925	930	932	934	937	0	4407	4356	4356	4407	4460	4460	4513	4568	4683	4929	5132	5276	5429	5676	5853	6042	6141	6349	6459	6572	6689	6811	6937	7068	7068	7068	7068	6937	6937	6937	6811	6689	6689	6572	6459	6459	6349	6349	6349	6349	6349	6349	6349	6349	6349	6349	6349	6459	6572	6572	6689	6689	6689	6811	6811	6572	6349	6141	6042	5946	5853	5676	5591	5591	5676	5676	5763	5946	6042	6141	6459	6689	7068	7345	7804	7970	8324	8514	8514	8324	8143	7970	7804	7492	7204	7068	6937	6689	6459	6349	6349	6141	6042	5946	5853	5853	5763	5763	5676	5591	5429	5351	5203	5062	4995	4865	4803	4742	4683	4683	4683	4742	4803	4929	5062	5276	5509	5763	5946	6141	6243	6349	6349	6459	6459	6459	6459	6459	6349	6141	6042	5946	5853	5853	5763	5676	5676	5763	5763	5763	5763	5763	5763	5853	5853	5763	5763	5676	5509	5351	5276	5062	5062	4803	4683	4625	4568	4513	4513	4513	4513	4513	4513	4625	4683	4683	4803	4803	4865	4995	5132	5132	5276	5276	5351	5351	5351	5276	5276	0	0	0	0	4162	4072	3943	3902	3822	3784	3784	3746	3673	3637	3602	3602	3534	3534	3501	3469	3437	3437	3405	3375	3375	3375	3375	3375	3375	3375	3437	3469	3501	3501	3534	3568	3568	3602	3637	3637	3673	3746	3746	3784	3822	3822	3862	3902	3943	3985	4072	4116	4162	4257	4306	4356	4407	4407	4513	4513	4460	4460	4460	4460	4407	4356	4306	4209	4162	4116	4072	4028	4028	0	4116	4116	4162	4257	4356	4356	4356	4460	4460	0	0	0	0	0	0	0	0	5203	5203	5276	5351	5429	5429
730	732	732	733	735	736	739	742	743	746	748	751	755	758	760	761	763	764	766	768	768	769	769	769	769	771	768	768	766	764	763	761	761	760	758	757	755	755	754	754	754	752	752	752	752	754	754	754	755	755	757	757	757	757	757	757	757	755	755	755	754	754	752	752	751	751	749	749	748	748	749	749	751	751	752	754	757	760	763	764	766	768	771	771	771	769	766	764	761	758	755	754	752	751	751	752	752	752	752	752	754	752	751	751	749	748	746	745	743	742	742	740	740	740	740	740	742	742	743	745	746	748	749	751	751	752	752	752	752	752	751	751	752	752	752	752	752	752	754	754	754	755	755	757	757	758	758	760	760	761	761	761	761	763	763	763	764	764	766	766	766	766	766	766	766	768	768	768	768	769	769	769	768	768	768	768	766	766	766	766	766	766	766	766	764	764	764	764	764	764	764	763	763	763	763	761	761	761	761	761	761	763	763	764	764	764	764	766	766	768	768	769	769	769	771	771	769	769	769	769	769	771	769	769	769	769	768	768	766	764	764	764	766	766	768	768	768	769	769	769	771	769	769	768	766	764	761	758	754	751	748	745	743	740	739	739	739	739	739	739	740	740	742	742	743	743	743	742	742	740	737	736	733	730	729	727	725	725	723	722	722	722	722	722	722	722	725	725	725	723	723	723	723	723	720	720	720	720	722	722	723	725	726	729	732	735	737	742	745	748	749	751	752	752	752	752	752	752	751	751	749	749	748	748	748	748	749	749	751	751	752	754	754	755	755	755	755	757	757	757	757	757	757	757	757	757	755	755	754	754	752	751	749	748	746	746	745	745	743	743	743	745	745	746	746	748	749	749	751	752	754	755	757	758	761	763	764	766	768	768	768	766	764	764	761	760	760	757	755	754	752	751	749	749	749	749	751	751	751	752	754	755	758	761	763	764	768	769	771	772	774	774	776	776	777	777	779	780	782	785	787	790	794	797	800	806	809	811	814	816	820	821	823	827	827	831	832	836	840	846	849	855	863	871	877	883	890	896	903	907	911	916	923	927	930	934	937	939	4407	3902	3862	3862	3862	3902	3902	3985	4072	4356	4513	4803	4929	5203	5429	5591	5853	5946	6042	6141	6349	6459	6572	6572	6689	6811	6811	6811	6811	6811	6689	6689	6572	6459	6459	6349	6349	6243	6243	6349	6349	6349	6349	6349	6349	6349	6349	6459	6572	6572	6572	6572	6689	6689	6689	6459	6243	6141	6042	5853	5763	5676	5591	5591	5676	5676	5853	5946	6042	6243	6459	6811	7068	7345	7804	7970	8324	8324	8324	8324	7970	7804	7492	7345	7068	6937	6689	6459	6349	6243	6243	6042	5946	5853	5763	5763	5763	5763	5676	5591	5509	5429	5203	5062	4995	4803	4803	4742	4742	4742	4742	4865	4995	5132	5351	5509	5853	6042	6243	6459	6572	6689	6689	6689	6689	6689	6572	6349	6243	6042	5946	5763	5763	5763	5676	5676	5676	5763	5763	5853	5853	5946	5946	5946	6042	6042	5946	5853	5676	5591	5429	5351	5132	4995	4865	4803	4742	4683	4625	4625	4625	4683	4683	4803	4865	4929	4995	4995	4995	5132	5132	5132	0	0	0	0	0	0	0	0	0	0	0	0	4162	4116	4028	3943	3902	3862	3822	3784	3746	3746	3673	3673	3673	3637	3602	3602	3602	3534	3534	3568	3568	3568	3568	3568	3568	3568	3602	3602	3637	3637	3637	3637	3673	3673	3673	3709	3709	3709	3709	3746	3746	3784	3784	3822	3862	3943	4028	4072	4162	4209	4257	4306	4356	4407	4407	4407	4407	4356	4306	4257	4209	4116	4072	3943	3902	3862	3862	3862	3862	3902	3943	4028	4072	4162	4257	4257	4306	4356	4407	4407	4407	4407	4407	4460	4568	4803	4995	5203	5276	5351	5429	5429
729	730	732	733	735	736	739	742	743	746	748	751	755	758	760	760	761	761	763	764	764	764	766	766	768	768	766	766	766	764	764	763	761	760	760	758	757	757	755	754	754	754	754	754	754	754	754	755	755	755	757	757	757	757	757	757	757	757	755	755	754	754	752	752	752	751	751	751	749	749	751	751	752	752	754	755	757	760	763	764	766	768	769	771	769	768	766	764	761	760	757	755	754	754	752	752	754	754	754	754	754	754	752	751	749	748	746	745	743	742	742	740	740	740	740	740	742	742	743	745	746	748	749	751	751	752	752	752	752	752	751	751	752	752	752	752	752	752	754	754	755	755	755	757	758	758	761	761	763	764	764	764	766	768	768	768	768	768	768	768	768	768	768	766	766	766	766	766	766	766	766	766	766	766	766	766	766	766	764	764	764	766	766	766	766	766	766	766	766	766	766	766	764	764	764	763	763	763	763	763	764	764	766	766	768	768	769	771	771	772	772	772	772	772	772	772	771	771	769	769	769	769	768	768	768	766	766	764	764	764	764	764	764	764	766	766	768	768	768	769	769	768	768	766	764	761	758	755	752	749	745	742	740	739	737	736	736	736	737	737	737	739	739	740	740	742	740	740	739	737	735	733	732	729	727	726	725	723	723	722	722	722	722	722	722	722	723	723	723	723	723	723	723	722	720	720	720	720	722	722	723	725	726	727	730	735	737	740	743	746	749	751	752	754	754	752	752	752	752	751	751	749	749	749	749	749	749	751	751	752	752	754	754	755	755	757	757	757	757	757	757	757	757	757	757	757	757	755	755	754	754	752	751	751	749	748	748	748	746	746	746	746	746	746	748	748	749	749	751	751	752	754	755	757	760	761	763	764	766	766	766	764	764	763	761	760	758	757	755	754	751	751	749	749	749	749	749	749	749	751	752	755	757	758	760	763	766	768	769	771	772	774	776	776	777	779	780	782	784	787	790	794	797	800	804	807	813	814	818	820	823	825	829	831	832	834	838	842	846	849	853	859	865	871	877	883	888	894	900	905	909	914	920	925	927	932	934	937	0	3602	3602	3602	3709	3709	3709	3784	3943	4162	4356	4625	4803	5062	5203	5429	5509	5676	5763	5853	6042	6141	6243	6349	6459	6572	6572	6689	6689	6689	6689	6689	6572	6459	6459	6349	6349	6243	6243	6349	6349	6349	6349	6349	6349	6349	6349	6459	6572	6572	6572	6572	6689	6689	6572	6459	6243	6042	5946	5853	5763	5763	5676	5676	5676	5763	5946	6042	6141	6349	6572	6811	7068	7345	7645	7970	8143	8143	8143	7970	7804	7492	7204	7068	6811	6689	6572	6349	6243	6141	5946	5946	5853	5763	5763	5763	5763	5763	5676	5591	5509	5429	5276	5132	4995	4803	4803	4803	4803	4803	4865	4995	5132	5429	5676	5946	6243	6459	6689	6811	6937	6937	6937	6937	6811	6572	6572	6243	6141	5946	5853	5763	5763	5763	5676	5676	5676	5763	5853	5853	5946	6141	6141	6141	6243	6243	6141	6042	5946	5763	5676	5509	5351	5203	4995	4995	4929	4865	4865	4803	4803	4803	4865	4995	5132	5132	5203	5276	5276	5351	5429	0	0	0	0	0	0	0	0	0	0	0	0	0	0	4306	4162	4072	4028	3985	3943	3902	3862	3822	3822	3784	3784	3784	3746	3746	3746	3709	3709	3709	3746	3746	3746	3746	3746	3746	3746	3709	3709	3709	3709	3709	3709	3709	3709	3709	3673	3673	3637	3637	3637	3637	3637	3637	3709	3784	3862	3943	4028	4116	4162	4209	4306	4306	4306	4306	4257	4209	4162	4072	4072	4116	3822	3746	3673	3637	3637	3637	3673	3746	3746	3822	3902	4162	4257	4257	4306	4356	4407	4257	4257	4306	4306	4356	4460	4513	4742	4995	5132	5203	5276	5351
727	730	732	732	735	736	739	742	743	746	749	752	755	758	758	758	758	760	760	761	761	763	763	763	764	764	766	766	766	764	764	763	763	761	761	760	758	757	757	755	755	755	754	754	755	755	755	755	757	757	757	757	757	757	757	757	757	757	757	755	755	754	754	752	752	752	752	752	752	752	752	754	754	754	755	757	758	761	763	764	766	768	768	769	769	768	766	763	761	760	758	757	755	754	754	754	754	754	754	754	754	754	752	751	749	748	745	745	743	742	742	740	740	740	740	740	742	742	743	745	746	748	749	751	751	752	752	752	752	752	752	752	752	752	752	752	752	752	752	754	755	755	757	758	760	761	764	764	766	766	769	769	771	771	771	771	771	771	771	769	769	769	768	766	766	766	764	764	766	766	766	764	764	764	764	764	764	764	764	764	764	766	768	768	768	768	768	769	769	769	768	768	766	766	764	764	764	764	764	766	766	768	769	769	771	772	772	774	774	776	776	777	777	776	776	774	772	771	769	769	768	766	766	766	766	764	764	763	763	761	761	763	763	763	764	764	764	764	764	766	766	764	764	763	761	758	757	752	749	746	743	740	737	736	735	733	733	733	735	735	736	736	737	737	739	739	739	737	736	735	735	732	730	729	727	726	725	723	723	723	722	722	722	722	722	722	722	723	722	722	722	722	722	722	720	720	720	722	722	722	723	725	726	727	730	733	736	740	743	746	748	751	752	752	752	752	752	752	751	751	751	751	749	749	749	749	751	751	752	752	754	754	755	755	757	757	757	757	757	757	757	757	757	757	757	757	757	757	755	755	755	755	754	752	752	751	749	749	749	749	748	748	748	749	749	749	749	749	751	751	752	754	755	757	758	761	763	764	766	766	766	764	764	763	761	760	758	758	757	754	751	751	749	749	749	749	748	748	748	749	751	752	755	757	760	761	764	766	768	769	771	774	776	777	777	779	782	784	787	790	794	797	800	804	807	811	814	816	820	821	825	829	832	836	838	840	844	848	851	855	859	863	869	873	879	883	888	892	898	903	907	911	918	923	927	930	932	934	0	3602	3469	3469	3501	3501	3534	3637	3822	4072	4257	4460	4683	4929	5062	5203	5351	5429	5509	5676	5853	5853	6042	6141	6243	6349	6459	6459	6572	6689	6689	6689	6689	6689	6689	6572	6572	6459	6349	6349	6349	6349	6349	6349	6349	6349	6459	6459	6572	6572	6689	6689	6689	6572	6459	6349	6141	5946	5853	5763	5763	5763	5763	5763	5763	5853	5946	6042	6243	6349	6572	6811	6937	7204	7345	7645	7804	7804	7804	7645	7345	7204	7068	6937	6572	6572	6459	6243	6141	6042	5853	5853	5853	5763	5763	5763	5763	5763	5763	5763	5676	5509	5351	5132	4995	4929	4865	4865	4929	4995	5062	5276	5509	5763	6042	6349	6689	6811	7068	7068	7068	7068	7204	7068	6811	6572	6459	6243	6141	5946	5853	5763	5763	5763	5763	5763	5763	5853	6042	6141	6243	6349	6459	6459	6572	6572	6349	6349	6141	6042	5946	5763	5591	5429	5276	5203	5203	5132	5062	5062	5062	5062	5276	5276	5429	5429	5509	5591	6141	0	0	0	0	0	0	0	0	0	0	0	0	0	0	0	0	4568	4407	4306	4209	4162	4072	4028	3985	3943	3943	3902	3902	3862	3862	3862	3862	3862	3862	3862	3902	3902	3862	3862	3862	3862	3862	3822	3784	3784	3784	3746	3746	3746	3746	3673	3673	3637	3602	3568	3534	3534	3568	3568	3602	3637	3709	3784	3902	3985	4072	4116	4162	4162	4162	4162	4162	4116	4072	3985	3902	3822	3746	3637	3534	3501	3501	3501	3534	3568	3602	3673	3746	3822	3902	3902	3985	0	4116	4116	4162	4209	4209	4306	4407	4513	4742	4929	4929	4995	5062	5351
727	730	732	732	735	737	740	743	745	748	749	752	755	758	758	758	758	758	758	758	758	760	760	761	761	763	764	764	764	764	764	764	763	763	761	761	760	758	758	757	757	755	755	755	755	755	757	757	757	757	758	758	758	758	757	757	757	757	757	757	755	755	755	755	754	754	754	755	755	755	755	757	757	757	757	758	760	761	763	764	766	766	768	768	768	766	764	763	760	758	757	755	754	752	752	752	752	752	752	754	754	752	751	751	748	746	745	745	743	742	742	740	740	740	740	740	742	743	745	746	746	748	749	751	751	752	752	752	752	752	752	752	752	752	752	752	752	752	752	754	755	757	757	758	761	763	764	766	768	769	771	772	772	774	774	776	774	774	772	771	771	769	768	766	766	764	764	764	764	764	764	764	764	763	763	764	764	764	764	764	766	768	768	769	769	771	771	771	771	771	771	769	768	768	768	766	766	766	768	768	768	769	771	772	774	776	776	777	779	779	779	779	779	777	776	774	772	771	768	768	766	764	764	763	763	761	761	760	760	758	758	758	760	760	760	760	760	761	761	761	761	760	760	758	757	755	752	749	746	743	742	737	736	735	733	732	732	732	733	733	735	735	735	736	736	736	736	736	735	733	732	730	729	727	727	726	725	725	723	723	722	722	722	722	722	722	722	722	722	722	722	722	722	722	720	720	720	722	722	722	723	725	726	727	730	733	736	739	742	745	746	749	751	751	751	751	751	751	751	749	749	749	749	749	749	749	751	751	752	752	754	754	755	755	757	757	757	757	757	757	757	757	757	757	757	757	757	757	757	758	757	757	755	755	754	754	752	752	752	751	751	751	751	751	749	749	749	749	751	751	752	754	755	757	758	761	763	764	766	766	766	764	764	764	763	761	760	760	757	755	752	751	751	749	749	749	748	748	748	749	751	752	754	755	758	758	761	763	766	768	771	772	776	777	779	782	784	787	790	794	795	799	804	806	809	813	816	820	823	825	829	832	836	840	842	846	849	851	855	859	863	867	871	875	879	883	886	890	896	900	905	909	914	920	923	927	930	932	0	0	3286	3286	3315	3375	3437	3501	3673	3943	4162	4356	4625	4865	4995	5132	5203	5351	5429	5591	5591	5763	5946	6042	6141	6243	6349	6459	6459	6689	6689	6811	6811	6937	6937	6572	6572	6459	6459	6459	6349	6349	6459	6459	6459	6459	6572	6572	6689	6689	6689	6689	6689	6459	6349	6141	6042	5853	5763	5763	5676	5676	5763	5763	5853	5946	5946	6141	6243	6459	6572	6811	6937	7068	7204	7345	7645	7645	7492	7345	7204	6937	6811	6689	6459	6459	6349	6243	6141	6042	5853	5853	5853	5763	5763	5763	5763	5763	5853	5763	5676	5591	5429	5203	5132	4995	4995	4995	5062	5132	5351	5509	5946	6243	6572	6811	7068	7345	7492	7345	7204	7204	7068	6811	6689	6572	6349	6141	6141	5946	5946	5853	5853	5853	5853	5946	5946	6042	6243	6349	6572	6689	6689	6811	6811	6811	6689	6572	6459	6243	6141	6042	5853	5763	5509	5509	5509	5429	5429	5429	5429	5429	5676	5676	5763	5853	5946	6042	6141	6937	0	0	0	0	0	0	9605	9605	0	0	0	7345	6689	6141	5591	4929	4742	4568	4460	4356	4257	4209	4116	4072	4072	4028	4028	3985	3985	3985	3985	3985	3985	3985	3985	3985	3985	3943	3943	3985	3902	3902	3862	3822	3822	3784	3784	3746	3709	3673	3602	3602	3534	3469	3437	3437	3437	3469	3469	3534	3602	3673	3784	3862	3943	3943	3985	3985	4028	4028	3985	3985	3943	3862	3822	3709	3602	3501	3437	3405	3405	3405	3437	3469	3501	3568	3637	3709	3784	3784	3822	3862	3943	3985	4028	4072	4116	4209	4306	4460	4929	4929	4929	4995	5062	0
729	732	733	735	736	739	742	745	746	749	752	754	757	758	758	757	757	758	758	758	758	758	758	760	760	761	763	763	764	764	764	764	764	763	763	761	761	760	758	758	757	757	757	757	757	757	757	757	757	758	758	758	758	758	758	758	757	757	757	757	757	757	757	757	757	757	757	758	758	758	758	760	760	760	760	760	761	761	763	764	764	766	766	766	768	766	763	760	758	757	755	754	751	751	749	749	751	751	751	751	751	751	749	749	748	746	746	745	743	742	742	742	742	742	742	742	743	745	745	746	746	749	751	752	752	754	754	754	752	752	752	752	752	752	752	752	752	752	754	754	755	757	758	760	761	763	766	768	769	771	772	772	774	776	776	776	777	776	774	772	771	769	768	766	766	764	764	764	764	764	764	764	764	763	763	764	764	764	764	766	766	768	769	771	771	772	772	772	772	772	772	771	771	769	769	768	768	769	769	769	771	772	774	776	777	779	779	779	782	782	780	779	779	777	774	772	771	768	766	764	763	761	760	760	758	758	757	755	755	755	754	754	755	755	755	757	757	757	757	757	757	757	755	755	754	752	749	748	745	742	739	736	735	733	732	732	730	730	732	732	733	733	733	733	733	735	735	733	733	732	730	729	729	726	726	725	725	723	723	723	723	722	722	722	722	722	722	720	720	720	720	720	720	722	722	722	722	722	722	723	723	725	726	729	730	733	736	739	742	745	746	748	749	749	749	749	749	749	748	748	748	749	749	749	749	749	751	751	752	752	754	754	755	757	757	757	757	757	757	757	757	757	757	757	758	758	758	758	758	758	758	758	758	757	757	755	755	754	754	754	752	752	752	752	752	751	751	751	751	752	754	754	755	757	758	761	763	764	766	766	766	766	766	764	764	763	761	761	758	757	755	752	751	751	749	749	748	748	748	749	751	752	754	754	755	757	760	761	763	766	769	772	776	777	780	782	785	790	794	797	799	802	807	809	813	816	820	821	825	829	832	836	838	842	846	849	853	855	859	861	865	869	871	875	877	881	886	890	894	898	903	907	914	918	920	925	927	930	0	0	3286	3122	3122	3202	3257	3345	3469	3784	4028	4257	4568	4742	4929	5062	5132	5276	5351	5509	5591	5763	5853	6042	6141	6243	6349	6459	6459	6689	6811	6937	6937	6937	6937	6937	6937	6811	6811	6811	6811	6689	6689	6811	6811	6811	6811	6937	6937	6937	6811	6689	6689	6459	6349	6141	5946	5853	5676	5676	5676	5676	5676	5676	5853	5946	6042	6141	6243	6459	6572	6811	6811	6937	7204	7345	7492	7345	7345	7204	7068	6811	6689	6572	6349	6349	6243	6141	6141	6042	5853	5853	5853	5763	5763	5763	5763	5853	5853	5853	5763	5676	5509	5351	5276	5132	5132	5203	5276	5429	5591	5946	6349	6811	7068	7345	7645	7645	7492	7204	7068	6937	6811	6689	6459	6243	6141	6042	5946	5946	5946	5946	5946	5946	6042	6141	6141	6349	6459	6572	6811	6937	7068	7068	7204	7204	7068	7068	6811	6689	6572	6349	6243	6042	5946	5763	5763	5853	5763	5763	5763	5763	5853	5946	6141	6243	6243	6349	6459	6937	7645	7970	0	0	9605	9605	9605	9137	9137	8919	8514	7345	6689	6141	5591	5276	5062	4803	4683	4568	4460	4356	4257	4209	4209	4162	4116	4116	4116	4072	4072	4072	4072	4072	4072	4072	4028	4028	4028	4028	3985	3943	3902	3902	3862	3822	3822	3784	3709	3637	3602	3534	3469	3437	3405	3375	3375	3405	3405	3437	3501	3568	3673	3746	3822	3822	3822	3862	3862	3902	3862	3862	3822	3784	3709	3602	3501	3375	3315	3286	3286	3286	3315	3345	3375	3469	3534	3568	3602	3673	3673	3746	3784	3862	3943	3985	4028	4116	4306	4460	0	0	0	0	0	0
732	735	735	736	737	742	745	748	749	751	754	755	757	757	755	755	755	755	755	755	755	757	757	758	758	760	761	761	763	764	764	764	764	764	763	761	761	760	758	757	757	755	755	755	755	755	757	757	757	757	757	757	757	757	757	757	757	757	757	757	757	757	757	757	757	758	758	758	760	760	761	761	761	761	761	761	761	763	763	764	764	764	766	766	766	764	761	760	757	755	754	752	749	748	746	746	748	748	748	748	749	749	749	748	748	746	746	745	743	743	742	742	742	742	743	743	743	745	745	748	749	751	752	754	754	754	754	754	754	754	754	752	752	752	752	752	752	754	754	755	755	757	758	760	761	764	766	768	771	772	774	776	777	777	777	777	777	776	774	772	771	769	768	768	766	766	764	764	764	766	766	764	764	764	764	764	764	766	766	766	768	769	771	771	772	774	774	774	774	774	772	772	771	771	769	769	771	771	771	772	772	774	776	779	779	780	780	780	782	780	779	777	776	774	771	768	766	764	763	760	758	757	755	754	754	752	752	751	751	751	751	751	751	751	751	752	752	752	752	752	752	752	752	751	751	748	748	745	742	740	737	735	735	733	732	730	730	730	730	730	730	730	730	732	732	732	732	732	730	730	729	729	727	726	726	725	725	723	723	723	722	722	720	720	720	720	720	720	720	720	720	720	720	722	722	722	722	723	725	725	725	726	727	730	732	735	736	739	742	745	745	748	748	748	749	749	748	748	748	748	748	748	748	748	749	749	749	751	752	752	754	754	755	755	755	755	755	755	757	757	757	757	757	757	757	758	758	758	760	760	760	760	758	758	758	757	757	755	755	755	754	754	754	752	752	752	752	752	752	752	754	754	755	757	758	761	763	764	766	768	768	768	766	766	764	764	763	761	760	758	755	754	752	751	749	749	748	748	749	749	751	751	752	754	755	757	758	760	761	764	768	772	776	777	780	785	789	794	797	800	802	807	809	813	816	820	821	823	827	831	834	838	842	846	848	851	855	859	861	863	865	869	871	875	877	881	883	888	892	896	900	905	911	916	918	923	925	927	0	0	0	3122	3122	3202	3257	3345	3469	3784	4028	4257	4568	4742	4929	5062	5132	5276	5351	5509	5591	5763	5853	5946	6141	6243	6349	6459	6572	6811	6811	6937	7204	7345	7345	7492	7345	7345	7345	7345	7068	7068	7068	7068	7204	7068	7068	7204	7204	7204	6937	6811	6689	6459	6243	6042	5853	5763	5591	5591	5591	5591	5676	5676	5763	5853	5946	6042	6243	6459	6572	6689	6811	6937	7068	7068	7345	7345	7204	6937	6811	6572	6459	6459	6243	6141	6141	6141	6042	5946	5853	5763	5763	5763	5763	5763	5763	5853	5853	5853	5763	5763	5591	5509	5429	5351	5351	5429	5509	5763	6042	6349	6811	7204	7492	7645	7645	7492	7204	7068	6811	6689	6459	6459	6243	6042	5946	5853	5853	5853	5853	5946	6042	6141	6141	6243	6349	6349	6572	6689	6811	6937	7068	7204	7204	7204	7204	7204	7068	6937	6811	6572	6459	6243	6141	6141	6042	6042	6042	6042	6042	6042	6141	6243	6349	6459	6572	6689	6811	7204	7645	7970	8712	8919	9365	9365	9365	9137	9137	8919	8514	7804	7068	6572	5946	5676	5351	5062	4929	4742	4625	4513	4407	4356	4306	4257	4257	4209	4209	4162	4162	4162	4162	4162	4116	4116	4072	4072	4072	4028	4028	3985	3943	3902	3862	3862	3822	3746	3673	3602	3501	3469	3405	3375	3315	3315	3315	3315	3345	3375	3437	3501	3568	3637	3673	3673	3673	3709	3746	3746	3746	3746	3709	3709	3673	3534	3437	3315	3257	3257	3257	3257	3286	3315	3345	3405	3469	3501	3501	3534	3534	3568	3602	3673	3709	3784	3822	4116	0	0	0	0	0	0	0	0
735	736	737	739	742	743	748	749	752	754	755	755	757	757	755	754	754	754	754	754	754	754	755	757	758	760	760	761	761	763	764	764	763	763	763	761	760	758	757	757	755	754	754	754	754	754	754	754	755	755	755	755	755	755	755	755	755	755	755	755	755	757	757	757	758	758	760	760	761	761	763	763	761	761	763	763	763	763	763	763	764	764	764	764	764	763	761	758	755	754	751	749	746	745	743	743	745	745	746	746	746	746	746	746	746	746	746	745	745	743	743	743	743	743	743	743	745	746	748	749	752	754	755	755	757	757	757	755	754	754	754	754	754	754	752	752	754	754	754	755	757	757	760	761	763	766	768	771	772	774	776	777	779	779	779	777	777	776	774	772	771	769	768	768	766	764	764	764	766	766	766	766	764	764	764	764	764	766	768	769	769	771	771	772	774	774	774	774	774	774	774	772	772	771	771	771	771	772	772	774	776	777	777	779	780	780	780	780	780	779	777	776	772	771	768	764	763	761	758	757	754	752	751	749	748	748	746	746	745	745	745	746	746	746	748	748	749	749	749	749	749	749	749	748	746	746	743	742	740	737	736	735	733	732	730	730	729	729	729	729	729	729	729	730	730	730	730	730	729	729	729	727	727	726	726	725	725	723	723	722	722	720	720	720	720	720	719	719	719	719	719	720	720	722	723	723	725	725	726	727	727	729	730	732	733	736	737	740	742	743	745	746	746	748	748	746	746	746	746	746	746	746	746	748	748	749	749	751	751	752	754	754	754	754	755	754	754	754	755	755	755	755	755	757	757	757	757	758	758	760	760	760	760	760	760	758	758	757	757	757	755	755	755	754	754	754	754	754	754	754	754	755	757	758	760	761	763	764	766	768	768	768	768	766	766	766	764	763	761	758	757	755	754	752	751	751	749	749	749	749	751	751	752	752	754	755	757	758	761	764	768	772	776	779	784	787	792	797	800	806	807	811	814	816	818	821	823	825	829	831	834	838	842	846	849	851	855	857	861	863	865	867	871	873	877	879	883	888	892	896	900	905	909	914	918	920	923	925	0	0	0	0	0	0	0	0	0	0	0	0	0	0	0	5132	5132	5276	0	5676	5676	5763	5853	5946	6141	6243	6349	6459	6572	6811	0	7492	7492	7645	7645	7804	7970	7970	7804	7645	7645	7492	7492	7492	7492	7492	7492	7492	7492	7345	7204	6811	6572	6349	6141	5946	5853	5676	5591	5509	5509	5591	5591	5591	5763	5853	5946	6042	6141	6349	6459	6572	6572	6689	6811	6937	7068	6937	6937	6689	6572	6459	6243	6243	6042	6042	6042	6042	5946	5853	5763	5763	5763	5763	5763	5763	5763	5853	5853	5853	5853	5853	5763	5676	5591	5591	5591	5591	5763	6042	6349	6689	7068	7492	7645	7804	7492	7204	7068	6811	6689	6459	6243	6141	6042	5853	5763	5763	5676	5676	5763	5853	5853	5946	6042	6141	6243	6349	6459	6572	6689	6811	6937	7068	7068	7068	7204	7068	7068	6937	6811	6689	6572	6459	6349	6349	6243	6243	6243	6243	6243	6349	6459	6572	6689	6811	6937	7068	7345	7645	7970	8324	8514	8712	8919	9137	9137	8919	8919	8919	8514	7970	7492	7068	6243	5946	5591	5351	5132	4929	4803	4683	4568	4460	4407	4356	4356	4257	4209	4162	4162	4116	4072	4072	4028	4028	3985	3985	3985	3985	3943	3902	3862	3822	3822	3784	3746	3709	3602	3501	3437	3405	3345	3315	3257	3257	3257	3257	3286	3315	3405	3405	3501	3568	3568	3568	3568	3568	3602	3637	3637	3637	3637	3709	3673	3534	3437	3315	3257	3257	3257	3257	3286	3315	3345	3405	3469	3501	3501	3534	3534	3534	3534	3568	3602	3784	3822	0	0	0	0	0	0	0	0	0
739	740	742	743	745	748	752	754	754	755	757	757	757	755	754	754	754	752	752	752	754	754	755	757	757	758	760	760	761	763	763	763	763	761	761	760	758	755	755	754	752	752	751	751	751	752	752	752	752	752	752	754	754	754	754	754	754	754	754	755	755	755	755	757	757	758	760	760	761	761	763	763	763	763	763	763	763	763	763	763	763	763	764	764	764	763	760	757	754	752	749	746	745	742	740	740	742	742	742	743	743	745	745	745	745	745	746	745	745	745	745	743	743	743	745	746	748	749	751	754	755	757	758	758	758	760	758	757	757	755	755	755	754	754	754	754	754	754	755	757	757	758	760	763	764	768	769	771	774	776	777	777	777	777	777	777	776	774	774	772	771	769	768	768	766	764	764	764	766	766	766	766	764	764	764	766	766	768	769	769	771	771	772	772	774	774	774	774	774	774	774	772	772	772	772	772	772	774	774	774	776	779	779	780	780	780	780	779	777	777	774	772	769	766	764	761	758	757	754	752	749	748	746	745	743	743	742	742	742	742	742	742	742	743	743	745	745	746	746	748	746	746	746	746	745	743	743	740	739	737	736	735	733	732	730	730	729	729	727	727	727	727	727	727	727	729	729	729	729	729	727	727	727	726	725	725	723	722	722	722	720	720	719	719	719	719	719	719	719	719	719	720	722	723	725	725	726	727	729	730	730	732	733	733	736	737	739	740	742	743	745	745	746	746	746	746	745	745	745	745	745	745	745	746	746	748	749	751	751	751	752	752	754	754	754	754	754	754	754	754	754	754	754	755	755	755	757	757	758	758	758	760	760	760	758	758	758	757	757	757	757	757	755	755	755	755	755	755	755	755	755	757	757	758	760	761	764	766	766	768	768	768	768	768	768	766	764	764	763	761	758	757	755	754	752	751	751	751	751	751	751	751	752	752	754	755	757	758	761	764	768	772	777	780	787	790	797	802	806	809	811	814	816	820	820	823	825	827	829	831	834	838	840	844	846	849	851	855	857	861	863	865	869	873	875	879	883	888	892	896	898	903	907	911	916	918	920	920	0	0	0	0	0	0	0	0	0	0	0	0	0	0	5062	5062	5203	5276	5429	5591	5676	5763	5946	6042	6141	6243	6349	6459	6689	6811	0	7645	7645	8143	8324	8324	8324	8514	8324	8324	8143	8143	7970	7970	7970	7970	7970	7804	7804	7492	7204	6811	6459	6243	6042	5853	5763	5591	5429	5429	5429	5429	5509	5591	5676	5763	5853	5946	6042	6141	6243	6349	6459	6572	6689	6811	6811	6811	6689	6572	6459	6243	6141	6042	5946	5946	5946	5946	5946	5763	5676	5676	5676	5763	5763	5763	5853	5946	5946	6042	6042	6042	5946	5853	5763	5763	5853	5853	6042	6349	6689	6937	7345	7645	7645	7492	7204	6937	6811	6572	6459	6243	6042	5946	5853	5763	5676	5591	5509	5509	5591	5676	5763	5763	5853	5946	6042	6141	6243	6349	6459	6572	6689	6811	6811	6937	6937	6937	6811	6811	6811	6689	6689	6572	6572	6572	6459	6459	6459	6459	6572	6572	6689	6811	6937	7068	7068	7204	7345	7645	7970	8143	8514	8712	8919	9137	9137	8919	8514	8514	8514	8143	7645	7204	6459	6141	5763	5509	5276	5062	4865	4742	4625	4513	4407	4356	4257	4162	4116	4072	4028	3985	3985	3943	3943	3902	3902	3862	3862	3862	3822	3784	3784	3709	3673	3673	3637	3602	3534	3437	3375	3315	3286	3286	3229	3229	3229	3229	3229	3286	3315	3345	3405	3469	3469	3437	3437	3437	3469	3469	3501	3501	3637	0	0	0	0	0	0	0	0	0	3375	3375	3405	3469	3501	3501	3469	3469	3437	3405	3405	3405	3405	0	0	0	0	0	0	0	0	0	0	0
740	743	743	745	748	749	752	754	755	757	757	757	755	755	754	754	752	752	752	752	754	754	754	755	757	758	758	760	761	761	763	761	761	760	758	757	755	754	752	749	749	748	748	748	748	749	749	751	751	751	751	752	752	752	752	752	754	754	754	754	754	754	755	755	757	758	758	760	760	761	761	761	761	761	761	761	763	763	763	763	763	763	764	764	764	763	760	757	752	751	748	745	742	739	737	737	739	739	740	740	742	743	743	745	745	745	745	746	746	745	745	745	745	746	748	749	751	754	755	758	760	761	763	763	761	761	761	760	758	757	757	755	755	755	755	755	755	755	757	758	758	760	761	764	766	769	771	772	774	776	776	777	776	776	776	776	774	774	772	772	771	769	768	768	766	764	764	764	764	766	766	766	766	766	766	768	768	769	769	771	771	772	772	774	774	774	774	772	772	774	772	772	772	772	772	772	774	774	776	776	777	779	780	780	780	779	777	777	776	774	771	769	766	763	761	758	755	752	751	748	746	743	742	740	739	739	737	737	737	737	737	737	739	739	740	742	742	743	745	745	745	745	745	745	743	742	740	740	739	736	735	735	733	732	730	729	729	727	727	727	726	726	726	726	726	727	727	727	727	727	727	727	726	726	725	725	723	722	722	720	719	719	719	719	719	719	719	719	719	719	719	720	722	723	725	726	727	729	730	732	733	735	735	736	737	739	740	742	743	745	745	745	745	745	745	745	743	743	743	743	743	743	743	745	746	746	748	749	751	751	751	752	752	752	754	752	752	752	752	752	752	752	752	754	754	754	755	755	757	757	757	757	757	757	757	757	757	757	757	757	757	757	757	757	757	757	757	757	757	757	757	758	758	760	761	763	764	766	766	766	768	768	768	768	766	766	764	764	763	761	760	758	757	755	754	752	752	751	751	751	751	751	752	752	754	755	757	758	761	764	769	774	779	784	790	795	800	806	809	813	814	818	820	821	821	823	825	827	829	831	832	836	838	842	844	848	849	851	855	857	859	863	865	869	873	877	881	888	890	894	898	900	905	909	911	914	916	918	920	0	0	0	0	0	0	0	0	0	0	0	0	5132	5062	5062	5203	5276	5429	5591	5763	5853	5946	6042	6243	6349	6459	6572	6689	7068	7645	7804	8143	8143	8514	8514	8712	8712	8514	8514	8514	8514	8514	8514	8514	8324	8143	7970	7970	7645	7068	6689	6349	6141	5946	5763	5676	5591	5429	5351	5351	5351	5429	5509	5591	5591	5676	5763	5946	6042	6141	6243	6349	6459	6572	6572	6689	6689	6572	6572	6349	6243	6042	6042	5946	5946	5853	5853	5853	5763	5676	5676	5676	5763	5763	5763	5946	6042	6141	6141	6243	6243	6141	6042	6042	6042	6042	6141	6243	6572	6811	7068	7492	7645	7492	7345	7068	6811	6572	6349	6243	6042	5853	5763	5676	5591	5509	5429	5429	5509	5509	5591	5591	5676	5763	5763	5853	5946	6042	6141	6243	6349	6459	6459	6572	6689	6689	6689	6689	6572	6572	6572	6459	6459	6349	6349	6349	6349	6459	6459	6459	6572	6572	6689	6811	6937	6937	7068	7345	7645	7804	8143	8324	8324	8712	8712	8919	8712	8514	8514	8514	8143	7645	7204	6572	6243	5946	5591	5351	5132	4865	4683	4513	4407	4306	4257	4162	4072	4028	3985	3943	3902	3862	3862	3822	3822	3784	3784	3746	3709	3709	3709	3673	3637	3602	3568	3534	3469	3405	3375	3315	3286	3229	3202	3202	3202	3202	3202	3202	3229	3286	3286	3345	3375	3345	3315	3315	3315	3315	3315	3315	3501	0	0	0	0	0	0	0	0	0	0	0	0	3469	3469	3469	3437	3437	3345	3345	3315	3286	3286	3405	0	0	0	0	0	0	0	0	0	0	0
742	745	745	746	748	749	751	752	755	755	757	757	755	755	754	754	752	752	752	752	754	754	754	755	757	758	758	760	760	761	760	760	758	758	755	754	751	749	748	746	745	745	745	745	745	746	746	748	748	749	751	751	751	751	751	751	751	752	752	752	754	754	754	755	757	757	758	758	758	760	760	760	761	761	761	761	763	763	763	763	763	763	764	764	764	763	760	757	752	749	746	743	739	737	736	736	736	736	737	739	739	742	742	743	743	743	745	746	746	746	746	746	746	748	751	752	754	757	760	761	764	766	766	766	764	764	763	761	760	758	757	757	757	757	755	755	757	757	758	760	761	763	763	764	768	769	771	772	774	774	776	776	776	774	774	774	774	774	772	771	771	769	768	768	766	766	764	764	764	766	766	766	766	766	768	768	768	769	771	771	772	772	774	774	774	772	772	772	772	772	772	772	772	772	772	772	774	774	776	777	777	779	779	779	777	777	776	774	772	771	768	766	763	760	758	755	752	751	748	746	743	742	739	737	736	735	735	735	735	735	735	735	735	736	737	739	740	742	742	743	743	743	743	743	742	742	740	739	737	736	735	733	733	730	730	729	727	727	726	726	726	725	725	726	726	726	726	726	727	727	727	727	726	725	725	723	722	720	720	719	719	718	718	718	718	718	718	718	719	719	719	720	722	725	725	727	729	730	732	733	736	736	737	739	739	740	742	743	743	745	745	745	745	743	743	743	742	742	742	742	742	742	743	745	745	746	748	749	749	751	751	752	752	752	751	751	751	751	751	751	751	751	751	751	751	752	752	752	754	754	754	754	754	754	754	754	754	754	754	754	754	754	754	755	755	755	757	757	757	758	758	760	760	761	761	763	763	764	764	766	766	766	766	766	766	766	764	764	764	763	761	760	758	757	757	755	754	754	754	752	752	752	752	754	754	755	757	758	761	766	771	776	782	787	794	800	806	811	814	816	818	820	821	821	823	825	825	827	829	831	831	834	836	840	842	844	848	849	851	855	857	861	863	867	871	875	879	886	890	894	896	900	903	905	909	911	911	914	916	918	0	0	0	0	0	0	0	0	0	0	0	5132	5132	5276	5429	5509	5591	5591	5763	5853	6042	6141	6349	6459	6689	6811	6937	7204	7645	7804	8143	8514	8712	8919	8919	8919	8919	8919	9137	9137	9137	9137	8919	8712	8324	8143	7970	7645	7068	6689	6349	6042	5946	5763	5591	5429	5351	5276	5276	5351	5351	5351	5509	5509	5591	5676	5853	5946	6042	6141	6141	6243	6349	6349	6459	6459	6349	6243	6141	6042	5853	5763	5676	5591	5591	5591	5591	5591	5591	5591	5676	5763	5763	5853	6042	6141	6243	6243	6349	6459	6349	6243	6243	6243	6243	6243	6459	6689	7068	7204	7492	7492	7492	7204	6937	6572	6349	6243	5946	5853	5676	5591	5509	5429	5351	5351	5351	5429	5429	5509	5591	5591	5676	5676	5763	5763	5853	5946	6042	6141	6141	6243	6349	6459	6459	6459	6459	6459	6349	6349	6349	6243	6243	6243	6243	6243	6349	6349	6349	6459	6572	6689	6689	6811	6937	6937	7345	7492	7804	7970	8324	8324	8712	8712	8919	8712	8514	8514	8514	8324	7804	7492	6689	6349	6042	5676	5429	5132	4865	4625	4460	4306	4209	4116	4028	3943	3902	3862	3822	3784	3746	3746	3709	3709	3709	3673	3673	3637	3602	3602	3568	3534	3501	3469	3437	3437	3375	3315	3286	3257	3229	3175	3175	3175	3175	3175	3202	3202	3229	3257	3257	3286	3257	3229	3202	3202	3202	3202	3202	0	0	0	0	0	0	0	0	0	0	0	0	0	0	0	3469	3437	3437	3345	3345	3315	3122	3122	0	0	0	0	0	0	0	0	0	0	0	0
743	745	745	745	746	748	751	752	754	755	755	755	755	755	754	754	754	754	754	754	754	755	755	757	757	758	758	758	760	760	758	757	755	754	752	751	748	748	746	743	743	743	743	743	743	745	746	746	746	749	749	751	751	751	751	751	751	752	752	752	752	752	754	754	755	757	757	757	757	758	758	760	760	760	760	760	761	763	763	764	764	764	764	764	764	763	760	757	752	749	745	740	737	736	735	735	735	736	736	737	739	740	742	743	743	743	745	746	746	746	746	748	749	751	752	755	758	760	763	766	769	769	769	769	769	768	766	763	761	760	758	758	758	758	758	758	758	758	760	761	763	764	764	766	769	771	771	772	774	774	774	776	774	774	774	774	774	774	772	771	771	769	769	768	766	766	766	766	766	766	766	766	766	766	768	769	769	771	771	772	772	774	774	774	774	772	772	772	772	772	772	772	772	772	772	772	774	774	776	777	777	779	779	779	777	776	774	772	771	768	766	764	761	758	757	754	751	749	746	743	742	740	737	736	735	733	732	732	732	732	732	732	733	735	736	737	739	740	740	742	742	743	742	742	742	740	739	737	737	736	735	733	732	730	729	729	727	726	726	726	726	725	725	726	726	726	726	726	727	727	727	726	726	725	723	722	720	720	718	718	718	718	716	716	716	718	718	718	718	719	719	720	722	723	726	727	729	732	733	736	737	737	740	740	742	743	743	745	745	745	745	745	745	743	743	743	742	742	740	740	740	742	743	743	745	746	746	748	749	749	749	751	751	751	751	751	749	749	749	749	748	748	748	748	748	749	749	749	749	751	751	751	749	749	749	751	751	751	751	751	751	752	752	752	752	754	755	755	757	757	758	758	760	760	760	761	761	763	763	764	764	764	764	764	764	764	764	764	764	763	761	761	760	758	758	757	755	755	755	755	754	754	754	754	754	755	757	760	763	768	774	779	785	792	799	804	809	814	818	820	821	821	823	823	825	825	825	827	829	829	831	832	834	836	840	842	844	846	849	851	855	857	861	865	869	875	879	883	888	892	894	896	900	903	905	909	909	911	914	916	0	0	0	0	0	0	0	0	0	0	0	0	5676	5429	5429	5509	5676	5853	5946	6141	6243	6349	6459	6689	6811	6937	7068	7345	7804	7970	8324	8712	8712	8919	9137	9365	9137	9137	9605	9605	9365	9365	9137	8712	8514	8324	7804	7345	6937	6572	6243	6042	5853	5676	5509	5429	5276	5276	5276	5276	5276	5351	5429	5509	5591	5676	5676	5853	5946	6042	6042	6141	6141	6141	6243	6141	6042	6042	5853	5676	5591	5509	5429	5351	5276	5276	5351	5351	5351	5429	5591	5763	5946	5946	6042	6243	6349	6459	6572	6572	6459	6349	6349	6349	6349	6349	6459	6689	6937	7068	7345	7345	7345	7204	6811	6459	6243	6042	5763	5591	5509	5351	5351	5276	5276	5276	5351	5429	5429	5509	5591	5591	5676	5676	5676	5676	5763	5853	5853	5946	5946	6042	6141	6243	6243	6243	6243	6243	6243	6243	6243	6243	6243	6243	6243	6243	6349	6349	6349	6459	6572	6689	6689	6811	6811	6811	7204	7492	7804	7804	8143	8324	8514	8712	8919	8712	8514	8514	8514	8324	8143	7645	6937	6459	6042	5763	5429	5132	4865	4625	4407	4257	4162	4028	3985	3902	3822	3784	3746	3709	3673	3673	3673	3637	3637	3602	3602	3568	3568	3534	3501	3501	3469	3437	3405	3405	3375	3315	3286	3229	3229	3175	3175	3175	3175	3175	3202	3202	3229	3257	3257	3229	3202	3175	3148	3122	3122	3070	3046	3046	0	0	0	0	0	0	0	0	0	0	0	0	0	0	0	0	0	0	0	0	3122	3122	0	0	0	0	0	0	0	0	0	0	0	0
742	743	743	743	745	746	749	751	752	754	754	754	754	754	754	754	754	754	754	754	755	755	755	757	757	758	758	758	758	758	757	755	754	752	751	748	748	745	743	742	742	742	742	742	743	745	746	746	746	749	749	749	751	751	751	751	752	752	752	752	752	752	754	754	755	755	757	757	757	757	758	758	758	758	758	760	761	763	763	764	764	764	766	766	766	763	760	757	752	749	745	740	737	735	735	735	735	735	736	737	739	740	742	743	743	743	745	746	746	748	748	749	751	752	755	758	761	764	768	771	774	774	774	772	772	771	769	766	763	761	760	760	760	760	760	760	760	761	761	763	764	766	766	768	769	771	772	772	772	774	774	774	774	772	772	772	774	772	772	772	772	771	771	769	768	766	766	766	766	766	766	766	766	768	769	771	771	772	772	774	774	774	774	774	774	772	772	771	771	771	771	771	772	772	772	774	776	776	776	777	777	779	779	777	777	776	774	772	771	768	766	763	761	758	755	754	751	748	746	743	742	739	737	735	733	732	730	730	730	730	730	732	732	733	735	736	737	739	740	740	742	742	742	742	742	740	739	737	736	735	733	732	730	729	727	727	726	726	726	726	726	725	725	726	726	726	726	726	727	727	726	726	725	723	723	720	720	719	718	718	716	716	716	716	716	716	718	718	718	719	719	720	722	723	726	727	729	732	735	737	739	740	742	743	743	745	746	746	746	746	746	746	745	743	743	743	742	742	740	740	740	742	742	743	745	745	746	748	749	749	749	749	749	749	749	749	748	748	746	746	746	746	746	746	746	746	746	746	748	748	748	748	746	746	746	746	746	746	746	748	748	749	749	749	751	752	752	754	755	755	757	757	758	758	760	760	761	761	761	761	761	763	763	763	764	764	764	764	764	763	763	761	761	760	760	758	757	757	757	757	755	755	755	755	755	757	757	760	764	769	776	782	789	795	802	809	814	818	821	821	823	823	825	825	825	825	825	827	827	829	829	831	832	834	836	840	842	844	848	849	853	857	859	863	869	873	877	881	886	890	892	896	898	900	903	907	907	909	909	911	0	0	0	0	0	0	0	0	0	0	0	0	5676	5676	5763	5853	5946	6042	6141	6349	6459	6572	6689	6811	6937	7068	7068	7345	7804	7970	8324	8514	8712	8919	9137	9365	9365	9365	9365	9605	9365	9137	8712	8324	8143	7970	7492	7068	6689	6349	6243	5946	5853	5676	5509	5429	5276	5276	5276	5276	5276	5276	5429	5509	5509	5591	5676	5763	5853	5946	5946	6042	6042	6141	6141	6042	5853	5853	5676	5591	5429	5351	5203	5132	5062	5062	5132	5203	5276	5351	5509	5763	5946	5946	6243	6349	6572	6689	6811	6689	6572	6459	6459	6459	6459	6459	6572	6689	6937	7068	7345	7345	7345	7204	6811	6459	6243	5946	5763	5509	5429	5276	5203	5203	5276	5276	5351	5429	5509	5509	5591	5591	5676	5676	5676	5676	5763	5763	5853	5853	5853	5946	6042	6042	6141	6141	6141	6141	6141	6141	6243	6243	6243	6243	6243	6349	6349	6349	6349	6459	6459	6572	6689	6689	6811	6811	7204	7345	7645	7804	7970	8143	8324	8514	8324	8324	8324	8324	8324	7970	7970	7492	7068	6572	6141	5853	5509	5132	4803	4568	4356	4209	4072	3985	3902	3822	3784	3709	3673	3637	3637	3602	3602	3568	3568	3568	3534	3534	3501	3501	3469	3437	3437	3405	3375	3375	3345	3315	3257	3229	3229	3202	3175	3175	3175	3175	3202	3202	3229	3229	3229	3202	3175	3122	3096	3070	3046	2997	2973	2973	0	0	0	0	0	0	0	0	0	0	0	0	0	0	0	0	0	0	0	0	0	0	0	0	0	0	0	0	0	0	0	0	0	0
739	740	740	742	743	745	746	749	751	751	752	754	754	754	754	754	754	754	754	754	755	755	757	757	757	757	757	757	757	757	755	754	752	751	749	746	746	745	742	742	742	742	742	742	743	745	746	746	748	749	749	749	751	751	752	752	752	752	752	752	754	754	754	754	755	755	755	755	755	757	757	757	757	758	758	760	761	763	763	764	764	766	768	768	768	764	761	757	752	749	745	740	737	735	735	735	735	735	736	737	739	740	742	743	743	743	745	746	748	748	749	749	752	754	758	761	764	768	771	774	777	777	776	776	774	772	771	768	766	764	761	761	761	761	761	761	761	763	764	764	766	768	768	769	769	771	772	772	772	772	774	774	774	772	772	772	774	772	772	772	772	771	771	769	768	766	766	766	766	766	766	768	769	769	771	772	772	774	776	776	776	776	774	774	772	772	771	771	771	771	771	771	771	772	772	774	774	776	776	777	777	779	779	777	777	776	774	772	771	768	766	763	761	758	755	754	751	748	746	743	740	739	736	735	733	732	730	730	730	730	730	732	732	733	735	736	737	739	740	740	742	742	742	740	740	739	737	736	735	733	732	730	729	727	727	726	726	726	726	726	726	725	725	726	726	726	726	726	727	727	726	726	725	723	722	720	719	718	718	716	716	716	716	716	716	716	718	718	718	719	719	720	722	723	726	727	730	733	736	737	740	742	745	745	746	746	748	748	748	748	746	746	746	745	743	743	742	742	742	742	742	742	742	743	745	745	746	748	748	748	749	749	748	748	748	746	745	745	745	743	743	743	743	743	743	743	745	745	745	745	745	745	743	743	743	743	743	743	743	743	745	745	746	746	748	749	751	752	752	754	755	755	757	757	758	758	760	760	760	760	760	760	761	761	763	763	763	763	764	764	763	763	761	761	761	760	760	760	758	758	757	757	757	757	757	758	760	761	766	771	777	784	792	797	806	811	818	820	823	823	825	825	825	825	825	825	825	825	827	827	827	829	831	832	836	838	840	842	846	848	851	855	859	863	867	871	877	881	886	888	892	894	896	898	900	905	905	907	909	909	0	0	0	0	0	0	0	0	0	0	0	0	0	0	0	0	0	6349	6349	6459	6572	6689	6937	7068	7204	7204	7345	7492	7804	7970	7970	8324	8514	8514	8919	8919	8919	8919	8919	8919	8919	8514	8324	7970	7645	7492	7068	6811	6459	6243	6042	5853	5763	5676	5509	5429	5276	5276	5276	5276	5276	5276	5429	5429	5509	5591	5676	5763	5853	5853	5853	5946	5946	5946	5946	5946	5763	5676	5509	5351	5203	5132	4995	4929	4865	4865	4929	4929	5062	5276	5509	5763	6042	6042	6349	6689	6811	6937	7068	6937	6811	6689	6572	6572	6572	6572	6689	6811	6937	7068	7345	7492	7492	7345	6937	6572	6243	5946	5763	5509	5351	5276	5203	5203	5276	5276	5351	5509	5509	5591	5676	5676	5763	5763	5763	5763	5763	5763	5763	5763	5853	5853	5946	5946	6042	6141	6141	6141	6141	6141	6243	6243	6243	6243	6243	6349	6349	6459	6459	6459	6459	6572	6689	6689	6811	6937	7204	7345	7492	7645	7804	7970	8143	8324	8324	8324	8143	8143	8143	7970	7804	7492	7068	6572	6243	5853	5509	5132	4742	4513	4306	4162	4028	3902	3822	3746	3709	3673	3637	3602	3602	3602	3568	3568	3568	3568	3534	3534	3501	3501	3469	3437	3437	3405	3375	3375	3345	3315	3257	3257	3229	3229	3175	3175	3175	3175	3202	3229	3229	3229	3229	3175	3148	3096	3046	3021	2997	2997	2973	2973	0	0	0	0	0	0	0	0	0	0	0	0	0	0	0	0	0	0	0	0	0	0	0	0	0	0	0	0	0	0	0	0	0	0
737	737	739	739	740	742	743	745	748	748	749	751	752	752	752	752	754	754	754	754	754	755	755	755	755	757	757	757	757	755	754	752	751	751	749	746	745	743	742	742	742	742	742	743	743	745	746	748	749	749	751	751	752	752	752	752	752	754	754	754	754	754	754	754	755	755	755	755	755	755	755	757	757	758	758	760	761	763	764	766	766	768	769	769	769	766	763	758	754	749	746	742	739	736	735	735	735	736	737	737	739	740	742	743	743	745	745	746	748	749	749	751	752	755	760	763	766	769	772	776	779	779	777	777	776	774	772	769	766	764	764	763	763	761	761	761	763	763	764	766	768	768	768	769	771	771	771	771	771	772	772	772	772	772	772	772	772	772	772	772	772	771	771	769	768	766	766	766	768	768	769	769	771	771	772	774	776	776	777	777	776	776	774	774	772	772	771	771	771	771	771	771	771	772	772	774	774	776	776	777	777	779	779	779	777	776	774	772	771	768	766	764	761	760	757	754	751	749	746	743	740	739	736	735	733	732	730	730	730	730	730	732	733	733	735	737	739	740	740	742	742	742	740	739	737	737	736	735	733	732	730	729	727	726	726	726	726	726	726	726	726	726	726	726	726	726	726	727	727	726	726	725	723	722	722	719	719	718	716	716	716	716	716	716	716	716	718	718	718	719	719	720	722	723	726	729	732	733	736	739	742	743	746	748	748	749	749	749	749	749	748	748	746	746	743	743	743	742	742	742	742	742	743	743	745	746	746	748	748	748	748	748	746	746	746	745	743	743	742	742	742	742	742	742	742	742	742	743	743	743	742	742	742	740	740	740	740	740	740	740	742	742	745	745	745	746	748	749	751	752	754	755	755	757	757	758	758	758	758	758	758	758	760	760	761	761	763	763	764	764	764	764	764	763	763	763	763	761	761	760	760	760	758	758	760	760	761	763	768	774	779	787	794	800	807	814	820	823	825	825	825	825	825	825	825	825	825	825	825	827	827	829	831	832	834	836	840	842	846	848	851	853	859	861	865	871	875	879	883	886	890	892	894	896	898	903	903	905	907	907	911	0	0	0	0	0	0	0	0	0	0	0	7492	7204	7204	7204	7204	7204	6572	6572	6689	6937	6937	7204	7345	7492	7492	7645	7804	7804	7804	7970	7970	8143	8143	8324	8324	8514	8514	8514	8143	8143	7804	7492	7204	7068	6811	6572	6243	6141	5946	5763	5676	5591	5509	5429	5276	5276	5276	5276	5276	5351	5429	5429	5509	5591	5676	5763	5763	5763	5763	5853	5853	5853	5853	5763	5591	5509	5351	5132	5062	4929	4865	4742	4683	4683	4742	4742	4929	5203	5509	5946	6243	6572	6572	6937	7204	7345	7492	7204	7068	6937	6811	6689	6689	6689	6689	6811	7068	7204	7492	7645	7645	7345	7204	6689	6243	5946	5763	5509	5351	5276	5203	5203	5276	5276	5429	5591	5763	5763	5853	5853	5853	5853	5763	5763	5763	5763	5763	5763	5853	5853	5946	5946	6042	6141	6141	6141	6141	6243	6243	6243	6243	6349	6349	6459	6459	6459	6459	6572	6689	6689	6689	6811	6811	6937	7068	7345	7492	7645	7804	7970	7970	8143	8143	8143	8143	8143	7970	7970	7804	7492	7068	6572	6243	5853	5509	5062	4742	4460	4209	4072	3943	3862	3746	3673	3637	3602	3568	3568	3568	3568	3568	3568	3568	3568	3534	3534	3534	3501	3469	3437	3437	3405	3375	3375	3375	3315	3286	3286	3286	3257	3257	3257	3229	3229	3229	3257	3257	3257	3202	3175	3122	3070	3021	2997	2997	2997	0	0	0	0	0	0	0	0	0	0	0	0	0	0	0	0	0	0	0	0	0	0	0	0	0	0	0	0	0	0	0	0	0	0	0	0
737	737	736	736	737	739	740	742	745	746	746	749	749	751	751	752	752	754	754	754	754	754	754	755	755	755	755	755	755	755	754	752	751	749	748	746	745	743	743	742	742	742	743	745	745	748	748	749	751	751	752	754	754	754	754	754	754	754	754	754	754	754	754	754	755	755	755	755	755	755	755	757	757	758	758	760	761	764	764	768	768	769	771	771	771	768	764	760	755	751	746	743	740	737	737	736	736	736	737	737	739	740	743	743	745	746	746	748	748	749	751	752	754	757	760	764	768	771	772	776	779	779	779	777	776	774	772	769	768	764	764	763	763	763	763	763	763	763	764	766	766	768	768	768	769	769	769	771	771	771	771	772	771	771	772	772	772	772	772	772	772	771	771	771	769	769	769	769	769	771	771	771	772	774	776	777	779	779	780	779	777	777	776	774	772	772	771	771	771	771	771	771	772	772	772	774	776	776	777	777	777	779	779	779	777	777	776	774	772	771	768	766	763	760	758	755	752	751	748	743	742	739	737	735	733	733	732	732	732	732	732	733	733	735	736	737	739	740	740	742	740	740	739	737	736	736	735	733	732	730	727	727	726	726	725	725	725	725	725	726	726	726	726	726	726	726	726	727	727	726	726	725	723	722	722	719	719	718	716	716	716	716	716	716	716	716	718	718	718	719	719	720	722	723	726	729	732	735	736	740	743	745	748	749	749	751	751	751	751	749	749	748	746	746	745	743	743	742	742	742	742	742	743	743	745	746	746	748	748	748	746	746	745	745	743	742	742	742	740	739	739	739	740	740	740	740	742	742	742	742	740	740	739	739	737	737	737	737	737	737	739	740	742	743	743	745	746	748	749	751	752	752	755	755	755	757	757	757	757	757	757	758	758	760	761	761	763	764	764	766	768	768	768	766	766	766	766	766	766	764	764	763	763	763	763	763	764	766	771	776	784	789	795	802	809	816	821	823	825	825	825	825	825	825	825	825	825	825	825	827	827	829	831	832	834	836	840	842	846	848	851	853	857	861	865	869	873	879	881	886	888	890	894	894	896	900	903	903	905	905	911	0	0	0	0	0	0	0	0	0	0	0	7492	7204	7204	7204	7204	7204	7204	7345	7345	7492	7645	7645	7645	7645	7645	7645	7645	7645	7645	7645	7645	7645	7645	7804	7804	7970	7970	7970	7804	7645	7492	7204	6937	6689	6459	6243	6141	5946	5853	5676	5676	5591	5509	5429	5351	5276	5276	5276	5351	5429	5429	5429	5509	5591	5676	5676	5763	5763	5763	5853	5763	5763	5763	5509	5351	5351	5132	4995	4803	4803	4683	4625	4625	4625	4683	4742	4929	5203	5591	6042	6459	6937	6937	7492	7804	7970	7970	7645	7204	7068	6937	6811	6811	6811	6811	6937	7204	7345	7645	7970	7970	7804	7345	6937	6459	6243	5853	5676	5509	5351	5351	5351	5351	5509	5676	5946	6042	6042	6141	6141	6042	6042	5946	5946	5946	5853	5853	5853	5853	5946	5946	6042	6141	6141	6141	6243	6243	6349	6349	6349	6349	6459	6572	6572	6572	6572	6689	6689	6689	6689	6811	6811	6937	6937	7068	7345	7492	7645	7645	7804	7970	7970	8143	8143	8143	8143	7970	7970	7804	7492	7204	6689	6349	5946	5946	5062	4742	4460	4209	4072	3943	3862	3673	3602	3568	3568	3568	3568	3568	3568	3568	3568	3568	3568	3568	3568	3534	3534	3501	3469	3437	3437	3405	3405	3405	3405	3405	3405	3375	3375	3375	3345	3345	3315	3315	3315	3286	3257	3202	3202	3122	3070	3021	2997	2997	0	0	0	0	0	0	0	0	0	0	0	0	0	0	0	0	0	0	0	0	0	0	0	0	0	0	0	0	0	0	0	0	0	0	0	0	0
736	736	736	736	736	737	737	739	742	743	745	746	748	749	749	751	752	752	754	752	752	754	754	754	754	754	754	754	755	754	754	752	751	749	748	746	745	743	743	742	742	742	743	745	746	749	751	752	754	754	755	755	755	755	755	755	755	755	755	755	755	755	755	755	755	755	755	755	755	755	757	757	757	758	758	760	761	764	766	768	769	771	772	772	772	769	766	761	757	752	749	745	742	737	737	736	736	737	739	740	742	743	745	746	746	749	751	751	751	752	754	754	757	758	761	764	768	771	772	776	777	777	776	774	774	772	771	769	766	764	764	763	763	761	761	761	761	763	763	764	766	766	766	768	768	768	768	768	769	769	769	771	771	771	771	772	772	772	772	772	772	772	771	771	771	771	771	771	771	771	772	774	776	776	779	779	780	780	780	779	777	777	774	774	772	771	771	771	771	771	771	771	772	772	774	776	776	776	777	779	779	780	780	780	780	779	777	777	774	772	771	768	764	763	760	757	754	752	748	745	743	740	739	737	736	735	733	733	733	733	733	735	735	736	737	739	740	740	742	742	740	739	739	736	735	733	733	732	730	727	727	726	726	725	725	725	725	725	725	726	726	726	726	727	726	726	726	727	727	726	725	725	723	722	720	719	718	718	716	716	716	716	716	716	716	716	718	718	719	719	720	722	723	723	726	729	732	735	737	740	743	746	748	751	751	752	752	751	751	751	749	749	748	746	745	743	743	742	742	742	742	742	743	745	745	746	746	748	746	746	745	745	743	743	742	740	739	739	737	737	737	737	737	739	739	739	740	740	740	739	739	739	737	736	736	736	735	735	736	736	737	737	739	740	740	742	743	745	748	748	751	752	752	755	755	755	755	757	757	757	757	757	758	760	761	763	764	766	768	768	771	771	771	771	771	771	771	771	771	769	769	768	768	768	768	768	769	771	776	780	785	792	799	806	811	816	821	823	825	825	825	825	825	825	825	825	825	825	827	827	829	831	831	834	836	838	840	842	846	848	851	853	857	861	865	869	873	877	881	883	886	890	892	894	896	898	900	903	905	905	909	0	0	0	0	0	0	0	0	0	0	11018	9365	8919	8919	10124	9605	8324	8324	8324	8324	8143	8143	8143	7970	7804	7804	7804	7645	7492	7492	7492	7492	7345	7345	7492	7492	7492	7492	7492	7345	7204	7068	6811	6689	6459	6349	6141	6042	5946	5763	5676	5591	5591	5509	5429	5351	5351	5351	5351	5429	5429	5429	5509	5509	5591	5591	5676	5676	5676	5763	5676	5676	5676	5509	5351	5203	5132	4929	4803	4683	4625	4568	4568	4513	4513	4625	4742	4929	5276	5763	6349	6937	7645	7645	8143	8514	8514	8324	7804	7345	7068	6937	6937	6937	6937	6937	7068	7345	7645	8143	8324	8514	8143	7804	7345	6811	6349	5946	5763	5591	5509	5509	5509	5509	5763	5946	6243	6349	6349	6459	6459	6349	6243	6243	6141	6042	6042	6042	6042	6042	6042	6042	6141	6141	6243	6243	6349	6349	6459	6572	6572	6572	6572	6689	6689	6811	6811	6811	6811	6811	6811	6937	6937	6937	7068	7204	7345	7492	7492	7645	7804	7970	7970	7970	8143	8143	8143	8143	8143	7804	7645	7345	6937	6459	6459	0	0	0	0	0	0	0	0	3673	3602	3568	3568	0	0	0	0	0	3602	3602	3602	3602	3602	3602	3602	3568	3501	3501	3469	3437	3437	3437	3469	3469	3501	3501	3534	3534	3501	3469	3437	3405	3345	3286	3257	3257	0	3122	3070	3021	3021	0	0	0	0	0	0	0	0	0	0	0	0	0	0	0	0	0	0	0	0	0	0	0	0	0	0	0	0	2796	2796	2838	2882	0	3096	3096	0	0	0
