1352	1348	1345	1343	1341	1339	1337	1337	1337	1337	1338	1339	1340	0	1343	1346	1348	1351	1354	1358	1362	1365	1369	1374	1378	1382	1387	1392	1395	1398	1401	1404	1407	1409	1411	0	1415	1418	1420	1422	1423	1424	1423	1423	1422	1421	1420	1418	1417	1416	1416	1414	1415	1416	1416	1418	1420	1422	1424	1427	1428	1432	1434	1435	1437	1438	1438	1439	1440	1440	1440	1441	1440	1440	1441	1442	1442	1442	1442	1442	1442	1442	1441	1439	1437	1436	1434	1432	1431	1428	1426	1426	1425	1425	1425	1424	1424	1425	1425	1427	1427	1429	1429	1431	0	1433	1434	1436	1436	1437	1438	1439	1440	1440	1440	1441	1442	1442	1442	1442	1442	1441	1440	1439	1438	1436	1434	1432	1431	1428	1427	1426	1425	1424	1425	1425	1425	1426	1426	1427	1427	1427	1427	1426	1425	1423	1420	1419	1416	1415	1414	1414	1413	1412	1412	1412	1413	1414	1415	1415	1416	1417	1417	1417	1416	1412	1408	1405	1401	1399	1393	1392	1392	1391	1392	1394	1397	0	1402	1408	1416	1420	1423	1424	1425	1426	1425	1424	1421	1419	1416	1412	1412	1411	1412	1413	1416	0	1419	1423	1425	1431	1436	1440	1443	1446	1447	1447	1447	1445	1444	1443	1442	1441	1440	1440	1439	1439	1440	1441	1441	1441	1442	1443	1443	1444	1444	1444	1443	1443	1442	1441	1440	1440	1438	1437	1436	1436	1435	1435	1434	1434	1435	1436	1436	1437	1438	1439	1441	1441	1441	1441	1441	1442	1442	1444	1446	1447	1450	1452	1454	1456	1458	1458	1458	1458	1458	1457	1456	1456	1454	1453	1452	1450	1449	1448	1447	1446	1444	1440	1437	1435	1432	1428	1426	1423	1421	1420	1420	1420	1419	1419	1420	1422	1423	1424	1426	1428	1431	1433	1434	1437	1439	1440	1441	1442	1445	1446	1447	1447	1447	1447	1447	1447	1447	1447	1447	1446	1447	1448	1448	1448	1448	1448	1447	1446	1445	1443	1440	1439	1437	1435	1432	1429	1428	1426	1425	1425	1423	1422	1422	1422	1420	1420	1420	1420	1419	1418	1418	1417	1416	1416	1416	1415	1416	1418	1419	1421	1424	1426	1429	1433	1436	1439	1440	1441	1442	1444	1445	1444	1445	1445	1444	1442	1441	1439	1437	1435	1433	1431	1428	1426	1425	1425	1425	1427	1428	0	1432	1434	1435	1435	1436	1437	1438	1439	1440	1441	1442	1442	1443	1442	1443	1443	1443	1444	1444	1444	1444	1444	1444	1443	1443	1443	1442	1441	1440	1439	1439	1439	1439	1439	1439	1441	1442	1444	1445	1447	1449	1452	1453	1454	1454	1455	1455	1455	1455	1455	1454	1454	1453	1452	1450	1449	1447	1446	1444	1442	1442	1440	1439	1438	1437	1435	1435	1434	1434	1434	1435	1435	1436	1437	1437	1439	1439	1440	1440	1441	1442	1442	1443	1444	1446	1447	1447	1449	1450	1450	1452	1450	1449	1447	1445	1444	1443	1440	1438	1437	1436	1436	1435	1435	1435	1434	1435	1435	1435	1435	1436	1436	1436	1435	1436	1436	1436	1436	1437	1437	1437	1438	1438	0	0	0	0	0	0	1096	0	1092	1091	1090	1088	1086	1085	1082	1081	1078	1074	1073	1070	1068	1067	1065	1063	1062	1061	1060	1059	1058	1057	1056	1055	1054	1054	1051	1050	1049	1047	1046	1045	1044	1043	1043	1042	1043	1044	1044	1045	1045	1047	1048	1049	1049	1049	1049	1049	1049	1047	1046	1045	1044	1042	1041	1039	1036	0	0	1031	1031	1031	1031	1031	1032	1032	1033	1034	1034	1033	1033	1032	0	0	0	0	1015	1013	1012	1010	1009	1008	1008	1008	1008	1008	1007	1007	1007	1006	1005	1004	1002	999	994	992	991	989	988	987	987	987	986	986	987	988	988	989	989	990	991	991	991	992	993	993	994	994	995	995	996	996	996	996	996	996	996	995	995	994	994	994	993	993	992	992	991	990	989	988	987	986	986	984	984	984	982	982	982	981	980	980	979	978	978	976	976	976	974	973	971	967	965	963	961	958	956	953	951	946	943	940	939	937	936	935	934	0	0	0	0	0	0	0	0	0	0	0
1358	1354	1350	1348	1345	1342	1339	1338	1336	1336	1336	1336	1338	1338	1339	1342	1343	0	1345	1348	1349	1355	1359	1363	1368	1373	1378	1382	1386	1389	1392	1394	1396	1398	1400	1404	1406	1409	1412	1414	1415	1416	1417	1417	1416	1417	1416	1414	1413	1412	1412	1411	1411	1411	1412	1413	1415	1416	1419	1421	1423	1426	1428	1432	1433	1435	1436	1437	1438	1439	1439	1439	1439	1439	1440	1440	1440	1440	1441	1440	1440	1440	1439	1437	1436	1434	1433	1431	1429	1427	1426	1425	1425	1425	1425	1424	1424	1425	1425	0	1427	1428	1428	1429	0	1432	1434	1434	1434	1435	1436	1436	1438	1438	1439	1440	1439	1440	1441	1440	1441	1440	1439	1438	1436	1435	1433	1431	1428	1427	1426	1425	1424	1424	1424	1425	1425	1426	1426	1427	1427	1427	1427	1427	1425	1424	1421	1419	1417	1415	1414	1413	1413	1413	1412	1414	1414	1416	1416	1417	1417	1418	1419	1419	1417	1414	1411	1408	1405	1402	1399	1397	1394	1395	1396	1397	0	1401	1405	1411	1417	1422	1425	1426	1427	1428	1427	1425	1423	1420	1416	1412	1411	1410	1410	1411	1413	1415	1419	1420	1422	1427	1433	1437	1441	1443	1445	1445	1445	1444	1442	1440	1439	1438	1437	1437	1436	1437	1438	1438	1438	1439	1439	1439	1440	1439	1440	1440	1438	1438	1437	1436	1435	1435	1434	1432	1432	1431	1431	1431	1431	1431	1432	1432	1433	1434	1435	1436	1437	1437	1438	1438	1438	1438	1439	1440	1442	1444	1446	1448	1450	1454	1455	1456	1456	1456	1456	1456	1456	1455	1455	1454	1453	1452	1452	1450	1449	1447	1445	1440	1437	1434	1431	1426	1424	1422	1420	1418	1417	1417	1417	1417	1417	1419	1421	1423	1424	1427	1429	1432	1435	1437	1439	1441	1442	1443	1444	1445	1445	1445	1445	1446	1445	1445	1444	1444	1445	1445	1446	1446	1447	1447	1447	1447	1446	1446	1445	1444	1441	1440	1439	1437	1434	1432	1429	1428	1427	1426	1425	1424	1424	1424	1423	1423	1424	1423	1422	1422	1421	1420	1419	1419	1418	1418	1419	1420	1422	1424	1426	1428	1432	1436	1439	1441	1443	1444	1445	1446	1446	1446	1446	1446	1444	1443	1442	1440	1437	1435	1433	1429	1425	1424	1423	1422	1423	1424	1426	1427	1428	1429	1431	1432	1433	1435	1435	1436	1437	1439	1439	1439	1439	1440	1440	1440	1440	1441	1441	1441	1441	1440	1440	1440	1439	1439	1438	1437	1437	1437	1436	1436	1436	1437	1437	1439	1441	1443	1444	1446	1448	1450	1453	1453	1454	1455	1455	1455	1455	1454	1454	1454	1452	1452	1449	1448	1447	1445	1444	1442	1440	1439	1437	1436	1435	1435	1433	1432	1433	1434	1434	1435	1436	1436	1437	1438	1438	1438	1439	1440	1440	1440	1441	1443	1444	1445	1446	1447	1448	1449	1449	1448	1447	1446	1444	1443	1441	1439	1437	1436	1435	1435	1434	1434	1434	1434	1434	1435	1435	1435	1434	1435	1434	1434	1434	1435	1435	1435	1435	1435	1436	1436	0	0	0	0	0	1099	1098	1095	1094	1093	1092	1090	1088	1088	1086	1084	1082	1080	1078	1074	1071	1070	1068	1066	1065	1063	1062	1061	1060	1059	1058	1058	1056	1056	1055	1055	1053	1051	1050	1049	1047	1046	1046	1045	1045	1045	1046	1046	1047	1048	1049	1049	1050	1050	1051	1051	1051	1051	1051	1051	1050	1049	1047	1045	1045	1043	1040	1036	1035	1034	1034	1034	1034	1035	1035	1035	1036	1036	1036	1035	1035	1034	1031	0	0	0	1020	1018	1015	1014	1014	1014	1013	1013	1013	1013	1013	1012	1011	1009	1008	1006	1003	1000	994	992	991	989	988	988	988	989	989	990	990	991	993	994	994	995	995	995	995	996	996	996	997	996	997	997	998	997	997	997	997	997	997	997	996	996	996	995	995	994	994	993	992	991	991	989	989	988	985	985	984	983	982	982	981	979	979	978	978	977	976	976	975	974	973	972	970	966	964	962	958	955	953	950	943	940	938	937	936	934	933	932	0	0	0	0	0	0	0	0	0	0	0
1364	1362	1358	1355	1352	1348	1344	1341	1339	1337	1335	1335	1334	1334	1335	1335	1337	1338	1340	1341	1345	0	1349	1353	1359	1364	1369	1374	1379	1382	1384	1386	1387	1389	1391	1393	1395	1398	1399	1401	1403	1405	1407	1409	1409	1410	1409	1410	1409	1408	1407	1407	1406	1406	1407	1408	1411	1413	1415	1416	1419	1423	1425	1428	1431	1433	1434	1435	1437	1437	1438	1438	1438	1437	1438	1438	1438	1438	1438	1438	1438	1438	1436	1436	1434	1433	1431	1429	1428	1427	1425	1425	1425	1425	1425	1425	1425	1426	1426	1426	1427	1427	1427	1428	1429	1429	1431	1431	1432	1433	1434	1434	1436	1436	1437	1438	1438	1439	1439	1439	1439	1438	1437	1436	1435	1434	1432	1429	1427	1426	1425	1425	1424	1424	1424	1425	1425	1426	1427	1427	1428	1428	1428	1428	1426	1425	1424	1420	1418	1417	1415	1414	1414	1414	1413	1415	1415	1416	1417	1418	1420	1420	1421	1421	1420	1418	1415	1412	1409	1406	1404	1401	1399	1398	1398	1399	1401	1404	1407	1413	1420	1424	1426	1428	1428	1428	1428	1426	1423	1420	1417	1412	1411	1410	1410	1411	1412	1415	1419	0	1421	1426	1431	1435	1438	1440	1442	1442	1442	1441	1439	1438	1437	1435	1434	1433	1434	1434	1435	1436	1436	1436	1437	1437	1436	1436	1436	1435	1434	1433	1432	1431	1429	1429	1428	1426	1426	1426	1426	1426	1426	1426	1426	1428	1429	1431	1432	1433	1433	1434	1434	1434	1434	1434	1434	1436	1438	1440	1442	1444	1447	1449	1452	1453	1453	1453	1453	1454	1454	1454	1454	1453	1453	1453	1452	1452	1450	1447	1446	1440	1437	1433	1429	1426	1423	1420	1419	1416	1415	1415	1415	1415	1416	1418	1419	1422	1424	1426	1429	1432	1434	1437	1439	1440	1441	1442	1443	1444	1444	1443	1443	1443	1442	1442	1442	1442	1442	1442	1444	1444	1445	1445	1445	1445	1445	1445	1444	1443	1441	1440	1439	1438	1435	1433	1432	1431	1429	1428	1428	1427	1428	1427	1427	1426	1427	1426	1426	1425	1424	1423	1423	1423	1422	1422	1423	1424	1426	1428	1431	1433	1436	1439	1442	1444	1445	1446	1447	1447	1448	1448	1447	1447	1445	1444	1443	1440	1437	1435	1432	1429	1424	1423	1422	1421	1421	1422	1424	1425	1426	1426	1426	1428	1428	1429	1431	1432	1434	1434	1435	1436	1436	1437	1438	1438	1438	1438	1438	1438	1438	1437	1437	1437	1436	1435	1435	1434	1434	1434	1434	1434	1434	1434	1435	1437	1439	1441	1443	1445	1447	1449	1452	1453	1454	1454	1455	1455	1455	1454	1454	1453	1452	1449	1448	1446	1445	1444	1442	1441	1439	1437	1436	1434	1434	1433	1431	1431	1431	1432	1432	1433	1434	1435	1436	1436	1437	1437	1437	1438	1438	1438	1439	1440	1441	1442	1444	1444	1447	1447	1447	1446	1446	1444	1443	1441	1439	1437	1436	1435	1434	1434	1433	1433	1433	1434	1434	1434	1433	1434	1434	1433	1434	1434	1433	1434	1433	1434	1434	1434	0	0	0	0	0	0	1104	1102	1098	1096	1095	1093	1093	1091	1090	1088	1087	1085	1083	1081	1079	1075	1073	1071	1069	1068	1067	1065	1064	1063	1062	1060	1060	1059	1059	1058	1058	1056	1056	1055	1055	1053	1052	1051	1050	1049	1048	1048	1048	1049	1049	1050	1050	1051	1051	1051	1052	1051	1053	1053	1052	1051	1051	1051	1050	1049	1049	1047	1045	1043	1041	1040	1039	1038	1037	1037	1038	1038	1039	1039	1038	1038	1037	1036	1035	1032	1030	1027	1026	1024	1023	1021	1020	1019	1018	1018	1018	1017	1017	1016	1015	1014	1012	1009	1007	1004	1000	995	993	992	991	991	993	994	995	997	998	999	0	1002	1003	1003	1003	1003	1003	1003	1002	1002	1001	1000	1000	1000	999	999	998	998	998	998	998	997	997	997	997	997	996	996	996	995	994	994	993	992	991	990	988	985	984	983	982	981	980	979	978	978	977	977	976	975	975	974	973	972	970	966	964	962	959	956	954	950	943	940	936	935	935	933	933	931	0	0	0	0	0	0	0	0	0	0	0
1372	1369	1365	1363	1360	1355	1350	1348	1344	1341	1337	1334	1333	1333	1332	1332	1333	1333	1334	1336	1338	1341	1345	1349	0	1354	1360	1364	1369	1373	1375	1377	1378	1380	1381	1382	1383	1385	1388	1389	1390	1393	1395	1397	1399	1400	1401	1402	1403	1402	1402	1402	1402	1402	1404	1405	1407	1409	1412	1414	1416	1419	1421	1425	1427	1429	1431	1433	1434	1435	1435	1436	1436	1436	1436	1436	1436	1436	1436	1436	1436	1436	1435	1435	1433	1431	1429	1428	1427	1426	1426	1425	1425	1425	1425	1426	1426	1426	1426	1427	1427	1427	1427	1426	1427	1426	1427	1427	1428	1429	1431	1432	1433	1434	1436	1437	1437	1437	1437	1438	1438	1437	1435	1434	1433	1432	1431	1428	1426	1425	1424	1424	1424	1424	1424	1425	1426	1426	1427	1428	1429	1429	1431	1429	1428	1426	1425	1421	1419	1417	1417	1415	1415	1415	1415	1416	1416	1418	1419	1420	1421	1423	1424	1424	1424	1422	1419	1416	1413	1410	1407	1404	1402	1401	1401	1403	1404	1407	1410	1414	1420	1424	1426	1428	1428	1427	1426	1425	1423	1420	1418	1415	1412	1412	1411	1411	1412	1415	1418	0	1420	1423	1427	1431	1435	1437	1439	1439	1438	1438	1436	1435	1432	1431	1432	1431	1432	1431	1432	1433	1433	1433	1433	1434	1432	1432	1431	1431	1429	1427	1426	1425	1425	1424	1423	1422	1422	1422	1422	1423	1422	1422	1423	1424	1425	1427	1428	1429	1429	1431	1429	1429	1429	1429	1431	1432	1434	1436	1438	1440	1443	1445	1448	1449	1449	1449	1450	1452	1453	1452	1452	1452	1452	1452	1452	1450	1449	1447	1445	1439	1436	1433	1429	1426	1422	1419	1417	1416	1415	1414	1413	1413	1414	1416	1418	1421	1423	1426	1429	1432	1434	1436	1438	1440	1440	1441	1442	1442	1441	1440	1440	1439	1438	1438	1438	1438	1438	1439	1440	1441	1441	1442	1443	1443	1442	1443	1442	1441	1440	1440	1439	1438	1436	1434	1433	1432	1433	1432	1432	1431	1432	1432	1431	1431	1431	1431	1429	1428	1427	1426	1426	1426	1425	1426	1426	1427	1429	1432	1434	1436	1438	1441	1444	1445	1446	1446	1448	1449	1449	1449	1448	1447	1446	1445	1443	1440	1438	1435	1433	1429	1427	1423	1421	1420	1420	1420	1420	1422	1421	1421	1422	1422	1424	1425	1427	1428	1431	1432	1433	1434	1434	1435	1435	1436	1435	1435	1436	1436	1435	1435	1435	1434	1433	1432	1432	1432	1431	1432	1431	1431	1431	1432	1433	1434	1436	1439	1441	1443	1445	1448	1450	1452	1453	1454	1454	1454	1454	1453	1453	1452	1449	1448	1446	1445	1442	1441	1440	1438	1437	1435	1434	1433	1429	1428	1428	1428	1429	1431	1431	1432	1433	1434	1434	1435	1435	1435	1435	1436	1436	1436	1437	1438	1440	1440	1442	1443	1444	1445	1445	1445	1444	1443	1441	1440	1438	1437	1435	1434	1433	1433	1432	1433	1431	1433	1432	1432	1433	1434	1434	1433	1434	1433	1433	1433	1433	1433	0	0	0	0	0	1114	1110	1107	1104	1102	1098	1096	1095	1093	1093	1092	1091	1089	1088	1086	1084	1082	1080	1078	1074	1073	1071	1069	1067	1066	1065	1064	1063	1062	1061	1060	1060	1060	1060	1059	1059	1059	1059	1057	1057	1056	1054	1053	1053	1052	1052	1052	1051	1052	1052	1053	1053	1053	1053	1053	1053	1053	1053	1051	1053	1052	1051	1050	1050	1049	1047	1046	1044	1043	1041	1040	1040	1039	1039	1040	1040	1040	1040	1040	1039	1039	1037	1035	1033	1032	1030	1028	1027	1025	1025	1024	1023	1023	1022	1021	1021	1019	1018	1017	1015	1013	1011	1008	1004	1002	999	998	997	996	0	999	1001	1003	1005	1007	1009	1010	1012	1012	1011	1012	1010	1011	1011	1009	1008	1007	1004	1003	1002	1001	1000	999	999	999	999	998	998	998	998	998	998	997	997	997	996	996	995	993	992	991	989	985	984	983	982	980	979	978	977	977	976	976	975	974	974	973	973	971	970	966	965	962	959	957	953	951	944	941	937	935	934	933	933	931	0	0	0	0	0	0	0	0	0	0	0
1382	1379	1374	1371	1367	1363	1359	1354	1349	1346	1342	1337	1334	1333	1331	1331	1331	1330	1331	1331	1333	1335	1337	1340	1345	1351	0	1354	1360	1363	1365	1366	1368	1369	1370	1371	1373	1374	1376	1378	1380	1382	1383	1386	1388	1390	1392	1394	1396	1396	1397	1398	1398	1399	1400	1402	1404	1406	1408	1411	1414	1416	1419	1422	1425	1426	1428	1432	1432	1433	1434	1434	1434	1434	1434	1434	1434	1434	1434	1434	1434	1434	1434	1433	1432	1429	1428	1427	1426	1426	1426	1425	1426	1426	1426	1427	1427	1427	1427	1428	1427	1426	1426	1425	1426	1425	1425	1424	1425	1426	1427	1428	1431	1432	1434	1435	1435	1435	1436	1436	1436	1436	1434	1433	1431	1429	1428	1427	1426	1424	1424	1424	1424	1424	1425	1425	1426	1427	1428	1429	1431	1431	1432	1431	1429	1428	1427	1425	1421	1419	1418	1417	1416	1415	1415	1416	1418	1418	1420	1421	1423	1424	1426	1427	1427	1425	1422	1419	1416	1412	1409	1407	1405	1405	1405	1406	1406	1409	1412	1415	1420	1423	1425	1426	1427	1427	1426	1425	1423	1421	1418	1416	1414	1413	1412	1412	1414	1415	1417	1419	0	1422	1425	1428	1432	1435	1436	1436	1436	1435	1433	1431	1428	1428	1427	1427	1427	1428	1428	1429	1429	1429	1429	1428	1428	1427	1427	1426	1425	1423	1422	1421	1421	1420	1420	1419	1418	1418	1419	1420	1420	1420	1420	1422	1423	1424	1425	1425	1425	1425	1426	1425	1425	1425	1425	1426	1428	1429	1432	1434	1437	1440	1442	1444	1445	1446	1447	1449	1449	1449	1449	1449	1449	1449	1449	1448	1447	1446	1443	1438	1436	1432	1428	1425	1422	1419	1418	1415	1413	1413	1413	1413	1415	1416	1418	1420	1424	1426	1428	1432	1434	1436	1437	1439	1439	1440	1440	1439	1439	1437	1436	1436	1435	1435	1434	1434	1434	1435	1436	1437	1438	1439	1440	1440	1440	1441	1440	1440	1440	1439	1438	1438	1437	1435	1433	1433	1433	1433	1433	1433	1433	1434	1433	1433	1434	1434	1433	1432	1431	1431	1429	1431	1429	1429	1431	1432	1433	1435	1437	1438	1441	1443	1445	1446	1447	1448	1449	1449	1450	1450	1449	1448	1448	1446	1444	1442	1438	1436	1433	1429	1427	1423	1420	1419	1418	1418	1418	1418	1418	1417	1418	1419	1421	1422	1424	1426	1427	1429	1431	1432	1432	1433	1433	1434	1434	1434	1434	1434	1434	1433	1433	1432	1431	1429	1428	1427	1427	1427	1427	1427	1427	1428	1429	1432	1434	1436	1439	1441	1444	1446	1449	1450	1452	1453	1454	1454	1453	1453	1450	1449	1448	1446	1444	1442	1441	1439	1438	1436	1433	1432	1429	1429	1428	1427	1427	1427	1429	1429	1431	1431	1432	1432	1433	1433	1433	1434	1434	1434	1435	1435	1435	1437	1437	1439	1440	1441	1442	1443	1444	1443	1443	1441	1440	1439	1437	1436	1434	1433	1432	1432	1431	1431	1431	1432	1432	1432	1433	1433	1433	1432	1433	1433	1434	1434	0	0	0	0	0	1121	1117	1114	1110	1107	1104	1102	1098	1096	1096	1094	1093	1092	1091	1090	1088	1087	1085	1083	1081	1079	1075	1073	1071	1070	1068	1067	1067	1066	1064	1064	1063	1062	1063	1062	1063	1062	1063	1062	1062	1062	1061	1060	1060	1059	1058	1057	1055	1055	1054	1054	1054	1054	1054	1054	1054	1054	1054	1054	1053	1053	1053	1052	1051	1051	1051	1050	1049	1047	1046	1045	1044	1043	1042	1041	1040	1040	1040	1040	1040	1040	1040	1040	1038	1037	1035	1033	1032	1031	1029	1028	1027	1027	1026	1025	1025	1025	1025	1024	1022	1019	1017	1016	1013	1011	1007	1005	1004	1004	0	1004	1006	1008	1010	1013	1015	1016	0	0	1019	0	0	1019	1018	1017	1017	1016	1015	1013	1011	1009	1008	1004	1003	1002	1001	1000	1000	999	999	999	999	999	999	999	998	998	998	997	996	995	994	992	990	986	984	983	981	980	978	977	977	976	975	975	974	974	973	972	972	971	969	968	965	963	960	958	955	953	950	943	939	938	936	935	935	934	0	0	0	0	0	0	0	0	0	0	0
1387	1385	1384	1382	1376	1372	1367	1362	1357	1352	1348	1344	1337	1335	1332	1331	1329	1329	1329	1329	1329	1331	1332	1335	1337	1340	1344	1348	1352	1354	1356	1357	1358	0	1360	1361	1362	1363	1365	1367	1369	1371	1373	1375	1378	1382	1383	1386	1389	1391	1392	1394	1395	1397	1397	1400	1402	1404	1407	1409	1412	1414	1417	1420	1422	1424	1426	1428	1431	1431	1432	1433	1432	1432	1432	1432	1433	1433	1433	1433	1433	1432	1431	1431	1429	1428	1427	1426	1426	1426	1426	1426	1427	1427	1427	1428	1428	1428	1428	1429	1427	1426	1425	1424	1424	1423	1422	1422	1422	1423	1424	1425	1426	1428	1429	1432	1433	1434	1435	1435	1436	1435	1433	1432	1429	1428	1428	1426	1425	1423	1424	1424	1424	1424	1425	1426	1427	1428	1429	1431	1432	1432	1433	1432	1431	1429	1428	1427	1425	1421	1419	1418	1417	1417	1417	1418	1418	1419	1421	1423	1425	1426	1428	1428	1428	1427	1424	1421	1418	1414	1412	1409	1407	1407	1407	1407	1408	1410	1413	1416	1420	1422	1424	1426	1426	1426	1426	1425	1423	1421	1418	1416	1415	1413	1413	1413	1414	1416	1416	1418	1420	0	1423	1425	1428	1431	1433	1433	1432	1431	1428	1426	1425	1425	1424	1424	1425	1426	1425	1426	1426	1426	1426	1425	1424	1424	1423	1423	1421	1420	1419	1418	1417	1417	1416	1415	1415	1415	1416	1416	1417	1417	1417	1419	1420	1421	1421	1422	1422	1421	1421	1421	1420	1420	1420	1422	1423	1424	1426	1428	1432	1435	1438	1440	1440	1442	1444	1445	1446	1446	1446	1446	1446	1446	1446	1445	1445	1443	1440	1437	1434	1432	1428	1425	1422	1420	1418	1416	1415	1415	1414	1415	1415	1418	1420	1422	1424	1426	1428	1431	1433	1435	1436	1437	1438	1438	1437	1437	1436	1434	1433	1432	1431	1431	1429	1429	1429	1431	1433	1434	1435	1436	1437	1438	1438	1438	1439	1438	1438	1438	1437	1437	1434	1434	1432	1432	1432	1433	1433	1433	1434	1434	1434	1435	1435	1435	1435	1435	1434	1433	1433	1433	1433	1433	1434	1434	1436	1438	1439	1441	1442	1444	1446	1447	1448	1449	1449	1452	1452	1450	1450	1449	1448	1446	1445	1443	1440	1437	1435	1432	1429	1424	1421	1419	1418	1417	1417	1417	1417	1416	1416	1418	1419	1421	1422	1424	1425	1427	1429	1431	1431	1432	1432	1433	1434	1434	1433	1433	1433	1433	1432	1431	1428	1427	1426	1425	1425	1425	1425	1425	1425	1426	1427	1429	1432	1434	1437	1440	1443	1445	1447	1450	1452	1452	1453	1452	1452	1450	1448	1447	1446	1444	1442	1438	1436	1435	1434	1433	1432	1431	1431	1428	1428	1427	1427	1427	1428	1429	1429	1431	1431	1431	1432	1432	1432	1432	1432	1432	1432	1433	1434	1435	1436	1438	1439	1439	1441	1442	1442	1442	1442	1441	1439	1438	1436	1435	1434	1433	1433	1432	1431	1431	1432	1432	1432	1433	1433	1433	1433	1433	1434	0	0	0	0	0	0	0	1124	1121	1118	1115	1112	1108	1106	1102	1099	1096	1096	1094	1093	1093	1091	1090	1089	1087	1085	1084	1082	1080	1078	1074	1072	1071	1070	1068	1067	1066	1066	1065	1065	1064	1065	1065	1066	1065	1066	1066	1066	1066	1065	1065	1064	1063	1062	1061	1060	1059	1058	1056	1056	1056	1055	1055	1055	1055	1054	1054	1054	1053	1053	1053	1052	1051	1051	1050	1049	1048	1047	1046	1045	1045	1044	1043	1043	1043	1042	1042	1041	1041	1040	1040	1039	1038	1036	1035	1034	1033	1032	1032	1030	1030	1029	1028	1028	1028	1027	1026	1025	1024	1020	1018	1015	1013	1010	1009	1008	0	1011	1011	1014	1017	1019	1020	0	1024	1025	1026	1026	1026	1025	1025	1024	1023	1023	1021	1019	1017	1016	1014	1012	1011	1008	1007	1004	1003	1002	1001	1001	1000	1000	1000	1000	999	999	999	999	998	997	996	994	993	991	986	984	982	981	979	978	976	975	975	974	974	973	972	972	971	971	970	969	968	965	964	962	960	957	0	0	949	944	942	941	940	939	938	0	0	0	0	0	0	0	0	0	0	0
1392	1391	1390	1388	1386	1380	1375	1370	1365	1360	1355	1349	1346	1338	1335	1333	1330	1329	1329	1328	1328	1328	1328	1329	1331	1334	1336	1339	1341	1344	1345	1347	1348	1348	1350	1351	1352	1355	1357	1359	1361	1362	1365	1368	0	1373	1377	1381	1383	1386	1388	1390	1392	1394	1396	1398	1400	1403	1405	1407	1410	1412	1414	1418	1420	1422	1424	1426	1427	1429	1429	1432	1431	1431	1429	1431	1429	1429	1429	1429	1429	1429	1429	1428	1428	1427	1426	1426	1426	1426	1427	1427	1428	1428	1429	1429	1429	1429	1428	1429	1426	1425	1424	1423	1423	1421	1421	1420	1420	1421	1421	1421	1423	1424	1425	1428	1429	1431	1432	1433	1434	1433	1432	1429	1428	1428	1427	1426	1425	1424	1423	1424	1424	1424	1425	1426	1427	1428	1429	1431	1432	1433	1433	1433	1432	1432	1429	1428	1426	1422	1421	1419	1418	1418	1418	1418	1419	1420	1422	1424	1425	1426	1428	1429	1429	1428	1426	1423	1419	1417	1414	1411	1410	1409	1410	1410	1411	1413	1414	1417	1420	1422	1424	1426	1426	1426	1426	1425	1423	1420	1419	1417	1416	1415	1414	1414	1415	1416	1416	1418	0	1420	1422	1423	1425	1427	1428	1428	1427	1426	1424	1424	1423	1422	1421	1422	1421	1422	1423	1423	1423	1423	1423	1422	1421	1421	1420	1419	1418	1417	1416	1415	1414	1414	1414	1413	1413	1413	1414	1414	1415	1415	1416	1417	1417	1417	1418	1418	1419	1418	1418	1418	1417	1416	0	1418	1419	1420	1421	1423	1425	1429	1433	1435	1436	1438	1440	1441	1443	1443	1443	1444	1443	1443	1443	1443	1442	1439	1438	1436	1434	1432	1427	1425	1422	1420	1418	1417	1416	1415	1416	1416	1417	1419	1421	1423	1425	1427	1428	1431	1432	1433	1435	1435	1436	1435	1435	1434	1433	1431	1428	1428	1427	1426	1425	1425	1426	1427	1428	1429	1431	1432	1433	1434	1434	1435	1435	1435	1435	1435	1433	1433	1432	1431	1429	1429	1429	1431	1432	1432	1433	1434	1435	1435	1436	1436	1436	1436	1436	1436	1435	1435	1436	1435	1436	1437	1438	1439	1440	1442	1443	1444	1446	1447	1448	1449	1450	1450	1452	1450	1450	1450	1449	1448	1446	1444	1442	1439	1437	1435	1432	1428	1423	1421	1419	1418	1417	1417	1416	1416	1416	1417	1419	1420	1421	1423	1424	1426	1428	1429	1429	1431	1432	1433	1433	1434	1434	1433	1433	1433	1432	1431	1428	1427	1426	1424	1425	1424	1424	1424	1424	1425	1426	1428	1431	1433	1436	1439	1441	1444	1446	1448	1449	1449	1450	1450	1448	1448	1444	1443	1441	1439	1438	1436	1435	1434	1433	1432	1432	1431	1431	1431	1429	1429	1428	1428	1429	1429	1429	1429	1431	1431	1429	1429	1429	1429	1429	1429	1431	1431	1432	1434	1436	1436	1438	1440	1440	1441	1441	1441	1441	1441	1438	1437	1436	1434	1434	1433	1432	1431	1431	1431	1431	1431	1432	1432	1432	1433	1433	0	0	0	0	0	1135	1134	1133	1130	1125	1123	1119	1115	1112	1109	1107	1104	1099	1098	1096	1095	1094	1093	1092	1091	1090	1088	1086	1084	1082	1080	1078	1074	1072	1071	1070	1069	1068	1068	1067	1067	1067	1067	1068	1068	1068	1068	1070	1070	1070	1070	1068	1068	1068	1067	1066	1064	1063	1061	1060	1059	1058	1058	1056	1056	1055	1055	1054	1054	1054	1053	1053	1053	1052	1051	1051	1051	1050	1049	1048	1047	1047	1046	1046	1045	1045	1044	1044	1044	1044	1043	1043	1041	1040	1038	1037	1036	1035	1034	1034	1033	1033	1032	1032	1031	1031	1030	1029	1028	1027	1026	1025	1023	1019	1018	1017	1016	1016	1018	1019	1019	1022	0	1025	0	1027	1028	1030	1031	1032	1032	1032	1031	1028	1027	1027	1025	1024	1021	1020	1018	1017	1015	1013	1011	1009	1007	1005	1003	1003	1002	1001	1001	1000	1000	1000	999	999	998	997	996	994	993	991	989	985	982	980	979	977	976	974	973	973	973	972	971	971	971	971	970	969	968	967	966	964	963	960	959	0	0	0	0	0	945	944	943	0	0	0	0	0	0	0	0	0	0	0
1397	1396	1396	1394	1392	1389	1386	1378	1372	1367	1362	1358	1353	1348	1340	1338	1334	1332	1330	1328	1328	1327	1325	1326	1328	1329	1329	1332	1335	1337	1338	1339	1340	1342	1342	1344	1347	1348	1349	1351	1353	1356	1359	1362	1367	1370	0	1375	1380	1382	1385	1387	1390	1392	1394	1397	1399	1402	1404	1407	1409	1411	1414	1416	1418	1420	1422	1424	1426	1427	1428	1429	1429	1429	1428	1428	1428	1428	1428	1428	1427	1427	1427	1427	1427	1426	1425	1425	1426	1426	1428	1428	1429	1429	1431	1431	1431	1431	1429	1428	1425	1425	1423	1423	1422	1420	1420	1418	1419	1419	1419	1419	1420	1421	1422	1423	1425	1425	1427	1428	1429	1428	1428	1427	1427	1427	1426	1425	1424	1423	1424	1424	1425	1426	1426	1427	1429	1431	1431	1433	1434	1435	1435	1434	1434	1433	1431	1429	1428	1423	1422	1420	1419	1419	1419	1419	1420	1421	1422	1424	1426	1427	1429	1429	1429	1428	1427	1425	1422	1420	1417	1415	1413	1412	1411	1411	1412	1413	1415	1417	1420	1422	1423	1424	1426	1426	1425	1424	1422	1420	1419	1418	1417	1416	1416	1416	1415	0	1417	1418	1419	1420	1421	1422	0	1424	1424	1424	1424	1423	1422	1421	1421	1420	1420	1420	1420	1420	1420	1421	1421	1421	1420	1420	1419	1419	1418	1417	1416	1415	1414	1414	1413	1412	1412	1412	1412	1412	1413	1413	1414	1414	1414	1415	1415	1416	1416	1416	1416	1415	1415	1415	1413	1413	1414	1416	1416	1418	1420	1422	0	1424	1427	1429	1432	1433	1436	1437	1438	1439	1439	1440	1440	1440	1440	1440	1439	1436	1434	1432	1429	1427	1426	1424	1422	1420	1418	1418	1417	1417	1417	1418	1418	1420	1422	1423	1425	1426	1428	1429	1432	1432	1433	1433	1433	1433	1432	1431	1429	1427	1425	1425	1424	1423	1423	1423	1422	1423	1424	1425	1426	1427	1428	1429	1429	1432	1432	1432	1431	1431	1431	1431	1428	1428	1428	1428	1428	1429	1429	1431	1432	1433	1434	1435	1436	1436	1437	1437	1437	1437	1437	1437	1437	1437	1437	1438	1439	1440	1441	1442	1443	1444	1445	1446	1447	1448	1449	1449	1450	1450	1450	1450	1449	1449	1447	1445	1443	1441	1439	1436	1434	1432	1424	1422	1421	1420	1418	1417	1417	1416	1417	1418	1418	1420	1421	1422	1424	1425	1426	1427	1427	1428	1431	1432	1433	1434	1434	1434	1434	1434	1432	1431	1428	1427	1426	1424	1424	1423	1423	1423	1423	1424	1425	1427	1429	1432	1434	1437	1440	1442	1444	1446	1447	1445	1445	1444	1443	1442	1441	1440	1438	1437	1435	1434	1434	1433	1433	1433	1432	1433	1432	1432	1432	1432	1432	1429	1431	1431	1431	1431	1429	1429	1429	1428	1428	1428	1427	1428	1429	1431	1431	1433	1435	1436	1438	1439	1440	1440	1441	1441	1441	1441	1438	1437	1436	1435	1434	1432	1432	1432	1429	1431	1431	1431	1431	0	0	0	0	0	1137	1137	1135	1135	1135	1133	1133	1131	1126	1123	1121	1117	1114	1110	1108	1105	1102	1099	1097	1096	1094	1093	1092	1091	1090	1089	1087	1085	1083	1081	1078	1074	1073	1071	1071	1070	1070	1069	1068	1069	1069	1070	1070	1071	1072	1072	1073	1073	1073	1073	1073	1071	1071	1070	1069	1067	1066	1064	1063	1062	1060	1059	1058	1056	1055	1055	1054	1054	1053	1053	1053	1053	1052	1052	1051	1051	1050	1050	1049	1049	1049	1048	1048	1048	1047	1046	1047	1046	1046	1046	1044	1044	1041	1040	1039	1038	1037	1036	1035	1035	1034	1034	1033	1033	1033	1032	1032	1031	1029	1028	1027	1026	1025	1024	1023	1023	1023	0	0	1026	1027	1029	1032	1032	1034	1034	1035	1036	1036	1036	1036	1035	1034	1033	1032	1031	1027	1026	1024	1023	1021	1019	1017	1015	1013	1012	1010	1006	1005	1004	1004	1003	1002	1002	1001	1000	1000	999	998	997	995	993	991	989	985	983	980	979	977	976	974	973	973	972	971	971	971	971	971	970	969	969	969	968	967	967	965	964	962	0	0	0	955	954	0	0	952	0	0	0	0	0	0	0	0	0	0
1401	1401	1400	1399	1398	1395	1392	1389	1382	1375	1371	1365	1361	1356	1352	1347	1340	1337	1334	1331	1329	1328	1326	1326	1326	1326	1327	1329	1330	1332	1333	1334	1335	1337	1338	1339	1341	1343	1344	1347	1348	1351	1354	1357	1362	1366	1370	0	1375	1379	1382	1385	1388	1391	1393	1396	1398	1401	1404	1406	1409	1410	1413	1415	1417	1419	1421	1423	1424	1426	1427	1428	1428	1428	1428	1427	1427	1427	1426	1426	1426	1426	1426	1426	1426	1426	1426	1426	1427	1428	1429	1429	1431	1431	1432	1432	1431	1429	1428	1427	1424	1424	1423	1422	1421	1419	1419	1418	1418	1418	1418	1418	1418	1418	1419	1420	1420	1420	1422	1422	1423	1424	1424	1425	1424	1425	1425	1425	1424	1424	1424	1425	1426	1427	1427	1429	1432	1432	1434	1434	1435	1436	1436	1435	1435	1433	1433	1431	1428	1426	1422	1421	1420	1420	1420	1420	1420	1421	1423	1424	1426	1427	1428	1429	1429	1429	1427	1425	1423	1420	1418	1415	1413	1413	1412	1411	1412	1413	1415	1416	1419	1421	1421	1423	1424	1424	1424	1423	1422	1420	1419	1419	1418	1417	1417	1416	1416	1416	1417	1417	1417	1418	1418	1419	1419	1419	1419	1419	1419	1419	1419	1419	1419	1419	1419	1419	1419	1419	1419	1420	1420	1419	1420	1419	1418	1418	1417	1416	1415	1414	1413	1412	1412	1411	1411	1412	1412	1412	1412	1413	1413	1413	1413	1413	1414	1413	1414	1414	1414	1414	1413	1412	1412	1412	1413	1413	1414	1416	1417	1419	1421	0	1424	1426	1426	1428	1429	1433	1434	1435	1436	1437	1437	1437	1437	1436	1435	1433	1431	1429	1427	1425	1424	1422	1421	1419	1418	1418	1418	1417	1417	1419	1419	1421	1422	1423	1425	1426	1427	1428	1429	1431	1431	1431	1431	1429	1429	1428	1426	1424	1422	1422	1421	1420	1420	1419	1419	1420	1422	1422	1423	1423	1425	1426	1427	1428	1428	1429	1428	1427	1428	1428	1427	1426	1425	1426	1426	1427	1429	1429	1431	1432	1433	1435	1436	1436	1437	1437	1438	1438	1438	1437	1438	1438	1437	1438	1438	1439	1440	1440	1441	1442	1443	1444	1445	1447	1447	1448	1449	1450	1449	1449	1449	1449	1447	1446	1444	1442	1441	1439	1436	1433	1431	1424	1421	1420	1418	1418	1418	1418	1417	1418	1418	1419	1420	1421	1422	1423	1425	1425	1426	1428	1429	1432	1432	1433	1433	1434	1434	1435	1433	1431	1429	1427	1426	1425	1425	1423	1422	1422	1422	1423	1424	1426	1427	1431	1433	1435	1435	1438	1439	1441	1441	1441	1441	1440	1440	1439	1437	1436	1435	1434	1433	1433	1432	1432	1432	1432	1432	1432	1433	1433	1433	1433	1434	1433	1432	1433	1432	1431	1431	1429	1428	1427	1427	1427	1426	1427	1428	1429	1431	1432	1434	1436	1437	1439	1440	1440	1441	1441	1441	1440	1439	1437	1436	1435	1434	1434	1432	1431	1431	1429	1429	0	0	0	0	0	1137	1137	1137	1135	1135	1135	1135	1134	1133	1131	1127	1124	1122	1118	1116	1112	1109	1106	1104	1099	1098	1096	1095	1094	1093	1092	1091	1089	1087	1085	1083	1081	1078	1074	1073	1072	1071	1071	1070	1070	1070	1071	1071	1072	1073	1074	1074	1075	1075	1076	1076	1075	1075	1074	1074	1073	1071	1070	1068	1067	1066	1064	1063	1062	1060	1057	1056	1055	1055	1054	1054	1053	1053	1053	1053	1052	1051	1051	1051	1050	1050	1050	1050	1051	1050	1050	1050	1050	1049	1049	1049	1049	1048	1047	1046	1045	1041	1040	1039	1038	1038	1036	1036	1036	1036	1036	1035	1035	1035	1034	1033	1032	1031	1031	1029	1029	1029	1029	1030	0	1032	1033	1034	1036	1037	1038	1039	1040	1041	1041	1041	1041	1040	1039	1038	1037	1035	1035	1033	1029	1028	1026	1025	1023	1020	1019	1017	1015	1013	1012	1010	1008	1006	1005	1005	1004	1003	1002	1001	1001	1000	999	997	995	993	991	989	984	982	980	978	976	975	973	973	972	971	971	971	971	970	970	970	970	971	971	971	971	970	969	968	967	966	964	963	961	961	961	960	0	0	0	0	0	0	0	0	0	0
1405	1404	1404	1403	1402	1400	1398	1395	1392	1383	1379	1374	1369	1364	1360	1355	1350	1343	1339	1335	1333	1330	1329	1328	1327	1327	1327	1328	1329	1330	1331	1332	1333	1334	1335	1337	1338	1340	1342	1344	1346	1348	1351	1354	1358	1362	1367	1372	0	1376	1380	1384	1386	1389	1393	1396	1398	1401	1404	1406	1408	1410	1413	1415	1416	1418	1420	1422	1423	1425	1426	1427	1427	1427	1427	1426	1426	1426	1425	1426	1425	1425	1425	1426	1426	1426	1426	1427	1428	1428	1431	1431	1432	1432	1432	1432	1431	1429	1427	1425	1423	1423	1422	1421	1419	1419	1418	1417	1418	1417	1418	1416	1416	1416	1417	1417	1416	1416	1417	1417	1419	1420	1420	1421	1422	1422	1423	1423	1423	1423	1423	1425	1425	1427	1427	1429	1432	1432	1433	1434	1434	1435	1435	1435	1435	1433	1432	1429	1428	1426	1423	1421	1420	1420	1420	1420	1421	1422	1424	1425	1427	1427	1428	1429	1429	1428	1427	1426	1424	1421	1418	1416	1414	1413	1412	1412	1412	1413	1414	1416	1417	1419	1420	1421	1423	1423	1423	1422	1421	1420	1419	1419	1418	1417	1417	1416	1416	1416	1416	1416	1416	1416	1416	1416	1416	1416	1416	1417	1417	1417	1418	1417	1418	1418	1418	1417	1418	1418	1418	1419	1419	1418	1418	1418	1417	1417	1416	1415	1415	1414	1413	1412	1411	1411	1411	1411	1411	1411	1411	1412	1412	1412	1412	1413	1413	1413	1413	1414	1413	1413	1413	1413	1412	1412	1412	1412	1414	1415	1415	1417	1419	1422	1424	1424	1426	0	1428	1429	1431	1433	1433	1434	1435	1434	1434	1433	1432	1431	1428	1427	1426	1424	1422	1421	1420	1419	1418	1418	1417	1417	1418	1419	1420	1421	1422	1424	1424	1425	1426	1427	1428	1428	1428	1428	1428	1427	1426	1425	1424	1422	1420	1419	1418	1417	1417	1416	1417	1417	1418	1418	1419	1420	1420	1421	1423	1424	1425	1424	1424	1425	1425	1425	1424	1424	1423	1424	1425	1426	1426	1427	1429	1431	1432	1433	1434	1435	1436	1437	1438	1438	1437	1437	1436	1437	1436	1437	1436	1437	1438	1438	1439	1440	1441	1442	1442	1444	1445	1447	1448	1448	1449	1449	1449	1449	1448	1447	1445	1443	1442	1440	1437	1434	1431	1424	1422	1420	1419	1418	1418	1417	1417	1417	1418	1420	1420	1420	1421	1422	1423	1424	1425	1426	1428	1429	1431	1433	1433	1434	1434	1434	1433	1431	1428	1427	1425	1425	1424	1422	1422	1422	1422	1423	1423	1425	1425	1427	1428	1431	1433	1435	1436	1437	1438	1438	1438	1437	1436	1435	1434	1433	1432	1431	1432	1431	1431	1431	1432	1432	1433	1433	1434	1434	1435	1435	1434	1434	1434	1434	1434	1433	1432	1429	1428	1428	1427	1426	1426	1426	1427	1428	1431	1432	1434	1436	1438	1439	1440	1441	1442	1442	1441	1441	1439	1438	1436	1435	1434	1433	1432	1431	1431	1428	0	0	0	0	0	1136	1135	1135	1135	1135	1135	1135	1134	1134	1133	1131	1130	1126	1124	1121	1117	1114	1110	1108	1105	1102	1099	1097	1096	1094	1093	1093	1091	1090	1088	1085	1084	1081	1079	1077	1073	1072	1072	1071	1071	1072	1073	1073	1074	1074	1075	1076	1077	1077	1078	1078	1078	1078	1077	1076	1075	1074	1073	1071	1070	1068	1067	1066	1064	1063	1060	1058	1056	1055	1055	1054	1054	1053	1053	1053	1052	1052	1052	1052	1051	1051	1051	1051	1052	1053	1053	1053	1053	1053	1053	1053	1052	1051	1051	1050	1049	1048	1046	1045	1044	1042	1041	1041	1041	1041	1040	1039	1040	1039	1039	1038	1037	1035	1035	1034	0	0	0	0	0	0	1037	1039	1040	1041	1042	1042	1043	1043	1043	1043	1043	1043	1041	1040	1040	1039	1038	1036	1035	1034	1033	1029	1027	1026	1024	1021	1020	1018	1017	1016	1014	1013	1011	1010	1009	1008	1006	1006	1005	1004	1003	1001	999	997	995	993	991	989	984	982	980	978	977	976	975	974	973	973	972	972	971	971	971	971	972	972	974	974	975	974	975	975	973	974	972	971	969	969	968	0	0	0	0	0	0	0	0	0	0
1408	1408	1407	1407	1406	1404	1402	1400	1397	1393	1390	1382	1378	1373	1368	1363	1359	1354	1349	1341	1338	1335	1332	1330	1329	1329	1329	1329	1329	1329	1330	1331	1331	1333	1334	1336	1338	1339	1341	1343	1344	1348	1349	1351	1355	1360	1363	1368	0	1374	1378	1382	1386	1388	1392	1395	1398	1400	1403	1405	1407	1410	1412	1413	1415	1417	1419	1421	1422	1424	1425	1426	1427	1426	1426	1426	1426	1425	1425	1425	1425	1425	1425	1426	1426	1426	1427	1428	1429	1429	1432	1432	1432	1432	1431	1431	1429	1428	1426	1423	1422	1421	1420	1419	1419	1417	1417	1417	1417	1417	1416	1416	1415	1415	1415	1415	1414	1414	1414	1414	1415	1417	1417	1418	1419	1420	1420	1422	1422	1422	1422	1423	1425	1425	1426	1428	1429	1431	1433	1433	1434	1434	1434	1434	1433	1432	1431	1429	1427	1425	1423	1422	1421	1423	1423	1423	1423	1424	1425	1426	1427	1428	1428	1428	1428	1427	1426	1425	1423	1421	1418	1416	1415	1413	1413	1412	1412	1414	1414	1416	1418	1419	1420	1421	1423	1423	1422	1422	1421	1420	1419	1419	1418	1417	1417	1416	1415	1416	1415	1415	1414	1414	1414	1414	1414	1414	1414	1415	1415	1415	1416	1416	1416	1416	1416	1416	1416	1416	1416	1417	1417	1417	1417	1417	1417	1417	1416	1415	1414	1414	1413	1412	1411	1411	1411	1411	1411	1411	1411	1412	1412	1413	1412	1412	1413	1412	1413	1413	1414	1414	1413	1413	1413	1413	1413	1414	1414	1415	1416	1418	1419	1422	1423	1424	1425	0	1427	1428	1429	1431	1431	1432	1433	1432	1432	1431	1429	1428	1426	1425	1424	1423	1421	1420	1420	1419	1418	1419	1418	1418	1418	1420	1420	1421	1422	1423	1424	1424	1425	1426	1427	1427	1426	1425	1426	1425	1424	1423	1422	1421	1419	1417	1416	1415	1414	1414	1414	1414	1415	1415	1415	1416	1417	1418	1419	1420	1421	1421	1421	1421	1422	1422	1422	1422	1422	1422	1423	1424	1425	1426	1427	1428	1429	1432	1433	1434	1435	1436	1437	1437	1437	1436	1436	1436	1435	1436	1435	1435	1435	1436	1436	1437	1438	1439	1440	1441	1442	1443	1444	1445	1446	1447	1447	1446	1446	1446	1444	1442	1441	1439	1436	1434	1431	1424	1422	1421	1420	1419	1418	1418	1417	1418	1418	1419	1419	1420	1419	1420	1421	1422	1423	1425	1426	1427	1431	1432	1433	1433	1434	1434	1432	1429	1428	1426	1425	1424	1423	1422	1421	1421	1421	1421	1422	1423	1424	1425	1427	1428	1429	1432	1433	1434	1434	1435	1434	1434	1433	1432	1431	1431	1429	1429	1428	1428	1428	1429	1431	1432	1433	1434	1435	1436	1436	1436	1436	1436	1435	1435	1435	1433	1432	1431	1429	1428	1427	1427	1427	1426	1428	1428	1431	1433	1434	1437	1438	1440	1442	1441	1442	1442	1441	1441	1439	1438	1436	1435	1434	1433	1432	1431	1429	0	0	0	0	0	0	1135	1135	1135	1135	1135	1135	1135	1135	1134	1133	1133	1131	1127	1125	1122	1119	1115	1112	1109	1107	1104	1099	1098	1097	1095	1094	1093	1092	1090	1088	1086	1084	1082	1080	1077	1074	1074	1073	1073	1073	1073	1074	1075	1076	1077	1078	1078	1079	1080	1080	1080	1080	1080	1078	1077	1077	1076	1074	1073	1071	1070	1068	1067	1065	1064	1062	1060	1058	1056	1055	1054	1053	1053	1053	1053	1053	1052	1052	1052	1052	1052	1052	1053	1054	1055	1055	1055	1055	1055	1055	1056	1055	1055	1054	1053	1052	1051	1050	1049	1047	1046	1046	1045	1045	1045	1044	1043	1043	1043	1043	1042	1041	1040	1040	1039	1039	1039	1040	1040	1041	1041	1042	1044	1045	1046	1045	1046	1046	1046	1046	1045	1045	1044	1043	1042	1041	1040	1039	1038	1036	1035	1034	1033	1029	1028	1026	1025	1023	1022	1021	1019	1018	1017	1015	1015	1013	1013	1012	1011	1008	1007	1006	1004	1002	1000	998	995	993	991	988	985	984	983	983	982	982	981	980	980	979	979	978	978	978	978	978	978	978	978	978	978	978	978	978	978	978	977	977	977	976	975	0	0	0	0	0	0	0	0	0
1411	1410	1410	1409	1408	1408	1405	1403	1401	1398	1396	1393	1385	1382	1377	1372	1367	1362	1357	1352	1343	1339	1336	1334	1332	1331	1330	1330	1330	1331	1331	1331	1333	1333	1334	1336	1337	1338	1340	1342	1344	1346	1348	1351	1354	1358	1362	1366	1372	0	1376	1381	1383	1387	1390	1394	1397	1399	1402	1404	1406	1408	1411	1413	1414	1416	1418	1420	1421	1423	1424	1425	1425	1425	1425	1425	1425	1424	1424	1424	1424	1424	1425	1425	1426	1427	1428	1429	1429	1431	1432	1432	1432	1432	1429	1428	1427	1426	1423	1422	1420	1420	1419	1418	1417	1417	1416	1416	1416	1416	1415	1415	1414	1413	1413	1412	1412	1412	1412	1412	1414	1415	1415	1416	1417	1418	1419	1419	1420	1420	1420	1421	1423	1423	1424	1426	1427	1429	1431	1431	1432	1432	1432	1429	1429	1428	1427	1427	1426	1425	1425	1423	1424	1424	1425	1425	1425	1426	1426	1427	1427	1428	1428	1427	1427	1427	1425	1425	1423	1421	1420	1417	1416	1415	1414	1414	1414	1414	1415	1416	1417	1419	1419	1421	1422	1422	1422	1421	1420	1420	1419	1419	1418	1418	1416	1416	1415	1414	1413	1413	1412	1412	1412	1412	1411	1412	1412	1413	1413	1414	1414	1414	1415	1415	1414	1414	1414	1414	1415	1415	1416	1416	1416	1417	1417	1416	1415	1415	1414	1414	1413	1413	1412	1412	1412	1412	1412	1412	1412	1412	1412	1412	1412	1412	1412	1413	1413	1414	1414	1415	1415	1416	1416	1415	1416	1416	1417	1417	1418	1419	1421	1422	0	1424	1425	1426	1427	1428	1429	0	1431	1431	1431	1429	1429	1428	1427	1426	1425	1424	1424	1423	1421	1421	1420	1419	1418	1419	1419	1419	1419	1420	1419	1421	1422	1423	1423	1423	1425	1425	1426	1426	1425	1425	1424	1423	1423	1422	1421	1420	1418	1417	1416	1414	1413	1412	1412	1412	1412	1412	1412	1412	1413	1414	1415	1416	1417	1418	1418	1419	1419	1420	1420	1420	1420	1420	1421	1421	1422	1423	1424	1425	1427	1429	1429	1433	1433	1434	1435	1435	1434	1434	1433	1433	1433	1432	1433	1433	1433	1433	1433	1434	1435	1436	1436	1437	1439	1440	1441	1442	1443	1444	1444	1444	1445	1444	1444	1442	1440	1438	1436	1434	1432	1428	1422	1421	1420	1419	1419	1418	1418	1418	1418	1418	1418	1418	1418	1419	1419	1419	1420	1422	1423	1425	1426	1428	1429	1431	1432	1432	1431	1428	1426	1425	1423	1423	1422	1422	1421	1421	1420	1420	1421	1422	1422	1423	1424	1425	1427	1428	1429	1429	1431	1431	1431	1429	1429	1428	1428	1428	1427	1427	1427	1428	1429	1431	1432	1433	1434	1435	1437	1437	1438	1438	1438	1438	1437	1437	1436	1435	1433	1431	1431	1429	1427	1427	1426	1427	1428	1429	1431	1433	1435	1437	1439	1441	1442	1442	1443	1442	1441	1441	1439	1437	1436	1435	1434	1432	1431	1431	1429	0	0	0	0	0	1133	1133	1133	1133	1133	1134	1133	1134	1134	1134	1133	1133	1131	1130	1126	1123	1120	1117	1114	1111	1108	1106	1103	1099	1098	1096	1095	1093	1093	1091	1089	1087	1084	1082	1081	1079	1077	1075	1075	1075	1075	1075	1076	1077	0	1078	1080	1080	1081	1081	1082	1082	1081	1081	1080	1079	1077	1076	1075	1073	1072	1070	1069	1068	1066	1064	1063	1060	1059	1056	1055	1054	1053	1053	1052	1052	1051	1051	1051	1051	1052	1052	1053	1054	1055	1056	1057	1058	1058	1058	1058	1058	1058	1058	1056	1056	1055	1055	1053	1052	1051	1050	1049	1048	1048	1047	1047	1047	1046	1046	1047	1046	1045	1044	1044	1044	1044	1045	1045	1045	1047	1047	1047	1049	1050	1050	1050	1050	1049	1049	1048	1047	1046	1045	1044	1043	1042	1041	1040	1039	1038	1036	1035	1034	1033	1032	1028	1027	1025	1024	1023	1021	1020	1019	1018	1017	1017	1016	1015	1014	1013	1012	1008	1007	1005	1002	999	997	995	993	991	990	990	989	989	990	990	990	989	988	988	987	986	986	986	985	986	985	985	985	984	983	983	984	983	984	984	983	989	989	989	989	0	0	0	0	0	0	0	0	0
1412	1413	1413	1412	1411	1410	1409	1407	1405	1402	1400	1397	1394	1387	1384	1380	1375	1369	1364	1360	1354	1345	1340	1338	1336	1333	1332	1331	1331	1332	1332	1333	1333	1335	1336	1338	1338	1339	1341	1342	1344	1346	1348	1350	1353	1356	1360	1364	1370	1374	0	1379	1382	1386	1390	1394	1396	1398	1401	1403	1405	1407	1410	1412	1413	1416	1418	1419	1421	1422	1423	1424	1425	1425	1424	1424	1424	1424	1424	1424	1424	1424	1425	1425	1426	1427	1428	1429	1429	1431	1431	1432	1431	1429	1428	1427	1425	1424	1422	1420	1418	1418	1417	1417	1416	1416	1415	1416	1415	1415	1415	1413	1413	1412	1412	1412	1411	1410	1410	1411	1412	1413	1413	1414	1415	1416	1418	1417	1418	1419	1419	1420	1421	1421	1423	1424	1425	1427	1425	1426	1426	1426	1426	1427	1426	1426	1426	1425	1425	1424	1424	1423	1424	1425	1425	1426	1426	1426	1427	1427	1426	1427	1427	1426	1426	1425	1424	1424	1423	1421	1420	1419	1417	1416	1415	1414	1414	1414	1415	1416	1417	1418	1419	1420	1420	1421	1421	1420	1420	1419	1418	1418	1417	1416	1415	1413	1412	1412	1411	1410	1409	1410	1409	1409	1409	1410	1410	1411	1411	1412	1413	1413	1413	1413	1413	1413	1413	1413	1413	1414	1415	1415	1416	1416	1416	1416	1416	1415	1415	1414	1414	1413	1412	1413	1413	1412	1412	1412	1412	1412	1412	1412	1412	1412	1412	1413	1413	1414	1415	1415	1416	1418	1418	1419	1419	1420	1420	1420	1421	1421	1423	1423	1425	1426	1426	1427	1428	1428	1429	1429	1429	1428	1428	1428	1427	1427	1426	1425	1424	1423	1422	1422	1421	1421	1421	1419	1419	1419	1419	1418	1419	1419	1419	1420	1421	1422	1423	1423	1423	1425	1425	1424	1424	1423	1423	1422	1422	1421	1420	1419	1418	1417	1415	1414	1413	1411	1411	1411	1410	1410	1409	1409	1410	1411	1412	1413	1414	1415	1415	1416	1417	1418	1418	1418	1418	1419	1419	1420	1420	1421	1422	1423	1425	1427	1428	1431	1432	1432	1433	1433	1433	1432	1429	1429	1429	1429	1429	1429	1429	1429	1429	1432	1432	1433	1433	1434	1435	1436	1437	1438	1439	1441	1441	1442	1442	1443	1443	1442	1440	1440	1438	1436	1433	1429	1427	1424	1423	1421	1421	1420	1419	1419	1419	1418	1418	1417	1416	1417	1416	1417	1417	1419	1419	1421	1422	1424	1425	1426	1427	1425	1424	1424	1424	1423	1422	1423	1423	1421	1420	1420	1420	1419	1420	1420	1420	1420	1421	1422	1424	1425	1425	1426	1426	1426	1426	1426	1426	1426	1426	1426	1426	1426	1427	1427	1428	1429	1432	1433	1435	1437	1437	1439	1439	1440	1440	1440	1439	1438	1437	1436	1435	1433	1431	1429	1428	1427	1428	1428	1429	1431	1432	1434	1436	1438	1440	1441	1443	1443	1443	1442	1442	1441	1440	1437	1436	1435	1434	1432	1432	1431	1429	0	0	0	0	0	1133	1133	1133	1133	1134	1135	1135	1135	1134	1135	1134	1133	1133	1131	1127	1125	1122	1119	1116	1113	1110	1108	1106	1103	1099	1098	1096	1094	1094	1092	1090	1088	1086	1084	1082	1081	1079	1078	1077	1077	1077	1078	1078	1079	1080	1081	1082	1082	1082	1083	1083	1083	1083	1081	1080	1079	1078	1077	1075	1074	1072	1071	1070	1068	1067	1066	1064	1062	1060	1058	1056	1056	1056	1056	1056	1056	1056	1055	1055	1055	1055	1055	1055	1056	1058	1059	1060	1060	1060	1060	1060	1060	1060	1060	1059	1059	1058	1058	1056	1055	1054	1053	1052	1052	1051	1051	1051	1050	1050	1050	1050	1050	1050	1050	1049	1049	1049	1049	1050	1050	1050	1051	1051	1052	1053	1053	1053	1052	1051	1051	1050	1049	1047	1046	1046	1044	1044	1042	1041	1040	1039	1038	1036	1035	1034	1033	1032	1029	1027	1027	1026	1024	1023	1022	1021	1020	1019	1019	1018	1017	1016	1015	1013	1009	1007	1005	1002	1000	999	997	995	995	995	997	997	998	998	998	998	998	997	996	996	995	994	994	993	993	993	993	991	990	990	996	997	997	997	997	996	996	995	995	995	0	0	0	0	0	0	0	0
1414	1414	1415	1415	1413	1413	1411	1410	1408	1406	1404	1401	1399	1395	1392	1385	1382	1377	1372	1367	1362	1357	1352	1344	1340	1338	1336	1335	1334	1334	1334	1335	1336	1336	1338	1338	1339	1340	1342	1343	1344	1346	1348	1349	1352	1355	1359	1363	1368	1373	0	1377	1382	1385	1389	1392	1395	1397	1400	1402	1405	1407	1409	1411	1413	1416	1418	1419	1421	1421	1422	1424	1424	1424	1424	1424	1424	1423	1424	1424	1423	1423	1425	1425	1426	1427	1428	1429	1429	1429	1431	1431	1429	1428	1426	1425	1423	1421	1419	1418	1417	1416	1416	1416	1416	1415	1415	1415	1415	1415	1414	1414	1413	1412	1411	1410	1410	1409	1409	1410	1410	1412	1412	1413	1413	1415	1415	1415	1416	1417	1416	1418	1417	1418	1419	1419	1421	1422	1423	1423	1424	1424	1424	1425	1424	1424	1424	1424	1424	1423	1424	1424	1424	1425	1425	1425	1425	1426	1426	1426	1426	1425	1425	1425	1424	1423	1423	1422	1421	1420	1420	1418	1417	1416	1415	1415	1415	1415	1416	1416	1416	1417	1418	1418	1419	1420	1420	1419	1418	1417	1417	1416	1415	1414	1412	1411	1410	1410	1409	1409	1408	1407	1406	1407	1407	1408	1408	1409	1410	1410	1411	1411	1412	1411	1411	1411	1411	1412	1412	1413	1413	1414	1415	1415	1416	1415	1416	1415	1415	1414	1414	1414	1414	1414	1414	1414	1414	1414	1414	1414	1413	1413	1413	1413	1413	1414	1414	1415	1416	1417	1419	1420	1421	1422	1423	1424	1424	1425	1426	1426	1427	1427	1428	1428	1428	1428	1428	1428	1428	1428	1428	1427	1426	1426	1426	1426	1424	1424	1423	1423	1422	1422	1422	1422	1420	1420	1419	1419	1419	1419	1419	1419	1419	1420	1421	1421	1422	1422	1423	1423	1423	1423	1422	1422	1422	1421	1421	1421	1420	1419	1418	1417	1415	1415	1413	1411	1410	1409	1409	1408	1407	1407	1407	1408	1409	1410	1411	1412	1413	1414	1416	1416	1417	1417	1417	1418	1418	1419	1420	1420	1421	1423	1424	1425	1426	1428	1429	1429	1431	1431	1429	1428	1427	1426	1426	1426	1426	1425	1426	1426	1426	1427	1427	1428	1429	1431	1431	1432	1433	1434	1435	1436	1438	1440	1440	1442	1442	1442	1441	1440	1439	1438	1435	1432	1429	1428	1425	1423	1423	1421	1420	1420	1418	1417	1417	1415	1414	1414	1414	1414	1414	1415	1416	1416	1418	1414	1415	1417	1419	1420	1421	1421	1421	1421	1421	1421	1421	1420	1419	1418	1418	1418	1418	1418	1418	1418	1419	1419	1420	1421	1422	1422	1423	1423	1423	1424	1424	1424	1424	1424	1424	1425	1426	1427	1428	1431	1432	1434	1435	1437	1438	1439	1440	1440	1440	1440	1439	1438	1438	1437	1435	1433	1432	1429	1429	1429	1428	1428	1429	1431	1432	1434	1436	1439	1440	1442	1443	1443	1443	1442	1442	1441	1439	1437	1436	1435	1433	1433	1432	1431	1431	0	0	0	0	0	1135	1134	1135	1135	1134	1135	1135	1135	1136	1135	1135	1134	1133	1132	1130	1126	1124	1121	1119	1115	1113	1110	1108	1106	1104	1099	1098	1096	1096	1093	1091	1090	1088	1086	1085	1083	1081	1081	1080	1080	1080	1080	1081	1081	1082	1082	1084	1084	1084	1084	1084	1084	1083	1081	1080	1080	1078	1077	1076	1074	1073	1071	1070	1069	1067	1066	1064	1063	1061	1060	1060	1059	1059	1060	1060	1061	1063	1063	1061	1061	1060	1060	1059	1060	1061	1062	1063	1062	1063	1062	1063	1062	1062	1061	1060	1060	1060	1060	1059	1058	1058	1056	1056	1055	1055	1055	1055	1055	1055	1054	1055	1055	1054	1054	1053	1053	1053	1053	1053	1053	1053	1054	1054	1054	1054	1054	1054	1054	1054	1053	1051	1050	1049	1049	1047	1046	1045	1045	1044	1043	1041	1040	1039	1038	1036	1035	1034	1033	1029	1029	1028	1027	1026	1025	1024	1024	1024	1023	1023	1021	1020	1018	1017	1015	1013	1008	1006	1003	1003	1002	1001	1001	1002	1004	1005	1006	1007	1007	1006	1006	1006	1005	1004	1003	1002	1002	1008	1007	999	0	1004	1003	1003	1003	1002	1003	1003	1003	1002	1002	1002	1001	1001	0	0	0	0	0	0	0	0
1416	1416	1416	1416	1415	1415	1413	1412	1410	1408	1407	1405	1402	1400	1397	1394	1387	1383	1379	1374	1369	1364	1360	1356	1348	1346	1342	1341	1340	1339	1338	1338	1338	1339	1340	1341	1342	1342	1342	1344	1345	1346	1348	1348	1351	1354	1357	1362	1366	1371	0	1375	1380	1383	1387	1391	1394	1396	1398	1401	1403	1406	1408	1410	1413	1415	1417	1419	1420	1421	1422	1422	1423	1423	1423	1423	1423	1423	1423	1423	1423	1424	1424	1426	1427	1427	1428	1429	1429	1429	1429	1429	1427	1426	1424	1422	1420	1418	1417	1416	1415	1415	1415	1415	1414	1415	1415	1415	1414	1414	1413	1413	1412	1411	1411	1410	1410	1409	1409	1408	1409	1410	1411	1411	1411	1412	1414	1412	1412	1412	1412	1413	1415	1415	1417	1418	1420	1421	1421	1422	1422	1422	1422	1422	1422	1423	1423	1423	1423	1423	1424	1423	1424	1425	1425	1426	1425	1426	1426	1425	1425	1425	1425	1424	1423	1422	1422	1421	1421	1420	1419	1418	1417	1416	1416	1415	1415	1415	1415	1415	1416	1417	1417	1417	1418	1418	1418	1417	1416	1415	1414	1414	1412	1410	1409	1408	1407	1407	1406	1405	1405	1405	1405	1405	1406	1406	1406	1407	1408	1409	1409	1409	1409	1410	1410	1410	1409	1410	1410	1411	1412	1413	1414	1414	1415	1415	1416	1415	1416	1416	1416	1415	1415	1416	1416	1416	1416	1416	1416	1415	1415	1415	1415	1414	1415	1415	1415	1416	1418	1419	1421	1422	1424	1425	1427	1428	1428	1431	1432	1432	1433	1433	1433	1434	1433	1432	1431	1428	1428	1427	1426	1425	1425	1425	1424	1424	1424	1423	1422	1422	1423	1423	1422	1422	1422	1420	1420	1419	1419	1419	1419	1419	1420	1420	1420	1421	1421	1421	1422	1422	1421	1421	1421	1421	1421	1420	1420	1420	1420	1419	1418	1418	1417	1414	1413	1411	1409	1409	1408	1406	1405	1405	1405	1405	1407	1408	1409	1410	1411	1413	1414	1416	1416	1417	1417	1417	1418	1418	1418	1419	1420	1422	1423	1424	1425	1427	1427	1428	1428	1427	1426	1425	1424	1423	1423	1422	1422	1422	1422	1422	1422	1423	1424	1424	1425	1426	1426	1428	1429	1431	1432	1434	1434	1436	1438	1440	1440	1441	1440	1440	1440	1439	1437	1435	1433	1431	1428	1425	1423	1422	1420	1419	1417	1416	1415	1413	1412	1412	1411	1411	1407	1407	1407	1407	1408	1410	1411	1413	1414	1416	1417	1418	1418	1418	1418	1418	1418	1418	1417	1417	1417	1416	1416	1416	1416	1416	1417	1417	1418	1418	1419	1419	1420	1421	1421	1421	1422	1422	1423	1424	1424	1425	1425	1427	1428	1429	1431	1433	1435	1436	1437	1437	1438	1438	1438	1439	1438	1438	1437	1437	1435	1433	1432	1431	1429	1429	1428	1428	1429	1431	1433	1434	1437	1438	1440	1441	1442	1443	1443	1442	1441	1440	1438	1436	1435	1433	1432	1431	1429	1429	1429	0	0	0	0	0	1138	1136	1136	1135	1135	1135	1136	1136	1137	1137	1136	1135	1134	1133	1131	1130	1126	1124	1121	1119	1116	1113	1110	1108	1106	1104	1102	1099	1098	1096	1094	1092	1091	1089	1088	1086	1084	1084	1084	1083	1083	1083	1083	1084	1084	1085	1085	1085	1085	1085	1085	1085	1084	1083	1081	1080	1079	1077	1076	1074	1073	1072	1071	1070	1069	1067	1066	1064	1063	1062	1062	1062	1063	1065	1066	1068	1070	1070	1070	1069	1068	1068	1067	1066	1066	1066	1066	1066	1065	1064	1064	1063	1063	1063	1062	1062	1062	1062	1062	1062	1060	1060	1059	1059	1059	1058	1059	1059	1059	1059	1058	1058	1058	1056	1056	1055	1054	1054	1054	1055	1055	1055	1056	1056	1056	1057	1058	1058	1057	1056	1056	1055	1055	1052	1051	1050	1049	1047	1046	1046	1045	1044	1043	1042	1041	1040	1039	1037	1035	1034	1033	1031	1029	1028	1027	1027	1027	1027	1026	1025	1025	1024	1023	1021	1019	1017	1014	1012	1009	1009	1008	1009	1011	0	1013	1015	1016	1016	1016	1016	1016	1014	1013	1011	1019	1018	1015	1014	1012	1011	1011	1009	1008	1008	1007	1008	1008	1008	1007	1007	1007	1006	1006	0	0	0	0	0	0	0	0
1416	1417	1417	1417	1416	1416	1415	1414	1412	1411	1409	1407	1405	1403	1400	1398	1395	1388	1385	1380	1376	1371	1367	1363	1360	1356	1350	1348	1347	1346	1344	1344	1343	1343	1344	1344	1344	1344	1344	1345	1345	1346	1347	1348	1350	1353	1356	1360	1364	1369	1373	0	1378	1382	1385	1389	1393	1395	1397	1400	1402	1405	1407	1410	1412	1414	1417	1418	1419	1420	1421	1422	1422	1423	1422	1423	1423	1424	1424	1424	1424	1425	1426	1427	1427	1428	1429	1429	1429	1428	1428	1427	1425	1424	1422	1419	1417	1417	1416	1415	1415	1414	1415	1414	1414	1413	1413	1414	1413	1413	1413	1412	1411	1411	1410	1410	1409	1409	1408	1409	1409	1410	1409	1409	1410	1410	1410	1410	1410	1410	1409	1411	1412	1413	1415	1416	1417	1417	1419	1420	1419	1420	1421	1421	1421	1422	1422	1422	1422	1422	1423	1423	1424	1424	1425	1425	1425	1426	1425	1425	1425	1424	1424	1424	1423	1422	1421	1421	1420	1419	1418	1418	1417	1416	1416	1415	1415	1415	1415	1416	1416	1416	1416	1416	1416	1416	1415	1414	1414	1412	1412	1411	1409	1408	1406	1405	1405	1404	1403	1403	1403	1402	1403	1403	1403	1405	1405	1406	1407	1407	1409	1409	1409	1410	1409	1409	1409	1409	1409	1410	1412	1412	1413	1414	1414	1415	1417	1417	1417	1417	1417	1417	1418	1417	1418	1418	1418	1418	1418	1418	1417	1417	1417	1416	1416	1416	1417	1418	1419	1420	1422	1423	1425	1427	1429	1431	1433	1435	1436	1437	1438	1438	1438	1438	1437	1435	1433	1431	1428	1427	1426	1424	1423	1423	1423	1423	1423	1422	1422	1423	1423	1423	1423	1423	1423	1422	1421	1421	1420	1420	1420	1420	1420	1420	1420	1420	1420	1420	1421	1420	1421	1421	1421	1420	1420	1420	1420	1420	1419	1419	1419	1418	1418	1415	1413	1412	1410	1409	1407	1405	1404	1403	1403	1403	1404	1406	1407	1409	1410	1412	1414	1416	1416	1417	1417	1417	1418	1418	1418	1419	1419	1421	1422	1423	1424	1426	1426	1426	1426	1425	1424	1423	1422	1421	1420	1419	1419	1419	1419	1419	1419	1420	1420	1420	1421	1422	1423	1424	1425	1426	1428	1429	1431	1434	1436	1438	1439	1440	1441	1441	1441	1440	1438	1437	1435	1432	1431	1428	1425	1422	1420	1418	1416	1415	1414	1410	1408	1407	1406	1405	1404	1404	1405	1404	1405	1406	1408	1409	1410	1412	1413	1414	1414	1414	1415	1415	1415	1415	1415	1415	1414	1414	1414	1414	1414	1413	1415	1415	1416	1416	1417	1418	1418	1419	1420	1420	1421	1422	1423	1423	1424	1425	1426	1427	1428	1429	1431	1433	1434	1435	1435	1436	1436	1436	1436	1436	1436	1436	1435	1435	1434	1432	1432	1431	1431	1429	1429	1429	1431	1431	1432	1434	1435	1437	1439	1440	1441	1441	1441	1441	1439	1438	1437	1434	1433	1433	1431	1429	1429	1429	1428	0	0	0	0	0	1143	1140	1139	1138	1137	1138	1138	1138	1138	1137	1137	1136	1135	1133	1132	1131	1130	1126	1124	1121	1119	1116	1114	1110	1109	1106	1104	1102	1099	1098	1096	1094	1093	1092	1091	1090	1088	1087	1087	1087	1087	1087	1086	1087	1087	1087	1088	1087	1087	1087	1086	1086	1085	1084	1081	1080	1079	1078	1077	1075	1074	1073	1073	1071	1070	1070	1068	1067	1067	1067	1068	1069	1071	1073	1075	1076	0	0	1078	1077	1077	1075	1074	1073	1071	1070	1070	1068	1067	1067	1066	1065	1064	1064	1063	1063	1063	1063	1063	1063	1063	1062	1062	1062	1062	1061	1062	1062	1062	1061	1060	1060	1060	1059	1058	1056	1056	1056	1056	1056	1057	1058	1058	1059	1060	1060	1061	1061	1061	1060	1060	1059	1059	1058	1056	1055	1053	1051	1050	1049	1048	1047	1047	1045	1045	1044	1043	1041	1040	1039	1038	1036	1035	1034	1032	1031	1032	1032	1031	1029	1029	1028	1027	1026	1024	1023	1021	1020	0	0	1017	1018	1019	1019	1021	1022	1023	1024	1024	1024	1029	1028	1027	1027	1026	1025	1024	1022	1021	1019	1017	1015	1014	1014	1013	1013	1013	1013	1012	1012	1012	1011	1011	0	0	0	0	0	0	0	0
1417	1417	1417	1417	1416	1416	1415	1414	1413	1412	1411	1410	1408	1406	1404	1402	1399	1397	1389	1386	1382	1378	1374	1370	1366	1363	1361	1358	1355	1352	1350	1349	1348	1348	1348	1347	1347	1346	1346	1346	1346	1346	1347	1348	1349	1351	1354	1359	1362	1366	1371	1375	0	1380	1384	1388	1391	1393	1396	1399	1401	1404	1406	1409	1411	1414	1416	1417	1419	1420	1420	1421	1422	1422	1422	1423	1423	1424	1424	1425	1425	1425	1426	1427	1426	1427	1428	1428	1427	1427	1425	1425	1423	1421	1418	1416	1415	1415	1414	1413	1413	1413	1413	1412	1412	1412	1411	1412	1411	1411	1411	1411	1411	1410	1410	1410	1409	1409	1408	1409	1409	1409	1409	1408	1408	1408	1408	1408	1408	1407	1407	1408	1409	1410	1411	1412	1413	1414	1416	1416	1417	1418	1418	1419	1419	1420	1420	1421	1421	1422	1422	1423	1423	1424	1424	1424	1425	1425	1424	1424	1424	1424	1423	1422	1422	1421	1421	1420	1420	1419	1418	1417	1416	1416	1416	1415	1415	1415	1415	1415	1415	1415	1415	1415	1414	1414	1413	1412	1411	1410	1409	1407	1406	1405	1404	1403	1402	1402	1401	1401	1401	1400	1401	1401	1402	1403	1404	1405	1406	1407	1408	1408	1408	1409	1409	1409	1408	1408	1408	1409	1410	1411	1411	1413	1414	1415	1416	1417	1417	1417	1418	1418	1418	1418	1419	1418	1419	1420	1420	1419	1419	1418	1418	1417	1418	1418	1418	1418	1419	1421	1423	1424	1426	1428	1431	1432	1434	1435	1437	1438	1439	1440	1439	1439	1438	1437	1434	1432	1429	1426	1425	1423	1422	1422	1422	1422	1423	1423	1423	1424	1424	1425	1425	1424	1424	1423	1423	1422	1422	1421	1420	1420	1420	1420	1420	1420	1420	1420	1420	1420	1420	1420	1419	1420	1420	1419	1419	1419	1419	1419	1419	1418	1418	1417	1414	1412	1411	1409	1407	1405	1404	1403	1403	1403	1404	1405	1407	1408	1410	1411	1413	1415	1416	1417	1417	1417	1418	1418	1418	1419	1420	1420	1422	1422	1423	1424	1425	1425	1425	1424	1423	1421	1420	1419	1417	1417	1417	1417	1416	1416	1416	1417	1417	1418	1418	1419	1420	1421	1422	1424	1425	1426	1428	1431	1433	1436	1438	1439	1441	1441	1441	1441	1439	1437	1436	1434	1432	1431	1425	1423	1420	1417	1415	1413	1411	1408	1406	1406	1404	1404	1402	1402	1402	1402	1402	1404	1405	1406	1407	1409	1410	1411	1411	1412	1413	1412	1413	1414	1414	1413	1413	1412	1413	1412	1412	1412	1413	1413	1414	1415	1416	1417	1417	1419	1419	1421	1422	1422	1424	1424	1425	1425	1426	1427	1428	1429	1429	1431	1432	1433	1433	1433	1433	1432	1432	1433	1433	1433	1432	1433	1433	1432	1432	1431	1431	1431	1429	1429	1431	1432	1432	1433	1434	1435	1436	1436	1438	1439	1438	1439	1437	1436	1435	1433	1432	1431	1428	1428	1426	1426	0	0	0	0	0	0	0	1144	1142	1141	1140	1140	1140	1139	1139	1139	1138	1137	1136	1135	1133	1132	1131	1130	1126	1124	1122	1119	1117	1115	1112	1110	1108	1106	1104	1101	1099	1098	1097	1096	1095	1094	1093	1091	1091	1091	1090	1090	1090	1090	1090	1090	1090	1089	1089	1088	1088	1087	1086	1085	1084	1081	1081	1080	1078	1077	1076	1075	1074	1073	1073	1073	1072	1071	1072	1073	1074	1075	1078	0	1081	1082	1084	1085	1083	1082	1082	1080	1078	1077	1075	1074	1072	1071	1070	1068	1067	1065	1064	1064	1064	1064	1064	1065	1065	1065	1065	1064	1064	1064	1064	1064	1064	1064	1064	1063	1063	1062	1062	1060	1060	1059	1059	1058	1059	1059	1060	1060	1062	1062	1063	1064	1064	1064	1064	1063	1063	1063	1062	1061	1060	1059	1057	1056	1053	1052	1051	1051	1050	1049	1048	1047	1047	1046	1044	1044	1043	1042	1040	1039	1038	1037	1036	1036	1035	1035	1033	1032	1031	1031	1029	1028	1027	1026	0	0	1025	1025	1026	1027	1028	1034	1034	1035	1034	1034	1034	1033	1032	1032	1031	1029	1029	1028	1026	1025	1024	1023	1020	1020	1018	1018	1017	1017	1017	1017	1016	1015	0	0	0	0	0	0	0	0	0
1415	1416	1416	1417	1416	1416	1416	1415	1414	1413	1412	1411	1410	1408	1406	1405	1402	1400	1396	1390	1386	1383	1380	1377	1373	1370	1367	1365	1362	1361	1359	1355	1353	1351	1351	1350	1348	1348	1347	1347	1347	1347	1347	1348	1348	1350	1352	1357	1361	1364	1369	1374	0	1379	1382	1386	1390	1392	1395	1397	1400	1402	1405	1408	1410	1413	1415	1417	1418	1419	1419	1420	1421	1421	1421	1422	1422	1423	1424	1424	1424	1425	1426	1426	1426	1427	1427	1426	1425	1424	1422	1421	1419	1415	1415	1413	1412	1413	1411	1411	1411	1412	1411	1410	1411	1410	1409	1410	1410	1409	1409	1408	1408	1408	1408	1409	1409	1409	1409	1409	1408	1409	1408	1407	1407	1406	1406	1405	1406	1405	1404	1405	1407	1409	1410	1411	1412	1413	1414	1415	1416	1417	1417	1418	1419	1419	1419	1420	1420	1421	1421	1422	1423	1422	1423	1423	1424	1424	1424	1423	1423	1423	1423	1422	1422	1421	1420	1420	1420	1419	1418	1418	1417	1416	1416	1416	1415	1415	1415	1415	1415	1414	1414	1413	1413	1412	1411	1410	1408	1406	1405	1404	1403	1402	1401	1400	1400	1400	1399	1399	1399	1399	1400	1401	1402	1403	1404	1405	1406	1407	1408	1408	1408	1408	1408	1408	1407	1407	1407	1407	1408	1409	1410	1411	1412	1414	1416	1417	1417	1418	1419	1419	1420	1420	1420	1420	1420	1421	1421	1421	1421	1420	1420	1420	1419	1419	1419	1419	1420	1421	1423	1424	1426	1428	1429	1432	1433	1435	1436	1438	1438	1438	1438	1438	1438	1436	1433	1429	1427	1425	1424	1422	1422	1422	1421	1421	1422	1422	1423	1423	1425	1425	1425	1425	1425	1424	1423	1422	1422	1421	1421	1421	1420	1420	1420	1420	1420	1420	1419	1419	1419	1419	1419	1419	1419	1419	1419	1419	1419	1419	1419	1419	1418	1417	1415	1413	1411	1410	1408	1406	1404	1403	1403	1403	1403	1405	1406	1407	1409	1411	1413	1414	1415	1416	1416	1417	1417	1418	1418	1419	1419	1420	1421	1422	1423	1423	1424	1424	1423	1423	1422	1420	1419	1418	1416	1416	1415	1415	1414	1414	1414	1415	1415	1416	1416	1418	1418	1419	1420	1421	1423	1424	1426	1429	1432	1434	1437	1438	1440	1440	1442	1442	1441	1439	1437	1435	1434	1432	1425	1423	1420	1417	1415	1413	1410	1408	1406	1404	1403	1403	1401	1401	1401	1401	1402	1402	1403	1404	1406	1408	1409	1409	1411	1410	1411	1411	1412	1413	1412	1412	1412	1412	1411	1411	1412	1412	1412	1413	1414	1414	1415	1416	1418	1419	1421	1422	1423	1424	1425	1426	1426	1427	1427	1428	1428	1429	1429	1429	1431	1431	1429	1429	1429	1428	1428	1428	1428	1428	1429	0	1431	1432	1432	1432	1432	1431	1431	1431	1431	1432	1432	1432	1433	1434	1434	1435	1436	1436	1437	1438	1436	1434	1433	1433	1429	1428	1426	1426	1424	0	0	0	0	1172	1165	1159	1151	0	1146	1145	1143	1143	1143	1141	1141	1141	1139	1139	1137	1136	1135	1133	1133	1131	1128	1127	1125	1123	1121	1119	1116	1115	1112	1110	1109	1107	1106	1104	1102	1101	1100	1098	1098	1096	1096	1096	1095	1094	1094	1094	1093	1093	1093	1092	1091	1091	1090	1090	1088	1087	1086	1085	1084	1081	1080	1079	1078	1077	1077	1076	1075	1075	1076	1076	1078	1079	1081	1082	1084	1087	1088	1089	1089	1089	1087	1087	1085	1084	1081	1080	1078	1077	1074	1073	1070	1069	1068	1067	1065	1065	1064	1064	1065	1066	1066	1066	1066	1066	1066	1066	1066	1066	1066	1066	1066	1066	1065	1064	1064	1063	1063	1062	1061	1061	1061	1062	1063	1064	1064	1066	1066	1067	1068	1067	1068	1067	1067	1066	1066	1065	1063	1062	1060	1059	1058	1054	1054	1053	1053	1052	1051	1050	1050	1050	1048	1047	1047	1046	1045	1044	1043	1042	1041	1040	1039	1039	1038	1036	1036	1035	1034	1033	1033	1031	1031	1031	1031	0	1037	1037	1038	1038	1038	1038	1038	1038	1037	1036	1036	1035	1033	1032	1032	1031	1029	1028	1027	1026	1026	1025	1024	1023	1023	1022	1021	1021	1021	1020	1019	0	0	0	0	0	0	0	0
1413	1415	1415	1416	1415	1416	1416	1415	1414	1414	1413	1412	1411	1410	1408	1407	1405	1403	1400	1396	1390	1388	1385	1382	1380	1377	1374	1372	1369	1367	1364	1362	1361	1357	1355	1353	1352	1350	1349	1348	1348	1347	1347	1348	1348	1349	1351	1356	1360	1363	1368	1372	0	1377	1382	1385	1389	1391	1394	1396	1398	1401	1404	1406	1409	1412	1414	1415	1417	1417	1418	1418	1419	1419	1420	1421	1422	1423	1423	1424	1424	1424	1425	1425	1425	1425	1424	1424	1422	1421	1420	1418	1414	1412	1411	1410	1410	1410	1410	1409	1410	1410	1410	1409	1409	1409	1407	1407	1407	1407	1407	1407	1408	1408	1408	1409	1409	1409	1409	1409	1408	1408	1407	1406	1405	1405	1404	1403	1403	1403	1403	1404	1405	1406	1408	1409	1410	1411	1412	1413	1415	1416	1416	1417	1418	1418	1419	1419	1419	1419	1419	1419	1419	1419	1420	1420	1421	1421	1421	1421	1421	1421	1421	1421	1421	1420	1420	1420	1420	1419	1418	1417	1417	1416	1416	1415	1415	1414	1415	1415	1414	1413	1413	1412	1412	1410	1409	1408	1405	1404	1403	1402	1401	1400	1399	1399	1398	1398	1398	1399	1399	1399	1400	1401	1402	1403	1404	1406	1406	1408	1408	1408	1409	1408	1408	1407	1407	1406	1406	1406	1406	1407	1408	1409	1411	1413	1415	1416	1417	1418	1420	1420	1420	1421	1422	1422	1422	1423	1423	1423	1422	1422	1421	1420	1420	1420	1419	1419	1420	1420	1422	1423	1425	1426	1428	1429	1431	1433	1434	1435	1436	1436	1436	1436	1435	1434	1431	1426	1425	1424	1422	1421	1420	1420	1420	1420	1421	1422	1421	1423	1423	1424	1424	1424	1424	1424	1423	1422	1422	1421	1421	1420	1420	1420	1419	1419	1419	1419	1419	1418	1418	1418	1419	1418	1418	1418	1418	1418	1419	1418	1419	1418	1418	1417	1415	1414	1413	1411	1409	1407	1405	1404	1403	1403	1403	1404	1405	1407	1408	1410	1412	1414	1414	1415	1416	1417	1417	1417	1418	1418	1419	1419	1420	1421	1422	1422	1423	1423	1423	1421	1421	1420	1418	1417	1416	1415	1414	1414	1414	1413	1414	1414	1415	1415	1416	1417	1417	1418	1419	1420	1421	1422	1424	1426	1428	1432	1435	1437	1438	1440	1441	1441	1441	1439	1438	1436	1434	1432	1425	1423	1420	1417	1414	1412	1410	1407	1405	1404	1402	1401	1401	1400	1399	1400	1400	1401	1402	1403	1405	1406	1408	1409	1409	1409	1410	1411	1412	1412	1411	1411	1411	1411	1411	1411	1411	1411	1413	1413	1413	1414	1416	1418	1419	1420	1422	1423	1424	1426	1427	1427	1428	1428	1428	1428	1428	1428	1428	1428	1428	1428	1427	1426	1424	1424	1424	1423	1423	1423	1424	1426	1427	1428	1429	1431	1431	1432	1432	1431	1432	1431	1431	1432	1431	1433	1432	1433	1434	1434	1435	1435	1433	1433	1432	1431	1428	1426	1426	1425	0	0	0	0	1182	1176	1170	1164	1159	1152	1149	1148	1145	1145	1145	1143	1143	1142	1141	1140	1139	1137	1136	1135	1134	1133	1132	1131	1128	1127	1125	1123	1121	1119	1117	1115	1114	1112	1110	1109	1107	1107	1106	1105	1102	1101	1101	1100	1099	1098	1098	1098	1097	1097	1097	1096	1094	1094	1094	1093	1092	1091	1090	1088	1087	1085	1084	1082	1081	1081	1081	1081	1081	1081	1081	1082	1084	1085	1087	0	1089	1090	1093	1093	1094	1094	1094	1093	1089	1087	1086	1083	1081	1079	1077	1075	1072	1071	1069	1068	1067	1066	1066	1066	1066	1066	1067	1067	1067	1067	1067	1067	1068	1068	1068	1068	1068	1068	1068	1067	1067	1066	1065	1064	1064	1063	1064	1065	1066	1067	1068	1068	1069	1070	1070	1070	1071	1070	1070	1070	1068	1067	1067	1065	1063	1062	1059	1058	1056	1055	1055	1055	1054	1054	1053	1053	1052	1051	1051	1050	1050	1049	1047	1046	1045	1044	1043	1043	1041	1040	1040	1040	1039	1038	1038	1042	1041	1041	1041	1041	1041	1041	1040	1040	1040	1040	1040	1039	1039	1038	1037	1036	1035	1034	1033	1032	1031	1031	1029	1029	1028	1028	1027	1027	1026	1026	1025	1024	1024	1023	1023	1023	0	0	0	0	0	0	0
1412	1413	1413	1414	1414	1414	1414	1414	1414	1414	1414	1413	1412	1411	1410	1409	1407	1405	1402	1399	1397	1391	1388	1385	1383	1381	1379	1377	1375	1372	1370	1367	1365	1363	1362	1358	1355	1353	1351	1350	1349	1348	1348	1348	1348	1350	1352	1356	1360	1363	1368	1372	0	1377	1382	1385	1388	1390	1393	1395	1397	1400	1402	1405	1407	1409	1411	1413	1414	1416	1416	1416	1417	1418	1418	1419	1421	1421	1422	1422	1423	1423	1425	1424	1424	1423	1422	1421	1420	1418	1417	1413	1411	1410	1408	1407	1408	1409	1408	1408	1407	1407	1408	1407	1407	1406	1405	1405	1405	1406	1406	1407	1407	1408	1408	1408	1409	1410	1409	1409	1408	1408	1407	1406	1405	1403	1403	1402	1402	1402	1402	1403	1404	1406	1407	1408	1409	1410	1412	1412	1414	1415	1416	1416	1417	1418	1418	1418	1417	1417	1417	1416	1416	1416	1417	1417	1418	1418	1419	1419	1420	1420	1421	1420	1420	1420	1419	1419	1419	1418	1418	1416	1416	1416	1415	1415	1414	1414	1414	1414	1413	1412	1412	1412	1410	1409	1407	1404	1403	1402	1401	1401	1399	1398	1398	1398	1398	1397	1398	1398	1399	1399	1401	1401	1402	1404	1405	1406	1407	1408	1408	1408	1408	1408	1407	1407	1406	1406	1406	1405	1405	1405	1407	1408	1410	1411	1414	1415	1417	1419	1421	1422	1422	1423	1424	1424	1425	1425	1425	1425	1424	1423	1423	1421	1421	1420	1419	1419	1419	1420	1421	1421	1423	1425	1426	1427	1428	1429	1431	1433	1433	1433	1433	1433	1432	1431	1425	1423	1422	1421	1420	1418	1417	1417	1417	1417	1418	1418	1419	1421	1422	1422	1423	1423	1423	1423	1422	1422	1421	1421	1420	1420	1420	1420	1419	1419	1419	1418	1418	1418	1418	1418	1418	1418	1418	1418	1417	1418	1418	1418	1418	1418	1417	1417	1415	1414	1412	1411	1410	1407	1406	1404	1403	1403	1403	1404	1405	1406	1407	1409	1411	1413	1414	1414	1415	1416	1416	1417	1418	1418	1419	1419	1420	1421	1421	1421	1421	1421	1422	1421	1421	1420	1418	1417	1417	1415	1415	1414	1414	1414	1414	1415	1415	1416	1416	1417	1417	1418	1419	1420	1421	1422	1424	1425	1428	1431	1432	1435	1437	1438	1440	1440	1440	1439	1437	1436	1433	1432	1425	1422	1420	1417	1414	1411	1409	1407	1405	1403	1402	1401	1400	1399	1399	1399	1400	1401	1402	1403	1404	1406	1408	1409	1409	1408	1409	1409	1410	1411	1411	1411	1412	1412	1411	1412	1412	1413	1414	1414	1415	1416	1418	1419	1421	1422	1424	1425	1426	1427	1428	1429	1429	1429	1429	1429	1428	1428	1427	1427	1426	1426	1425	1422	1422	1421	1421	1421	1421	1421	1423	1424	1427	1428	1429	1431	1432	1432	1432	1432	1432	1431	1432	1432	1432	1432	1432	1432	1433	1433	1434	1433	1433	0	0	0	0	0	1196	1194	1194	1192	1191	1188	1182	1177	1173	1168	1163	1160	1153	1151	1148	1147	1147	1146	1145	1144	1143	1141	1141	1139	1138	1137	1136	1136	1135	1134	1133	1131	1129	1128	1126	1124	1122	1121	1119	1117	1115	1114	1112	1111	1110	1109	1108	1107	1105	1104	1103	1102	1102	1101	1101	1101	1101	1100	1099	1099	1099	1098	1097	1095	1093	1093	1092	1090	1089	1088	1087	1087	1087	1087	1087	1087	1087	1088	1088	1090	1091	1093	1094	1097	1098	1098	1099	1099	1099	1097	1095	1091	1089	1086	1084	1082	1080	1077	1074	1072	1071	1070	1068	1067	1066	0	1067	1067	1068	1068	1068	1069	0	1070	1070	1071	1071	1072	1071	1071	1071	1070	1069	1068	1068	1067	1067	1067	1067	1068	1069	1070	1071	1071	1072	1073	1073	1073	1073	1073	1073	1071	1071	1070	1068	1067	1065	1063	1062	1060	1058	1058	1057	1056	1055	1055	1055	1055	1055	1055	1055	1054	1053	1053	1051	1050	1049	1048	1047	1046	1045	1044	1045	1045	1045	1045	1045	1044	1044	1044	1044	1044	1044	1043	1043	1043	1043	1042	1042	1041	1040	1039	1038	1037	1036	1035	1034	1033	1033	1032	1032	1031	1031	1030	1030	1029	1029	1028	1027	1027	1027	1026	1026	1025	0	0	0	0	0	0	0
1409	1410	1412	1412	1413	1413	1413	1413	1413	1414	1414	1413	1413	1412	1411	1410	1409	1407	1405	1402	1399	1394	1392	1390	1387	1385	1382	1381	1380	1377	1375	1373	1370	1367	1366	1364	1360	1357	1355	1353	1352	1351	1350	1350	1350	1351	1353	1357	1361	1364	1368	1373	0	1377	1381	1384	1388	1390	1392	1394	1396	1398	1401	1403	1405	1407	1409	1410	1412	1413	1414	1414	1414	1415	1416	1418	1419	1420	1421	1422	1422	1422	1423	1423	1422	1421	1419	1418	1418	1415	1412	1410	1409	1408	1407	1405	1405	1406	1407	1407	1406	1406	1407	1406	1406	1405	1404	1404	1404	1405	1405	1406	1407	1407	1408	1409	1409	1410	1410	1409	1409	1408	1406	1405	1403	1403	1402	1401	1401	1401	1401	1402	1403	1404	1406	1407	1408	1409	1411	1412	1413	1414	1414	1415	1416	1417	1417	1416	1416	1415	1414	1413	1412	1412	1413	1413	1414	1415	1416	1416	1417	1417	1419	1419	1419	1419	1419	1419	1418	1417	1417	1416	1416	1415	1414	1414	1413	1413	1413	1413	1412	1411	1411	1410	1409	1408	1406	1402	1401	1400	1400	1399	1398	1397	1397	1397	1397	1397	1398	1398	1399	1400	1401	1402	1404	1404	1405	1406	1408	1408	1408	1408	1408	1408	1408	1407	1406	1405	1405	1404	1405	1404	1404	1406	1408	1409	1412	1414	1416	1418	1421	1422	1424	1424	1425	1425	1426	1426	1426	1426	1425	1424	1423	1422	1421	1420	1419	1418	1418	1418	1419	1419	1420	1422	1422	1423	1425	1426	1427	1428	1429	1429	1428	1428	1428	1427	1423	1421	1419	1418	1417	1416	1415	1415	1415	1415	1416	1416	1417	1418	1420	1420	1420	1421	1422	1422	1422	1421	1420	1420	1420	1419	1419	1419	1419	1419	1418	1418	1418	1418	1417	1417	1417	1417	1417	1417	1417	1418	1418	1417	1417	1417	1417	1417	1415	1414	1413	1412	1410	1408	1406	1405	1404	1403	1403	1404	1404	1405	1406	1408	1410	1411	1412	1413	1414	1415	1415	1416	1417	1418	1418	1419	1419	1420	1420	1421	1421	1421	1421	1420	1420	1420	1418	1417	1417	1416	1415	1415	1415	1415	1415	1415	1415	1416	1416	1417	1417	1418	1419	1419	1420	1421	1423	1424	1425	1428	1431	1432	1434	1436	1438	1438	1438	1437	1435	1434	1432	1429	1424	1422	1419	1416	1414	1411	1409	1407	1405	1403	1402	1401	1400	1399	1399	1400	1401	1401	1402	1403	1404	1407	1408	1408	1408	1408	1409	1408	1409	1410	1410	1411	1412	1412	1412	1413	1414	1414	1415	1417	1418	1419	1421	1422	1424	1425	1426	1428	1428	1431	1432	1432	1432	1431	1431	1431	1429	1427	1426	1425	1424	1423	1422	1420	1418	1418	1420	1420	1420	1421	1423	1424	1427	1428	1431	1431	1432	1433	1433	1432	1432	1432	1432	1432	1432	1431	1432	1432	1432	1433	0	0	0	0	0	1199	1198	1197	1197	1195	1194	1192	1190	1188	1183	1179	1175	1170	1166	1163	1159	1157	1152	1151	1149	1148	1147	1146	1145	1143	1142	1141	1140	1139	1139	1138	1137	1136	1135	1135	1134	1133	1130	1129	1128	1126	1124	1123	1121	1119	1117	1115	1114	1112	1112	1110	1109	1108	1107	1107	1105	1105	1104	1104	1104	1103	1103	1103	1102	1102	1102	1101	1099	1099	1098	1097	1096	1095	1094	1094	1093	1093	1093	1093	1093	1093	1093	1095	1098	1099	1101	1102	1102	1103	1104	1103	1102	1101	1099	1097	1094	1090	1087	1084	1081	1079	1076	1074	1072	1071	1069	1068	1068	1068	1068	1068	1069	1070	1070	1071	1071	1072	1073	1074	1074	1074	1074	1074	1074	1074	1073	1071	1071	1071	1070	1070	1070	1071	1072	1073	1074	1074	1074	1075	1075	1075	1075	1074	1074	1073	1073	1071	1070	1069	1067	1064	1063	1061	1059	1059	1058	1058	1057	1058	1057	1057	1057	1056	1056	1056	1056	1055	1054	1053	1052	1051	1051	1051	1049	1049	1047	1047	1047	1046	1047	1047	1046	1046	1046	1046	1046	1045	1046	1045	1045	1045	1044	1043	1043	1041	1039	1038	1037	1036	1035	1034	1034	1033	1033	1033	1032	1032	1032	1031	1031	1030	1029	1028	1028	1028	1028	1027	0	0	0	0	0	0	0
1408	1408	1409	1410	1411	1411	1412	1412	1413	1413	1413	1413	1413	1413	1411	1411	1409	1408	1406	1403	1401	1398	1394	1392	1389	1388	1385	1383	1382	1381	1378	1376	1374	1372	1370	1368	1365	1363	1359	1358	1356	1355	1354	1353	1353	1354	1356	1359	1362	1364	1369	1373	0	1377	1381	1384	1387	1389	1392	1393	1395	1397	1399	1401	1403	1405	1406	1408	1409	1411	1411	1412	1412	1413	1414	1416	1418	1419	1419	1420	1420	1421	1421	1421	1420	1418	1417	1416	1415	1409	1408	1406	1405	1404	1403	1403	1404	1405	1406	1406	1405	1405	1406	1405	1405	1404	1403	1403	1403	1404	1405	1405	1406	1407	1407	1408	1409	1409	1410	1409	1408	1407	1406	1404	1403	1402	1401	1400	1399	1399	1400	1401	1402	1403	1404	1405	1407	1408	1409	1410	1412	1412	1413	1414	1415	1415	1414	1414	1412	1411	1411	1410	1409	1409	1409	1410	1410	1411	1413	1414	1415	1415	1416	1417	1417	1417	1418	1417	1417	1417	1416	1415	1415	1414	1414	1413	1412	1412	1412	1412	1411	1410	1410	1409	1407	1406	1402	1401	1399	1398	1398	1397	1397	1396	1396	1397	1397	1397	1398	1398	1399	1400	1402	1403	1404	1405	1406	1407	1408	1409	1409	1409	1409	1409	1408	1407	1406	1405	1405	1403	1403	1403	1403	1404	1405	1408	1410	1413	1415	1417	1420	1422	1423	1424	1426	1426	1426	1426	1427	1426	1425	1424	1423	1422	1421	1419	1418	1418	1417	1417	1417	1417	1418	1418	1420	1420	1421	1422	1424	1424	1425	1425	1425	1425	1425	1422	1420	1418	1417	1416	1415	1413	1412	1413	1413	1413	1413	1414	1415	1416	1418	1419	1419	1419	1420	1420	1420	1420	1420	1419	1419	1419	1419	1418	1418	1418	1418	1418	1418	1417	1417	1417	1417	1417	1417	1417	1417	1417	1417	1417	1417	1417	1417	1416	1416	1414	1413	1412	1410	1408	1407	1406	1404	1404	1403	1403	1403	1404	1405	1407	1408	1410	1410	1411	1412	1413	1414	1415	1416	1417	1417	1418	1418	1419	1420	1420	1421	1420	1420	1420	1420	1420	1419	1418	1418	1417	1416	1416	1416	1416	1416	1417	1417	1417	1417	1418	1418	1419	1419	1420	1420	1421	1422	1423	1424	1426	1427	1429	1431	1433	1434	1435	1435	1434	1433	1432	1429	1427	1422	1419	1417	1415	1412	1410	1408	1406	1404	1403	1402	1400	1399	1399	1399	1399	1400	1401	1401	1403	1404	1406	1407	1407	1407	1408	1408	1408	1409	1409	1410	1411	1412	1412	1413	1414	1416	1416	1418	1420	1421	1423	1424	1425	1427	1428	1429	1431	1432	1433	1434	1434	1434	1433	1432	1431	1429	1427	1425	1424	1423	1420	1419	1418	1417	1418	1418	1419	1420	1422	1423	1426	1427	1429	1431	1432	1433	1433	1433	1432	1432	1432	1431	1431	1431	1431	1429	1429	1432	0	0	0	0	1199	1199	1199	1197	1197	1197	1195	1194	1192	1190	1185	1182	1178	1175	1171	1167	1164	1161	1158	1153	1152	1151	1150	1149	1147	1146	1145	1144	1143	1142	1141	1141	1139	1139	1139	1138	1138	1137	1136	1135	1134	1133	1131	1130	1128	1126	1124	1122	1121	1119	1117	1115	1114	1112	1110	1109	1109	1108	1107	1107	1107	1107	1107	1107	1108	1107	1108	1108	1107	1106	1106	1105	1104	1103	1102	1101	1100	1098	1098	1098	1098	1099	1098	1099	1101	1101	1103	1105	1106	1106	1106	1106	1106	1105	1103	1101	1100	1097	1095	1090	1087	1084	1081	1079	1077	1074	1073	1071	1071	1070	1070	1071	1071	1073	1073	1073	1074	1074	1075	1076	1077	1078	1078	1078	1078	1078	1077	1077	1077	1076	1075	1075	1074	1074	1074	1075	1076	0	1077	1077	1077	1078	1077	1077	1076	1075	1075	1074	1073	1070	1070	1067	1065	1063	1062	1060	1059	1059	1058	1058	1058	1058	1058	1058	1059	1059	1058	1058	1060	1060	1059	1058	1056	1054	1053	1051	1050	1050	1049	1049	1049	1049	1049	1049	1050	1049	1049	1048	1047	1047	1047	1046	1046	1045	1044	1044	1044	1043	1043	1040	1039	1039	1038	1038	1037	1036	1035	1034	1034	1033	1033	1033	1032	1031	1031	1030	1030	1029	1029	0	0	0	0	0	0	0
1404	1406	1407	1408	1409	1410	1411	1411	1412	1412	1413	1413	1413	1412	1412	1412	1411	1409	1407	1405	1402	1400	1395	1393	1391	1389	1388	1386	1384	1383	1382	1380	1378	1376	1374	1372	1369	1367	1365	1362	1361	1360	1359	1358	1358	1359	1360	1362	1364	1367	1372	0	1375	1379	1382	1385	1388	1390	1392	1393	1393	1395	1397	1399	1401	1403	1404	1405	1407	1408	1408	1409	1410	1410	1412	1413	1415	1416	1417	1418	1418	1419	1419	1418	1417	1413	1412	1411	1408	1407	1405	1404	1404	1403	1402	1402	1403	1404	1405	1405	1404	1404	1405	1404	1404	1403	1402	1402	1402	1403	1404	1405	1405	1405	1407	1408	1408	1410	1409	1409	1408	1406	1405	1404	1403	1401	1400	1399	1398	1399	1400	1401	1402	1403	1404	1405	1406	1407	1408	1409	1410	1411	1412	1412	1413	1413	1412	1411	1410	1409	1408	1407	1406	1406	1406	1407	1408	1408	1410	1411	1412	1413	1414	1415	1415	1415	1416	1417	1416	1415	1415	1414	1414	1413	1412	1412	1412	1411	1411	1411	1411	1409	1409	1408	1406	1404	1401	1399	1398	1397	1397	1397	1396	1396	1396	1396	1396	1396	1398	1398	1399	1400	1402	1404	1405	1406	1407	1408	1409	1410	1410	1410	1410	1409	1408	1408	1406	1405	1404	1403	1402	1402	1402	1402	1403	1405	1408	1411	1414	1416	1419	1421	1422	1424	1424	1426	1426	1426	1426	1425	1424	1423	1423	1421	1420	1418	1417	1416	1415	1415	1415	1414	1415	1415	1415	1415	1416	1417	1419	1421	1421	1421	1422	1422	1420	1419	1417	1416	1415	1414	1413	1411	1411	1410	1410	1411	1411	1412	1413	1415	1417	1417	1418	1418	1419	1419	1419	1419	1419	1418	1418	1418	1418	1418	1418	1418	1417	1417	1417	1417	1417	1417	1417	1416	1417	1416	1416	1416	1416	1416	1416	1416	1416	1415	1414	1414	1413	1412	1410	1409	1407	1405	1404	1403	1403	1402	1402	1403	1404	1405	1406	1408	1409	1410	1411	1412	1413	1414	1415	1416	1416	1417	1417	1418	1418	1419	1418	1419	1419	1419	1420	1420	1419	1419	1419	1419	1418	1418	1418	1418	1418	1419	1419	1419	1420	1420	1421	1421	1421	1421	1420	1421	1421	1422	1423	1424	1425	1426	1427	1429	1431	1431	1431	1431	1429	1428	1426	1422	1420	1418	1415	1413	1411	1409	1407	1405	1404	1403	1402	1400	1399	1399	1399	1399	1400	1400	1401	1402	1404	1405	1406	1406	1406	1407	1408	1408	1409	1410	1411	1411	1413	1414	1415	1416	1418	1420	1422	1424	1425	1427	1428	1431	1432	1432	1434	1434	1435	1436	1436	1436	1435	1434	1433	1432	1429	1427	1425	1423	1420	1419	1418	1417	1416	1417	1418	1419	1421	1422	1423	1426	1428	0	1431	1432	1432	1433	1433	1432	1432	1431	1431	1431	1431	1429	1428	0	0	0	0	0	1202	1201	1199	1199	1198	1197	1197	1194	1193	1191	1189	1184	1182	1178	1174	1171	1168	1164	1161	1158	1156	1153	1151	1151	1149	1149	1148	1147	1145	1145	1143	1143	1142	1141	1141	1141	1141	1141	1140	1140	1139	1138	1138	1137	1136	1134	1131	1130	1128	1126	1124	1121	1119	1117	1115	1113	1112	1112	1111	1110	1110	1110	1111	1112	1112	1112	1113	1113	1113	1113	1113	1112	1112	1110	1109	1109	1109	1109	1107	1107	1106	1106	1106	1105	1104	1106	1106	1107	1108	1109	1109	1109	1109	1108	1107	1105	1104	1101	1099	1097	1091	1090	1087	1084	1082	1080	1078	1077	1077	1077	1077	1077	1077	1078	1080	1080	1080	1080	1080	1081	1081	1082	1082	1082	1082	1082	1082	1082	1082	1081	1080	1080	1080	1079	1079	1078	1078	1078	1079	1079	1079	1079	1079	1078	1078	1078	1077	1076	1074	1074	1072	1070	1068	1066	1064	1062	1060	1059	1059	1058	1058	1058	1058	1059	1059	1060	1061	1062	1062	1062	1062	1062	1061	1059	1058	1056	1054	1053	1053	1051	1051	1050	1050	1050	1051	1051	1050	1050	1050	1050	1050	1049	1050	1050	1049	1049	1049	1050	1049	1049	1048	1047	1046	1046	1045	1042	1040	1039	1038	1038	1037	1036	1035	1034	1034	1033	1033	1033	1032	1031	0	0	0	0	0	0	0
1404	1404	1405	1407	1408	1409	1410	1410	1411	1412	1413	1412	1413	1413	1413	1412	1410	1409	1407	1405	1403	1400	1398	1394	1392	1391	1389	1388	1386	1385	1383	1382	1381	1379	1377	1375	1374	1372	1369	1367	1366	1364	1363	1362	1362	1363	1363	1366	1368	1371	0	1374	1378	1381	1383	1386	1389	1390	1391	1392	1393	1394	1396	1397	1399	1400	1402	1402	1404	1405	1405	1406	1407	1408	1409	1411	1412	1414	1415	1411	1412	1412	1412	1411	1410	1409	1407	1407	1405	1405	1403	1402	1401	1402	1401	1402	1403	1403	1404	1403	1403	1403	1403	1403	1403	1402	1401	1401	1401	1402	1403	1403	1405	1405	1405	1406	1407	1408	1409	1408	1407	1406	1404	1403	1402	1401	1400	1398	1398	1399	1400	1401	1402	1402	1403	1404	1405	1405	1406	1407	1408	1409	1409	1409	1410	1410	1409	1409	1407	1406	1405	1404	1404	1404	1404	1404	1405	1406	1408	1409	1410	1410	1411	1412	1413	1413	1414	1414	1414	1414	1413	1413	1413	1411	1411	1410	1410	1409	1410	1410	1409	1408	1408	1407	1405	1403	1400	1399	1398	1397	1396	1396	1396	1396	1396	1396	1397	1397	1398	1399	1400	1402	1403	1404	1405	1407	1408	1409	1410	1410	1410	1410	1410	1410	1409	1407	1406	1405	1404	1403	1402	1401	1401	1401	1402	1404	1406	1409	1412	1414	1418	1420	1422	1423	1424	1424	1425	1425	1424	1424	1423	1422	1421	1420	1418	1416	1415	1414	1414	1413	1413	1413	1411	1412	1411	1412	1413	1414	1415	1416	1417	1416	1416	1417	1416	1415	1414	1413	1412	1410	1410	1410	1408	1409	1409	1409	1410	1410	1412	1413	1414	1414	1415	1415	1416	1416	1417	1417	1417	1417	1417	1417	1417	1417	1417	1417	1417	1417	1417	1417	1417	1417	1417	1417	1417	1416	1416	1416	1415	1416	1415	1415	1415	1415	1414	1413	1412	1411	1410	1408	1407	1405	1404	1403	1402	1401	1401	1402	1402	1403	1405	1406	1408	1408	1410	1410	1412	1413	1414	1415	1416	1416	1416	1417	1417	1417	1417	1418	1417	1418	1418	1419	1419	1419	1419	1419	1420	1420	1420	1420	1420	1423	1424	1424	1424	1423	1423	1422	1422	1421	1420	1420	1420	1420	1421	1421	1422	1422	1423	1425	1426	1426	1426	1426	1425	1424	1421	1420	1417	1415	1413	1412	1410	1408	1406	1405	1404	1402	1401	1400	1399	1399	1399	1399	1400	1400	1401	1402	1402	1404	1406	1406	1406	1407	1408	1409	1411	1411	1413	1414	1416	1417	1418	1420	1422	1424	1427	1429	1431	1432	1433	1434	1435	1436	1436	1437	1437	1438	1438	1437	1436	1435	1434	1432	1429	1426	1425	1422	1421	1418	1417	1417	1416	1418	1418	1420	1421	1423	1425	1427	1429	0	1431	1432	1432	1433	1433	1432	1432	1431	1431	1431	1428	1429	0	0	0	0	0	1203	1202	1202	1200	1199	1198	1197	1196	1194	1192	1191	1189	1184	1181	1177	1174	1170	1167	1164	1161	1159	1157	1153	1153	1152	1151	1151	1149	1148	1147	1147	1145	1145	1144	1144	1143	1143	1143	1143	1143	1143	1143	1142	1141	1141	1141	1139	1138	1136	1133	1131	1129	1126	1124	1122	1120	1119	1117	1117	1115	1115	1115	1115	1116	1117	1117	1117	1117	1117	1117	1117	1118	1117	1117	1116	1115	1115	1115	1115	1114	1113	1113	1112	1112	1111	1110	1111	1111	1112	1112	1112	1112	1112	1112	1110	1109	1107	1106	1103	1101	1099	1096	1092	1090	1088	1086	1085	1084	1084	1084	1084	1083	1084	1084	1085	1085	1085	1085	1085	1085	1085	1085	1085	1085	1085	1085	1085	1085	1085	1085	1084	1084	1084	1083	1082	1081	1082	1081	1081	1081	1081	1081	1081	1081	1081	1080	1079	1078	1077	1075	1074	1072	1070	1068	1066	1063	1062	1059	1059	1058	1058	1058	1059	1059	1060	1061	1062	1062	1063	1063	1064	1064	1063	1063	1063	1060	1059	1058	1056	1056	1054	1053	1053	1053	1052	1052	1052	1052	1051	1051	1052	1053	1053	1053	1054	1054	1054	1054	1055	1055	1054	1054	1054	1053	1053	1052	1051	1049	1047	1046	1045	1044	1043	1042	1041	1040	1039	1038	1038	1036	1035	0	0	0	0	0	0	0
1402	1402	1404	1405	1407	1408	1409	1410	1411	1413	1413	1414	1413	1413	1412	1412	1411	1410	1408	1405	1403	1401	1399	1395	1393	1392	1391	1389	1388	1386	1386	1384	1382	1382	1380	1379	1378	1376	1374	1373	1371	1370	1369	1368	1367	1368	1369	1370	0	1373	1375	1378	1381	1382	1385	1387	1389	1390	1391	1392	1392	1394	1394	1396	1397	1398	1399	1400	1401	1402	1403	1403	1404	1405	1403	1404	1406	1407	1407	1408	1408	1408	1408	1408	1406	1405	1404	1404	1403	1402	1401	1401	1400	1400	1400	1401	1402	1403	1403	1403	1403	1403	1402	1402	1402	1401	1401	1400	1400	1401	1401	1403	1403	1403	1404	1405	1406	1407	1408	1408	1407	1405	1403	1403	1402	1401	1399	1397	1398	1399	1399	1400	1400	1401	1402	1403	1403	1403	1404	1405	1405	1407	1407	1407	1407	1407	1407	1406	1405	1404	1403	1402	1401	1401	1401	1402	1403	1404	1405	1406	1407	1408	1408	1410	1410	1411	1411	1412	1412	1412	1412	1411	1411	1410	1409	1409	1409	1408	1408	1408	1407	1407	1406	1405	1404	1401	1399	1398	1397	1396	1396	1396	1395	1395	1395	1396	1395	1396	1397	1398	1399	1401	1403	1404	1406	1407	1409	1409	1410	1411	1411	1410	1410	1409	1409	1408	1406	1405	1403	1402	1402	1401	1400	1401	1402	1404	1405	1408	1410	1413	1416	1418	1420	1421	1422	1422	1422	1423	1423	1423	1421	1420	1419	1417	1417	1416	1415	1414	1413	1412	1412	1410	1409	1410	1409	1409	1409	1409	1411	1411	1411	1411	1411	1411	1412	1411	1410	1409	1409	1409	1408	1408	1407	1407	1407	1407	1408	1408	1409	1411	1412	1412	1413	1413	1414	1414	1414	1414	1415	1415	1415	1416	1416	1416	1416	1416	1416	1417	1417	1417	1417	1417	1417	1417	1416	1416	1415	1415	1415	1415	1415	1414	1414	1414	1413	1412	1411	1410	1409	1408	1406	1405	1404	1402	1401	1401	1400	1401	1401	1402	1403	1404	1405	1407	1407	1409	1410	1412	1413	1414	1414	1415	1415	1415	1416	1416	1415	1415	1416	1416	1417	1417	1418	1418	1419	1420	1422	1423	1423	1424	1425	1425	1426	1426	1425	1425	1424	1424	1423	1422	1422	1421	1420	1419	1419	1419	1418	1419	1420	1421	1421	1422	1422	1422	1420	1419	1417	1416	1414	1412	1411	1409	1408	1407	1405	1404	1403	1402	1401	1400	1399	1399	1399	1399	1400	1401	1401	1402	1403	1405	1407	1408	1408	1410	1411	1411	1413	1414	1415	1416	1419	1420	1422	1423	1427	1429	1432	1434	1435	1436	1437	1438	1438	1439	1439	1439	1439	1440	1440	1438	1437	1435	1433	1432	1428	1426	1424	1422	1419	1418	1417	1417	1417	1418	1420	1421	1423	1425	1426	1428	0	1429	1432	1432	1432	1433	1433	1433	1432	1431	1431	1429	1428	0	0	0	0	0	1207	1205	1203	1202	1201	1199	1199	1197	1196	1194	1192	1189	1188	1182	1179	1176	1172	1169	1166	1163	1161	1159	1157	1155	1154	1153	1153	1152	1151	1150	1149	1148	1147	1147	1146	1145	1145	1145	1145	1145	1145	1145	1145	1145	1145	1144	1143	1143	1141	1141	1139	1137	1133	1131	1129	1127	1125	1123	1122	1121	1121	1120	1120	1120	1121	1121	1121	1121	1121	1122	1122	1121	1121	1121	1121	1120	1119	1119	1119	1119	1119	1119	1118	1117	1117	1115	1115	1115	1115	1116	1115	1115	1115	1115	1114	1113	1112	1110	1109	1107	1104	1102	1100	1098	1096	1094	1091	1091	1091	1090	1090	1090	1090	1090	1090	1090	1091	1091	1090	1090	1090	1089	1090	1090	1089	1089	1088	1088	1088	1087	1087	1087	1086	1086	1086	1085	1084	1085	1084	1084	1083	1083	1082	1082	1082	1082	1081	1081	1078	1077	1076	1074	1073	1071	1068	1066	1063	1062	1061	1060	1059	1059	1059	1059	1060	1060	1062	1063	1063	1064	1065	1066	1066	1066	1066	1066	1065	1064	1063	1060	1059	1057	1056	1055	1055	1054	1054	1054	1054	1054	1054	1055	1056	1056	1057	1058	1058	1059	1060	1061	1060	1060	1060	1060	1060	1059	1059	1058	1056	1054	1053	1052	1051	1050	1050	1049	1048	1045	1045	1044	1044	1042	0	0	0	0	0	0	0
1401	1402	1403	1404	1406	1407	1409	1410	1411	1413	1413	1414	1414	1414	1414	1413	1412	1410	1408	1407	1404	1402	1399	1395	1394	1393	1392	1390	1390	1388	1388	1387	1386	1385	1383	1382	1381	1380	1379	1377	1376	1375	1374	1374	1373	1373	1373	1374	1375	1377	1379	1381	1383	1385	1387	1389	1390	1391	1391	1392	1392	1393	1394	1395	1395	1396	1397	1398	1398	1397	1398	1398	1399	1399	1401	1402	1403	1404	1404	1405	1405	1405	1405	1404	1402	1402	1402	1402	1401	1401	1400	1400	1399	1400	1400	1401	1401	1402	1403	1402	1403	1403	1402	1401	1401	1400	1400	1399	1399	1400	1400	1401	1402	1403	1403	1404	1405	1406	1407	1407	1407	1405	1403	1403	1402	1400	1399	1397	1397	1398	1399	1399	1400	1400	1400	1401	1402	1402	1402	1403	1403	1404	1404	1404	1405	1405	1404	1404	1403	1402	1401	1400	1400	1400	1400	1400	1401	1402	1403	1404	1405	1405	1406	1407	1408	1408	1409	1409	1409	1410	1410	1410	1409	1409	1408	1407	1407	1407	1406	1406	1406	1405	1405	1404	1402	1400	1399	1397	1396	1396	1395	1395	1395	1394	1395	1395	1395	1396	1397	1397	1399	1401	1402	1404	1406	1407	1408	1409	1410	1411	1410	1410	1410	1409	1408	1407	1405	1404	1403	1402	1401	1400	1400	1400	1402	1403	1405	1408	1409	1412	1415	1417	1419	1420	1421	1422	1422	1422	1421	1421	1419	1419	1417	1416	1416	1415	1414	1413	1412	1411	1411	1409	1408	1408	1407	1407	1407	1407	1408	1408	1408	1407	1407	1407	1407	1408	1407	1407	1406	1406	1406	1407	1406	1406	1406	1406	1406	1407	1408	1408	1410	1411	1410	1411	1412	1412	1412	1412	1412	1412	1413	1413	1414	1415	1415	1415	1416	1416	1417	1417	1417	1417	1417	1417	1416	1416	1416	1415	1415	1414	1415	1414	1414	1413	1412	1411	1411	1409	1408	1407	1405	1404	1402	1402	1400	1400	1399	1400	1399	1401	1402	1403	1403	1405	1406	1408	1409	1410	1411	1413	1413	1413	1413	1414	1413	1414	1411	1411	1412	1412	1414	1415	1416	1418	1419	1421	1422	1423	1424	1425	1426	1427	1427	1427	1427	1426	1426	1425	1424	1422	1421	1419	1418	1417	1416	1416	1416	1415	1415	1416	1416	1417	1417	1416	1415	1415	1414	1413	1411	1410	1409	1407	1406	1405	1404	1403	1402	1401	1400	1400	1400	1399	1400	1400	1401	1402	1402	1403	1405	1406	1408	1409	1409	1411	1412	1412	1414	1415	1416	1419	1421	1423	1424	1427	1431	1434	1436	1437	1438	1439	1440	1441	1441	1441	1441	1441	1441	1441	1440	1439	1437	1436	1434	1432	1428	1426	1424	1422	1419	1418	1418	1418	1418	1420	1421	1423	1425	1426	0	1427	1429	1431	1432	1432	1432	1432	1433	1433	1432	1431	1431	1431	0	0	0	0	0	1211	1208	1206	1205	1203	1201	1200	1199	1197	1195	1193	1191	1189	1183	1180	1178	1175	1172	1168	1166	1163	1161	1159	1157	1157	1156	1155	1154	1154	1153	1152	1151	1150	1149	1149	1148	1147	1147	1147	1147	1147	1147	1147	1147	1147	1147	1147	1147	1146	1145	1144	1143	1141	1140	1138	1133	1131	1130	1128	1126	1126	1125	1124	1124	1124	1124	1124	1125	1125	1125	1126	1125	1125	1124	1124	1123	1124	1122	1122	1122	1122	1122	1123	1122	1122	1121	1121	1119	1119	1119	1119	1119	1118	1118	1118	1117	1116	1115	1114	1112	1110	1108	1106	1104	1102	1101	1099	1099	1098	1096	1097	1096	1096	1095	1094	1094	1094	1094	1094	1094	1094	1094	1093	1093	1093	1093	1091	1091	1090	1091	1090	1090	1089	1089	1088	1089	1088	1088	1088	1087	1087	1086	1085	1085	1084	1084	1084	1082	1082	1081	1078	1077	1075	1073	1073	1070	1068	1066	1064	1062	1061	1060	1060	1060	1061	1062	1063	1063	1064	1066	1067	1068	1068	1070	1070	1070	1070	1069	1068	1067	1066	1064	1061	1060	1058	1058	1058	1058	1058	1058	1058	1058	1059	1059	1060	1061	1062	1063	1063	1065	1066	0	0	0	1067	1066	1066	1065	0	1063	1061	1060	1058	1058	1056	1056	1055	1054	1053	1052	1051	1051	1050	1049	0	0	0	0	0	0
1399	1400	1402	1404	1405	1407	1408	1410	1411	1413	1414	1415	1415	1415	1415	1414	1413	1412	1410	1408	1406	1403	1401	1398	1395	1394	1393	1392	1391	1391	1390	1389	1388	1387	1386	1385	1384	1383	1382	1382	1380	1380	1379	1379	1378	1378	1379	1379	1380	1381	1382	1384	1386	1387	1389	1390	1391	1392	1392	1392	1392	1392	1394	1393	1393	1394	1394	1395	1395	1396	1396	1397	1397	1398	1399	1400	1401	1402	1402	1402	1402	1402	1402	1401	1400	1400	1399	1400	1398	1399	1398	1399	1399	1399	1400	1401	1401	1402	1403	1402	1402	1402	1401	1401	1401	1400	1399	1398	1398	1399	1399	1400	1401	1401	1402	1402	1403	1404	1405	1406	1405	1404	1402	1401	1401	1400	1399	1398	1397	0	1399	1399	1399	1400	1400	1400	1401	1400	1401	1401	1401	1402	1402	1403	1403	1402	1402	1402	1402	1401	1401	1400	1399	1399	1399	1400	1400	1401	1402	1402	1403	1403	1404	1404	1405	1405	1406	1406	1407	1408	1407	1408	1407	1406	1406	1406	1405	1405	1405	1404	1404	1403	1403	1402	1401	1399	1397	1396	1395	1395	1394	1394	1394	1394	1394	1394	1395	1395	1397	1397	1399	1400	1402	1404	1405	1406	1407	1408	1409	1410	1409	1409	1409	1408	1408	1406	1405	1403	1402	1401	1400	1400	1400	1400	1400	1403	1405	1406	1409	1411	1414	1416	1418	1419	1420	1421	1421	1420	1420	1419	1418	1417	1416	1415	1414	1413	1413	1412	1411	1411	1410	1409	1408	1407	1407	1406	1406	1406	1406	1406	1406	1405	1405	1405	1405	1405	1405	1405	1405	1405	1405	1405	1405	1406	1406	1405	1405	1406	1407	1407	1408	1408	1409	1409	1409	1410	1409	1410	1410	1411	1411	1412	1412	1413	1414	1414	1415	1416	1416	1417	1417	1417	1417	1417	1416	1416	1416	1415	1415	1414	1414	1413	1413	1412	1411	1410	1410	1408	1407	1405	1404	1402	1401	1400	1399	1398	1399	1399	1399	1399	1400	1402	1403	1404	1405	1406	1407	1408	1409	1410	1411	1409	1409	1409	1409	1409	1409	1409	1409	1410	1411	1413	1415	1416	1418	1420	1421	1423	1425	1426	1427	1428	1429	1429	1428	1428	1427	1426	1425	1423	1421	1419	1417	1416	1414	1414	1413	1412	1413	1413	1413	1413	1413	1413	1412	1411	1410	1410	1408	1407	1406	1405	1404	1403	1402	1401	1401	1400	1400	1400	1400	1400	1401	1401	1403	1404	1404	1405	1406	1407	1409	1409	1410	1411	1412	1413	1413	1415	1416	1419	1421	1424	1426	1429	1432	1435	1437	1439	1440	1441	1442	1442	1443	1442	1442	1442	1442	1442	1440	1439	1437	1435	1434	1431	1428	1425	1423	1422	1420	1418	1418	1419	1420	1421	1423	1424	0	1426	1427	1428	1429	1431	1431	1432	1432	1432	1432	1432	1431	1432	1431	0	0	0	0	0	0	1213	1211	1208	1205	1203	1202	1201	1199	1197	1194	1192	1189	1187	1182	1179	1176	1173	1170	1168	1166	1164	1161	1160	1159	1158	1158	1157	1157	1156	1155	1154	1153	1152	1151	1151	1150	1149	1149	1149	1149	1149	1149	1149	1149	1149	1149	1149	1149	1148	1148	1147	1146	1145	1143	1141	1139	1137	1133	1131	1130	1130	1129	1128	1128	1128	1128	1128	1128	1128	1128	1128	1128	1128	1127	1126	1126	1126	1126	1126	1126	1126	1126	1126	1126	1125	1124	1124	1122	1122	1122	1122	1122	1122	1121	1121	1120	1119	1118	1117	1115	1114	1111	1110	1108	1106	1104	1103	1102	1101	1101	1100	1099	1099	1098	1098	1097	1098	1098	1098	1098	1097	1097	1098	1096	1096	1096	1095	1094	1094	1094	1094	1094	1093	1093	1093	1093	1092	1091	1091	1091	1090	1089	1088	1087	1087	1086	1085	1085	1084	1082	1084	1082	1078	1077	1074	1072	1070	1068	1066	1064	1063	1063	1062	1062	1063	1064	1064	1066	1067	1068	1070	1071	1073	1074	1074	1074	1074	1074	1073	1072	1071	1070	1068	1067	1066	1064	1064	1063	1063	1062	1062	1062	1063	1063	1064	0	1066	1067	1068	1068	1070	1071	1071	1071	1071	1071	1071	1070	1070	1068	1067	1066	0	1064	1063	1063	1062	1061	1060	1058	1059	1058	1057	1056	0	0	0	0	0	0
