540	540	540	541	541	541	541	541	541	543	543	543	544	545	545	548	548	548	550	550	551	554	554	555	556	557	558	558	558	559	558	557	556	556	556	555	554	554	553	553	553	553	551	551	551	551	551	550	550	550	550	550	550	550	549	549	548	548	548	547	547	547	547	547	547	547	547	547	547	547	547	547	548	548	548	549	549	550	551	551	553	554	554	555	556	556	558	559	559	559	559	559	559	558	558	556	556	555	554	554	553	550	550	549	549	548	547	547	546	545	545	545	545	547	547	547	547	547	548	549	549	549	550	550	551	553	553	553	554	554	554	555	555	555	555	555	555	556	556	556	556	556	556	556	556	556	556	556	556	556	556	555	555	555	554	554	554	553	552	551	551	550	550	550	550	550	550	550	550	549	549	549	549	549	549	548	548	548	545	545	544	542	542	541	538	537	536	534	534	534	533	531	529	526	524	522	519	518	517	516	516	515	514	514	514	514	514	515	517	518	520	523	524	525	526	526	528	529	529	530	532	533	534	535	536	537	538	539	541	542	542	543	543	543	545	545	545	549	552	554	558	561	563	567	568	569	573	575	576	576	577	578	580	581	581	581	581	581	580	580	580	578	578	578	577	577	576	574	573	571	568	567	565	561	560	559	556	555	554	554	554	553	553	553	554	555	555	555	555	555	556	558	559	560	561	561	561	561	561	560	560	560	559	558	558	556	554	552	550	549	548	545	544	543	541	538	535	531	528	525	519	516	514	509	506	504	500	498	497	494	493	493	492	492	492	492	492	492	492	492	493	494	494	495	496	497	498	501	503	506	512	515	518	523	524	524	528	531	535	540	542	545	549	550	551	553	554	555	556	557	558	559	559	560	561	561	561	562	563	563	564	564	564	565	565	565	566	567	567	567	567	565	565	565	564	563	563	563	561	560	560	559	559	559	558	558	556	555	555	554	553	553	551	550	550	549	549	548	548	548	547	547	547	547	545	545	545	544	544	544	544	544	543	542	542	541	540	539	537	536	536	535	533	532	531	529	529	528	526	525	524	524	523	522	520	520	519	518	518	516	515	515	515	514	514	513	512	512	512	511	511	510	509	509	508	506	505	505	504	504	502	501	501	500	500	500	499	498	498	497	496	496	495	494	494	492	492	491	490	490	489	488	487	486	485	485	484	483	482	481	481	481	480	479	479	479	479	479	479	480	480	480	481	481	481	481	481	482	483	483	483	484	484	485	487	487	489	489	490	493	494	495	496	496	496	498	498	498	499	499	499	500	503	437	0	325	522	522	527	531	535	537	538	541	542	542	543	544	544	545	257	0	0	0	0	0	0	0	0	0	0	0	0	0	0	0	0	0	0	0	0	0	0	0	0	0	0	0	0	0	0	0	0	0	0	0	0	0	0	0	0	0	0	0	0	0	0	0	0	0	0	0	0	0	0	0	0	0	0	0	0	0	0	0	0	0	0	0	0	0	0	0	0	0	0	0	0	0	0	0	0	0	0	0	0	0	0	0	0	0	0	0	0	0	0	0	0	0	0	0	0	0	0	0	0	0	0	0	0	0	0	0	0	0	0	0	0	0	0	0	0	0	0	0	0	0	0	0	0	0	0	0	0	0	0	0	0	0	0	0	0	0	0	0	0	0	0	0
541	541	541	542	542	542	542	542	542	544	544	544	544	546	546	548	549	549	550	551	552	554	555	555	557	557	558	558	558	558	558	557	556	556	555	554	554	553	553	552	552	552	551	551	550	550	550	550	550	550	550	550	550	550	549	548	548	548	547	547	546	546	546	546	546	546	546	546	546	546	546	546	547	548	548	548	549	550	550	551	552	553	554	554	555	556	557	557	558	558	558	558	558	557	557	556	555	554	554	553	552	550	550	549	549	548	547	547	546	545	545	545	545	547	547	547	547	547	548	548	549	549	549	550	550	551	552	552	552	553	554	554	554	554	554	554	554	555	555	555	555	555	555	555	555	555	555	555	555	555	555	554	554	554	554	553	552	552	551	550	550	550	550	550	550	550	550	550	549	549	549	548	548	548	548	548	547	546	545	544	544	541	540	540	538	537	536	534	533	532	531	530	528	525	523	521	518	517	516	515	514	514	513	513	513	513	513	514	516	517	520	523	524	525	526	526	528	528	529	530	531	532	534	535	535	536	537	537	539	540	540	542	542	542	543	543	544	546	549	551	554	557	559	563	565	566	569	570	572	572	573	574	576	577	577	578	578	578	577	576	576	576	576	576	575	574	574	572	570	569	566	565	563	560	559	558	555	554	554	554	553	553	553	553	554	554	554	554	555	555	556	557	558	559	560	560	560	560	560	559	559	559	558	557	556	555	553	552	550	548	547	544	543	542	540	537	534	530	526	523	518	515	513	508	505	503	500	498	497	494	494	493	492	492	492	492	492	492	492	493	493	494	494	495	496	497	498	500	503	506	511	514	517	522	523	524	528	531	535	540	543	546	549	551	552	554	555	556	557	557	558	559	560	560	562	562	562	563	564	564	564	565	566	566	566	566	567	567	567	566	566	564	564	564	564	563	562	562	561	560	560	559	559	558	558	557	556	555	554	554	553	552	550	550	550	549	549	548	548	547	546	546	546	546	545	544	544	544	543	543	543	543	542	542	541	540	539	538	536	536	535	534	532	532	530	529	528	528	526	525	524	524	523	522	520	519	518	517	517	516	515	514	514	513	513	512	512	512	512	511	510	510	509	508	507	506	505	504	504	503	502	501	501	500	500	500	499	499	498	498	497	496	495	494	494	492	492	492	491	490	489	488	487	486	485	485	484	483	482	482	481	481	480	479	479	479	479	480	480	480	480	480	481	481	482	482	482	483	484	484	484	485	486	487	488	488	490	491	492	495	496	497	498	498	499	500	500	500	500	501	501	502	342	219	0	325	522	522	527	532	536	538	539	542	542	542	543	544	544	545	257	0	0	0	0	0	0	0	0	0	0	0	0	0	0	0	0	0	0	0	0	0	0	0	0	0	0	0	0	0	0	0	0	0	0	0	0	0	0	0	0	0	0	0	0	0	0	0	0	0	0	0	0	0	0	0	0	0	0	0	0	0	0	0	0	0	0	0	0	0	0	0	0	0	0	0	0	0	0	0	0	0	0	0	0	0	0	0	0	0	0	0	0	0	0	0	0	0	0	0	0	0	0	0	0	0	0	0	0	0	0	0	0	0	0	0	0	0	0	0	0	0	0	0	0	0	0	0	0	0	0	0	0	0	0	0	0	0	0	0	0	0	0	0	0	0	0	0
542	542	542	542	542	542	543	543	543	544	544	544	545	547	548	549	549	550	551	552	553	555	555	555	558	558	558	558	558	558	558	557	556	556	555	554	553	553	553	551	551	551	551	551	550	550	550	550	549	549	549	549	549	549	548	548	547	547	547	547	546	545	545	545	545	545	545	545	545	545	545	545	546	547	548	548	548	549	550	550	551	552	553	554	555	555	556	556	556	558	558	558	556	556	556	555	555	554	553	552	551	550	550	549	548	548	547	547	546	545	545	545	545	547	547	547	547	547	547	548	548	549	549	549	550	550	550	550	551	552	553	553	553	553	554	554	554	554	554	554	554	554	554	554	554	554	554	554	554	554	554	553	553	553	553	552	551	550	550	550	549	549	549	549	549	549	549	549	549	549	548	548	548	547	547	547	546	545	545	544	543	540	539	538	538	537	536	534	533	531	529	528	527	524	522	520	517	516	514	513	513	512	512	512	512	512	512	513	515	517	519	523	524	525	526	526	527	528	528	529	530	531	533	534	534	535	536	536	537	538	538	540	540	540	541	542	542	544	546	548	551	553	555	559	561	563	565	566	567	569	569	569	572	573	573	574	574	574	573	573	573	573	573	573	572	572	571	569	568	567	564	563	561	559	558	556	554	554	553	553	553	553	553	553	553	554	554	554	555	555	555	556	557	558	559	559	559	559	559	558	558	558	558	556	555	554	552	551	549	548	547	544	542	541	538	536	533	528	524	522	517	514	512	508	505	502	499	498	497	495	494	494	493	493	493	493	493	493	493	493	493	494	494	495	496	497	498	500	502	505	510	513	516	521	523	524	527	531	535	540	543	547	549	551	554	555	555	556	558	558	559	560	560	561	563	563	563	564	564	564	565	565	567	567	567	567	567	567	567	566	565	564	564	564	563	562	561	561	560	560	559	559	559	558	557	556	555	554	554	553	552	551	550	549	549	549	549	548	547	546	545	545	545	544	544	544	543	543	543	542	542	542	541	541	541	540	538	537	536	535	535	534	532	531	530	528	528	527	525	525	524	524	523	521	519	519	518	517	516	515	514	514	513	512	512	512	511	511	511	510	510	509	508	508	506	505	505	504	503	503	502	501	501	501	500	500	499	499	499	498	497	496	495	494	494	493	493	492	491	490	489	488	488	487	485	485	484	483	483	482	481	481	480	479	479	479	480	480	480	481	481	481	481	481	482	483	483	484	485	485	486	487	488	489	489	489	491	493	495	497	498	499	500	501	501	501	501	501	502	503	503	504	181	0	0	325	522	522	527	532	538	539	540	542	542	542	543	544	544	545	257	0	0	0	0	0	0	0	0	0	0	0	0	0	0	0	0	0	0	0	0	0	0	0	0	0	0	0	0	0	0	0	0	0	0	0	0	0	0	0	0	0	0	0	0	0	0	0	0	0	0	0	0	0	0	0	0	0	0	0	0	0	0	0	0	0	0	0	0	0	0	0	0	0	0	0	0	0	0	0	0	0	0	0	0	0	0	0	0	0	0	0	0	0	0	0	0	0	0	0	0	0	0	0	0	0	0	0	0	0	0	0	0	0	0	0	0	0	0	0	0	0	0	0	0	0	0	0	0	0	0	0	0	0	0	0	0	0	0	0	0	0	0	0	0	0	0	0
542	543	543	543	544	544	544	545	545	547	547	547	548	549	549	550	550	551	554	554	555	556	557	558	558	558	558	558	558	558	556	556	556	555	555	554	553	552	551	551	551	550	550	550	549	549	549	549	549	549	549	549	549	548	547	547	547	546	545	545	544	544	544	544	544	544	544	544	544	545	545	545	545	545	547	547	547	548	549	549	550	551	551	553	554	554	555	556	556	556	556	556	555	555	555	554	554	553	553	552	550	550	550	549	548	548	547	547	547	547	547	547	547	547	547	547	547	547	547	548	548	548	548	548	549	549	549	549	550	550	550	550	550	551	551	551	551	551	551	551	551	551	551	551	551	551	551	551	551	550	550	550	550	550	550	549	549	549	549	549	548	548	548	548	548	548	548	548	548	548	548	548	548	547	547	547	546	545	543	542	541	540	539	538	536	535	533	530	529	528	526	525	524	520	519	517	514	513	512	511	511	511	511	511	511	512	512	512	514	516	518	521	523	525	525	525	527	527	527	529	529	529	530	531	531	533	534	534	535	536	536	537	537	537	538	539	540	541	542	543	547	549	550	553	554	555	559	560	560	561	561	561	564	565	565	567	567	567	567	567	568	568	568	568	568	568	568	565	565	564	561	560	559	558	557	555	554	554	553	551	551	551	553	553	553	553	553	554	554	554	554	555	555	556	558	558	556	556	556	556	555	555	555	554	553	551	550	549	548	546	545	542	541	539	535	532	530	526	522	520	515	512	510	505	503	502	499	498	497	495	495	495	494	494	494	493	493	493	493	493	494	494	494	495	496	496	496	499	501	503	508	511	515	519	523	527	527	530	534	540	543	547	550	552	554	556	557	558	559	559	560	561	561	561	563	563	563	564	564	564	564	564	565	565	565	565	565	565	565	564	564	564	564	564	563	562	561	561	560	560	559	558	558	556	555	555	554	553	553	553	551	550	549	549	549	548	548	547	545	545	545	544	544	543	543	543	542	541	541	541	541	541	540	540	539	538	537	537	536	534	534	533	531	530	529	528	527	526	525	524	522	522	521	520	519	519	517	516	515	514	513	513	512	511	511	510	509	509	509	508	508	508	507	506	506	505	505	504	503	503	501	500	500	500	500	500	499	499	499	498	497	496	495	494	494	493	493	492	490	490	489	488	487	486	485	485	484	483	483	482	481	481	480	479	479	479	480	480	480	481	481	481	482	482	482	483	484	485	486	487	488	489	489	489	491	492	494	496	498	500	501	502	503	503	503	503	504	504	506	507	431	0	0	0	0	328	526	526	531	536	541	541	541	542	542	542	543	544	544	544	257	0	0	0	0	0	0	0	0	0	0	0	0	0	0	0	0	0	0	0	0	0	0	0	0	0	0	0	0	0	0	0	0	0	0	0	0	0	0	0	0	0	0	0	0	0	0	0	0	0	0	0	0	0	0	0	0	0	0	0	0	0	0	0	0	0	0	0	0	0	0	0	0	0	0	0	0	0	0	0	0	0	0	0	0	0	0	0	0	0	0	0	0	0	0	0	0	0	0	0	0	0	0	0	0	0	0	0	0	0	0	0	0	0	0	0	0	0	0	0	0	0	0	0	0	0	0	0	0	0	0	0	0	0	0	0	0	0	0	0	0	0	0	0	0	0	0	0
542	543	543	543	544	544	544	545	546	548	548	549	549	550	550	552	552	553	555	555	556	557	558	558	558	558	558	558	558	558	556	556	556	555	554	554	552	552	551	551	550	550	550	549	549	549	549	549	549	549	549	549	548	548	547	547	547	546	545	545	544	544	544	544	544	544	544	544	544	545	545	545	545	545	546	547	547	548	549	549	550	550	551	552	553	554	554	555	555	556	556	555	554	554	554	554	553	553	552	551	550	550	550	549	548	548	548	547	547	547	547	547	547	547	547	547	547	547	547	548	548	548	548	548	548	549	549	549	549	550	550	550	550	550	550	550	550	550	550	550	550	550	550	550	550	550	550	550	550	549	549	549	549	549	549	549	548	548	548	548	548	548	548	548	548	548	548	548	548	548	548	548	548	547	547	546	545	544	543	542	541	539	538	537	535	533	532	529	528	527	524	523	522	519	517	516	513	512	511	510	510	510	510	510	510	511	512	512	514	516	518	521	523	525	525	525	527	527	527	529	529	529	530	531	531	532	533	534	534	535	536	536	536	537	538	538	539	540	542	543	546	547	549	551	552	553	556	557	557	558	558	559	561	562	562	564	564	564	565	565	566	566	566	566	566	566	566	565	564	562	561	560	558	557	556	554	554	553	552	551	550	550	552	552	552	552	552	554	554	554	554	554	555	556	556	556	556	556	555	555	555	554	554	553	552	550	549	549	546	545	544	542	540	538	534	531	529	525	522	519	515	512	510	505	503	501	499	498	496	495	495	495	494	494	494	494	494	494	494	494	494	494	494	494	495	496	496	498	500	502	507	510	514	519	522	526	526	528	532	538	542	546	550	552	554	556	557	558	559	559	560	560	561	561	562	562	562	563	564	564	564	564	564	564	564	564	564	564	564	564	564	564	563	562	562	561	560	560	560	559	558	558	557	556	555	554	554	553	552	552	550	549	549	549	548	548	547	546	545	545	544	544	544	543	543	542	542	541	541	541	541	540	540	539	538	538	537	536	536	534	534	533	531	530	528	528	527	526	525	524	522	522	521	520	519	518	516	515	514	514	513	512	512	511	510	510	509	508	508	508	507	507	506	505	505	504	504	503	502	502	501	500	500	500	500	499	498	498	498	497	496	495	495	494	494	492	492	492	490	490	489	488	487	486	485	484	484	483	482	482	481	480	480	479	479	479	479	480	480	480	481	481	482	482	482	483	484	486	486	487	488	489	489	490	492	493	495	497	499	501	502	503	504	504	505	504	506	507	508	511	474	258	259	259	260	262	293	532	534	536	541	541	542	542	542	543	544	544	544	544	400	267	0	0	0	0	0	0	0	0	0	0	0	0	0	0	0	0	0	0	0	0	0	0	0	0	0	0	0	0	0	0	0	0	0	0	0	0	0	0	0	0	0	0	0	0	0	0	0	0	0	0	0	0	0	0	0	0	0	0	0	0	0	0	0	0	0	0	0	0	0	0	0	0	0	0	0	0	0	0	0	0	0	0	0	0	0	0	0	0	0	0	0	0	0	0	0	0	0	0	0	0	0	0	0	0	0	0	0	0	0	0	0	0	0	0	0	0	0	0	0	0	0	0	0	0	0	0	0	0	0	0	0	0	0	0	0	0	0	0	0	0	0	0	0	0	0	0
543	543	543	543	544	545	545	546	547	548	549	550	550	551	551	553	554	555	556	556	556	558	558	559	559	559	558	558	558	558	555	555	555	554	554	553	551	551	551	550	550	550	549	549	549	549	549	549	549	549	549	548	548	548	547	547	547	546	545	545	544	544	544	544	544	544	544	544	544	545	545	545	545	545	545	546	547	548	549	549	549	550	550	551	552	553	554	554	554	555	555	555	554	554	554	553	553	553	551	551	550	550	550	549	548	548	548	547	547	547	547	547	547	547	547	547	547	547	547	548	548	548	548	548	548	549	549	549	549	549	550	550	550	550	550	550	550	550	550	550	549	549	549	549	549	549	549	549	549	548	548	548	548	548	548	548	548	548	547	547	547	548	548	547	547	547	548	548	548	548	548	548	547	547	547	545	545	544	543	542	541	538	537	536	534	532	530	528	527	526	522	521	520	517	516	514	511	511	510	509	509	509	509	509	509	511	511	512	514	516	518	521	523	525	525	525	527	527	527	529	529	529	530	531	531	531	532	533	534	535	535	536	536	536	537	538	538	540	541	542	544	546	547	549	550	551	553	554	554	556	556	556	558	559	559	560	560	561	563	563	564	564	564	564	564	564	564	564	563	561	560	559	558	555	555	554	553	552	551	550	550	550	551	551	551	551	552	553	554	554	554	554	554	555	555	555	555	555	555	554	554	554	553	552	551	550	549	548	545	544	543	541	538	537	534	531	528	524	521	519	515	512	510	505	503	501	499	497	496	495	495	495	494	494	494	494	494	494	494	494	494	494	494	494	495	495	495	497	499	501	506	509	513	518	521	525	525	527	531	537	540	545	550	552	554	556	557	558	559	559	560	560	560	561	561	561	561	562	563	563	563	563	563	564	564	564	564	564	564	563	563	563	562	561	560	560	560	559	559	559	558	557	556	555	554	554	553	552	551	550	549	549	549	548	548	547	546	545	545	545	544	544	544	543	542	542	542	541	541	541	540	540	540	538	538	537	537	536	535	534	534	533	531	529	528	527	526	525	524	523	521	521	521	520	518	518	516	515	514	513	512	512	511	510	510	509	508	508	508	507	506	506	505	505	504	503	503	502	501	501	501	500	500	500	499	499	498	498	498	496	495	495	495	494	494	492	492	491	490	490	489	488	487	486	485	484	483	482	482	481	481	480	479	479	479	479	479	479	480	480	480	481	482	482	483	484	485	486	487	488	489	489	490	491	493	494	496	498	500	502	503	504	504	505	506	506	508	509	511	514	516	517	518	518	521	197	61	537	537	537	541	542	542	543	543	543	544	544	544	544	544	534	0	0	0	0	0	0	0	0	0	0	0	0	0	0	0	0	0	0	0	0	0	0	0	0	0	0	0	0	0	0	0	0	0	0	0	0	0	0	0	0	0	0	0	0	0	0	0	0	0	0	0	0	0	0	0	0	0	0	0	0	0	0	0	0	0	0	0	0	0	0	0	0	0	0	0	0	0	0	0	0	0	0	0	0	0	0	0	0	0	0	0	0	0	0	0	0	0	0	0	0	0	0	0	0	0	0	0	0	0	0	0	0	0	0	0	0	0	0	0	0	0	0	0	0	0	0	0	0	0	0	0	0	0	0	0	0	0	0	0	0	0	0	0	0	0	0
544	544	544	544	545	545	545	547	548	548	549	550	550	551	551	554	554	555	558	558	558	558	558	559	559	559	559	558	557	556	555	555	555	554	554	553	551	551	551	550	550	550	549	549	549	549	549	549	549	549	549	548	548	548	547	547	547	546	545	545	544	544	544	544	544	544	544	544	544	545	545	545	545	545	545	546	547	547	548	548	549	550	550	551	552	553	553	554	554	554	554	554	554	553	553	553	553	553	551	551	550	550	550	549	548	548	548	548	548	548	548	548	548	548	548	548	548	548	548	548	548	548	548	548	548	549	549	549	549	549	550	550	550	550	549	549	549	549	549	549	548	548	548	548	548	548	547	547	547	547	547	547	547	547	547	547	547	547	547	547	547	548	548	547	547	547	548	548	548	548	548	548	547	547	547	545	545	544	543	542	540	537	536	534	531	530	528	525	524	522	519	518	516	514	513	512	509	509	508	508	508	508	508	508	509	510	510	511	514	516	519	521	523	526	526	526	527	528	528	528	529	529	529	530	530	531	532	533	534	534	534	535	536	536	536	537	537	538	539	540	542	543	543	544	546	547	548	549	550	551	552	553	553	554	555	555	555	556	558	558	559	560	560	561	561	561	561	563	562	560	559	558	556	555	554	553	551	551	551	549	549	549	549	549	549	550	550	550	551	551	551	553	553	553	553	553	553	553	553	553	552	551	551	550	550	549	548	547	544	543	543	540	537	536	533	530	527	522	519	517	513	510	508	503	501	500	497	496	496	495	494	494	494	493	493	493	493	493	493	493	493	493	493	493	493	493	494	494	496	499	504	507	511	516	520	524	524	526	529	535	539	544	549	551	553	555	555	556	558	558	559	559	559	560	560	560	560	560	560	560	561	561	561	561	561	561	561	561	560	560	560	560	559	559	559	558	558	558	557	556	555	555	555	554	553	553	551	550	550	550	549	549	548	547	547	547	546	545	545	545	544	543	543	543	542	542	542	541	541	540	540	540	540	538	538	537	536	536	535	534	534	533	531	529	528	527	526	525	523	522	521	519	519	519	517	517	515	514	514	512	511	511	509	508	508	506	506	506	505	505	505	503	503	503	502	502	502	502	501	501	500	499	499	499	498	498	497	496	496	495	494	494	493	492	492	490	490	489	488	488	487	485	484	483	482	482	481	480	480	479	477	477	476	476	476	476	477	477	477	478	478	479	480	480	481	483	484	485	487	488	489	491	491	492	494	495	497	499	501	503	504	506	508	510	511	511	512	512	514	515	516	517	518	518	521	526	530	534	536	537	541	542	542	543	543	543	544	544	544	544	544	534	0	0	0	0	0	0	0	0	0	0	0	0	0	0	0	0	0	0	0	0	0	0	0	0	0	0	0	0	0	0	0	0	0	0	0	0	0	0	0	0	0	0	0	0	0	0	0	0	0	0	0	0	0	0	0	0	0	0	0	0	0	0	0	0	0	0	0	0	0	0	0	0	0	0	0	0	0	0	0	0	0	0	0	0	0	0	0	0	0	0	0	0	0	0	0	0	0	0	0	0	0	0	0	0	0	0	0	0	0	0	0	0	0	0	0	0	0	0	0	0	0	0	0	0	0	0	0	0	0	0	0	0	0	0	0	0	0	0	0	0	0	0	0	0	0	0
544	544	544	544	545	545	546	547	548	548	549	550	550	551	552	554	555	556	558	558	558	558	559	559	559	559	559	558	557	556	555	555	555	554	554	553	551	551	551	550	550	550	550	550	550	549	549	549	549	549	549	549	548	548	548	547	547	546	546	546	546	545	544	544	544	544	544	544	544	545	545	545	545	545	545	546	547	547	548	548	549	550	550	550	551	552	553	553	554	554	554	554	554	553	553	553	553	553	551	551	550	550	550	550	549	548	548	548	548	548	548	548	548	548	548	548	548	548	548	549	549	549	549	549	549	549	550	550	550	550	550	550	550	550	549	549	549	549	549	548	548	548	548	548	547	546	546	546	546	546	546	546	547	547	547	547	547	547	547	547	547	548	548	547	547	547	548	548	548	548	548	548	547	546	546	545	544	544	543	541	539	536	534	532	530	528	526	524	522	520	518	517	515	513	512	510	508	507	506	506	506	506	506	507	508	509	509	510	513	515	518	521	523	526	526	526	527	527	528	528	529	529	529	530	530	531	532	533	534	534	534	535	536	536	536	537	537	538	539	540	542	542	543	544	545	546	548	548	549	550	551	552	552	552	553	554	554	555	556	556	557	559	559	560	560	560	560	561	561	560	558	557	556	555	554	553	551	550	550	549	549	548	548	548	548	549	550	550	550	550	550	551	551	552	552	552	552	552	552	552	551	550	550	549	549	548	547	546	544	543	542	540	537	536	533	530	527	522	519	517	512	509	507	502	501	499	496	496	495	494	494	494	494	493	492	492	492	492	492	492	492	492	492	492	492	492	493	493	495	498	502	505	510	515	518	522	524	525	528	534	538	542	548	550	552	554	555	556	556	557	558	558	558	559	559	559	559	559	559	560	560	560	560	560	560	560	560	560	559	559	559	559	559	558	558	557	557	556	556	555	554	554	554	552	552	552	550	550	549	549	549	548	548	547	547	546	546	545	545	544	544	543	543	543	542	542	542	541	541	540	540	540	540	538	538	537	536	536	535	534	533	532	530	530	528	527	526	524	523	522	520	519	518	518	517	517	515	514	513	512	511	510	508	507	507	506	505	505	504	503	503	500	500	501	502	502	501	500	499	498	498	496	496	496	495	495	494	493	492	492	492	491	490	490	490	488	488	487	486	485	484	483	482	480	480	479	478	478	477	477	476	475	474	474	474	474	475	476	476	476	477	478	479	479	480	482	483	484	487	488	489	490	491	492	494	495	497	500	501	504	505	506	508	510	511	511	512	513	515	516	517	518	519	520	522	527	530	534	536	537	541	542	542	543	543	543	544	544	544	544	544	533	0	0	0	0	0	0	0	0	0	0	0	0	0	0	0	0	0	0	0	0	0	0	0	0	0	0	0	0	0	0	0	0	0	0	0	0	0	0	0	0	0	0	0	0	0	0	0	0	0	0	0	0	0	0	0	0	0	0	0	0	0	0	0	0	0	0	0	0	0	0	0	0	0	0	0	0	0	0	0	0	0	0	0	0	0	0	0	0	0	0	0	0	0	0	0	0	0	0	0	0	0	0	0	0	0	0	0	0	0	0	0	0	0	0	0	0	0	0	0	0	0	0	0	0	0	0	0	0	0	0	0	0	0	0	0	0	0	0	0	0	0	0	0	0	0	0
544	544	544	545	545	545	548	548	548	549	550	550	551	552	553	555	555	556	558	558	558	559	559	559	559	559	559	558	557	556	555	555	555	554	554	553	551	551	551	550	550	550	550	550	550	549	549	549	549	549	549	549	549	549	548	548	547	547	547	547	547	547	545	544	544	544	544	544	544	545	545	545	545	545	545	546	547	547	548	548	549	550	550	550	551	551	553	553	553	553	554	554	553	553	553	553	553	553	551	551	550	550	550	550	549	549	548	548	548	548	548	548	548	548	548	548	549	549	549	550	550	550	550	550	550	550	550	550	550	550	550	550	550	550	549	549	549	549	549	548	548	548	548	547	547	545	545	545	545	545	545	545	546	547	547	547	547	547	547	547	547	548	548	547	547	547	548	548	548	548	548	548	547	546	545	545	544	543	542	540	538	535	533	531	528	527	525	522	520	518	516	515	514	511	510	509	506	506	505	505	505	505	505	505	506	508	509	510	512	514	517	521	523	525	526	526	527	527	527	528	529	529	529	530	530	531	532	533	534	534	534	535	536	536	536	537	537	538	539	540	541	542	543	544	545	545	547	548	548	549	550	550	550	551	551	553	553	554	554	554	555	558	558	558	559	559	559	560	560	559	556	556	555	554	554	553	550	550	549	549	549	548	548	548	548	549	549	549	549	549	549	549	549	550	550	550	550	550	550	550	550	550	549	548	548	547	546	545	543	542	542	540	537	536	533	529	526	522	519	517	512	508	506	502	500	499	496	495	495	494	493	493	493	492	492	492	492	492	492	492	491	491	491	491	491	491	492	492	494	496	501	504	508	513	516	520	523	525	527	533	536	541	547	549	551	553	554	555	555	555	556	556	557	558	558	558	558	558	558	559	559	559	559	559	559	559	559	559	558	558	558	558	558	558	556	556	556	555	555	555	554	553	553	551	551	551	550	549	549	548	548	548	547	547	547	545	545	545	544	544	544	543	543	543	542	542	541	541	541	540	540	540	540	538	538	537	536	536	535	534	533	531	530	530	529	527	526	524	522	521	520	518	518	518	517	517	515	514	513	511	510	510	508	507	506	505	504	504	502	501	501	498	498	499	502	501	501	499	497	496	495	493	492	492	492	492	490	489	489	489	489	489	488	488	488	487	486	485	483	483	482	480	479	478	477	477	476	475	475	475	474	474	473	473	473	473	474	474	474	475	475	476	478	478	479	481	482	483	486	488	489	490	491	492	494	495	497	500	502	504	505	507	509	510	511	511	513	514	516	517	518	519	520	521	524	527	530	534	536	537	541	542	542	543	543	543	544	544	544	543	543	533	0	0	0	0	0	0	0	0	0	0	0	0	0	0	0	0	0	0	0	0	0	0	0	0	0	0	0	0	0	0	0	0	0	0	0	0	0	0	0	0	0	0	0	0	0	0	0	0	0	0	0	0	0	0	0	0	0	0	0	0	0	0	0	0	0	0	0	0	0	0	0	0	0	0	0	0	0	0	0	0	0	0	0	0	0	0	0	0	0	0	0	0	0	0	0	0	0	0	0	0	0	0	0	0	0	0	0	0	0	0	0	0	0	0	0	0	0	0	0	0	0	0	0	0	0	0	0	0	0	0	0	0	0	0	0	0	0	0	0	0	0	0	0	0	0	0
545	545	545	547	547	547	548	548	548	549	550	550	553	553	553	554	555	556	558	558	559	559	559	559	559	559	559	558	557	556	555	555	555	555	555	554	553	552	551	551	551	551	551	551	551	550	550	550	550	550	550	550	550	550	549	549	548	548	548	547	547	547	547	546	545	545	545	545	545	545	545	545	545	545	545	546	547	547	548	548	549	550	550	550	551	551	553	553	553	553	553	553	553	553	553	553	553	553	553	552	551	550	550	550	550	550	549	549	549	549	549	549	549	549	549	549	550	550	550	551	551	551	551	551	551	551	551	551	551	551	550	550	550	550	549	549	549	549	549	548	548	548	548	547	547	545	545	545	545	545	545	545	546	547	547	547	547	547	548	548	548	548	548	548	548	548	548	548	548	548	548	548	547	546	545	544	544	543	541	539	537	533	531	529	526	524	521	519	517	515	513	512	510	509	507	505	504	504	503	503	503	503	504	504	505	505	506	509	511	513	516	518	520	524	526	526	527	527	527	528	529	529	530	531	531	533	534	534	535	536	536	537	537	537	537	538	538	538	539	540	541	542	542	543	544	544	545	546	547	547	548	548	548	548	548	549	550	551	551	552	553	554	554	555	556	556	556	558	558	558	556	555	554	553	552	551	550	550	549	548	548	548	547	547	547	547	547	547	547	547	548	548	548	548	548	548	548	548	548	548	547	547	547	546	545	545	544	544	542	541	541	538	537	536	533	529	526	522	519	517	512	508	506	502	500	499	496	495	494	493	493	493	492	491	491	491	491	491	490	490	490	489	489	489	489	489	490	490	492	494	498	500	504	511	514	518	524	525	525	530	533	538	544	546	549	551	552	553	554	554	554	555	555	555	555	555	555	556	556	556	556	556	556	556	556	556	556	556	555	555	555	555	555	555	555	554	554	554	553	553	553	552	551	550	549	549	549	548	548	548	547	547	547	547	547	545	545	545	544	544	544	543	543	543	542	542	541	541	541	540	540	540	540	538	538	538	536	536	535	534	533	531	530	529	528	527	526	524	522	520	519	517	517	517	516	516	514	513	512	511	510	509	508	507	506	504	501	500	500	501	501	498	497	496	494	493	492	489	487	486	485	484	483	481	481	481	480	479	479	478	478	478	478	477	477	476	476	475	475	475	474	473	473	472	470	470	469	468	468	468	467	467	467	467	467	467	467	467	468	470	470	471	473	474	475	477	478	480	482	484	486	488	490	491	493	494	496	498	500	504	505	507	509	511	512	512	514	515	517	518	519	521	522	523	526	528	530	534	536	537	541	542	542	543	543	543	544	544	544	543	543	533	0	0	0	0	0	0	0	0	0	2296	2386	2386	135	0	0	0	0	0	0	0	0	0	0	0	0	0	0	0	0	0	0	0	0	0	0	0	0	0	0	0	0	0	0	0	0	0	0	0	0	0	0	0	0	0	0	0	0	0	0	0	0	0	0	0	0	0	0	0	0	0	0	0	0	0	0	0	0	0	0	0	0	0	0	0	0	0	0	0	0	0	0	0	0	0	0	0	0	0	0	0	0	0	0	0	0	0	0	0	0	0	0	0	0	0	0	0	0	0	0	0	0	0	0	0	0	0	0	0	0	0	0	0	0	0	0	0	0	0	0	0	0	0	0	0	0	0
545	545	545	547	547	547	548	548	548	548	549	550	552	552	552	554	555	556	557	558	558	558	558	558	558	558	558	558	557	556	555	555	555	555	555	554	553	553	552	551	551	551	552	552	552	551	550	550	550	550	550	550	550	550	550	549	548	548	548	548	548	547	547	546	546	545	545	545	545	545	545	545	545	545	545	546	547	547	548	548	549	550	550	550	551	551	552	553	553	553	553	553	553	553	553	553	553	553	553	553	552	551	550	550	550	550	550	550	550	550	550	550	550	550	550	550	550	550	550	552	552	552	552	552	552	552	552	552	551	551	550	550	550	550	550	549	549	549	549	548	548	548	548	547	547	545	545	545	545	545	545	545	546	547	547	547	547	548	548	548	548	548	548	548	548	548	548	548	548	548	548	548	547	546	545	544	543	542	541	538	536	532	530	528	524	522	520	517	516	514	512	511	509	507	506	504	503	503	502	502	502	502	503	503	504	504	505	508	511	512	515	517	519	522	524	525	526	527	527	528	529	530	532	532	532	534	535	535	536	536	537	538	538	538	538	539	539	539	540	541	542	542	542	543	544	544	545	546	546	546	547	548	548	548	548	548	549	550	550	551	552	552	553	554	555	556	556	557	557	557	556	555	554	553	552	551	550	550	549	548	548	548	547	547	547	546	546	546	546	546	546	546	546	546	546	546	546	546	546	546	546	546	546	545	544	544	544	543	542	541	541	538	537	536	533	530	527	523	520	517	512	509	507	502	500	499	496	495	494	493	493	492	492	491	491	490	490	490	490	490	490	489	489	489	489	489	490	490	491	492	497	499	503	510	513	516	523	524	524	529	532	537	543	545	548	550	550	552	552	552	552	554	554	554	554	554	554	555	555	555	555	555	555	555	554	554	554	554	554	554	554	554	554	554	554	553	552	552	552	552	552	551	550	550	549	548	548	548	548	548	547	547	547	547	547	545	545	545	545	544	544	543	543	543	542	542	542	541	541	540	540	540	540	538	538	538	536	536	535	534	533	531	530	529	528	527	526	524	522	520	519	517	517	517	516	515	514	512	511	510	509	508	506	506	505	504	501	500	498	498	497	494	493	492	490	488	486	483	481	480	479	478	477	476	476	475	474	474	473	472	472	472	472	472	472	470	470	469	469	468	468	468	467	467	466	465	464	464	464	464	464	464	464	463	463	463	463	464	464	466	467	468	469	470	472	474	475	478	481	482	484	487	489	490	492	493	496	498	500	504	505	507	509	511	512	514	515	516	518	519	520	522	522	523	526	528	530	534	536	537	541	542	542	543	543	543	544	544	534	272	272	266	0	0	0	0	0	0	0	0	0	2205	2291	2291	130	0	0	0	0	0	0	0	0	0	0	0	0	0	0	0	0	0	0	0	0	0	0	0	0	0	0	0	0	0	0	0	0	0	0	0	0	0	0	0	0	0	0	0	0	0	0	0	0	0	0	0	0	0	0	0	0	0	0	0	0	0	0	0	0	0	0	0	0	0	0	0	0	0	0	0	0	0	0	0	0	0	0	0	0	0	0	0	0	0	0	0	0	0	0	0	0	0	0	0	0	0	0	0	0	0	0	0	0	0	0	0	0	0	0	0	0	0	0	0	0	0	0	0	0	0	0	0	0	0	0	0	0	0
545	545	545	547	547	547	548	548	548	548	549	550	551	551	551	554	554	555	556	557	558	558	558	558	558	558	558	558	557	556	555	555	555	555	555	554	553	553	553	551	551	551	553	553	553	551	551	551	551	551	551	551	551	550	550	550	549	549	549	548	548	548	547	547	547	545	545	545	545	545	545	545	545	545	545	546	547	547	548	548	549	550	550	550	551	551	551	552	553	553	553	553	553	553	553	553	553	553	553	553	553	551	551	551	550	550	550	550	550	550	550	550	550	550	550	550	551	551	551	553	553	553	553	553	553	553	553	553	551	551	551	551	551	550	550	550	549	549	549	549	548	548	548	547	547	545	545	545	545	545	545	545	546	547	547	547	547	548	548	548	549	549	549	549	548	548	548	548	548	548	548	548	547	546	545	544	543	542	540	538	535	530	529	527	522	521	519	515	514	512	510	509	508	505	505	504	502	502	501	501	501	502	502	502	503	504	505	506	510	512	514	516	518	521	523	524	526	527	527	529	530	531	533	533	533	535	536	536	536	537	537	538	539	540	540	540	540	540	541	541	542	542	542	543	544	544	545	545	545	545	546	547	547	547	547	548	548	549	549	550	551	551	552	553	555	555	555	556	556	556	555	555	554	553	552	551	550	550	549	548	548	547	547	547	547	545	545	545	545	545	545	545	545	545	545	545	545	545	545	545	545	545	545	544	544	543	543	543	542	541	541	538	537	536	533	531	528	524	520	518	513	510	508	502	500	499	496	495	494	493	492	492	491	491	491	490	490	489	489	489	489	489	489	489	489	489	489	489	490	491	496	498	502	508	511	515	521	522	522	528	531	536	542	545	548	549	549	550	551	551	551	553	553	553	553	553	553	554	554	554	554	554	554	553	553	553	553	553	553	553	553	553	553	553	553	552	551	551	550	550	550	549	549	549	548	548	548	547	547	547	547	547	547	547	547	545	545	545	545	545	544	543	543	543	542	542	542	541	541	541	540	540	540	538	538	537	536	536	535	533	532	531	529	528	527	526	525	524	522	520	519	517	517	517	515	515	514	512	511	510	509	508	505	505	505	504	501	499	497	495	493	490	489	488	485	483	481	477	476	475	473	472	471	470	470	470	469	468	467	466	466	466	466	466	466	465	464	463	462	462	462	462	462	462	461	461	460	460	460	460	460	460	460	459	459	459	460	460	460	462	463	464	466	467	468	471	473	475	479	481	483	486	488	489	491	493	495	498	500	504	505	507	509	511	513	516	516	516	518	520	521	522	523	524	526	528	530	534	536	537	541	542	542	543	543	543	544	544	523	0	0	0	0	0	0	0	0	0	0	0	0	2113	2196	2196	124	0	0	0	0	0	0	0	0	0	0	0	0	0	0	0	0	0	0	0	0	0	0	0	0	0	0	0	0	0	0	0	0	0	0	0	0	0	0	0	0	0	0	0	0	0	0	0	0	0	0	0	0	0	0	0	0	0	0	0	0	0	0	0	0	0	0	0	0	0	0	0	0	0	0	0	0	0	0	0	0	0	0	0	0	0	0	0	0	0	0	0	0	0	0	0	0	0	0	0	0	0	0	0	0	0	0	0	0	0	0	0	0	0	0	0	0	0	0	0	0	0	0	0	0	0	0	0	0	0	0	0	0	0
545	545	545	545	546	547	547	548	548	548	548	548	550	551	551	551	552	554	555	555	556	556	556	556	556	556	556	555	555	555	555	555	555	555	555	554	554	554	553	553	553	553	553	553	553	553	552	551	551	552	553	553	553	553	551	550	550	549	549	549	549	549	548	547	547	547	547	547	547	547	547	547	547	547	547	547	547	547	548	548	549	550	550	550	550	550	551	551	551	551	551	551	551	551	551	551	551	551	553	553	553	553	552	551	550	550	550	550	550	550	550	550	550	550	550	551	551	552	553	553	553	554	554	554	554	554	554	554	554	554	553	551	551	551	551	551	550	550	550	549	548	548	548	547	547	547	546	545	545	545	545	545	546	547	547	548	548	548	549	549	549	549	549	549	549	549	549	548	548	548	548	548	547	545	544	543	542	541	537	535	533	528	526	524	519	518	516	512	511	509	506	505	504	503	502	501	500	500	500	499	499	499	500	500	500	502	504	505	507	509	513	515	517	520	522	523	526	527	528	530	531	532	534	535	536	537	538	538	540	541	541	541	541	541	541	541	541	541	542	542	542	543	543	543	543	543	544	544	544	545	545	545	547	547	547	547	547	548	548	548	549	550	551	553	554	554	554	555	555	556	555	555	554	553	552	551	550	550	549	548	548	547	547	546	545	545	545	545	544	544	544	544	544	544	544	544	544	544	544	544	544	544	544	543	543	543	543	543	542	541	541	538	537	536	534	532	530	526	522	520	515	512	510	504	502	500	496	495	494	493	492	492	491	491	491	490	490	489	489	489	488	487	487	487	487	487	487	488	489	490	494	496	499	505	509	513	518	519	519	526	529	534	540	542	544	547	548	549	549	549	550	550	550	550	551	551	551	551	551	551	551	551	551	550	550	550	550	550	550	550	550	550	550	550	550	550	550	549	549	549	548	548	548	547	547	547	547	547	547	545	545	545	545	545	545	545	545	545	545	545	544	543	543	543	543	543	542	541	541	541	540	540	540	538	538	537	536	535	534	531	531	530	528	527	526	525	524	522	520	519	518	517	516	515	515	515	513	512	510	508	508	507	505	503	501	499	495	492	489	486	484	480	477	475	472	470	469	465	464	463	461	460	460	459	458	458	457	456	455	455	455	455	455	454	454	453	452	451	451	451	451	451	451	451	451	451	451	451	451	451	452	452	451	450	450	450	451	451	451	452	453	454	455	456	459	461	463	466	471	473	476	480	483	489	489	490	492	496	499	503	505	507	509	514	516	516	516	517	519	520	521	524	525	525	526	528	530	534	536	537	541	542	542	543	543	543	544	544	523	0	0	0	0	0	0	0	0	0	0	0	0	2024	2103	2103	119	0	0	0	0	0	0	0	0	0	0	0	0	0	0	0	0	0	0	0	0	0	0	0	0	0	0	0	0	0	0	0	0	0	0	0	0	0	0	0	0	0	0	0	0	0	0	0	0	0	0	0	0	0	0	0	0	0	0	0	0	0	0	0	0	0	0	0	0	0	0	0	0	0	0	0	0	0	0	0	0	0	0	0	0	0	0	0	0	0	0	0	0	0	0	0	0	0	0	0	0	0	0	0	0	0	0	0	0	0	0	0	0	0	0	0	0	0	0	0	0	0	0	0	0	0	0	0	0	0	0	0	0	0
545	545	545	545	546	546	547	547	548	548	548	548	550	551	551	551	552	554	554	555	556	556	556	556	556	556	556	555	555	555	555	555	555	555	555	554	554	554	553	553	553	553	553	553	553	553	553	552	552	552	553	553	553	553	552	551	550	550	550	550	550	549	548	548	547	547	547	547	547	547	547	547	547	547	547	547	547	548	548	549	549	550	550	550	550	550	550	551	551	551	551	551	551	551	551	551	551	551	552	552	552	552	552	551	551	550	550	550	550	550	550	550	550	550	550	551	551	552	553	553	554	554	554	554	554	554	554	554	554	554	554	552	552	552	551	551	550	550	550	550	549	548	548	548	547	547	546	546	546	546	546	546	547	547	548	548	548	548	549	549	549	549	550	550	549	549	549	549	548	548	548	547	546	545	544	542	542	540	536	534	532	527	525	522	518	516	514	511	509	507	505	504	502	502	501	500	499	499	499	498	498	498	499	499	500	502	503	504	506	508	512	514	516	519	521	522	526	527	529	530	532	533	535	536	537	538	539	539	540	541	542	542	542	542	542	542	542	542	542	542	542	543	543	543	543	543	544	544	544	544	544	545	546	546	546	546	547	548	548	548	549	550	551	552	552	553	554	555	555	556	555	555	554	553	552	551	550	550	549	548	548	547	547	546	545	545	545	544	544	544	544	544	544	544	544	544	544	544	544	544	544	544	544	543	543	542	542	542	542	541	541	539	537	536	534	532	530	527	524	521	516	513	511	505	503	501	497	496	494	493	492	492	491	491	491	490	490	489	489	488	488	487	487	487	487	486	486	487	488	490	492	495	498	504	508	512	518	519	519	525	528	532	538	541	544	547	548	548	548	549	549	549	550	550	550	550	550	550	550	550	550	550	550	550	549	549	549	549	549	549	549	549	549	549	549	549	549	548	548	548	548	548	547	546	546	546	546	546	546	545	545	545	545	545	545	545	545	545	545	545	544	544	543	543	543	543	542	541	541	541	540	540	540	538	537	536	536	535	534	531	531	530	528	527	526	525	524	522	520	519	518	517	516	515	515	515	513	512	510	508	507	505	502	500	498	494	490	487	483	480	478	476	471	468	467	468	468	459	458	458	456	455	454	454	453	452	452	451	450	450	449	449	448	448	448	447	446	446	446	446	446	446	446	446	446	446	446	446	446	446	447	447	447	446	446	446	446	446	446	447	448	449	450	451	454	456	458	461	465	468	471	475	478	482	484	486	489	493	497	503	505	507	509	512	514	516	516	517	520	521	522	524	525	526	526	528	530	534	536	538	541	542	542	543	543	544	544	395	262	0	0	0	0	0	0	0	0	0	0	496	1052	2063	2103	2103	119	0	0	0	0	0	0	0	0	0	0	0	0	0	0	0	0	0	0	0	0	0	0	0	0	0	0	0	0	0	0	0	0	0	0	0	0	0	0	0	0	0	0	0	0	0	0	0	0	0	0	0	0	0	0	0	0	0	0	0	0	0	0	0	0	0	0	0	0	0	0	0	0	0	0	0	0	0	0	0	0	0	0	0	0	0	0	0	0	0	0	0	0	0	0	0	0	0	0	0	0	0	0	0	0	0	0	0	0	0	0	0	0	0	0	0	0	0	0	0	0	0	0	0	0	0	0	0	0	0	0	0	0	0
545	545	545	545	545	545	547	547	547	547	548	548	550	551	551	551	552	554	554	554	555	555	555	555	555	555	555	555	555	555	555	555	555	555	555	554	554	554	553	553	553	553	553	553	553	553	553	553	553	553	553	554	554	553	553	553	551	550	550	550	550	550	549	548	548	547	547	547	547	547	547	547	547	547	547	547	547	548	549	549	549	550	550	550	550	550	550	551	551	551	551	551	551	551	551	551	551	551	551	551	551	551	551	551	551	551	550	550	550	550	550	550	550	550	550	551	551	552	553	554	554	554	554	554	554	554	554	554	554	554	554	553	553	553	551	551	551	550	550	550	549	549	548	548	548	547	547	547	547	547	547	547	547	547	548	548	548	549	549	549	549	550	550	550	549	549	549	549	549	548	547	547	545	544	544	542	541	540	535	533	530	526	524	521	516	515	513	509	507	505	503	502	501	500	500	499	498	498	498	497	497	497	498	498	499	501	502	503	505	506	510	513	515	518	520	522	525	527	529	531	534	535	536	537	538	540	540	540	541	542	542	542	542	542	542	542	542	542	542	542	542	543	543	543	543	543	543	544	544	544	544	544	544	544	544	545	546	547	548	548	549	550	550	551	551	552	554	555	555	555	555	555	554	553	552	551	550	550	549	548	548	547	547	546	545	545	545	544	544	544	544	543	543	543	543	543	543	543	543	543	543	543	543	543	543	542	542	542	542	541	541	540	538	537	535	533	531	528	526	523	518	514	512	506	504	502	498	496	495	493	492	492	491	491	491	490	490	489	489	488	487	487	487	487	486	486	486	487	488	489	491	494	498	503	507	511	517	518	519	523	526	531	537	540	543	546	547	548	548	548	548	549	549	549	549	549	549	550	550	549	549	549	549	549	549	548	548	548	548	548	548	548	548	548	548	548	548	548	548	548	547	547	547	545	545	545	545	545	545	545	545	545	545	545	545	545	545	545	545	545	544	544	544	543	543	543	542	541	541	541	540	540	540	538	537	536	535	535	534	531	531	530	528	527	526	525	524	522	520	519	518	516	516	515	515	515	513	512	510	508	505	503	499	496	494	489	485	482	477	474	472	472	466	462	462	466	467	453	453	453	450	449	448	448	447	447	446	445	445	444	443	443	442	442	442	441	441	440	440	440	441	441	441	441	442	442	442	442	442	442	443	443	443	442	442	442	442	442	442	443	443	444	446	447	448	451	453	456	460	462	466	470	472	475	479	481	486	490	494	503	505	507	509	511	513	516	516	517	520	521	522	525	526	526	527	529	531	535	537	538	541	542	542	543	544	544	544	246	0	0	0	0	0	0	0	0	0	0	0	992	2103	2103	2103	2103	119	0	0	0	0	0	0	0	0	0	0	0	0	0	0	0	0	0	0	0	0	0	0	0	0	0	0	0	0	0	0	0	0	0	0	0	0	0	0	0	0	0	0	0	0	0	0	0	0	0	0	0	0	0	0	0	0	0	0	0	0	0	0	0	0	0	0	0	0	0	0	0	0	0	0	0	0	0	0	0	0	0	0	0	0	0	0	0	0	0	0	0	0	0	0	0	0	0	0	0	0	0	0	0	0	0	0	0	0	0	0	0	0	0	0	0	0	0	0	0	0	0	0	0	0	0	0	0	0	0	0	0	0	0
545	545	545	545	545	545	547	547	547	547	548	549	550	550	550	550	551	553	554	554	555	555	555	555	555	555	555	555	555	555	555	555	555	555	555	554	554	554	553	553	553	553	553	553	553	553	553	553	553	553	554	554	554	554	554	554	553	552	551	551	550	550	550	549	549	549	549	549	549	548	548	548	548	548	548	548	548	549	549	549	549	550	550	550	550	550	550	550	550	550	550	550	551	550	550	550	550	550	551	551	551	551	551	550	550	550	550	550	550	550	550	550	550	550	550	550	551	552	553	554	554	554	555	555	555	555	555	555	555	555	555	554	554	554	553	553	551	551	551	551	550	549	549	548	548	548	547	547	547	547	547	547	547	547	548	548	548	549	549	549	550	550	550	550	550	550	549	549	549	548	547	547	545	544	543	542	540	538	534	532	529	524	521	518	514	512	510	506	504	502	499	499	498	497	497	496	496	496	495	495	495	495	495	495	496	498	499	500	502	504	506	510	512	514	518	520	522	526	528	531	534	535	537	538	539	541	542	542	542	542	542	543	543	543	542	542	542	542	542	542	542	542	542	543	543	543	543	543	543	543	543	543	544	544	544	544	544	545	547	547	547	549	549	550	551	552	553	554	554	554	554	554	553	553	552	551	550	550	549	548	548	548	547	546	545	544	544	544	544	544	543	543	543	542	542	542	542	542	542	542	542	542	542	542	542	542	542	542	542	542	542	541	539	538	537	536	535	531	529	527	525	519	515	510	507	505	500	498	497	494	493	492	492	491	491	490	490	489	489	488	487	486	486	486	486	486	486	486	487	488	490	492	496	501	505	510	515	518	522	522	524	529	535	538	541	544	545	545	547	547	547	548	548	548	548	548	548	548	548	548	548	548	548	547	547	547	547	547	547	547	547	547	547	547	545	545	545	545	545	545	545	545	545	545	544	544	544	544	544	544	545	545	545	545	545	545	545	545	544	544	544	544	544	543	543	543	542	541	541	541	540	540	540	538	537	536	535	534	533	530	529	529	527	526	525	523	522	521	519	519	518	516	516	515	515	515	513	509	507	502	498	496	491	487	483	477	472	470	470	471	472	472	457	449	446	444	443	441	440	439	438	437	437	436	435	435	435	434	434	432	432	432	431	430	430	429	429	429	429	429	430	430	430	431	432	432	432	433	434	435	435	435	435	434	434	434	434	434	434	434	434	435	437	438	439	441	443	445	448	450	453	457	460	467	467	469	474	478	371	0	0	106	512	512	513	515	516	517	520	521	522	524	525	526	527	529	531	536	537	538	541	542	542	543	544	513	0	0	0	0	0	40	2103	2103	2103	2085	2085	2085	2085	2093	2103	2103	1151	0	0	0	0	0	0	0	0	0	0	0	0	0	0	0	0	0	0	0	0	0	0	0	152	505	505	510	522	522	384	0	0	0	0	0	0	0	0	0	0	0	0	0	0	0	0	0	0	0	0	0	0	0	0	0	0	0	0	0	0	0	0	0	0	0	0	0	0	0	0	0	0	0	0	0	0	0	0	0	0	0	0	0	0	0	0	0	0	0	0	0	0	0	0	0	0	0	0	0	0	0	0	0	0	0	0	0	0	0	0	0	0	0	0	0	0	0	0	0	0	0	0	0	0	0	0	0	0	0	0	0	0	0	0	0
545	545	545	545	545	545	547	547	547	547	548	549	549	550	550	550	551	552	553	554	554	554	554	554	554	554	554	554	554	554	554	554	554	554	554	554	554	554	553	553	553	553	553	553	553	553	553	553	553	554	554	554	554	554	554	554	553	552	552	551	551	550	550	550	549	549	549	549	549	549	548	548	548	548	548	548	549	549	549	549	549	550	550	550	550	550	550	550	550	550	550	550	550	550	550	550	550	550	550	550	550	550	550	550	550	550	550	550	550	550	550	550	550	550	550	550	550	551	552	553	554	554	554	555	555	555	555	556	556	555	555	555	554	554	554	553	551	551	551	551	550	549	549	548	548	548	547	547	547	547	547	547	547	547	548	548	549	549	549	550	550	550	550	550	550	550	550	549	549	548	547	547	544	544	543	542	540	538	534	531	528	523	520	517	513	511	508	505	503	500	498	497	496	496	495	495	495	494	494	494	494	494	494	494	495	497	498	499	501	502	505	508	510	513	516	518	521	525	527	530	533	535	536	538	538	540	541	542	542	542	542	542	542	542	542	542	542	542	542	542	542	542	542	542	542	542	542	542	543	543	543	543	544	544	544	544	544	545	546	546	547	548	549	550	550	551	552	553	554	554	554	554	553	553	552	551	550	550	550	549	548	548	547	546	545	544	544	544	544	543	543	543	543	542	542	542	542	542	542	542	542	542	542	542	542	542	542	542	542	542	542	541	540	539	538	536	535	532	530	528	525	521	518	512	509	506	501	499	498	494	493	492	492	491	491	490	490	489	489	488	487	486	486	486	486	486	486	486	487	488	489	492	495	500	504	509	514	517	521	521	523	528	534	536	540	543	544	544	546	546	546	547	548	548	548	548	548	548	548	548	548	548	548	547	547	546	546	546	546	546	546	546	546	546	545	545	545	545	545	544	544	544	544	544	544	544	544	544	544	544	545	545	545	545	545	545	545	545	544	544	544	544	544	543	543	543	542	542	541	541	540	540	540	538	537	536	535	533	532	529	529	528	526	526	524	522	521	521	519	519	518	516	516	515	515	514	512	507	504	498	495	491	485	480	477	474	471	470	470	315	269	456	447	442	440	438	437	436	435	434	432	432	431	431	430	430	430	429	429	428	427	426	426	425	425	424	424	424	424	424	424	424	425	426	426	426	427	427	428	430	430	430	430	430	430	430	430	430	430	430	431	432	433	434	436	438	439	441	443	445	448	456	460	467	462	462	464	473	421	236	239	294	500	506	508	510	513	515	516	519	521	524	525	526	526	529	531	536	537	538	541	542	542	543	544	514	0	0	0	0	0	40	2094	2090	2086	2076	2081	2085	2085	2093	2103	2112	1156	0	0	0	0	0	0	0	0	0	0	0	0	0	0	0	0	0	0	0	0	0	0	0	152	505	505	509	518	521	384	0	0	0	0	0	0	0	0	0	0	0	0	0	0	0	0	0	0	0	0	0	0	0	0	0	0	0	0	0	0	0	0	0	0	0	0	0	0	0	0	0	0	0	0	0	0	0	0	0	0	0	0	0	0	0	0	0	0	0	0	0	0	0	0	0	0	0	0	0	0	0	0	0	0	0	0	0	0	0	0	0	490	650	650	172	0	0	0	0	0	0	0	0	0	0	0	0	0	0	0	0	0	0	0	0
545	545	545	545	545	545	547	547	547	547	548	548	548	549	550	550	550	551	553	553	554	554	554	554	554	554	554	554	554	554	554	554	554	554	554	554	554	554	553	553	553	553	553	553	553	553	553	553	554	554	554	554	554	554	554	554	553	553	553	551	551	551	550	550	550	549	549	549	549	549	549	549	549	549	549	549	549	549	549	549	549	550	550	550	550	550	550	549	549	549	549	549	549	549	549	549	549	549	550	550	550	550	550	549	549	549	549	549	549	549	549	549	549	549	549	549	550	550	551	553	553	554	554	554	555	555	555	556	556	556	555	555	555	554	554	553	551	551	551	551	550	550	549	548	548	548	547	547	547	547	547	547	547	547	548	549	549	549	550	550	550	551	551	551	550	550	550	549	549	548	547	547	544	543	543	541	539	537	533	530	527	521	519	516	512	509	506	503	501	499	497	496	495	494	494	494	493	493	493	493	493	493	493	493	494	496	497	498	500	501	504	506	508	512	514	516	520	524	526	529	532	534	536	537	538	540	541	541	542	542	542	542	542	542	542	541	541	541	542	542	542	542	542	542	542	542	542	542	542	543	543	543	543	543	543	543	544	545	545	546	547	548	548	549	550	550	551	553	553	554	554	554	553	553	552	551	550	550	550	549	549	548	547	546	545	544	544	544	543	543	543	543	543	542	542	542	542	542	542	542	542	542	542	542	542	542	542	542	542	542	542	541	540	540	538	537	536	534	532	530	525	523	521	513	510	508	502	500	499	495	494	493	492	491	491	490	490	489	489	488	487	486	486	486	485	485	485	486	486	487	489	491	494	499	503	508	513	516	520	520	522	527	533	535	538	542	543	544	545	545	545	547	547	547	547	547	547	547	547	547	547	547	547	547	547	545	545	545	545	545	545	545	545	545	545	545	545	545	544	544	544	544	544	544	544	544	544	544	544	544	545	545	545	545	545	545	545	545	544	544	544	544	544	543	543	543	542	542	542	541	540	540	540	537	536	535	534	533	530	529	528	527	525	525	524	522	521	521	519	518	517	516	516	515	515	514	511	505	501	495	491	487	479	473	471	471	470	470	470	160	66	439	437	436	434	433	432	430	429	429	427	426	426	426	425	425	424	424	424	423	422	421	421	420	420	419	419	419	419	419	419	419	419	420	420	421	422	422	423	424	425	425	426	425	425	425	426	426	426	427	428	429	430	431	432	434	436	437	439	440	442	454	460	467	458	455	455	467	471	471	478	483	489	499	504	504	510	513	513	516	519	524	525	525	526	528	531	535	537	538	541	542	542	543	544	514	0	0	0	0	0	39	2085	2076	2068	2068	2076	2085	2085	2093	2103	2120	1161	0	0	0	0	0	0	0	0	0	0	0	0	0	0	0	0	0	0	0	0	0	0	0	152	505	505	508	515	520	384	0	0	0	0	0	0	0	0	0	0	0	0	0	0	0	0	0	0	0	0	0	0	0	0	0	0	0	0	0	0	0	0	0	0	0	0	0	0	0	0	0	0	0	0	0	0	0	0	0	0	0	0	0	0	0	0	0	0	0	0	0	0	0	0	0	0	0	0	0	0	0	0	0	0	0	0	0	0	0	0	0	980	1299	1299	343	0	0	0	0	0	0	0	0	0	0	0	0	0	0	0	0	0	0	0	0
547	547	547	547	547	547	547	547	547	547	548	548	548	549	550	551	551	551	551	552	553	553	553	553	554	554	553	553	553	553	553	553	553	553	553	553	553	552	551	551	551	551	551	551	551	551	552	553	553	553	553	553	553	553	553	553	553	552	551	551	551	551	550	550	550	550	550	550	550	550	550	550	549	549	549	549	549	549	549	549	549	549	549	549	549	549	549	548	548	548	548	548	548	548	548	548	548	548	548	548	548	548	548	548	547	547	547	547	547	547	547	547	548	548	548	548	548	548	549	551	552	553	553	553	554	555	555	555	555	555	555	554	554	553	553	553	551	550	550	550	550	550	549	548	548	548	547	547	547	547	547	547	548	548	548	549	549	550	550	550	551	551	551	553	552	551	550	549	549	548	546	545	544	543	542	538	537	535	530	528	525	519	517	514	510	507	504	500	499	497	494	494	493	492	492	491	491	491	490	490	490	491	491	491	491	493	494	495	497	499	500	503	505	508	511	513	518	521	523	527	530	532	534	535	536	537	539	540	541	541	541	541	541	541	541	540	540	540	540	540	540	540	540	541	541	541	541	541	541	541	542	542	542	543	543	543	543	543	545	546	547	548	548	549	550	550	551	553	553	554	554	554	554	553	552	551	551	551	551	550	550	549	548	548	547	545	545	544	543	543	543	543	543	542	542	542	542	542	542	542	542	542	542	542	542	542	542	542	542	542	542	542	541	541	541	539	538	536	534	533	528	524	522	519	514	510	505	502	500	497	495	494	493	492	492	490	490	489	489	488	487	486	486	486	485	485	485	485	485	486	488	490	492	498	501	505	511	514	518	518	520	525	530	533	537	541	542	543	544	544	544	545	545	545	547	547	547	547	547	547	547	547	547	546	545	545	545	545	545	545	545	545	545	545	544	544	544	544	544	544	544	544	544	544	544	544	544	544	544	544	544	544	545	545	545	545	545	545	544	544	544	544	544	543	543	543	542	542	542	541	540	539	538	537	536	535	533	532	529	528	527	526	525	525	524	522	521	520	519	518	517	515	514	511	511	509	504	497	493	486	478	475	475	472	471	471	151	74	435	432	430	427	426	425	423	422	422	421	421	421	420	419	419	419	419	419	418	417	417	416	415	415	415	414	414	413	413	413	413	413	413	414	414	414	414	414	415	416	416	417	419	419	419	419	419	419	420	420	421	422	422	423	424	425	426	428	428	429	430	431	432	98	0	0	343	455	455	453	452	452	459	466	481	481	483	490	497	500	500	506	510	517	520	522	526	528	530	535	538	540	541	542	543	544	545	514	0	0	0	0	0	38	2034	2034	2034	2051	2059	2068	2068	2085	2103	2138	1170	0	0	0	0	0	0	0	0	0	0	0	0	0	0	0	0	0	0	0	0	0	0	0	153	508	508	510	515	117	0	0	0	0	0	0	0	0	0	0	0	0	0	0	0	0	0	0	0	0	0	0	0	0	0	0	0	0	0	0	0	0	0	0	0	0	0	0	0	0	0	0	0	0	0	0	0	0	0	0	0	0	0	0	0	0	0	0	0	0	0	0	0	0	0	0	0	0	0	0	0	0	0	0	0	0	0	368	1299	1299	1301	1306	1301	1299	1299	1309	1313	1313	372	0	0	0	0	0	0	0	0	0	0	0	0	0	0	0	0	0
547	547	548	548	548	548	548	548	548	548	548	548	548	549	550	550	550	550	551	551	552	552	552	552	552	552	552	552	552	552	552	552	552	552	552	552	552	551	550	550	550	550	550	550	550	550	551	552	552	552	552	552	552	552	552	552	552	551	551	551	551	551	550	550	550	550	550	550	550	550	550	550	550	550	550	550	549	549	549	549	549	549	549	548	548	548	548	548	548	548	548	548	548	547	546	546	547	548	548	548	548	547	546	546	546	546	546	546	546	546	546	546	546	546	546	546	546	547	548	549	550	552	552	552	552	554	554	554	554	554	554	554	553	552	552	552	550	550	549	549	549	549	548	548	548	548	547	547	547	547	547	547	547	548	548	549	549	550	550	550	551	551	551	552	551	551	550	549	548	548	546	544	544	542	542	538	536	534	529	526	524	518	516	513	509	506	503	499	498	496	493	493	492	491	491	490	490	490	490	490	490	490	490	490	490	491	492	494	496	497	498	502	504	506	510	512	516	519	522	526	529	530	532	534	535	536	537	538	539	539	539	540	540	540	540	539	539	539	539	539	539	539	539	540	540	540	540	540	541	541	541	542	542	542	542	542	543	543	544	545	546	548	548	549	550	550	551	553	553	554	554	554	554	554	553	552	552	552	552	551	550	550	549	549	548	546	546	546	544	544	544	543	543	542	542	542	542	542	542	542	542	542	542	542	542	542	542	542	542	542	542	542	541	541	541	540	539	537	535	534	529	526	523	519	515	511	506	503	501	498	496	494	494	493	492	490	490	489	489	488	487	486	486	486	485	485	485	485	485	486	487	489	492	497	500	504	511	513	517	518	520	524	529	532	536	541	542	543	544	544	544	545	545	545	547	547	547	547	547	547	547	547	547	546	545	545	545	545	545	545	545	545	545	544	544	544	544	544	544	544	544	544	544	544	544	544	544	544	544	544	544	544	544	544	544	544	544	544	544	544	544	544	543	543	543	542	542	542	541	540	540	539	538	537	536	534	532	531	529	528	527	526	525	524	523	521	520	520	518	518	516	515	514	511	508	506	504	496	492	486	478	475	475	308	276	452	290	250	429	427	425	422	421	420	418	418	418	418	418	417	417	417	416	416	416	416	416	415	414	414	413	412	412	412	412	411	411	410	410	411	411	411	412	412	412	413	414	414	414	415	416	416	416	416	417	417	418	418	418	419	419	420	421	421	422	424	424	425	426	427	428	262	214	214	224	281	445	444	444	446	457	463	470	474	478	484	491	494	494	501	507	516	519	521	526	528	530	535	538	540	541	542	543	544	390	257	0	0	0	0	0	38	2034	2034	2034	2051	2059	2068	2068	2093	2121	2157	1181	0	0	0	0	0	0	0	0	0	0	0	0	0	0	0	0	0	0	0	0	0	0	206	331	508	307	255	258	58	0	0	0	0	0	0	0	0	0	0	0	0	0	0	0	0	0	0	0	0	0	0	0	0	0	0	0	0	0	0	0	0	0	0	0	0	0	0	0	0	0	0	0	0	0	0	0	0	0	0	0	0	0	0	0	0	0	0	0	0	0	0	0	0	0	0	0	0	0	0	0	0	0	0	0	0	0	368	1299	1299	1301	1306	1303	1302	1302	1310	1313	1313	850	667	667	201	0	0	0	0	0	0	0	0	0	0	0	0	0	0
547	548	548	548	548	548	548	548	548	548	549	549	549	549	549	550	550	550	551	551	551	551	551	551	551	551	551	551	551	551	551	551	550	550	550	550	550	550	550	550	550	549	549	549	549	550	550	550	551	551	551	551	551	551	551	551	551	551	551	551	551	551	550	550	550	550	550	550	550	550	550	550	550	550	550	550	550	549	549	549	549	549	549	548	548	548	547	547	547	547	547	547	547	546	545	545	546	547	547	547	547	545	545	545	544	544	544	544	544	544	544	544	544	544	544	544	545	546	547	548	549	550	550	550	551	553	553	553	553	553	553	553	552	551	551	551	549	549	549	548	548	548	548	548	548	548	547	547	547	547	547	547	547	547	548	549	549	549	550	550	551	551	551	551	551	551	549	548	548	547	545	544	543	542	541	537	536	534	528	525	522	517	515	512	508	505	502	498	496	494	492	492	491	490	490	489	489	489	489	489	489	489	489	489	489	490	491	492	494	496	497	500	502	505	508	510	515	518	521	526	528	529	530	533	534	535	536	536	537	537	537	538	538	538	538	538	538	538	538	538	538	538	538	540	540	540	540	540	540	541	541	541	541	542	542	542	542	543	544	544	545	548	548	549	550	550	551	553	553	554	554	554	554	554	554	554	554	554	553	551	551	551	550	550	549	547	547	547	545	544	544	543	543	543	542	542	542	542	542	543	543	543	543	542	542	542	542	542	542	542	542	542	541	541	541	540	540	538	536	535	530	527	525	519	516	513	508	505	502	498	496	495	494	493	492	490	490	489	489	488	487	486	486	486	485	485	485	485	485	486	487	489	491	496	499	503	510	513	516	518	520	524	528	531	536	540	542	543	544	544	544	545	545	545	547	547	547	547	547	547	547	547	547	546	545	545	545	545	545	545	545	545	544	544	544	544	544	544	544	544	544	544	544	544	544	544	543	543	543	544	544	544	544	544	544	544	544	544	544	544	544	543	543	543	542	542	542	541	541	540	540	539	538	536	535	534	531	530	529	528	527	526	524	523	522	520	520	519	517	517	516	515	514	511	505	503	503	495	491	486	478	475	475	143	82	432	428	425	423	421	420	417	416	416	414	414	414	414	414	414	414	414	414	414	414	414	413	412	412	412	411	410	410	410	410	409	409	408	408	408	409	409	409	410	410	411	412	412	412	413	414	414	414	414	414	415	416	416	416	416	416	417	418	418	419	420	420	421	422	423	425	427	428	429	105	107	435	435	436	441	455	460	460	468	472	478	485	489	489	497	503	515	518	521	525	527	530	535	538	540	541	542	543	544	236	0	0	0	0	0	0	38	2034	2034	2034	2051	2059	2068	2068	2101	2139	2176	1191	0	0	0	0	0	0	0	0	0	0	0	0	0	0	0	0	0	0	0	0	0	0	413	509	509	106	0	0	0	0	0	0	0	0	0	0	0	0	0	0	0	0	0	0	0	0	0	0	0	0	0	0	0	0	0	0	0	0	0	0	0	0	0	0	0	0	0	0	0	0	0	0	0	0	0	0	0	0	0	0	0	0	0	0	0	0	0	0	0	0	0	0	0	0	0	0	0	0	0	0	0	0	0	0	0	0	368	1299	1299	1301	1306	1306	1306	1306	1311	1313	1313	1328	1334	1334	403	0	0	0	0	0	0	0	0	0	0	0	0	0	0
547	548	548	548	548	548	548	548	548	548	548	548	549	549	549	549	549	549	549	549	550	550	550	550	550	550	549	549	549	549	549	549	549	548	548	548	548	548	548	548	548	548	548	548	548	548	548	549	549	549	549	550	550	550	550	550	550	550	550	550	551	551	551	551	551	551	551	551	551	551	551	551	550	550	550	550	550	549	549	549	548	548	548	547	546	545	545	545	545	545	545	545	544	544	544	544	544	544	544	544	543	543	543	542	542	542	542	542	542	541	541	541	541	541	541	542	542	542	543	545	546	547	548	548	549	550	550	551	551	551	551	550	550	550	549	549	548	548	548	548	548	548	548	547	547	547	547	547	545	545	545	545	545	545	547	548	548	549	549	549	550	551	551	551	550	550	549	548	547	545	544	544	542	541	540	536	535	533	527	524	521	516	514	511	505	503	501	497	495	493	491	490	489	489	489	489	488	488	487	487	487	487	487	487	487	489	489	490	492	493	494	497	499	501	504	506	511	515	517	521	524	526	528	529	530	530	532	533	534	534	534	535	535	535	535	535	535	536	536	536	536	537	537	538	538	538	538	539	540	540	540	540	541	542	542	542	542	543	544	544	545	547	547	548	549	550	551	553	553	554	554	554	554	555	555	555	555	555	554	554	554	553	551	550	549	548	548	547	545	545	544	544	544	544	544	544	543	543	543	544	544	544	543	543	543	543	542	542	542	542	542	542	541	541	541	541	541	538	537	536	531	529	527	521	521	520	510	506	503	499	497	495	494	493	493	491	491	490	489	488	487	486	486	485	485	485	485	485	485	485	487	488	490	494	498	502	508	511	515	521	522	522	527	530	535	539	541	543	543	543	544	544	544	545	547	547	547	547	547	547	547	547	547	547	547	547	546	545	545	545	545	544	544	544	544	544	544	543	543	543	543	543	543	543	543	543	543	543	543	543	543	543	543	543	543	543	543	543	543	543	543	543	543	542	542	542	541	540	540	540	540	539	537	535	535	534	531	530	529	526	525	524	522	521	520	519	519	518	517	517	516	515	514	510	503	501	501	494	492	492	139	0	0	296	423	419	416	415	413	412	412	410	410	410	410	410	410	410	411	411	411	411	411	410	410	410	410	409	409	408	408	408	407	406	406	406	406	406	406	406	406	406	406	407	408	408	408	408	409	410	410	411	412	412	412	412	412	412	413	414	414	414	414	414	415	416	416	417	418	418	419	421	422	424	425	426	428	428	429	433	452	460	459	459	461	468	475	481	489	492	497	514	518	521	525	527	530	535	212	51	543	543	502	0	0	0	0	0	0	0	0	37	1970	1970	1970	2018	2034	2051	2084	2147	2216	2275	1246	0	0	0	0	0	0	0	0	0	0	0	0	0	0	0	0	0	0	0	0	0	0	413	509	509	518	520	520	523	386	0	0	0	0	0	0	0	0	0	0	0	0	0	0	0	0	0	0	0	0	0	0	0	0	0	0	0	0	0	0	0	0	0	0	0	0	0	0	0	0	0	0	0	0	0	0	0	0	0	0	0	0	0	0	0	0	0	0	0	0	0	0	0	0	0	0	0	0	0	0	0	0	0	403	1334	1334	1336	1341	1319	1313	1313	1318	1322	1327	1332	1334	1334	1334	1334	1334	403	0	0	0	0	0	0	0	0	0	0	0	878	1410	1410
546	547	548	548	548	548	548	548	548	548	548	548	548	548	548	549	549	549	549	549	550	550	550	550	549	549	548	548	548	548	548	548	548	548	548	548	548	548	548	548	548	548	547	546	546	547	548	548	548	548	548	549	550	550	550	550	550	550	550	550	551	551	551	552	552	552	552	552	552	552	552	552	551	550	550	550	550	549	549	548	548	548	547	546	545	544	544	544	544	544	544	544	544	544	544	543	543	543	543	543	542	542	542	541	540	540	540	540	540	540	540	540	540	540	540	540	541	541	542	543	544	545	546	547	548	549	549	550	550	550	550	550	550	550	549	549	548	548	548	548	548	548	548	546	546	546	546	545	544	544	544	544	544	545	546	546	547	548	548	549	550	550	550	550	550	549	548	547	546	544	544	543	542	540	539	536	534	532	527	524	521	516	514	511	505	503	500	496	495	492	490	489	488	488	488	488	487	487	486	486	486	486	486	486	486	488	488	489	490	491	493	496	497	500	502	504	508	513	515	519	522	523	525	527	528	528	530	531	532	532	532	532	533	533	533	533	533	534	535	535	536	536	537	538	538	538	538	539	539	540	540	540	540	541	542	542	542	542	543	544	545	547	547	548	549	550	551	553	553	554	554	554	554	555	555	555	555	555	554	554	554	553	552	551	550	549	548	548	546	546	544	544	544	544	544	544	544	544	544	544	544	544	544	544	543	543	542	542	542	542	542	542	541	540	540	540	539	538	536	535	530	528	526	521	520	518	510	507	504	500	497	495	494	494	493	491	490	490	489	488	487	486	486	485	485	484	484	484	485	485	486	488	490	494	497	502	508	511	514	520	521	521	526	530	534	538	540	542	543	543	544	544	544	545	546	546	547	547	547	547	547	547	547	547	547	547	546	546	545	545	545	544	544	544	544	544	543	543	543	543	543	543	543	543	543	543	543	543	543	543	543	542	542	543	543	543	543	543	543	542	542	542	542	542	542	541	541	540	540	540	540	539	537	535	534	534	531	530	528	526	525	523	521	521	520	519	518	517	517	516	516	515	513	510	503	501	501	498	440	246	70	43	209	355	417	414	412	411	410	409	409	408	408	408	408	408	408	408	409	409	410	410	409	408	408	408	408	408	407	407	407	406	406	405	405	404	404	404	405	405	405	405	405	406	406	406	407	407	408	409	409	410	411	411	411	411	411	411	412	412	413	413	413	413	414	415	415	416	416	417	418	418	419	422	422	423	424	426	427	430	441	446	448	456	460	465	469	472	480	481	486	507	515	486	262	264	265	268	106	26	272	272	251	0	0	0	0	0	0	0	512	988	1954	1962	1970	2018	2034	2051	2084	2152	2226	2317	1832	1241	1277	724	0	0	0	0	0	0	0	0	0	0	0	0	0	0	0	0	0	0	0	206	254	254	465	520	520	523	455	264	65	0	0	0	0	0	0	0	0	0	0	0	0	0	0	0	0	0	0	0	0	0	0	0	0	0	0	0	0	0	0	0	0	0	0	0	0	0	0	0	0	0	0	0	0	0	0	0	0	0	0	0	0	0	0	0	0	0	0	0	0	0	0	0	0	0	0	0	0	0	0	0	403	1334	1334	1336	1341	1330	1328	1331	1336	1340	1346	1351	1197	667	667	667	667	201	0	0	0	0	0	0	0	0	0	94	709	1145	1410	1410
545	546	547	547	547	547	548	548	548	548	548	548	548	548	548	549	549	549	549	549	549	549	549	549	548	548	548	548	548	548	547	547	547	547	547	547	547	547	547	547	547	547	545	545	545	547	547	547	548	548	548	549	549	549	550	550	550	550	550	550	551	551	551	552	553	553	553	553	553	553	553	553	552	551	551	550	550	549	548	548	547	547	547	545	544	544	544	543	543	543	543	543	543	543	543	542	542	542	542	542	541	541	541	540	538	538	538	538	538	538	538	538	538	538	538	538	540	540	541	542	542	543	545	546	547	548	548	549	549	549	549	549	549	549	549	549	548	548	548	547	547	547	547	546	545	545	544	544	544	544	544	544	544	544	545	545	545	547	548	548	549	550	550	550	549	549	548	546	545	544	543	543	541	539	538	535	533	531	527	524	521	516	514	511	504	502	500	495	494	492	489	489	488	487	487	487	486	486	485	485	485	485	485	485	486	487	487	488	489	490	492	494	496	498	500	502	506	510	513	517	519	520	522	524	525	526	527	528	529	530	530	530	531	531	531	531	531	533	534	534	535	536	536	537	537	537	538	538	538	540	540	540	540	541	541	542	542	542	543	544	545	547	547	548	549	550	551	553	553	554	555	555	555	556	556	555	555	555	555	554	554	553	553	552	551	549	549	548	547	546	545	545	545	545	545	545	545	545	545	545	545	545	544	544	544	543	542	542	542	542	542	541	540	540	540	539	538	537	535	534	530	528	526	521	518	516	511	508	505	500	498	496	495	494	493	491	490	489	489	488	487	486	486	485	484	484	484	484	484	485	486	487	489	493	497	501	507	510	514	519	520	520	526	529	533	537	539	542	543	543	544	544	544	545	545	545	547	547	547	547	547	547	547	547	547	547	547	547	545	545	545	544	544	544	543	543	543	543	543	543	543	543	543	543	543	543	543	543	543	543	542	542	542	543	543	543	543	543	542	542	542	542	542	541	541	541	541	540	540	540	540	539	537	535	534	533	530	529	528	525	524	522	520	520	519	518	517	516	516	516	515	514	513	510	503	501	501	501	388	0	0	87	418	414	411	409	408	407	407	406	406	406	406	406	406	406	406	407	407	407	408	408	408	407	407	407	407	406	406	406	405	405	404	404	404	403	403	403	404	404	404	404	404	404	404	405	406	407	407	408	409	409	410	410	410	410	410	410	411	411	411	412	412	412	413	414	414	414	415	415	416	416	417	419	420	420	421	423	424	426	430	433	437	452	460	462	462	463	470	470	475	500	513	451	0	0	0	0	0	0	0	0	0	0	0	0	0	0	0	0	1024	1939	1939	1955	1970	2018	2034	2051	2084	2156	2236	2359	2417	2482	2554	1448	0	0	0	0	0	0	0	0	0	0	0	0	0	0	0	0	0	0	0	0	0	0	412	520	520	523	525	527	129	0	0	0	0	0	0	0	0	0	0	0	0	0	0	0	0	0	0	0	0	0	0	0	0	0	0	0	0	0	0	0	0	0	0	0	0	0	0	0	0	0	0	0	0	0	0	0	0	0	0	0	0	0	0	0	0	0	0	0	0	0	0	0	0	0	0	0	0	0	0	0	403	1334	1334	1336	1341	1341	1343	1349	1354	1358	1364	1369	1061	0	0	0	0	0	0	0	0	0	0	0	0	0	0	187	1418	1413	1410	1410
544	545	545	547	547	547	547	547	547	547	547	547	548	548	548	548	548	548	548	548	548	548	548	548	547	546	545	545	545	545	545	545	545	545	545	545	545	545	545	545	545	544	544	544	544	545	545	545	547	547	547	548	548	548	549	549	550	550	550	550	551	551	551	552	553	553	554	554	554	555	555	554	553	553	551	550	550	549	548	548	547	546	545	544	543	543	543	542	542	542	542	542	541	541	541	540	540	540	538	538	538	537	537	536	535	535	535	535	535	534	534	534	535	535	535	535	536	536	537	538	539	541	543	543	544	545	546	547	548	548	548	549	549	548	547	547	545	545	545	544	544	544	544	543	543	543	543	543	543	543	543	543	543	543	544	545	545	545	546	547	548	548	548	549	548	548	547	546	545	544	543	543	540	538	537	535	533	530	527	524	521	515	513	510	504	502	499	495	493	491	489	489	488	486	486	485	485	485	484	484	484	484	484	484	484	486	486	487	489	489	489	491	493	495	497	498	502	505	507	511	514	515	517	519	520	521	522	523	525	526	526	527	528	528	528	529	529	530	532	533	534	535	535	536	536	536	537	538	538	538	539	540	540	541	541	542	542	542	543	543	544	545	546	548	550	550	551	553	554	555	555	555	556	558	557	556	556	556	556	555	555	554	554	553	551	551	551	550	549	549	548	548	548	548	548	548	547	547	547	547	547	547	545	545	545	544	543	543	542	541	541	540	539	538	537	536	536	534	532	531	527	525	524	519	516	514	510	507	504	500	498	496	495	494	493	491	490	489	488	488	487	486	486	485	484	484	484	484	484	484	485	486	488	492	495	499	504	508	512	517	518	518	525	528	531	536	538	541	543	543	543	544	544	544	545	545	545	546	547	547	547	547	547	547	547	547	546	545	545	545	545	544	544	544	543	543	543	543	543	543	542	542	542	542	542	542	542	542	542	542	542	542	542	542	542	541	541	541	541	541	541	541	541	541	540	540	540	540	540	540	537	537	536	534	533	531	529	528	526	524	523	521	519	519	518	516	516	515	514	514	514	514	513	510	510	385	0	0	0	0	296	412	408	406	405	404	404	404	403	403	403	404	404	404	404	404	404	404	404	404	405	406	406	405	405	405	405	405	405	404	404	404	402	402	402	402	402	402	402	402	402	402	402	402	403	403	404	405	405	406	406	406	407	407	407	408	409	409	409	410	410	410	410	410	411	412	412	413	414	414	414	415	415	416	417	417	417	418	419	421	423	425	428	431	433	436	454	463	470	459	453	453	162	0	0	0	0	0	0	0	0	0	0	0	0	0	0	0	0	0	1024	1939	1939	1979	2018	2018	2043	2068	2138	2224	2319	2452	2468	2482	2554	2644	2757	208	0	0	0	0	0	0	0	0	0	0	0	0	0	0	0	0	0	0	0	0	0	150	529	527	527	527	129	0	0	0	0	0	0	0	0	0	0	0	0	0	0	0	0	0	0	0	0	0	0	0	0	0	0	0	0	0	0	0	0	0	0	0	0	0	0	0	0	0	0	0	0	0	0	0	0	0	0	0	0	0	0	0	0	0	0	0	0	0	0	0	0	0	0	0	0	0	0	0	0	0	1075	1356	1356	1356	1360	1371	1377	1041	0	0	0	0	0	0	0	0	0	0	0	0	0	936	1418	1418	1418	1418	1418	1413	1410	1410
544	544	545	546	546	546	546	546	546	546	547	547	548	548	548	548	548	548	548	548	548	548	547	546	546	545	544	544	544	544	544	544	544	544	544	544	544	544	544	544	544	544	544	544	544	544	544	544	545	546	546	546	547	548	548	549	550	550	550	550	551	551	552	553	554	554	554	554	554	555	555	554	554	553	552	551	550	549	548	548	547	546	544	544	543	543	542	542	542	542	542	541	540	540	540	539	539	538	538	537	536	536	536	535	534	534	534	533	533	532	532	533	533	533	533	533	535	535	536	537	538	540	541	542	543	544	545	546	548	548	548	548	548	546	546	546	544	544	544	544	544	544	544	543	543	542	542	542	542	543	543	543	543	543	544	545	545	545	546	546	548	548	548	549	548	548	547	546	545	544	543	542	540	538	537	535	533	530	527	524	520	515	513	510	504	502	499	495	493	491	489	488	488	486	485	484	484	484	484	483	483	483	483	484	484	485	485	486	487	488	489	491	492	494	495	497	500	503	505	508	511	513	515	517	518	519	520	520	522	523	524	524	526	527	527	528	528	530	531	532	534	534	535	536	536	536	537	538	538	538	539	540	540	541	541	542	542	542	543	543	544	545	546	548	549	550	551	553	554	554	555	555	556	557	557	556	556	556	556	556	555	554	554	554	552	551	551	550	550	549	549	549	549	549	549	548	548	548	548	548	548	547	546	546	546	544	543	543	542	541	541	539	538	538	536	536	535	534	531	530	526	524	522	518	516	514	510	506	504	500	498	496	495	494	492	490	490	489	488	487	486	486	485	484	484	484	484	484	484	484	485	486	488	491	494	498	504	507	512	517	518	518	524	527	530	535	538	541	542	542	542	543	544	544	544	544	544	546	546	546	546	546	546	546	546	546	545	545	544	544	544	544	544	543	543	543	543	543	543	542	542	542	542	542	542	542	542	542	542	542	542	542	542	542	542	540	540	540	540	540	540	540	540	540	540	540	540	539	539	539	537	536	536	534	532	530	529	527	526	523	522	520	519	518	518	516	515	514	514	514	514	514	513	512	318	192	0	148	200	200	349	406	404	403	403	402	402	402	402	402	403	403	403	403	403	403	403	403	403	403	404	404	404	404	404	404	404	404	404	404	403	403	402	402	402	402	402	402	402	402	402	402	402	402	402	403	404	404	405	405	405	406	406	406	407	407	408	408	408	409	409	410	410	410	410	411	411	412	413	413	414	414	415	415	416	416	416	417	418	420	421	422	424	430	433	436	297	232	235	379	453	453	162	0	0	0	0	0	0	0	0	0	0	0	0	0	0	0	0	0	512	970	970	1504	2018	2018	2051	2086	2157	2255	2364	2490	2512	2534	2609	2676	2757	208	0	0	0	0	0	0	0	0	0	0	0	0	0	0	0	0	0	0	0	0	0	150	529	528	528	528	130	0	0	0	0	0	0	0	0	0	0	0	0	0	0	0	0	0	0	0	0	0	0	0	0	0	0	0	0	0	0	0	0	0	0	0	0	0	0	0	0	0	0	0	0	0	0	0	0	0	0	0	0	0	0	0	0	0	0	0	0	0	0	0	0	0	0	0	0	0	0	0	0	0	537	876	1379	1379	1382	1390	1397	1055	0	0	0	0	0	0	0	0	0	0	0	0	0	934	1414	1414	1414	1414	1414	1412	1410	1406
543	544	544	544	545	545	545	545	545	545	546	547	547	547	547	547	547	547	547	547	547	547	546	545	545	545	544	544	544	544	544	544	544	543	543	543	543	543	543	543	543	543	543	543	543	544	544	544	544	544	545	545	546	547	548	548	549	550	550	550	551	551	553	554	554	554	555	555	555	555	555	555	554	554	553	552	551	549	548	548	547	545	544	544	543	543	542	542	542	541	541	541	540	540	540	538	538	537	537	536	535	535	535	534	533	533	533	531	531	531	531	531	531	531	531	531	534	534	535	536	537	538	540	541	542	543	544	545	547	548	548	547	546	545	545	545	544	544	544	543	543	543	543	543	543	542	542	542	542	543	543	543	543	543	544	545	545	545	545	545	547	548	548	549	548	548	547	546	545	544	543	542	540	538	537	535	533	530	526	523	520	515	513	510	504	502	499	495	493	491	489	488	487	485	485	484	483	483	483	482	482	482	483	483	483	484	484	485	486	487	489	490	491	492	494	496	498	502	504	506	509	511	513	514	515	517	518	518	520	521	521	522	524	525	526	527	527	529	530	530	533	534	534	535	536	536	537	538	538	538	539	540	540	541	541	542	542	542	543	543	544	545	546	548	549	550	551	553	553	554	555	555	556	556	556	556	556	556	556	556	556	555	554	554	554	552	551	550	550	550	550	550	550	550	549	549	549	549	549	549	548	548	547	547	546	544	543	543	542	541	541	538	538	538	536	535	535	533	531	529	526	523	521	518	516	514	509	506	504	500	498	496	495	493	492	490	490	489	488	487	486	485	485	484	484	484	484	484	484	484	485	486	487	491	494	498	503	507	511	516	517	517	523	526	529	535	538	541	542	542	542	543	543	544	544	544	544	545	545	545	545	545	545	545	545	545	545	545	544	544	544	544	543	543	543	543	543	543	542	542	542	542	542	542	542	542	542	541	541	541	541	541	541	541	541	540	540	540	540	540	540	540	540	540	540	540	540	538	538	538	537	536	535	533	532	530	528	527	525	522	521	520	518	518	517	515	515	514	514	514	514	514	514	514	126	0	0	295	401	401	401	401	401	401	401	401	401	401	401	402	402	402	402	402	402	402	402	402	402	402	402	403	403	403	403	403	402	402	402	403	402	402	402	401	401	401	401	401	401	401	401	401	401	401	402	402	403	404	404	404	405	405	406	406	406	406	407	407	408	408	408	409	409	409	410	410	411	412	412	412	413	414	414	414	415	415	415	416	416	418	419	419	420	428	433	436	140	0	0	299	453	453	162	0	0	0	0	0	0	0	0	0	0	0	0	0	0	0	0	0	0	0	0	1028	2018	2018	2060	2103	2176	2286	2409	2527	2556	2585	2664	2707	2757	208	0	0	0	0	0	0	0	0	0	0	0	0	0	0	0	0	0	0	0	0	0	150	529	529	529	529	130	0	0	0	0	0	0	0	0	0	0	0	0	0	0	0	0	0	0	0	0	0	0	0	0	0	0	0	0	0	0	0	0	0	0	0	0	0	0	0	0	0	0	0	0	0	0	0	0	0	0	0	0	0	0	0	0	0	0	0	0	0	0	0	0	0	0	0	0	0	0	0	0	0	0	397	1402	1402	1404	1410	1416	1070	0	0	0	0	0	0	0	0	0	0	0	0	0	931	1410	1410	1410	1410	1410	1410	1409	1402
541	541	541	542	543	543	543	544	544	544	544	544	545	545	545	545	545	545	545	545	545	545	545	544	544	544	543	543	543	543	543	543	543	542	542	542	542	542	543	543	543	543	543	543	543	543	543	543	544	544	545	545	546	547	548	548	549	550	550	551	551	551	553	554	555	556	556	556	558	558	558	556	555	555	554	553	553	549	548	548	547	545	544	543	542	542	542	541	541	540	540	540	538	538	538	537	537	536	535	535	534	533	532	531	530	530	530	529	529	529	529	529	529	529	529	529	530	530	531	534	534	535	537	539	542	543	544	545	545	545	545	545	545	544	544	544	543	543	543	542	542	542	542	542	542	541	541	541	541	542	542	542	543	543	543	544	544	544	545	545	547	548	548	549	548	548	547	546	545	544	543	542	540	538	537	535	533	530	526	523	520	515	513	510	504	502	499	494	492	490	489	488	487	485	485	484	483	483	483	482	482	482	482	482	483	483	483	484	486	487	488	489	490	491	492	493	495	498	500	502	504	506	508	510	511	513	514	514	516	517	518	519	520	521	524	525	525	527	528	529	531	532	533	535	536	536	537	538	538	540	540	540	541	541	541	542	542	542	543	543	544	547	547	548	549	550	551	553	553	554	555	555	556	556	556	556	556	556	556	556	556	555	554	554	554	553	552	551	551	551	551	551	551	551	551	551	550	550	550	550	550	550	549	548	547	545	544	544	542	541	541	538	537	536	535	534	533	531	529	528	524	522	520	517	515	513	509	506	504	500	498	496	495	493	492	490	490	489	488	487	486	485	485	484	484	484	483	483	483	483	484	485	487	491	493	497	502	506	510	515	516	517	521	524	529	534	537	540	541	541	542	542	542	543	543	543	544	544	544	544	544	544	544	544	544	544	544	544	544	543	543	543	543	543	542	542	542	542	541	541	541	541	541	541	541	541	540	540	540	540	540	540	540	539	538	538	538	538	538	538	538	540	540	540	540	539	538	538	538	537	536	535	534	531	530	529	527	526	525	522	520	519	517	517	516	514	514	514	514	514	514	116	0	0	0	98	400	400	400	400	400	400	400	400	400	400	400	400	400	400	400	400	400	400	400	400	400	400	400	400	400	401	401	401	401	401	401	401	401	402	401	401	400	400	400	400	400	400	400	400	400	400	400	400	401	401	402	402	402	402	404	404	404	404	404	405	406	406	407	407	407	408	408	408	409	409	409	410	411	411	411	412	412	413	413	413	413	413	413	413	414	414	414	125	0	0	0	0	0	0	0	0	0	0	0	0	0	0	0	0	0	0	0	0	0	0	0	0	0	0	0	0	0	1011	1985	1985	2043	2103	2214	2341	2482	2634	2666	2698	2783	2831	2886	218	0	0	0	0	0	0	0	0	0	0	0	0	0	0	0	0	0	0	0	0	0	150	529	529	389	0	0	0	0	0	0	0	0	0	0	0	0	0	0	0	0	0	0	0	0	0	0	0	0	0	0	0	0	0	0	0	0	0	0	0	0	0	0	0	0	0	0	0	0	0	0	0	0	0	0	0	0	0	0	0	0	0	0	0	0	0	0	0	0	0	0	0	0	0	0	0	0	0	0	0	0	408	1443	1437	1435	1435	1441	1445	1451	1451	1451	1451	1445	1441	1435	1435	1164	0	0	0	0	931	1409	1402	1402	1402	1402	1402	1402	1402
540	540	541	541	542	542	542	543	543	544	544	544	544	544	544	544	544	544	544	544	544	544	543	543	543	543	542	542	542	542	542	542	542	542	542	542	542	542	542	543	543	543	543	543	543	543	543	543	544	544	545	545	546	547	547	548	549	550	550	551	552	552	554	555	556	557	557	558	558	558	558	557	556	555	554	554	553	550	549	548	547	545	544	543	542	542	542	541	541	540	540	540	538	538	538	536	536	536	535	534	534	532	531	530	530	529	529	529	528	528	528	528	528	528	528	528	529	529	530	532	533	535	537	538	540	542	542	544	544	544	544	544	544	544	543	543	542	542	542	542	542	542	542	542	541	541	541	541	541	542	542	542	543	543	543	544	544	544	545	545	548	548	548	549	549	548	548	546	545	544	543	542	540	539	537	535	533	530	526	523	520	515	513	510	504	502	499	494	492	490	489	488	487	485	485	484	483	483	482	482	482	482	482	482	483	483	483	484	485	486	487	489	489	490	492	492	494	497	498	500	503	504	506	508	509	512	512	513	514	516	517	518	519	520	522	524	525	526	528	529	530	532	533	535	536	536	537	538	538	540	540	540	541	541	542	542	542	542	543	544	544	547	547	548	549	550	551	553	553	554	555	555	556	556	556	556	556	556	556	556	555	555	555	554	554	553	553	552	552	552	552	552	552	552	552	552	552	552	551	550	550	550	549	548	547	545	544	544	542	541	540	538	537	536	534	533	532	530	529	527	523	521	519	516	514	512	508	506	503	500	498	496	494	493	492	490	490	489	488	487	486	485	485	484	484	484	483	483	483	483	484	485	486	490	493	496	502	505	510	515	517	519	521	524	528	533	536	539	540	541	542	542	542	542	542	543	544	544	544	544	544	544	544	544	544	544	543	543	543	543	542	542	542	542	542	542	541	541	541	540	540	540	540	540	540	539	539	539	538	538	538	538	538	537	537	537	537	538	538	538	538	539	539	539	539	538	538	538	537	536	536	535	534	531	530	528	527	526	524	521	520	518	517	516	516	514	514	514	514	441	257	58	0	0	151	249	400	400	400	400	400	400	400	399	399	399	399	399	399	399	399	399	399	399	399	399	399	399	399	399	399	400	400	400	400	400	400	400	401	401	401	400	400	400	400	400	400	400	400	400	400	400	400	400	400	401	402	402	402	402	403	403	404	404	404	404	405	406	406	406	407	407	407	408	408	408	409	410	410	410	410	411	412	412	412	412	412	412	412	412	412	412	412	267	204	203	203	203	204	69	31	204	204	177	0	0	0	0	0	0	0	0	0	0	0	0	0	0	0	0	0	0	0	1011	1985	1985	2047	2112	2234	2376	2534	2678	2710	2743	2832	2232	1443	109	0	0	0	0	0	0	0	0	0	0	0	0	0	0	0	0	0	0	0	0	0	75	264	264	195	0	0	0	0	0	0	0	0	0	0	0	0	0	0	0	0	0	0	0	0	0	0	0	0	0	0	0	0	0	0	0	0	0	0	0	0	0	0	0	0	0	0	0	0	0	0	0	0	0	0	0	0	0	0	0	0	0	0	0	0	0	0	0	0	0	0	0	0	0	0	0	0	0	0	0	0	408	1443	1440	1439	1439	1445	1447	1447	1444	1442	1438	1433	1428	1418	1418	1151	0	0	0	0	466	808	1386	1386	1387	1390	1390	1392	1402
538	539	540	540	541	541	542	542	542	543	544	544	544	543	543	543	543	543	543	543	543	542	542	542	542	542	541	541	541	541	542	542	541	541	541	541	542	542	542	543	543	543	543	543	543	543	543	543	544	544	545	545	546	547	547	547	549	550	550	551	552	553	555	556	556	558	559	559	559	559	559	558	557	556	555	554	553	550	549	549	547	545	544	543	542	542	541	541	541	540	540	540	538	537	537	536	536	535	534	534	533	531	531	530	529	529	528	528	528	527	527	527	527	527	527	527	528	528	529	531	532	535	537	537	538	540	541	542	543	543	544	544	544	543	542	542	542	542	542	542	541	541	541	541	541	541	541	541	541	542	542	542	543	543	543	544	544	544	545	545	548	548	548	549	549	549	548	546	545	544	543	542	541	539	537	535	533	530	526	523	520	515	513	510	504	502	499	494	492	490	489	488	487	485	485	484	483	483	482	482	482	482	482	482	483	483	483	483	485	486	486	488	489	489	491	492	493	495	497	499	501	503	505	506	507	510	511	511	513	514	515	517	518	519	521	523	524	526	528	529	530	532	533	535	536	536	537	538	538	540	540	540	541	542	542	543	543	543	544	544	545	547	547	548	550	550	551	553	553	554	555	555	555	556	556	556	556	556	556	555	555	555	555	555	554	553	553	553	553	553	553	553	553	553	553	553	553	553	553	551	551	551	549	548	547	545	544	544	542	541	540	538	537	536	534	532	531	530	528	527	522	520	519	516	514	512	508	505	503	499	498	497	494	493	492	491	490	489	488	488	487	485	485	485	484	484	483	483	483	483	484	485	486	490	492	496	501	505	509	514	517	521	521	523	528	533	535	538	540	540	541	542	542	542	542	542	543	543	543	543	543	543	543	543	543	543	542	542	542	542	542	542	542	542	541	541	541	540	540	540	540	540	540	538	538	538	538	537	537	537	536	536	536	536	536	536	537	538	538	538	538	538	538	538	538	538	537	537	537	536	535	534	533	530	529	528	526	525	524	521	519	518	516	516	515	513	513	513	514	369	0	0	0	0	301	399	399	399	399	399	399	399	399	398	398	398	399	399	398	398	398	398	398	398	398	398	398	398	398	398	398	399	399	399	399	399	400	400	400	400	400	400	400	399	399	399	399	399	399	399	400	400	400	400	400	400	401	402	402	402	402	402	403	404	404	404	405	405	405	406	406	406	407	407	408	408	408	409	410	410	410	411	411	411	411	411	411	410	410	410	410	410	410	409	408	406	406	406	407	138	61	407	407	353	0	0	0	0	0	0	0	0	0	0	0	0	0	0	0	0	0	0	0	1011	1985	1985	2052	2121	2253	2411	2585	2722	2755	2788	2880	1634	0	0	0	0	0	0	0	0	0	0	0	0	0	0	0	0	0	0	0	0	0	0	0	0	0	0	0	0	0	0	0	0	0	0	0	0	0	0	0	0	0	0	0	0	0	0	0	0	0	0	0	0	0	0	0	0	0	0	0	0	0	0	0	0	0	0	0	0	0	0	0	0	0	0	0	0	0	0	0	0	0	0	0	0	0	0	0	0	0	0	0	0	0	0	0	0	0	0	0	0	0	0	0	408	1443	1443	1443	1443	1449	1449	1443	1437	1433	1426	1420	1415	1402	1402	1137	0	0	0	0	0	207	1371	1371	1372	1379	1379	1382	1402
536	536	536	537	538	538	540	541	541	541	542	542	542	541	541	541	541	541	541	541	541	541	541	541	541	541	540	540	540	541	541	541	541	541	541	541	542	542	542	543	543	543	543	543	543	543	543	543	544	544	545	545	545	545	547	547	549	550	551	553	554	554	556	557	558	559	559	559	559	559	559	559	558	558	555	554	554	551	550	549	547	545	544	543	542	542	541	540	540	540	539	538	537	537	537	536	536	535	534	534	533	531	530	529	528	528	527	527	527	526	526	526	525	525	525	525	526	527	529	531	532	533	534	535	536	538	539	540	541	541	542	542	542	542	542	542	541	541	541	541	541	541	541	541	541	541	541	541	541	542	542	542	543	543	543	544	544	545	545	545	548	549	549	549	549	549	548	547	547	545	544	543	541	539	538	535	533	530	526	523	520	515	513	510	504	502	499	494	493	491	489	488	487	485	485	484	483	483	482	482	482	482	482	482	482	483	483	483	484	485	486	487	488	489	489	489	491	492	494	496	498	499	501	502	504	506	507	508	510	511	512	515	517	518	520	521	522	526	527	528	530	532	534	535	536	536	538	539	540	541	541	541	542	542	542	543	543	544	544	544	545	547	547	548	549	549	550	551	552	553	554	554	554	556	556	556	556	556	555	555	555	555	555	555	554	554	554	554	554	554	554	554	554	554	555	555	554	554	554	554	552	551	550	549	549	547	545	544	542	541	540	538	537	536	534	532	531	529	527	526	522	520	519	516	514	512	508	505	503	499	498	497	494	493	492	491	490	489	488	488	487	486	486	485	484	484	484	484	484	484	484	485	486	490	492	496	501	505	509	514	517	521	521	523	528	533	535	538	540	540	540	541	541	541	541	541	541	541	541	541	541	541	541	541	541	541	541	541	541	540	540	540	540	540	540	539	538	538	538	538	537	537	537	536	536	536	535	535	535	535	535	535	536	536	536	536	536	536	536	536	536	536	536	537	537	537	536	535	535	535	533	532	531	529	528	526	524	523	522	519	518	517	515	515	514	512	512	512	106	0	0	0	0	0	300	398	398	398	398	398	398	398	398	398	398	398	398	398	398	397	397	397	397	397	396	396	396	396	396	396	397	397	397	398	398	398	398	398	398	399	398	398	398	398	398	398	398	398	399	399	399	400	400	400	400	400	401	401	401	402	402	402	402	402	402	403	403	403	404	405	405	406	406	406	407	408	408	408	409	409	410	410	410	410	410	410	409	409	409	408	407	407	406	406	406	404	404	404	403	403	403	403	402	402	402	403	403	403	160	0	0	0	0	0	0	0	0	0	0	0	0	0	0	0	0	2121	2121	2121	2404	2603	2820	2916	2920	2920	2986	1692	0	0	0	0	0	0	0	0	0	0	0	0	0	0	0	0	0	0	0	0	0	0	0	0	0	0	0	0	0	0	0	0	0	0	0	0	0	0	0	0	0	0	0	0	0	0	0	0	0	0	0	0	0	0	0	0	0	0	0	0	0	0	0	0	0	0	0	0	0	0	0	0	0	0	0	0	0	0	0	0	0	0	0	0	0	0	0	0	0	0	0	0	0	0	0	0	0	0	0	0	0	0	0	415	1468	1462	1458	1451	1439	1433	1426	1414	1410	1410	1399	1391	1379	1379	1119	0	0	0	0	0	207	1371	1371	1372	1379	1379	1380	1386
534	535	536	536	537	537	538	539	540	540	541	541	541	541	540	540	540	540	540	540	540	540	540	540	540	540	540	540	540	541	541	541	541	541	541	541	542	542	542	543	543	544	544	544	544	544	544	544	544	544	544	544	545	545	546	547	548	550	551	553	554	555	556	557	558	559	559	560	560	560	559	559	558	558	556	555	554	551	550	549	547	545	544	543	542	541	541	540	540	539	538	538	537	537	536	536	536	535	534	534	533	531	530	529	528	528	527	527	527	526	526	525	525	525	525	525	526	527	528	529	530	532	533	534	535	537	538	539	539	540	542	542	542	542	542	541	541	541	541	541	541	541	541	541	541	541	541	541	541	542	542	542	543	543	544	544	544	545	545	545	548	549	549	550	550	549	548	548	547	545	544	543	542	540	538	535	533	530	526	523	520	515	513	510	504	502	499	494	493	491	489	488	487	485	485	484	483	483	482	482	482	482	482	482	482	483	483	483	484	485	486	487	487	488	489	489	490	492	493	495	497	498	500	501	502	504	506	507	509	510	511	514	516	517	519	521	522	526	527	528	530	533	534	536	536	537	539	540	540	541	541	542	542	542	542	544	544	544	544	545	545	547	547	548	548	549	550	550	551	552	553	554	554	555	555	556	556	555	555	555	554	554	554	554	554	554	554	554	554	554	554	554	555	555	555	555	554	554	554	554	553	552	550	549	548	546	544	543	542	541	540	538	537	536	534	532	531	529	527	526	522	520	519	516	514	512	508	506	503	500	498	497	494	493	492	492	491	490	489	488	488	487	486	486	485	484	484	484	484	484	484	485	486	490	493	496	501	505	509	514	517	520	520	523	528	532	535	538	539	539	539	540	540	540	540	540	540	540	540	540	540	540	540	540	540	540	540	540	540	539	539	539	539	539	538	538	537	537	537	537	536	536	536	535	535	534	534	534	534	535	535	535	535	535	535	535	535	535	535	535	535	535	536	536	536	536	536	535	534	534	532	531	530	528	527	526	523	522	521	519	518	517	515	514	514	512	512	512	106	0	0	0	53	199	349	398	398	398	398	398	398	398	398	398	398	398	398	397	397	397	396	396	396	396	396	396	396	396	396	396	396	396	396	397	397	397	397	397	398	398	398	398	398	398	398	398	398	398	398	399	399	400	400	400	400	400	401	401	401	402	402	402	402	402	402	402	403	403	404	404	405	406	406	406	406	407	407	408	408	409	409	409	410	410	409	409	408	408	408	407	406	406	405	405	404	404	403	403	402	402	402	402	401	401	401	402	402	402	280	182	0	0	0	0	0	0	0	0	0	0	0	0	0	0	0	1060	1651	2265	2406	2603	2820	2950	2963	2973	3042	1724	0	0	0	0	0	0	0	0	0	0	0	0	0	0	0	0	0	0	0	0	0	0	0	0	0	0	0	0	0	0	0	0	0	0	0	0	0	0	0	0	0	0	0	0	0	0	0	0	0	0	0	0	156	258	258	258	258	258	112	0	0	0	0	0	0	0	0	0	0	0	0	0	0	0	0	0	0	0	0	0	0	0	0	0	0	0	0	0	0	0	0	0	0	0	0	0	0	0	0	0	0	0	0	415	1468	1462	1458	1451	1439	1431	1418	1406	1400	1394	1386	1379	1368	1362	1230	670	215	0	0	443	774	1356	1361	1365	1372	1372	1372	1378
