2087	2091	2091	2091	2091	2091	2091	2091	2091	2094	2094	2094	2097	2097	2097	2097	2101	2101	2104	2108	2108	2108	2114	2114	2114	2118	2118	2121	2121	2121	2118	2118	2114	2114	2108	2108	2108	2104	2104	2097	2097	2097	2097	2097	2097	2097	2097	2097	2097	2097	2101	2101	2101	2101	2101	2101	2101	2104	2104	2101	2101	2101	2101	2101	2101	2097	2097	2097	2097	2097	2097	2097	2097	2097	2097	2097	2097	2097	2097	2097	2097	2097	2097	2101	2101	2101	2101	2104	2104	2104	2104	2104	2104	2104	2104	2104	2104	2104	2104	2104	2104	2104	2104	2104	2104	2104	2104	2104	2101	2101	2101	2101	2104	2104	2104	2104	2104	2108	2108	2108	2111	2111	2111	2114	2118	2118	2118	2118	2118	2118	2118	2118	2114	2114	2114	2111	2111	2111	2108	2108	2108	2108	2108	2108	2108	2108	2108	2108	2108	2108	2108	2111	2114	2114	2118	2121	2121	2128	2135	2135	2146	2156	2156	2163	2170	2170	2181	2185	2185	2189	2192	2192	2196	2196	2196	2200	2200	2200	2203	2203	2203	2203	2203	2203	2207	2207	2207	2207	2230	2230	2284	2284	2333	2333	0	2460	2460	2460	2502	2597	2597	2655	2655	2666	2666	2666	2671	2671	2671	2671	2671	2666	2666	2671	2671	2671	2676	2676	2676	2676	2676	2676	2676	2676	2676	2676	2676	2676	2676	2676	2676	2682	2682	2682	2687	2687	2704	2715	2715	2721	2732	2732	2738	2744	2744	2755	2755	2755	2761	2761	2761	2761	2761	2761	2761	2761	2755	2744	2744	2744	2738	2738	2732	2732	2732	2721	2721	2715	2715	2715	2715	2715	2715	2715	2715	2715	2715	2715	2715	2715	2715	2715	2715	2721	2721	2721	2721	2721	2732	2732	2732	2732	2738	2738	2744	2755	2755	2755	2761	2761	2773	2779	2779	2779	2785	2785	2779	2779	2773	2773	2773	2761	2755	2755	2755	2744	2738	2738	2732	2721	2721	2715	2704	2704	2676	2676	2676	2676	2676	2676	2682	2682	2687	2687	2687	2704	2704	2704	2721	2721	2732	2738	2738	2744	2755	2755	2761	2773	2773	2779	2785	2785	2785	2785	2785	2785	2785	2779	2779	2779	2773	2773	2755	2755	2755	2755	2755	2755	2744	2744	2744	2744	2744	2744	2744	2755	2755	2755	2761	2761	2761	2761	2755	2755	2755	2755	2755	2761	2761	2761	2773	2773	2773	2779	2779	2779	2785	2785	2791	2791	2791	2797	2803	2803	2803	2803	2803	2797	2797	2797	2791	2791	2791	2785	2779	2779	2779	2773	2773	2761	2755	2755	2755	2744	2744	2744	2744	2744	2744	2744	2755	2755	2755	2755	2755	2755	2755	2755	2755	2755	2755	2755	2755	2755	2755	2761	2761	2761	2773	2773	2779	2779	2779	2785	2791	2791	2797	2803	2803	2803	2809	2809	2809	2809	2809	2809	2815	2815	2815	2815	2815	2815	2815	2815	2815	2815	2815	2815	2815	2815	2815	2815	2815	2815	2815	2821	2821	2821	2821	2815	2815	2815	2815	2821	2821	2815	2815	2815	2815	2815	2821	2821	2821	2821	2821	2821	2821	2821	2827	2827	2827	2821	2821	2821	2821	2821	2821	2821	2821	2821	2815	2815	2815	2815	2815	2815	2815	2815	2815	2815	2815	2821	2821	2821	2827	2827	2833	2833	2833	2839	2839	2839	2839	2839	2839	2839	2839	2833	2833	2833	2827	2821	2821	2815	2815	2815	2809	2809	2809	2803	2797	2791	2791	2785	2779	2779	2779	2773	2773	2773	2761	2761	2761	2773	2779	2779	2785	2791	2791	2791	2803	2803	2803	2809	2809	2815	2815	2815	2821	2827	2827	2827	2833	2833	2833	2833	2833	2827	2827	2827	2821	2821	2815	2815	2815	2809	2809	2809	2803	2797	2791	2791	2785	2773	2773	2761	2744	2744	2721	2704	2682	2682	2671	2655	2655	2649	2639	2639	2639	2633	2628	2628	2623	2618	2618	2618	2612	2612	2612	2612	2612	2612	2612	2612	2612	2612	2618	2618	2618	2623	2623	2623	2623	2623	2623	2623	2623	2618	2618	2618	2607	2607	2607	2597	2587	2587	2581	2571	2571	2566	2566	2566	2566	2566	2566	2566	2566	2571	2571	2581	2587	2587	2587	2597	2597	2602	2602	2602	2607	2607	2607	2607	2607	2602	2602	2602	2597	2587	2587	2571	2566	2551	2551	2536	2517	2517	2507	2493	2488	2488	2488	2479	2479	2479	2479	2479	2479	2474	2474	2474	2479	2479	2479	2479	2479	2479	2479	2479	2479	2479	2479
2084	2087	2087	2087	2091	2091	2091	2091	2091	2091	2091	2091	2094	2094	2094	2097	2097	2097	2104	2108	2108	2108	2114	2114	2118	2121	2121	2121	2125	2121	2121	2121	2118	2114	2108	2108	2108	2104	2104	2101	2097	2097	2097	2097	2097	2097	2097	2097	2097	2101	2101	2101	2104	2104	2104	2104	2104	2104	2104	2104	2104	2104	2104	2104	2104	2101	2101	2101	2101	2101	2097	2097	2097	2097	2097	2097	2097	2097	2097	2097	2101	2101	2101	2104	2104	2104	2104	2108	2108	2108	2108	2108	2108	2108	2108	2108	2108	2108	2108	2108	2108	2108	2108	2108	2108	2108	2108	2104	2104	2104	2104	2104	2104	2104	2108	2108	2108	2111	2114	2114	2118	2121	2121	2125	2125	2125	2125	2128	2128	2128	2128	2125	2121	2121	2121	2121	2118	2118	2114	2114	2114	2114	2111	2111	2111	2114	2114	2114	2114	2114	2114	2118	2121	2121	2121	2128	2128	2135	2146	2146	2156	2163	2163	2174	2181	2181	2189	2189	2192	2196	2196	2200	2203	2203	2203	2203	2203	2203	2203	2203	2203	2203	2207	2207	2207	2207	2207	2207	2222	2222	2276	2276	2329	2329	0	2428	2428	2460	2483	2561	2561	2639	2639	2655	2655	2666	2666	2666	2666	2666	2666	2660	2660	2666	2666	2666	2671	2671	2671	2671	2671	2671	2671	2671	2671	2671	2671	2671	2676	2676	2676	2676	2676	2682	2687	2687	2699	2715	2715	2721	2721	2721	2732	2738	2738	2744	2755	2755	2761	2761	2761	2761	2761	2761	2761	2761	2755	2744	2744	2738	2732	2732	2721	2721	2721	2715	2704	2704	2704	2704	2704	2704	2699	2699	2699	2699	2704	2704	2699	2699	2704	2704	2704	2715	2715	2715	2715	2715	2721	2721	2721	2732	2738	2738	2744	2755	2755	2755	2761	2761	2773	2779	2779	2779	2779	2779	2773	2773	2761	2755	2755	2744	2738	2732	2732	2721	2715	2715	2704	2699	2699	2687	2682	2682	2676	2676	2676	2676	2676	2676	2682	2682	2687	2687	2687	2704	2704	2704	2721	2721	2732	2738	2738	2744	2755	2755	2761	2773	2773	2779	2785	2785	2785	2785	2785	2785	2785	2779	2779	2779	2773	2773	2755	2755	2755	2755	2755	2755	2744	2744	2744	2744	2744	2744	2744	2755	2755	2755	2761	2761	2761	2761	2761	2761	2761	2761	2761	2773	2773	2773	2779	2779	2779	2779	2779	2785	2785	2785	2791	2791	2791	2797	2803	2803	2803	2803	2803	2797	2797	2797	2791	2791	2791	2785	2779	2779	2779	2773	2773	2761	2755	2755	2744	2744	2744	2744	2744	2744	2738	2738	2738	2738	2738	2744	2744	2738	2738	2738	2738	2738	2738	2738	2738	2738	2738	2744	2744	2744	2755	2761	2761	2773	2773	2779	2785	2785	2791	2797	2797	2803	2809	2809	2809	2809	2809	2809	2815	2815	2815	2815	2815	2815	2815	2815	2815	2815	2815	2809	2809	2809	2809	2809	2809	2809	2815	2815	2815	2809	2809	2809	2809	2809	2809	2809	2815	2815	2815	2815	2815	2815	2815	2815	2815	2821	2821	2821	2821	2821	2821	2821	2821	2815	2815	2815	2815	2815	2815	2815	2809	2809	2809	2809	2809	2803	2803	2803	2803	2809	2809	2809	2809	2809	2809	2815	2815	2815	2821	2821	2821	2827	2833	2833	2833	2833	2833	2833	2833	2833	2827	2827	2821	2821	2821	2815	2815	2815	2809	2809	2809	2803	2797	2791	2791	2785	2779	2779	2779	2773	2773	2773	2761	2761	2761	2761	2773	2773	2779	2785	2785	2785	2797	2797	2803	2809	2809	2815	2815	2815	2821	2827	2827	2827	2833	2833	2833	2833	2833	2827	2827	2827	2821	2821	2815	2815	2815	2809	2809	2809	2803	2797	2785	2785	2779	2773	2773	2755	2732	2732	2715	2699	2676	2676	2666	2655	2655	2649	2639	2639	2639	2633	2628	2628	2628	2628	2628	2623	2618	2618	2618	2618	2618	2618	2618	2618	2618	2623	2623	2623	2623	2628	2628	2628	2628	2628	2628	2628	2628	2628	2628	2623	2618	2618	2612	2607	2607	2602	2597	2587	2587	2581	2581	2581	2581	2581	2581	2581	2581	2587	2587	2597	2597	2597	2597	2602	2602	2602	2602	2602	2607	2607	2607	2607	2607	2602	2602	2602	2597	2587	2587	2571	2566	2551	2551	2536	2522	2522	2512	2502	2502	2493	2488	2488	2488	2483	2479	2479	2479	2479	2479	2479	2479	2479	2479	2479	2479	2479	2479	2479	2479	2479	2479
2081	2081	2081	2084	2084	2084	2087	2087	2087	2087	2091	2091	2091	2094	2094	2094	2097	2097	2104	2104	2104	2108	2111	2111	2118	2121	2121	2121	2121	2121	2118	2118	2118	2114	2108	2108	2104	2104	2104	2101	2097	2097	2097	2097	2097	2097	2097	2097	2097	2101	2101	2101	2104	2104	2104	2104	2104	2104	2104	2104	2104	2104	2104	2104	2104	2101	2101	2101	2101	2101	2097	2097	2097	2097	2097	2097	2097	2097	2097	2097	2101	2101	2101	2104	2104	2104	2104	2108	2108	2108	2108	2108	2108	2108	2108	2108	2108	2108	2108	2108	2108	2108	2108	2108	2108	2108	2108	2104	2104	2104	2104	2104	2104	2104	2108	2108	2108	2111	2114	2114	2128	2135	2135	2139	2146	2146	2146	2146	2146	2146	2146	2146	2139	2139	2135	2135	2128	2128	2128	2125	2125	2125	2125	2125	2125	2125	2125	2125	2125	2125	2125	2125	2128	2128	2128	2139	2139	2146	2156	2156	2163	2170	2170	2181	2181	2185	2192	2192	2200	2203	2203	2203	2203	2203	2203	2207	2207	2207	2207	2207	2207	2207	2207	2207	2207	2207	2207	2207	2222	2222	2276	2276	2329	2329	0	2428	2428	2483	2483	2561	2561	2639	2639	2655	2655	2666	2666	2666	2666	2666	2666	2660	2660	2666	2666	2666	2671	2666	2666	2671	2666	2666	2671	2671	2671	2671	2671	2671	2671	2671	2671	2676	2676	2682	2687	2687	2699	2704	2704	2715	2721	2721	2732	2738	2738	2744	2755	2755	2761	2761	2761	2761	2761	2761	2761	2761	2755	2744	2744	2732	2732	2732	2715	2715	2704	2704	2699	2699	2699	2687	2687	2687	2687	2687	2687	2687	2687	2687	2687	2687	2699	2699	2704	2704	2704	2715	2715	2715	2721	2721	2721	2732	2738	2738	2744	2755	2755	2761	2773	2773	2773	2773	2773	2761	2761	2761	2755	2755	2738	2732	2721	2721	2715	2704	2704	2699	2687	2687	2682	2676	2676	2671	2666	2666	2666	2666	2666	2666	2666	2666	2671	2671	2676	2682	2682	2687	2699	2699	2704	2704	2715	2721	2721	2732	2738	2738	2755	2755	2755	2761	2773	2773	2773	2779	2779	2773	2773	2761	2761	2761	2755	2755	2744	2744	2738	2738	2738	2738	2738	2738	2738	2738	2744	2738	2738	2744	2744	2755	2755	2755	2761	2761	2761	2761	2761	2761	2761	2773	2773	2773	2779	2779	2779	2779	2779	2785	2785	2785	2791	2791	2791	2797	2797	2797	2797	2797	2797	2797	2797	2791	2785	2785	2785	2779	2773	2773	2773	2761	2761	2755	2755	2755	2744	2744	2744	2744	2744	2744	2738	2738	2738	2738	2738	2744	2744	2738	2738	2738	2738	2738	2738	2738	2738	2738	2738	2744	2744	2744	2755	2761	2761	2773	2773	2779	2785	2785	2791	2797	2797	2803	2809	2809	2809	2809	2809	2809	2815	2815	2815	2815	2815	2815	2815	2815	2815	2815	2815	2809	2809	2809	2809	2809	2809	2809	2815	2815	2815	2809	2809	2809	2809	2809	2809	2809	2815	2815	2815	2815	2815	2815	2815	2815	2815	2821	2821	2821	2821	2821	2821	2821	2821	2815	2815	2815	2815	2815	2815	2815	2809	2809	2797	2797	2797	2791	2791	2791	2791	2791	2791	2791	2791	2791	2791	2803	2803	2803	2809	2815	2815	2815	2821	2821	2821	2821	2821	2827	2827	2827	2821	2821	2821	2821	2821	2815	2815	2815	2815	2809	2809	2809	2803	2797	2797	2791	2785	2785	2779	2761	2761	2761	2761	2761	2761	2761	2761	2761	2773	2773	2773	2785	2785	2785	2797	2809	2809	2809	2815	2815	2821	2827	2827	2833	2833	2833	2833	2833	2833	2833	2833	2821	2821	2821	2815	2809	2809	2809	2803	2803	2797	2791	2785	2785	2773	2761	2761	2744	2732	2732	2715	2699	2676	2676	2666	2655	2655	2649	2639	2639	2639	2633	2628	2628	2628	2628	2628	2623	2618	2618	2618	2618	2618	2618	2618	2618	2618	2623	2623	2623	2623	2628	2628	2628	2628	2628	2628	2628	2628	2628	2628	2623	2618	2618	2612	2607	2607	2602	2597	2587	2587	2581	2581	2581	2581	2581	2581	2581	2581	2587	2587	2597	2597	2597	2597	2602	2602	2602	2602	2602	2602	2602	2602	2602	2602	2602	2602	2602	2597	2587	2587	2571	2566	2551	2551	2536	2522	2522	2512	2502	2502	2493	2488	2488	2488	2483	2479	2479	2479	2479	2479	2479	2479	2479	2479	2479	2479	2479	2479	2479	2479	2479	2479
2081	2081	2081	2084	2084	2084	2087	2087	2087	2087	2091	2091	2091	2094	2094	2094	2097	2097	2101	2104	2104	2108	2111	2111	2114	2118	2118	2121	2121	2118	2118	2118	2114	2111	2108	2108	2104	2104	2104	2101	2097	2097	2097	2097	2097	2097	2101	2101	2101	2104	2104	2104	2104	2104	2104	2108	2108	2108	2104	2104	2108	2104	2104	2104	2104	2104	2104	2104	2104	2104	2101	2101	2101	2101	2101	2101	2101	2101	2101	2101	2104	2104	2104	2104	2104	2104	2108	2108	2108	2108	2111	2111	2111	2111	2111	2111	2111	2111	2111	2111	2111	2111	2111	2111	2111	2111	2111	2111	2111	2111	2111	2111	2114	2114	2114	2118	2118	2121	2125	2125	2128	2135	2135	2139	2146	2146	2146	2146	2146	2146	2146	2146	2139	2139	2135	2135	2128	2128	2128	2125	2125	2125	2125	2125	2125	2125	2125	2125	2125	2125	2125	2125	2128	2128	2128	2139	2139	2146	2156	2156	2163	2170	2170	2181	2181	2185	2192	2192	2200	2203	2203	2203	2203	2203	2203	2207	2207	2207	2207	2207	2207	2207	2207	2207	2207	2207	2207	2207	2222	2222	2257	2257	2312	2312	0	2388	2388	2465	2465	2512	2512	2618	2618	2639	2655	2655	2660	2660	2660	2660	2660	2660	2660	2660	2660	2660	2666	2666	2666	2671	2666	2666	2671	2671	2671	2671	2671	2671	2671	2671	2671	2676	2676	2682	2687	2687	2699	2704	2704	2715	2721	2721	2732	2738	2738	2744	2755	2755	2761	2761	2761	2773	2773	2773	2761	2761	2755	2744	2744	2732	2732	2732	2715	2715	2704	2704	2699	2699	2699	2687	2687	2687	2687	2687	2687	2687	2687	2687	2687	2687	2699	2699	2704	2704	2704	2715	2715	2715	2721	2732	2732	2732	2738	2738	2744	2755	2755	2761	2773	2773	2773	2773	2773	2761	2761	2761	2755	2755	2738	2732	2721	2721	2715	2704	2704	2676	2671	2671	2666	2660	2660	2660	2655	2655	2655	2655	2655	2655	2655	2660	2666	2666	2666	2671	2671	2676	2682	2682	2687	2704	2704	2704	2721	2721	2732	2732	2732	2744	2744	2744	2755	2755	2755	2755	2755	2755	2755	2755	2744	2738	2738	2732	2732	2732	2721	2721	2721	2721	2721	2721	2721	2721	2732	2732	2732	2738	2738	2744	2755	2755	2761	2761	2761	2761	2773	2773	2773	2779	2779	2779	2785	2785	2785	2785	2785	2785	2791	2791	2791	2791	2791	2791	2791	2791	2791	2791	2785	2785	2785	2785	2779	2773	2773	2773	2761	2761	2761	2761	2761	2755	2744	2744	2744	2738	2738	2738	2738	2738	2738	2738	2738	2732	2732	2738	2738	2732	2732	2732	2732	2721	2721	2721	2721	2721	2721	2732	2738	2738	2744	2755	2755	2761	2773	2779	2785	2785	2791	2797	2797	2803	2803	2803	2809	2809	2809	2809	2809	2809	2815	2815	2809	2809	2809	2809	2809	2809	2809	2809	2803	2803	2803	2803	2809	2809	2809	2809	2809	2803	2803	2797	2797	2797	2797	2803	2803	2803	2809	2809	2809	2809	2809	2809	2815	2815	2815	2815	2821	2821	2815	2815	2815	2815	2815	2815	2815	2815	2815	2809	2803	2803	2797	2797	2797	2791	2791	2791	2791	2791	2791	2791	2791	2791	2791	2803	2803	2803	2809	2815	2815	2815	2821	2821	2821	2821	2821	2827	2827	2827	2821	2821	2821	2821	2821	2821	2815	2815	2815	2815	2815	2809	2803	2803	2797	2791	2785	2785	2779	2761	2761	2761	2761	2761	2761	2761	2761	2761	2773	2773	2773	2785	2785	2785	2797	2809	2809	2809	2815	2815	2821	2833	2833	2833	2833	2833	2839	2839	2833	2833	2833	2821	2821	2821	2815	2809	2809	2809	2803	2803	2797	2791	2785	2785	2773	2761	2761	2744	2732	2732	2715	2687	2676	2676	2666	2655	2655	2649	2649	2649	2639	2639	2639	2633	2633	2628	2628	2628	2628	2628	2623	2623	2623	2623	2623	2623	2623	2628	2628	2628	2628	2628	2628	2628	2628	2628	2628	2628	2628	2628	2628	2628	2623	2623	2623	2612	2612	2612	2602	2602	2602	2597	2597	2597	2597	2597	2597	2597	2597	2602	2602	2602	2602	2602	2602	2602	2602	2602	2602	2602	2602	2602	2602	2602	2602	2597	2597	2597	2587	2587	2587	2581	2566	2561	2561	2551	2536	2536	2532	2517	2517	2507	2498	2498	2493	2488	2488	2488	2483	2479	2479	2479	2479	2479	2479	2479	2479	2479	2479	2479	2479	2474	2474
2077	2081	2081	2081	2081	2081	2081	2084	2084	2084	2087	2087	2091	2094	2094	2094	2097	2097	2101	2104	2104	2108	2111	2111	2114	2118	2118	2121	2121	2118	2118	2118	2114	2111	2108	2108	2108	2104	2104	2101	2097	2097	2097	2097	2101	2101	2101	2104	2104	2104	2104	2104	2108	2108	2108	2108	2108	2108	2108	2108	2108	2108	2108	2108	2104	2104	2104	2104	2104	2104	2104	2104	2104	2104	2104	2104	2104	2104	2104	2104	2104	2108	2108	2108	2108	2108	2108	2111	2111	2114	2114	2114	2118	2118	2118	2121	2121	2121	2121	2121	2121	2121	2121	2121	2121	2121	2121	2121	2121	2121	2121	2121	2125	2125	2128	2135	2135	2139	2146	2146	2149	2156	2156	2163	2163	2163	2163	2163	2163	2163	2163	2163	2160	2160	2160	2149	2149	2149	2149	2149	2146	2139	2139	2139	2139	2139	2139	2139	2139	2139	2139	2139	2139	2139	2146	2149	2149	2156	2163	2163	2174	2174	2181	2189	2189	2192	2200	2200	2203	2203	2203	2207	2207	2207	2207	2207	2207	2207	2211	2207	2207	2207	2211	2207	2207	2207	2207	2207	2218	2218	2245	2245	2292	2312	2333	2388	2388	2433	2433	2488	2488	2571	2571	2633	2649	2649	2660	2660	2660	2660	2660	2655	2655	2655	2655	2660	2660	2660	2666	2666	2666	2666	2671	2666	2666	2671	2671	2671	2671	2671	2671	2676	2676	2682	2687	2687	2699	2704	2704	2715	2721	2721	2732	2738	2738	2744	2755	2755	2761	2761	2761	2773	2773	2773	2761	2761	2755	2738	2738	2732	2732	2732	2715	2704	2699	2699	2687	2682	2682	2682	2676	2676	2676	2676	2676	2676	2676	2676	2676	2676	2676	2676	2682	2682	2682	2687	2699	2699	2704	2704	2704	2721	2721	2721	2732	2738	2738	2744	2755	2755	2755	2755	2755	2744	2744	2744	2732	2732	2721	2704	2699	2699	2687	2682	2682	2676	2671	2671	2666	2660	2660	2660	2655	2655	2655	2655	2655	2655	2655	2660	2666	2666	2666	2671	2671	2676	2682	2682	2687	2704	2704	2704	2721	2721	2732	2732	2732	2744	2744	2744	2755	2755	2755	2755	2755	2755	2755	2755	2744	2738	2738	2732	2732	2732	2721	2721	2721	2721	2721	2721	2721	2721	2732	2732	2732	2738	2738	2744	2755	2755	2761	2773	2773	2773	2779	2779	2779	2785	2785	2785	2791	2791	2791	2791	2791	2791	2791	2791	2791	2791	2791	2791	2791	2791	2791	2791	2785	2785	2785	2785	2779	2773	2773	2761	2755	2755	2755	2755	2755	2755	2744	2744	2744	2738	2738	2738	2738	2738	2738	2738	2738	2732	2732	2732	2732	2732	2721	2721	2721	2715	2715	2715	2721	2721	2721	2721	2732	2732	2738	2744	2744	2755	2773	2773	2779	2779	2791	2797	2797	2797	2803	2803	2809	2809	2809	2809	2809	2809	2809	2809	2809	2809	2803	2803	2803	2803	2803	2797	2797	2797	2797	2791	2791	2791	2797	2797	2791	2785	2785	2779	2779	2779	2779	2779	2785	2785	2791	2791	2791	2797	2803	2803	2809	2809	2809	2815	2815	2815	2815	2815	2815	2815	2815	2815	2809	2809	2809	2803	2797	2797	2791	2785	2785	2779	2779	2779	2779	2773	2773	2773	2773	2779	2779	2785	2791	2791	2797	2803	2803	2809	2809	2809	2815	2815	2815	2821	2821	2821	2821	2821	2815	2815	2815	2815	2815	2815	2815	2809	2809	2809	2797	2791	2791	2785	2779	2779	2773	2761	2761	2755	2755	2755	2744	2744	2755	2755	2761	2761	2761	2773	2785	2785	2791	2803	2803	2809	2815	2815	2821	2833	2833	2833	2833	2833	2839	2839	2833	2833	2833	2821	2821	2821	2815	2809	2809	2809	2797	2797	2791	2791	2785	2785	2773	2755	2755	2744	2732	2732	2704	2687	2676	2676	2666	2655	2655	2655	2649	2649	2644	2639	2639	2639	2633	2633	2633	2628	2628	2628	2628	2628	2628	2628	2628	2628	2628	2628	2628	2628	2628	2628	2628	2628	2628	2628	2633	2633	2628	2628	2628	2628	2628	2628	2628	2623	2623	2618	2612	2612	2612	2612	2612	2607	2607	2607	2607	2607	2607	2607	2607	2607	2607	2607	2607	2607	2607	2602	2602	2602	2602	2602	2602	2602	2602	2597	2597	2597	2587	2587	2587	2581	2571	2571	2571	2561	2551	2551	2546	2536	2536	2522	2517	2517	2507	2502	2493	2493	2493	2488	2488	2483	2483	2483	2483	2479	2479	2479	2479	2479	2479	2474	2474
2074	2074	2074	2077	2077	2077	2077	2077	2077	2081	2081	2081	2084	2091	2091	2091	2094	2094	2097	2101	2101	2104	2108	2108	2111	2114	2114	2114	2118	2114	2114	2114	2114	2108	2108	2108	2104	2101	2101	2101	2097	2097	2097	2097	2097	2097	2101	2104	2104	2104	2104	2104	2108	2108	2108	2108	2108	2108	2108	2108	2108	2108	2108	2108	2104	2104	2104	2104	2104	2104	2104	2104	2104	2104	2104	2104	2104	2104	2104	2104	2104	2108	2108	2108	2108	2108	2108	2111	2111	2114	2114	2114	2118	2118	2118	2121	2121	2121	2121	2121	2121	2121	2121	2121	2121	2121	2121	2121	2121	2121	2121	2139	2146	2146	2156	2156	2160	2163	2163	2170	2174	2174	2181	2189	2189	2189	2189	2189	2189	2189	2189	2189	2189	2185	2181	2181	2181	2174	2170	2170	2170	2163	2163	2160	2160	2160	2160	2163	2163	2163	2163	2170	2170	2174	2181	2181	2185	2192	2192	2192	2196	2196	2203	2203	2203	2207	2211	2211	2211	2211	2211	2211	2215	2215	2211	2211	2211	2211	2211	2211	2211	2211	2211	2211	2211	2211	2211	2211	2218	2218	2245	2245	2292	2333	2333	0	2433	2433	2433	2488	2488	2571	2571	2633	2649	2649	2660	2660	2660	2660	2660	2655	2655	2655	2655	2660	2660	2660	2666	2666	2666	2666	2666	2666	2666	2671	2671	2671	2676	2676	2676	2676	2676	2682	2687	2687	2699	2704	2704	2715	2721	2721	2732	2738	2738	2744	2755	2761	2773	2773	2773	2773	2773	2773	2761	2761	2761	2738	2738	2738	2732	2732	2715	2704	2699	2699	2687	2682	2682	2676	2671	2671	2666	2666	2666	2666	2660	2660	2660	2660	2660	2660	2666	2666	2666	2671	2676	2676	2682	2682	2682	2699	2704	2704	2715	2721	2721	2732	2738	2738	2738	2738	2732	2732	2732	2721	2715	2699	2699	2687	2682	2682	2676	2671	2671	2666	2660	2660	2655	2655	2655	2655	2655	2655	2655	2655	2655	2655	2655	2655	2655	2655	2660	2666	2666	2671	2676	2676	2682	2687	2687	2699	2704	2704	2704	2721	2721	2732	2732	2732	2738	2738	2738	2738	2738	2738	2732	2732	2732	2721	2721	2715	2715	2715	2704	2704	2715	2704	2704	2715	2704	2704	2715	2715	2721	2732	2732	2738	2755	2755	2761	2773	2773	2773	2779	2779	2779	2785	2785	2785	2791	2791	2791	2791	2791	2791	2791	2791	2785	2785	2785	2785	2785	2785	2779	2779	2779	2773	2773	2773	2773	2761	2761	2761	2755	2755	2755	2755	2755	2755	2744	2744	2744	2738	2738	2738	2738	2738	2738	2738	2738	2738	2732	2732	2732	2732	2721	2721	2721	2715	2715	2715	2721	2721	2721	2721	2732	2732	2738	2744	2744	2755	2773	2773	2779	2779	2791	2797	2797	2797	2803	2803	2809	2809	2809	2809	2809	2809	2809	2809	2809	2809	2803	2803	2803	2803	2803	2797	2797	2797	2797	2791	2791	2791	2797	2797	2791	2785	2785	2779	2779	2779	2779	2779	2785	2785	2791	2791	2791	2797	2803	2803	2809	2809	2809	2815	2815	2815	2815	2815	2815	2809	2809	2809	2809	2809	2809	2803	2791	2791	2785	2779	2779	2773	2761	2761	2761	2755	2755	2755	2755	2761	2761	2773	2779	2779	2779	2785	2785	2797	2803	2803	2803	2809	2809	2809	2815	2815	2815	2815	2809	2809	2809	2809	2809	2809	2809	2803	2803	2803	2791	2785	2785	2779	2773	2773	2761	2755	2755	2744	2738	2738	2738	2738	2744	2744	2755	2761	2761	2761	2779	2779	2791	2797	2797	2809	2815	2815	2821	2833	2833	2833	2839	2839	2839	2839	2833	2833	2833	2821	2815	2815	2809	2809	2809	2803	2797	2797	2791	2785	2779	2779	2773	2755	2755	2738	2732	2732	2704	2687	2676	2676	2666	2655	2655	2655	2649	2649	2644	2639	2639	2639	2633	2633	2633	2628	2628	2628	2628	2628	2628	2628	2628	2628	2628	2628	2628	2628	2628	2628	2628	2628	2628	2628	2628	2628	2628	2628	2628	2628	2628	2628	2628	2623	2623	2618	2612	2612	2612	2612	2612	2607	2607	2607	2607	2607	2607	2607	2607	2607	2607	2607	2607	2607	2607	2602	2602	2602	2602	2602	2597	2597	2597	2587	2587	2587	2587	2581	2581	2581	2571	2571	2571	2561	2551	2551	2546	2536	2536	2522	2517	2517	2507	2502	2493	2493	2493	2493	2493	2493	2488	2488	2488	2483	2483	2479	2479	2479	2479	2474	2474
2074	2074	2074	2071	2071	2071	2071	2071	2071	2074	2077	2077	2081	2087	2087	2091	2091	2091	2094	2101	2101	2104	2108	2108	2108	2114	2114	2114	2114	2114	2111	2108	2108	2108	2104	2104	2104	2101	2101	2097	2097	2097	2097	2097	2097	2097	2101	2104	2104	2104	2104	2104	2108	2108	2108	2108	2108	2108	2108	2108	2108	2108	2108	2108	2108	2108	2108	2108	2108	2108	2108	2108	2108	2108	2108	2108	2108	2108	2108	2108	2108	2108	2108	2111	2111	2111	2114	2118	2118	2121	2125	2125	2128	2128	2128	2128	2128	2128	2135	2135	2135	2135	2135	2135	2135	2135	2135	2135	2135	2139	2139	2139	2146	2146	2156	2156	2160	2163	2163	2170	2174	2174	2181	2189	2189	2189	2189	2189	2189	2189	2189	2189	2189	2185	2181	2181	2181	2174	2170	2170	2170	2163	2163	2160	2160	2160	2160	2163	2163	2163	2163	2170	2170	2174	2181	2181	2185	2192	2192	2192	2196	2196	2203	2203	2203	2207	2211	2211	2211	2211	2211	2211	2215	2215	2211	2211	2211	2211	2211	2211	2211	2211	2211	2211	2211	2211	2211	2211	2218	2218	2237	2237	2268	2312	2312	0	2384	2384	2384	2465	2465	2532	2571	2623	2644	2644	2655	2655	0	0	0	0	0	0	2660	2660	2660	2660	2666	2666	2666	2666	2666	2666	2671	2671	2671	2676	2676	2676	2676	2682	2682	2687	2687	2687	2704	2704	2704	2715	2721	2721	2738	2738	2738	2755	2755	2761	2773	2773	2773	0	0	2773	2773	2773	2761	2755	2755	2744	2738	2738	2732	2715	2699	2699	2687	2682	2682	2676	2671	2671	2666	2666	2666	2666	2660	2660	2660	2660	2660	2660	2666	2666	2666	2671	2676	2676	2682	2682	2682	2699	2704	2704	2715	2721	2721	2732	2738	2738	2738	2738	2732	2732	2732	2721	2687	2682	2682	2676	2671	2671	2666	2660	2660	2655	2655	2655	2655	2649	2649	2649	2649	2649	2649	2649	2649	2649	2649	2649	2655	2655	2655	2655	2655	2660	2666	2666	2671	2676	2676	2682	2687	2687	2699	2704	2704	2704	2715	2715	2721	2721	2721	2721	2721	2721	2715	2715	2704	2699	2699	2699	2687	2687	2687	2682	2682	2682	2687	2687	2687	2699	2699	2699	2704	2704	2704	2721	2732	2732	2744	2761	2761	2773	2779	2779	2779	2785	2785	2791	2791	2785	2785	2785	2779	2779	2779	2773	2773	2773	2773	2773	2773	2761	2761	2761	2761	2755	2755	2755	2755	2755	2755	2744	2744	2744	2744	2744	2744	2744	2744	2744	2744	2738	2738	2738	2738	2738	2738	2738	2738	2738	2732	2732	2732	2732	2721	2721	2721	2715	2715	2715	2715	2715	2715	2721	2732	2732	2738	2744	2744	2755	2773	2773	2779	2779	2785	2791	2791	2797	2803	2803	2803	2803	2803	2809	2809	2809	2803	2803	2803	2797	2797	2797	2797	2791	2791	2791	2785	2785	2779	2779	2779	2779	2785	2785	2779	2773	2773	2773	2761	2761	2761	2761	2773	2773	2779	2779	2779	2785	2791	2791	2797	2803	2803	2809	2809	2809	2809	2809	2809	2809	2809	2809	2809	2809	2809	2803	2791	2791	2785	2779	2779	2773	2761	2761	2761	2755	2755	2755	2755	2761	2761	2773	2779	2779	2779	2785	2785	2797	2803	2803	2803	2809	2809	2809	2815	2815	2815	2815	2809	2809	2809	2809	2809	2809	2809	2803	2803	2803	2791	2785	2785	2779	2773	2773	2761	2755	2755	2744	2738	2738	2738	2738	2744	2744	2755	2761	2761	2761	2779	2779	2791	2797	2797	2809	2815	2815	2821	2833	2833	2833	2839	2839	2839	2839	2833	2833	2833	2821	2815	2815	2809	2809	2809	2803	2797	2797	2791	2785	2773	2773	2761	2755	2755	2738	2721	2721	2715	2699	2682	2682	2671	2660	2660	2655	2649	2649	2649	2644	2644	2639	2633	2633	2633	2633	2633	2633	2628	2628	2628	2628	2628	2628	2628	2628	2628	2628	2628	2628	2628	2628	2628	2628	2628	2628	2628	2628	2628	2628	2628	2628	2628	2628	2628	2623	2623	2623	2623	2618	2618	2618	2618	2618	2618	2618	2618	2618	2618	2618	2618	2612	2607	2607	2607	2602	2602	2602	2597	2597	2597	2597	2597	2587	2587	2587	2581	2581	2581	2581	2581	2581	2581	2571	2571	2571	2566	2566	2566	2561	2551	2551	2536	2522	2522	2512	2507	2493	2493	2493	2488	2488	2488	2483	2483	2479	2479	2479	2479	2474	2474
2071	2071	2071	2071	2071	2071	2071	2071	2071	2074	2077	2077	2081	2087	2087	2091	2091	2091	2094	2101	2101	2104	2108	2108	2108	2114	2114	2114	2114	2114	2111	2108	2108	2108	2104	2104	2104	2101	2101	2097	2097	2097	2097	2097	2101	2101	2101	2104	2104	2104	2108	2108	2108	2108	2108	2108	2111	2111	2111	2111	2108	2108	2108	2108	2108	2108	2108	2108	2108	2108	2108	2108	2108	2108	2108	2111	2111	2111	2111	2111	2114	2114	2114	2118	2121	2121	2121	2125	2125	2128	2135	2135	2139	2139	2139	2146	2149	2149	2149	2149	2149	2149	2149	2149	2149	2156	2156	2156	2156	2156	2156	2160	2160	2170	2181	2181	2185	2192	2192	2192	2196	2196	2200	2203	2203	2203	2203	2203	2203	2203	2203	2203	2203	2203	2200	2200	2200	2200	2200	2196	2192	2189	2189	2189	2189	2189	2189	2192	2196	2196	2196	2200	2200	2203	2207	2207	2211	2211	2211	2211	2215	2215	2218	2218	2218	2218	2222	2222	2222	2222	2222	2222	2222	2222	2222	2222	2218	2218	2218	2218	2215	2215	2215	2215	2211	2211	2211	2215	2218	2218	2233	2233	2257	2292	2292	2329	2329	2384	2384	2465	2465	2532	2623	2623	2644	2644	2655	2655	0	0	0	0	0	0	2660	2660	2660	2660	2660	2666	2666	2666	2666	2666	2671	2671	2671	2676	2676	2676	2676	2682	2682	2687	2687	2687	2704	2704	2704	2715	2721	2721	2732	2738	2738	2755	2755	2761	2773	2773	2773	0	0	2773	2773	2773	2761	2755	2755	2744	2738	2738	2732	2715	2699	2699	2682	2671	2671	2666	2660	2660	2655	2655	2655	2655	2649	2649	2649	2649	2649	2649	2655	2655	2655	2655	2660	2666	2666	2666	2676	2676	2682	2682	2687	2699	2699	2704	2704	2704	2704	2715	2704	2704	2699	2699	2687	2682	2682	2676	2671	2671	2666	2660	2660	2655	2655	2655	2655	2649	2649	2649	2649	2649	2649	2649	2649	2649	2649	2649	2655	2655	2655	2655	2655	2660	2666	2666	2671	2676	2676	2682	2687	2687	2699	2704	2704	2704	2715	2715	2721	2721	2721	2721	2721	2721	2715	2715	2704	2699	2699	2699	2687	2687	2687	2682	2682	2682	2687	2687	2687	2699	2699	2699	2704	2704	2704	2721	2732	2732	2744	2761	2761	2773	2779	2779	2779	2785	2785	2791	2791	2785	2785	2785	2779	2779	2779	2773	2773	2773	2773	2773	2773	2761	2738	2738	2738	2738	2738	2738	2738	2738	2738	2738	2732	2732	2732	2738	2738	2738	2738	2738	2738	2738	2738	2738	2738	2744	2738	2738	2738	2738	2738	2738	2732	2732	2732	2732	2721	2715	2715	2715	2715	2715	2715	2721	2732	2732	2738	2738	2738	2755	2761	2761	2773	2773	2779	2785	2785	2791	2791	2791	2791	2797	2797	2797	2797	2797	2797	2791	2791	2785	2785	2785	2785	2779	2779	2773	2773	2773	2761	2755	2755	2755	2755	2755	2744	2738	2738	2738	2738	2738	2738	2738	2744	2761	2761	2761	2761	2773	2779	2779	2785	2791	2791	2797	2797	2797	2803	2803	2803	2809	2809	2809	2809	2809	2803	2797	2791	2791	2779	2773	2773	2755	2755	2755	2744	2744	2744	2738	2738	2744	2744	2744	2755	2755	2761	2773	2773	2779	2785	2785	2791	2797	2797	2803	2803	2803	2809	2809	2803	2803	2803	2803	2803	2803	2797	2791	2791	2791	2779	2773	2773	2761	2761	2761	2744	2738	2738	2738	2738	2738	2738	2738	2738	2738	2744	2755	2755	2761	2779	2779	2785	2797	2797	2809	2815	2815	2821	2833	2833	2833	2839	2839	2833	2833	2833	2827	2827	2821	2815	2815	2809	2803	2803	2797	2791	2791	2785	2779	2773	2773	2761	2755	2755	2738	2721	2721	2715	2699	2682	2682	2671	2666	2666	2660	2655	2655	2649	2649	2649	2644	2639	2639	2639	2633	2633	2633	2633	2628	2628	2628	2628	2628	2628	2628	2628	2628	2628	2628	2628	2633	2633	2633	2633	2633	2633	2633	2633	2633	2633	2633	2633	2628	2628	2628	2628	2628	2628	2628	2628	2628	2628	2628	2628	2628	2628	2628	2623	2623	2623	2618	2612	2612	2607	2602	2602	2602	2597	2597	2597	2597	2597	2587	2587	2587	2581	2581	2581	2581	2587	2587	2587	2587	2587	2587	2597	2597	2587	2581	2581	2581	2566	2551	2551	2546	2532	2532	2512	2502	2493	2493	2493	2488	2488	2483	2479	2479	2479	2474	2474
2061	2061	2061	2061	2061	2061	2061	2064	2064	2064	2071	2071	2074	2081	2081	2087	2091	2091	2094	2097	2097	2104	2104	2104	2108	2111	2111	2111	2111	2111	2108	2108	2108	2104	2104	2104	2101	2101	2101	2097	2097	2097	2097	2097	2101	2101	2101	2104	2104	2104	2108	2108	2108	2108	2108	2108	2111	2111	2111	2111	2108	2108	2108	2108	2108	2108	2108	2108	2108	2108	2108	2108	2108	2108	2108	2111	2111	2111	2111	2111	2114	2114	2114	2118	2121	2121	2121	2125	2125	2128	2135	2135	2139	2139	2139	2146	2149	2149	2149	2170	2170	2170	2170	2170	2174	2181	2181	2185	2185	2185	2189	2192	2192	2200	2203	2203	2207	2207	2207	2207	2211	2211	2215	2215	2215	2218	2218	2215	2215	2215	2215	2215	2215	2215	2211	2211	2211	2211	2211	2211	2207	2207	2207	2207	2207	2207	2207	2211	2211	2211	2218	2218	2218	2222	2222	2226	2233	2233	2237	2237	2237	2241	2245	2245	2245	2245	2245	2245	2241	2241	2241	2241	2241	2237	2233	2233	2230	2230	2230	2226	2222	2222	2222	2218	2218	2218	2218	2218	2222	2222	2233	2233	2257	2292	2292	2329	2329	0	0	0	0	0	0	0	0	0	0	0	0	0	0	0	0	0	0	0	0	2660	2660	942	942	942	943	944	944	945	946	946	948	953	953	960	960	964	964	2699	2704	2704	2704	2715	2721	2721	2732	2738	2738	2755	2755	2761	0	0	0	0	0	0	0	0	0	0	0	0	0	0	0	2715	2699	2699	2682	2666	2666	2660	2655	2655	2655	2649	2649	2649	2644	2644	2644	2644	2644	2644	2644	2644	2649	2649	2649	2655	2655	2655	2660	2660	2666	2671	2671	2676	2682	2682	2687	2687	2687	2687	2687	2682	2682	2682	2676	2671	2671	2666	2660	2660	2655	2655	2655	2655	2649	2649	2649	2649	2649	2649	2649	2649	2649	2649	2649	2649	2649	2649	2649	2649	2655	2655	2655	2655	2660	2660	2660	2666	2666	2671	2676	2676	2682	2682	2682	2687	2699	2699	2699	2704	2704	2699	2699	2699	2687	2687	2687	2682	2682	2676	2676	2676	2671	2671	2671	2671	2671	2671	2671	2676	2682	2682	2682	2687	2687	2699	2715	2715	2732	2738	2738	2755	2761	2761	2773	2773	2773	2773	2773	2773	2761	2761	2755	2755	2755	2755	2755	2755	2744	2744	2744	2744	2738	2738	2738	2738	2738	2738	2738	2738	2738	2738	2732	2732	2732	2738	2738	2738	2738	2738	2738	2738	2738	2738	2738	2744	2738	2738	2738	2738	2738	2738	2738	2738	2738	2732	2732	2721	2721	2721	2721	2721	2721	2732	2732	2732	2738	2738	2738	2755	2761	2761	2773	2773	2779	2785	2785	2791	2791	2791	2791	2797	2797	2797	2797	2797	2797	2791	2791	2785	2785	2785	2785	2779	2779	2773	2773	2773	2761	2755	2755	2755	2755	2755	2744	2738	2738	2738	2738	2738	2738	2738	2744	2761	2761	2761	2761	2773	2779	2779	2785	2791	2779	2779	2785	2785	2785	2791	2791	2791	2797	2797	2797	2797	2797	2791	2785	2785	2773	2761	2761	2755	2738	2738	2738	2732	2732	2732	2732	2738	2738	2738	2738	2738	2744	2755	2755	2761	2773	2773	2779	2785	2785	2785	2791	2791	2791	2791	2791	2785	2785	2785	2785	2785	2785	2779	2773	2773	2761	2755	2755	2744	2744	2744	2738	2732	2732	2721	2721	2721	2721	2721	2732	2732	2738	2744	2744	2755	2773	2773	2779	2791	2791	2809	2815	2815	2821	2821	2821	2827	2833	2833	2833	2833	2827	2821	2821	2815	2809	2809	2797	2791	2791	2785	2779	2761	2761	2761	2755	2755	2755	2738	2738	2732	2721	2721	2704	2687	2682	2682	2671	2666	2666	2660	2655	2655	2649	2649	2649	2644	2639	2639	2639	2633	2633	2633	2633	2628	2628	2628	2628	2628	2628	2628	2628	2628	2628	2628	2628	2628	2628	2628	2633	2633	2633	2633	2633	2633	2633	2633	2633	2628	2628	2628	2628	2628	2628	2628	2628	2628	2628	2628	2628	2628	2628	2628	2623	2623	2623	2618	2612	2612	2607	2602	2602	2602	2597	2597	2587	2587	2587	2581	2581	2581	2581	2581	2581	2581	2587	2587	2587	2587	2587	2587	2597	2597	2587	2587	2607	2602	2597	2597	2587	2566	2551	2551	2536	2517	2517	2507	2498	2493	2493	2488	2479	2479	2479	2474	2474
2055	2051	2051	2051	2055	2055	2055	2055	2061	2061	2064	2071	2071	2077	2077	2081	2087	2087	2091	2094	2094	2097	2101	2101	2104	2104	2104	2108	2104	2104	2104	2104	2104	2104	2101	2101	2097	2097	2097	2097	2097	2097	2097	2097	2101	2101	2101	2104	2104	2104	2108	2108	2108	2111	2111	2111	2111	2111	2111	2111	2111	2111	2111	2111	2114	2114	2114	2114	2114	2114	2114	2114	2114	2114	2118	2118	2118	2118	2118	2118	2118	2121	2121	2125	2128	2128	2128	2135	2135	2139	2146	2146	2149	2156	2156	2160	2163	2163	2163	2170	2170	2170	2170	2170	2174	2181	2181	2185	2185	2185	2189	2192	2192	2200	2203	2203	2207	2207	2207	2207	2211	2211	2215	2215	2215	2218	2218	2215	2215	2215	2215	2215	2215	2215	2211	2211	2211	2211	2211	2211	2207	2207	2207	2207	2207	2207	2207	2211	2211	2211	2218	2218	2218	2222	2222	2226	2233	2233	2237	2237	2237	2241	2245	2245	2245	2245	2245	2245	2241	2241	2241	2241	2241	2237	2233	2233	2230	2230	2230	2226	2222	2222	2222	2218	2218	2218	2218	2218	2222	2222	2233	2233	2253	2276	2276	2312	2312	2337	0	0	0	0	0	0	0	0	0	0	0	0	0	0	0	0	0	0	0	0	0	942	942	942	943	944	944	945	946	946	948	953	953	960	960	964	964	2704	2704	2721	2721	2721	2732	2732	2738	0	0	0	0	0	0	0	0	0	0	0	0	0	0	0	0	0	0	0	0	0	0	0	2682	2666	2666	2660	2655	2655	2655	2649	2649	2649	2644	2644	2644	2644	2644	2644	2644	2644	2649	2649	2649	2655	2655	2655	2660	2660	2666	2671	2671	2676	2682	2671	2671	2671	2671	2671	2671	2666	2666	2666	2666	2655	2655	2655	2655	2655	2655	2649	2649	2649	2649	2649	2649	2644	2644	2644	2644	2644	2644	2644	2644	2644	2644	2644	2649	2649	2649	2649	2649	2655	2655	2655	2655	2660	2660	2660	2666	2666	2666	2671	2671	2676	2682	2682	2682	2682	2682	2682	2682	2676	2676	2676	2671	2671	2671	2666	2666	2666	2660	2660	2660	2660	2660	2660	2666	2666	2666	2666	2666	2671	2676	2676	2682	2699	2699	2715	2715	2721	2732	2732	2738	2738	2738	2744	2744	2738	2738	2738	2738	2732	2732	2732	2732	2732	2732	2721	2721	2721	2715	2715	2715	2715	2715	2715	2715	2715	2721	2721	2721	2721	2721	2721	2732	2732	2732	2738	2738	2738	2738	2738	2738	2744	2738	2738	2738	2738	2738	2738	2738	2738	2738	2732	2732	2721	2721	2721	2721	2721	2721	2721	2732	2732	2732	2738	2738	2744	2755	2755	2761	2761	2761	2773	2773	2779	2779	2779	2785	2785	2785	2779	2779	2779	2779	2773	2773	2773	2761	2761	2761	2755	2755	2744	2738	2738	2732	2732	2721	2721	2721	2721	2721	2715	2704	2704	2704	2715	2721	2721	2721	2738	2738	2738	2744	2744	2755	2761	2761	2773	2773	2779	2785	2785	2785	2791	2791	2791	2797	2797	2797	2797	2797	2791	2785	2785	2773	2761	2761	2755	2738	2738	2738	2732	2732	2732	2732	2738	2738	2738	2738	2738	2744	2755	2755	2761	2773	2773	2779	2785	2785	2785	2791	2791	2791	2791	2791	2785	2785	2785	2785	2785	2785	2779	2773	2773	2761	2755	2755	2744	2744	2744	2738	2732	2732	2721	2721	2721	2721	2721	2732	2732	2738	2744	2744	2755	2773	2773	2779	2791	2791	2809	2815	2815	2821	2821	2821	2827	2833	2833	2833	2833	2827	2821	2821	2815	2809	2809	2797	2761	2761	2761	2755	2744	2744	2744	2738	2738	2732	2732	2732	2721	2715	2715	2699	2687	2676	2676	2671	2666	2666	2660	2655	2655	2655	2649	2649	2644	2639	2639	2639	2639	2633	2633	2633	2633	2633	2633	2633	2633	2633	2633	2633	2628	2628	2628	2628	2628	2628	2628	2628	2628	2628	2628	2633	2633	2633	2633	2633	2633	2633	2633	2633	2633	2633	2633	2633	2633	2633	2633	2633	2628	2628	2628	2628	2628	2628	2623	2623	2618	2612	2607	2607	2602	2597	2597	2587	2587	2587	2581	2581	2581	2581	2581	2581	2581	2587	2587	2587	2597	2597	2597	2602	2607	2607	2607	2607	2602	2597	2597	2587	2566	2551	2551	2536	2517	2517	2507	2498	2493	2493	2488	2479	2479	2479	2474	2474
2055	2051	2051	2051	2055	2055	2055	2055	2061	2061	2064	2071	2071	2077	2077	2081	2087	2087	2091	2094	2094	2097	2101	2101	2104	2104	2104	2108	2104	2104	2104	2104	2104	2104	2101	2101	2097	2097	2097	2097	2097	2097	2097	2097	2101	2101	2104	2104	2104	2108	2108	2108	2108	2111	2111	2111	2114	2111	2111	2114	2114	2118	2118	2118	2118	2118	2118	2118	2121	2121	2121	2121	2125	2125	2125	2128	2128	2128	2128	2128	2128	2135	2135	2135	2139	2139	2146	2149	2149	2156	2160	2160	2163	2170	2170	2174	2174	2185	2185	2185	2189	2189	2189	2192	2200	2200	2203	2203	2203	2203	2207	2207	2211	2215	2215	2218	2218	2218	2222	2222	2222	2226	2230	2230	2230	2233	2233	2230	2230	2230	2230	2230	2230	2230	2226	2226	2226	2226	2226	2226	2222	2222	2222	2222	2222	2222	2226	2230	2230	2233	2237	2237	2245	2257	2257	2268	2276	2276	2284	2284	2284	2292	2292	2292	2284	2284	2284	2284	2284	2276	2268	2268	2268	2264	2264	2264	2253	2253	2253	2245	2241	2241	2237	2233	2233	2230	2226	2226	2226	2230	2237	2237	2253	2264	2264	2280	2312	2337	0	0	0	0	0	0	0	0	0	0	0	0	0	0	0	0	0	0	0	0	941	941	942	942	942	942	942	943	944	944	946	950	950	957	957	962	964	964	2704	967	967	968	968	2732	2738	0	0	0	0	0	0	0	0	0	0	0	0	0	0	0	0	0	0	0	0	0	0	0	2682	2666	2666	2655	2655	2655	2649	2649	2649	2644	2639	2639	2639	2639	2639	2639	2639	2639	2639	2639	2644	2649	2649	2649	2655	2655	2655	2655	2655	2660	2660	2660	2671	2671	2671	2671	2671	2666	2666	2666	2666	2655	2655	2655	2655	2655	2655	2649	2649	2649	2649	2649	2649	2644	2644	2644	2644	2644	2644	2644	2644	2644	2644	2644	2649	2649	2649	2649	2649	2655	2655	2655	2655	2660	2660	2660	2666	2666	2666	2671	2671	2676	2682	2682	2682	2682	2682	2682	2682	2676	2676	2676	2671	2671	2671	2666	2666	2666	2660	2660	2660	2660	2660	2660	2666	2666	2666	2666	2666	2671	2676	2676	2682	2699	2699	2715	2715	2721	2732	2732	2738	2738	2738	2744	2744	2738	2738	2738	2738	2704	2704	2704	2704	2704	2704	2704	2704	2704	2704	2704	2704	2704	2704	2704	2704	2704	2704	2704	2704	2715	2715	2715	2721	2721	2721	2732	2732	2732	2732	2732	2738	2744	2744	2738	2738	2738	2738	2738	2738	2738	2738	2738	2732	2732	2732	2732	2732	2732	2721	2721	2732	2732	2732	2738	2738	2738	2744	2744	2755	2761	2761	2761	2761	2761	2761	2761	2761	2761	2761	2761	2761	2761	2761	2755	2755	2744	2744	2744	2732	2732	2732	2715	2715	2704	2704	2687	2687	2687	2687	2687	2687	2682	2682	2682	2682	2687	2687	2687	2704	2715	2715	2715	2721	2721	2732	2732	2732	2738	2744	2744	2755	2761	2761	2773	2773	2773	2779	2785	2785	2785	2785	2785	2779	2779	2761	2755	2755	2744	2738	2738	2732	2732	2732	2721	2721	2721	2721	2721	2732	2732	2738	2744	2744	2755	2755	2755	2761	2773	2773	2773	2779	2779	2779	2779	2779	2773	2773	2773	2761	2761	2761	2755	2755	2755	2744	2738	2738	2732	2721	2721	2721	2715	2715	2715	2715	2715	2715	2721	2732	2732	2732	2744	2744	2744	2761	2761	2773	2785	2785	2797	2809	2809	2815	2815	2815	2821	2821	2821	2821	2821	2815	2809	2809	2803	2791	2791	2779	2761	2761	2761	2755	2744	2744	2744	2738	2738	2732	2732	2732	2721	2715	2715	2699	2687	2676	2676	2671	2666	2666	2660	2655	2655	2655	2649	2649	2649	2644	2644	2639	2639	2639	2639	2633	2633	2633	2633	2633	2633	2633	2633	2633	2633	2633	2633	2628	2628	2628	2628	2628	2628	2628	2628	2633	2633	2633	2633	2633	2633	2633	2633	2633	2633	2633	2639	2639	2639	2639	2639	2633	2633	2633	2633	2628	2628	2628	2628	2628	2618	2612	2607	2607	2602	2597	2597	2587	2587	2587	2581	2581	2581	2581	2581	2581	2581	2587	2597	2597	2602	2607	2607	2612	2612	2612	2618	2618	2612	2607	2607	2602	2581	2566	2566	2551	2532	2532	2517	2502	2493	2493	2488	2483	2483	2479	2479	2479
2051	2051	2051	2051	2048	2048	2048	2051	2055	2055	2055	2061	2061	2071	2077	2081	2087	2087	2091	2094	2094	2097	2097	2097	2101	2101	2101	2101	2104	2104	2101	2101	2101	2097	2097	2097	2097	2097	2097	2097	2097	2097	2097	2097	2097	2097	2101	2104	2104	2104	2104	2104	2108	2108	2108	2111	2111	2111	2111	2114	2114	2118	2118	2118	2118	2118	2118	2118	2121	2121	2121	2121	2125	2125	2125	2128	2128	2128	2128	2128	2128	2135	2135	2135	2139	2139	2146	2149	2149	2156	2163	2170	2181	2181	2185	2189	2189	2196	2200	2200	2203	2203	2203	2207	2211	2211	2218	2218	2218	2222	2222	2222	2226	2230	2230	2237	2241	2241	2245	2245	2245	2253	2257	2257	2257	2257	2257	2257	2257	2257	2257	2257	2257	2257	2257	2253	2253	2253	2253	2253	2253	2253	2253	2253	2257	2257	2264	2268	2268	2276	2284	2284	2296	2296	2308	2316	2316	2321	2325	2325	2325	2329	2329	2325	2325	2325	2321	2321	2321	2312	2308	2308	2304	2304	2304	2292	2284	2284	2280	2268	2264	2264	2264	2257	2257	2253	2241	2241	2241	2241	2245	2245	2253	2264	2264	2280	0	0	0	0	0	0	0	0	0	0	0	0	0	0	0	0	0	0	0	940	940	940	940	940	941	941	942	942	942	942	943	943	946	950	950	955	955	962	964	964	2715	967	965	965	965	965	0	0	0	0	0	0	0	0	0	0	0	0	0	0	0	0	0	0	0	0	0	0	0	0	0	0	0	2655	2649	2649	2644	2639	2639	2639	2633	2633	2633	2633	2633	2633	2633	2633	2633	2633	2633	2639	2639	2639	2639	2639	2644	2649	2649	2649	2649	2649	2655	2655	2655	2655	2655	2655	2655	2655	2655	2655	2655	2649	2649	2649	2649	2649	2649	2649	2649	2649	2644	2644	2644	2644	2644	2644	2644	2644	2644	2644	2644	2644	2644	2644	2649	2649	2649	2649	2649	2649	2655	2655	2655	2655	2655	2655	2660	2666	2666	2666	2671	2671	2671	2671	2671	2671	2671	2666	2666	2666	2660	2660	2660	2655	2655	2655	2655	2655	2655	2655	2649	2649	2655	2655	2655	2655	2655	2655	2660	2660	2666	2676	2676	2682	2687	2687	2699	2704	2704	2715	2715	2715	2715	2715	2715	2704	2704	2704	2704	2704	2704	2704	2704	2704	2704	2704	2704	2704	2704	2704	2704	2704	2704	2704	2704	2704	2704	2715	2715	2715	2721	2721	2721	2732	2732	2732	2732	2732	2738	2744	2744	2744	2744	2738	2738	2738	2738	2744	2744	2744	2738	2738	2732	2732	2732	2732	2732	2732	2732	2732	2738	2738	2738	2738	2744	2744	2755	2761	2761	2761	2761	2761	2761	2761	2761	2761	2761	2761	2761	2761	2761	2755	2755	2744	2744	2744	2732	2732	2732	2715	2715	2704	2704	2687	2687	2687	2687	2687	2687	2682	2682	2682	2682	2687	2687	2687	2682	2682	2682	2687	2699	2699	2704	2704	2704	2715	2721	2721	2732	2738	2738	2755	2755	2755	2761	2773	2773	2779	2785	2779	2773	2773	2761	2755	2755	2738	2732	2732	2732	2721	2715	2715	2715	2721	2721	2721	2721	2732	2732	2738	2738	2738	2744	2744	2744	2755	2755	2755	2755	2755	2761	2755	2755	2755	2744	2744	2744	2738	2738	2738	2732	2732	2721	2721	2721	2715	2715	2715	2715	2715	2715	2715	2715	2715	2715	2715	2721	2721	2732	2738	2738	2744	2761	2761	2761	2779	2779	2785	2797	2797	2803	2809	2809	2809	2809	2809	2809	2809	2803	2791	2791	2779	2773	2755	2755	2744	2738	2738	2732	2721	2721	2721	2721	2721	2715	2715	2715	2704	2699	2687	2687	2682	2676	2676	2671	2666	2666	2660	2655	2655	2655	2649	2649	2649	2644	2644	2639	2639	2639	2639	2633	2633	2633	2633	2633	2633	2633	2633	2633	2633	2628	2628	2628	2628	2628	2628	2628	2628	2628	2628	2628	2628	2628	2633	2633	2633	2633	2633	2633	2633	2633	2639	2639	2639	2639	2639	2633	2633	2633	2633	2628	2628	2628	2628	2628	2618	2612	2607	2607	2602	2597	2597	2587	2587	2587	2581	2581	2581	2571	2571	2581	2581	2587	2597	2597	2602	2607	2607	2618	2623	2623	2623	2623	2623	2618	2618	2607	2597	2597	2581	2566	2546	2546	2532	2512	2512	2502	2493	2488	2488	2483	2479	2479
2048	2048	2048	2042	2042	2048	2048	2048	2048	2048	2051	2061	2061	2071	2081	2081	2081	2081	2091	2094	2094	2097	2097	2097	2101	2101	2101	2101	2104	2104	2101	2101	2101	2097	2097	2097	2097	2094	2094	2094	2094	2097	2097	2097	2097	2097	2101	2104	2104	2104	2104	2104	2108	2108	2108	2108	2111	2111	2111	2114	2114	2118	2118	2118	2121	2125	2125	2125	2128	2128	2135	2135	2135	2139	2146	2146	2146	2146	2146	2149	2149	2149	2149	2156	2156	2160	2160	2160	2163	2163	2163	2170	2181	2181	2185	2189	2189	2196	2200	2200	2203	2203	2203	2207	2211	2211	2218	2218	2218	2222	2222	2222	2226	2230	2230	2237	2241	2241	2245	2245	2245	2253	2257	2257	2257	2257	2257	2257	2257	2257	2257	2257	2257	2257	2257	2253	2253	2253	2253	2253	2253	2253	2253	2253	2257	2257	2264	2268	2268	2276	2284	2284	2296	2296	2308	2316	2316	2321	2325	2325	2325	2329	2329	2325	2325	2325	2321	2321	2321	2312	2308	2308	2304	2304	2304	2292	2284	2284	2280	2268	2264	2264	2264	2257	2257	2253	2241	2241	2241	2268	2268	2268	2268	2276	2276	0	0	0	0	0	0	0	0	0	0	0	0	0	0	0	0	0	0	0	0	940	940	940	940	940	941	941	942	942	942	942	943	943	0	0	955	955	955	0	0	2721	2721	2721	965	965	965	965	0	0	0	0	0	0	0	0	0	0	0	0	0	0	0	0	0	0	0	0	0	0	0	0	0	0	0	0	2649	2649	2644	2639	2639	2639	2633	2633	2633	2633	2633	2633	2633	2633	2633	2633	2633	2633	2633	2633	2639	2639	2639	2639	2639	2639	2644	2644	2649	2649	2649	2649	2649	2649	2649	2649	2649	2649	2649	2649	2644	2644	2644	2644	2644	2644	2644	2644	2644	2639	2639	2639	2639	2639	2639	2639	2639	2639	2639	2639	2639	2639	2644	2644	2644	2644	2649	2649	2649	2649	2649	2649	2655	2655	2655	2655	2655	2660	2660	2660	2660	2660	2660	2660	2660	2660	2655	2655	2655	2655	2655	2655	2649	2649	2649	2649	2649	2649	2649	2649	2649	2649	2649	2649	2649	2649	2649	2649	2655	2655	2655	2660	2666	2666	2676	2676	2676	2676	2687	2687	2682	2682	2682	2676	2676	2676	2676	2676	2676	2682	2682	2682	2682	2682	2682	2682	2682	2682	2682	2687	2687	2687	2687	2687	2687	2699	2699	2704	2715	2715	2715	2721	2721	2721	2732	2732	2732	2738	2738	2738	2738	2738	2738	2738	2738	2744	2744	2744	2738	2738	2732	2732	2732	2732	2732	2721	2721	2721	2732	2732	2732	2732	2732	2732	2738	2738	2738	2744	2744	2744	2738	2738	2738	2744	2744	2738	2738	2738	2738	2732	2732	2721	2721	2721	2715	2704	2687	2687	2687	2676	2676	2671	2671	2671	2671	2666	2666	2666	2666	2666	2666	2666	2671	2671	2682	2682	2682	2687	2699	2699	2704	2704	2704	2715	2721	2721	2732	2738	2738	2755	2755	2755	2761	2773	2773	2779	2785	2779	2773	2773	2761	2755	2755	2738	2732	2732	2732	2721	2715	2715	2715	2721	2721	2721	2721	2732	2732	2738	2738	2738	2744	2744	2744	2755	2755	2755	2755	2755	2761	2755	2755	2755	2744	2744	2744	2738	2738	2738	2732	2732	2721	2721	2721	2715	2715	2715	2715	2715	2715	2715	2715	2715	2715	2715	2721	2721	2732	2738	2738	2744	2761	2761	2761	2779	2779	2785	2797	2797	2803	2809	2809	2809	2809	2809	2791	2791	2779	2773	2773	2755	2738	2732	2732	2715	2704	2704	2699	2699	2699	2699	2699	2699	2687	2687	2687	2687	2682	2676	2676	2676	2671	2671	2666	2660	2660	2660	2655	2655	2655	2649	2649	2649	2644	2644	2644	2639	2639	2639	2639	2633	2633	2633	2633	2633	2633	2628	2628	2628	2628	2628	2628	2628	2628	2628	2628	2628	2628	2628	2628	2628	2628	2628	2628	2633	2633	2633	2633	2639	2639	2639	2639	2639	2639	2639	2639	2639	2639	2633	2633	2633	2628	2628	2628	2623	2618	2607	2607	2602	2597	2597	2587	2587	2587	2581	2581	2581	2571	2571	2581	2581	2587	2597	2597	2602	2607	2607	2618	2623	2623	2623	2623	2623	2618	2618	2607	2597	2597	2581	2566	2546	2546	2532	2512	2512	2502	2493	2488	2488	2483	2479	2479
2048	2048	2048	2042	2042	2048	2048	2048	2048	2048	2051	0	0	0	0	2081	2081	2081	0	0	0	0	0	0	0	0	0	0	0	0	0	0	0	0	0	0	0	2094	2094	2094	2094	0	0	0	0	0	2104	2104	2104	2108	2108	2108	2108	2108	2108	2108	2111	2111	2111	2114	2114	2118	2121	2121	2125	2135	2135	2146	2149	2149	2149	2160	2160	2160	2163	2163	2163	2170	2170	2170	2170	2170	2170	2174	2174	2174	2181	2181	2181	2185	2185	2185	2192	2192	2196	2203	2203	2207	2207	2207	2211	2218	2218	2222	2226	2226	2233	2241	2241	2245	2253	2253	2257	2268	2268	2268	2276	2276	2280	2284	2284	2284	2284	2284	2284	2284	2284	2284	2284	2284	2292	2292	2292	2292	2292	2284	2284	2284	2284	2284	2292	2292	2292	2296	2292	2292	2296	2296	2308	2316	2316	2325	2329	2329	2333	2337	2337	2341	2346	2346	2346	2346	2346	2346	2346	2341	2341	2341	2337	2337	2337	2333	2329	2325	2325	2321	2312	2312	2308	2296	2296	2296	2292	2292	2280	2280	2268	2268	2268	2268	2268	2268	2268	2276	2276	0	0	0	0	0	0	0	0	0	0	0	0	0	0	0	0	0	940	940	940	940	940	940	940	940	940	940	941	941	941	942	943	943	0	0	955	955	955	0	0	961	961	962	962	962	965	965	0	0	0	0	0	0	0	0	0	0	0	0	0	0	0	0	0	0	0	0	0	0	0	0	0	0	0	0	2649	2649	2639	2639	2639	2639	2633	2633	2633	2633	2633	2633	2628	2628	2628	2628	2633	2633	2633	2633	2639	2639	2639	2639	2639	2639	2644	2644	2649	2649	2649	2649	2649	2649	2649	2649	2649	2649	2649	2649	2644	2644	2644	2644	2644	2644	2644	2644	2644	2639	2639	2639	2639	2639	2639	2639	2639	2639	2639	2639	2639	2639	2644	2644	2644	2644	2649	2649	2649	2649	2649	2649	2655	2655	2655	2655	2655	2660	2660	2660	2660	2660	2660	2660	2660	2660	2655	2655	2655	2655	2655	2655	2649	2649	2649	2649	2649	2649	2649	2649	2649	2649	2649	2649	2649	2649	2649	2649	2655	2655	2655	2660	2666	2666	2676	2676	2655	2655	2660	2660	2660	2666	2660	2660	2660	2660	2660	2660	2660	2660	2666	2666	2666	2671	2671	2671	2671	2671	2671	2676	2676	2676	2682	2682	2682	2687	2687	2699	2699	2699	2704	2704	2704	2715	2721	2721	2721	2732	2732	2732	2732	2732	2732	2732	2732	2738	2738	2738	2738	2738	2732	2721	2721	2721	2715	2715	2715	2715	2704	2704	2704	2704	2704	2704	2715	2715	2715	2721	2721	2721	2715	2715	2715	2715	2715	2715	2715	2715	2715	2704	2704	2704	2687	2687	2687	2682	2671	2671	2666	2660	2660	2655	2655	2655	2655	2655	2655	2655	2655	2655	2655	2655	2655	2655	2660	2666	2666	2671	2671	2671	2676	2682	2682	2687	2699	2699	2704	2721	2721	2732	2738	2738	2744	2755	2755	2761	2773	2773	2761	2761	2755	2744	2744	2738	2732	2732	2732	2721	2715	2715	2715	2715	2715	2715	2715	2721	2721	2721	2732	2732	2738	2738	2738	2738	2738	2738	2744	2744	2738	2738	2738	2738	2732	2732	2732	2721	2721	2715	2715	2715	2704	2704	2704	2699	2699	2699	2699	2699	2699	2699	2704	2704	2704	2715	2721	2721	2732	2738	2738	2744	2755	2755	2755	2773	2773	2779	2785	2785	2791	2791	2791	2791	2797	2791	2791	2791	2779	2773	2773	2755	2738	2732	2732	2715	2704	2704	2699	2699	2699	2699	2699	2699	2687	2687	2687	2687	2682	2676	2676	2676	2671	2671	2666	2660	2660	2660	2655	2655	2655	2649	2649	2649	2649	2649	2644	2639	2639	2639	2639	2639	2633	2633	2633	2633	2633	2628	2628	2628	2628	2628	2628	2628	2628	2628	2628	2628	2628	2628	2628	2628	2628	2628	2628	2633	2633	2633	2633	2639	2639	2639	2639	2639	2639	2639	2639	2639	2639	2639	2633	2633	2628	2628	2628	2623	2618	2607	2607	2602	2597	2597	2587	2587	2587	2581	2581	2581	2571	2571	2581	2581	2581	2597	2597	2602	2607	2607	2618	2623	2623	2628	2628	2628	2623	2623	2618	2607	2607	2597	2581	2561	2561	2536	2522	2522	2507	2498	2493	2493	2488	2479	2479
2048	2048	2048	2042	2042	2042	2042	2048	2048	2048	2051	0	0	0	0	2081	2081	2081	0	0	0	0	0	0	0	0	988	988	988	0	0	0	0	0	0	0	0	2094	2094	2094	2094	0	0	0	0	0	2104	2104	2104	2108	2108	2108	2108	2108	2108	2108	2111	2111	2111	2114	2114	2118	2121	2121	2125	2135	2135	2146	2149	2149	2149	2160	2160	2160	2163	2163	2163	2170	2170	2170	2189	2189	2189	2189	2189	2192	2192	2192	2196	2196	2196	2200	2203	2203	2207	2211	2211	2215	2218	2218	2222	2226	2226	2237	2253	2253	2264	2264	2276	2276	2276	2284	2296	2296	2296	2308	2308	2308	2312	2312	2312	2316	2316	2316	2316	2316	2316	2316	2316	2316	2316	2316	2316	2316	2316	2316	2316	2316	2316	2316	2316	2316	2321	2325	2325	2325	2329	2329	2333	2337	2337	2341	2346	2346	2350	2354	2354	2358	2362	2362	2362	2362	2362	2362	2362	2358	2358	2358	2354	2350	2350	2346	2346	2346	2337	2333	2333	2333	2329	2325	2325	2321	2316	2316	2312	2308	2308	2304	2304	2325	2321	2321	2321	2321	0	0	0	0	0	0	0	0	0	0	0	0	0	0	0	0	940	940	940	940	940	939	939	940	940	940	940	940	940	940	940	940	0	0	0	0	0	0	0	0	0	961	961	962	960	960	960	960	959	959	957	957	0	0	0	0	0	0	0	0	0	0	0	0	0	0	0	0	0	0	0	0	0	0	0	0	0	0	2639	2633	2633	2633	2633	2633	2633	2633	2633	2633	2628	2628	2628	2628	2633	2633	2633	2633	2633	2633	2633	2633	2633	2639	2639	2639	2639	2639	2639	2639	2644	2639	2639	2639	2639	2639	2639	2639	2639	2644	2644	2644	2644	2644	2644	2644	2644	2639	2639	2639	2639	2639	2639	2639	2639	2639	2639	2639	2639	2639	2639	2639	2639	2639	2644	2644	2644	2644	2644	2649	2649	2649	2649	2655	2655	2655	2655	2655	2655	2655	2655	2655	2655	2655	2655	2655	2649	2649	2649	2649	2649	2649	2649	2649	2644	2644	2644	2644	2649	2644	2639	2639	2639	2639	2644	2644	2644	2649	2649	2649	2649	2649	2655	2655	2655	2655	2660	2660	2660	2666	2660	2660	2660	2660	2660	2660	2660	2660	2666	2666	2666	2671	2671	2671	2671	2671	2671	2676	2676	2676	2682	2682	2682	2687	2687	2699	2699	2699	2704	2704	2704	2715	2721	2721	2721	2732	2732	2732	2732	2732	2732	2732	2732	2738	2738	2738	2738	2738	2732	2721	2721	2721	2715	2715	2715	2715	2704	2704	2704	2704	2704	2704	2715	2715	2715	2721	2721	2721	2715	2715	2715	2715	2715	2715	2715	2715	2715	2704	2704	2704	2687	2687	2687	2682	2671	2671	2666	2660	2660	2655	2655	2655	2655	2655	2655	2644	2644	2649	2649	2649	2649	2649	2655	2655	2655	2655	2660	2660	2666	2666	2666	2671	2676	2676	2682	2699	2699	2704	2715	2715	2732	2738	2738	2744	2755	2755	2761	2761	2755	2744	2744	2738	2732	2732	2732	2721	2715	2715	2715	2715	2715	2715	2715	2721	2721	2721	2732	2732	2732	2732	2732	2732	2732	2732	2732	2732	2721	2721	2721	2715	2715	2715	2704	2704	2704	2699	2687	2687	2687	2687	2687	2687	2687	2687	2687	2687	2699	2699	2699	2704	2704	2715	2715	2715	2732	2732	2732	2744	2744	2744	2755	2761	2761	2761	2773	2773	2773	2773	2773	2773	2773	2761	2761	2761	2744	2732	2721	2721	2704	2699	2699	2682	2676	2676	2671	2671	2671	2671	2666	2666	2666	2666	2666	2666	2666	2660	2660	2660	2660	2660	2660	2655	2655	2655	2655	2655	2655	2649	2649	2649	2644	2644	2639	2639	2639	2639	2633	2633	2633	2633	2633	2633	2628	2628	2628	2628	2628	2628	2628	2628	2628	2628	2628	2628	2628	2628	2628	2628	2628	2628	2628	2628	2633	2633	2633	2633	2633	2639	2639	2639	2639	2639	2639	2639	2639	2633	2633	2633	2628	2628	2628	2623	2612	2607	2607	2602	2597	2597	2587	2581	2581	2571	2571	2571	2571	2571	2581	2581	2581	2597	2597	2602	2612	2612	2618	2628	2628	2628	2628	2628	2628	2628	2623	2612	2612	2602	2587	2587	2571	2551	2536	2536	2517	2507	2493	2493	2488	2488	2488
2048	2048	2048	952	952	957	957	960	962	962	964	965	965	968	968	0	0	0	0	0	0	0	0	986	986	986	987	988	988	988	989	989	990	991	991	0	0	0	0	0	0	0	0	0	0	0	0	0	0	0	0	2108	2108	2108	2108	2108	2111	2111	2118	2118	2118	2121	2125	2125	2139	2149	2149	2160	2163	2163	2174	2174	2174	2185	2185	2185	2189	2189	2189	2189	2189	2189	2189	2189	2189	2192	2192	2192	2196	2196	2196	2200	2203	2203	2207	2211	2211	2215	2218	2218	2222	2226	2226	2237	2253	2253	2264	2264	2276	2276	2276	2284	2296	2296	2296	2308	2308	2308	2312	2312	2312	2316	2316	2316	2316	2316	2316	2316	2316	2316	2316	2316	2316	2316	2316	2316	2316	2316	2316	2316	2316	2316	2321	2325	2325	2325	2329	2329	2333	2337	2337	2341	2346	2346	2350	2354	2354	2358	2362	2362	2362	2362	2362	2362	2362	2358	2358	2358	2354	2350	2350	2346	2346	2346	2337	2333	2333	2333	2333	2341	2337	2333	2333	2333	2329	2329	2329	2329	2325	2325	2321	2321	2321	2321	0	0	0	0	0	0	0	0	0	0	0	0	0	0	0	0	940	940	940	940	940	939	939	940	940	940	940	940	940	940	940	940	0	0	0	0	0	0	0	0	0	0	0	0	960	960	960	960	959	959	957	957	0	0	0	0	0	0	0	0	0	0	0	0	0	0	0	0	0	0	0	0	0	0	0	0	0	0	0	2633	2633	2633	2633	2633	2633	2633	2633	2633	2628	2628	2628	2628	2633	2633	2633	2633	2633	2633	2633	2633	2633	2633	2639	2639	2639	2639	2639	2639	2639	2639	2639	2639	2639	2639	2639	2639	2639	2639	2639	2639	2639	2639	2639	2639	2639	2639	2639	2639	2639	2639	2639	2639	2639	2639	2639	2639	2639	2639	2639	2639	2639	2639	2639	2639	2639	2639	2639	2644	2644	2644	2649	2649	2649	2649	2649	2649	2649	2649	2649	2655	2655	2649	2649	2649	2649	2649	2649	2649	2649	2649	2649	2644	2639	2639	2639	2639	2639	2639	2639	2639	2633	2633	2633	2633	2633	2633	2633	2639	2639	2639	2639	2639	2639	2644	2644	2644	2649	2649	2649	2649	2649	2649	2649	2649	2649	2649	2655	2655	2655	2655	2655	2660	2660	2660	2666	2666	2666	2671	2671	2671	2676	2676	2676	2682	2687	2687	2699	2699	2699	2704	2704	2704	2715	2715	2715	2721	2721	2721	2721	2721	2721	2721	2732	2732	2732	2715	2715	2715	2704	2704	2704	2699	2699	2699	2687	2687	2687	2687	2687	2687	2687	2687	2687	2687	2699	2699	2687	2687	2687	2687	2687	2682	2682	2682	2682	2682	2676	2676	2671	2671	2671	2666	2655	2655	2655	2655	2655	2649	2649	2649	2649	2644	2644	2644	2644	2649	2649	2649	2649	2649	2655	2655	2655	2655	2660	2660	2666	2666	2666	2671	2676	2676	2682	2699	2699	2704	2715	2715	2732	2738	2738	2744	2755	2755	2761	2761	2755	2744	2744	2738	2732	2732	2732	2721	2721	2715	2715	2715	2715	2715	2715	2721	2721	2721	2732	2732	2732	2732	2732	2732	2732	2732	2732	2732	2721	2721	2721	2715	2715	2715	2704	2704	2704	2699	2687	2687	2687	2687	2687	2687	2687	2687	2687	2687	2699	2699	2699	2704	2704	2715	2715	2715	2732	2732	2732	2744	2744	2744	2755	2761	2761	2761	2773	2744	2744	2744	2744	2744	2732	2732	2732	2715	2715	2704	2687	2687	2676	2671	2671	2660	2655	2655	2655	2655	2655	2655	2649	2649	2655	2649	2649	2655	2655	2655	2655	2655	2655	2655	2655	2655	2655	2655	2649	2649	2649	2649	2649	2649	2644	2644	2639	2639	2639	2639	2633	2633	2633	2633	2633	2633	2628	2628	2628	2628	2628	2628	2628	2623	2623	2623	2623	2623	2623	2623	2623	2623	2628	2628	2628	2628	2633	2633	2633	2633	2633	2633	2639	2639	2639	2639	2639	2639	2639	2633	2633	2633	2628	2628	2628	2623	2612	2607	2607	2602	2597	2597	2587	2581	2581	2571	2571	2571	2571	2571	2571	2571	2581	2597	2597	2602	2607	2607	2618	2628	2628	2628	2628	2628	2628	2628	2623	2612	2612	2602	2587	2587	2571	2551	2536	2536	2517	2507	2493	2493	2488	2488	2488
0	0	0	952	952	957	957	960	962	962	964	965	965	968	968	0	0	0	0	0	0	0	0	986	986	986	987	988	988	988	989	989	990	991	991	0	0	0	0	0	0	0	0	0	0	0	0	0	0	0	0	0	0	0	0	0	0	0	0	0	2125	2125	2135	2135	2149	2170	2170	2181	2181	2189	2192	2192	2200	2203	2203	2203	2203	2203	2203	2203	2203	2203	2203	2203	2203	2203	2203	2203	2207	2207	2207	2207	2211	2211	2211	2218	2218	2222	2226	2226	2233	2245	2245	2257	2257	2276	2292	2292	2304	2312	2312	2316	2325	2325	2325	2329	2329	2329	2329	2329	2329	2333	2333	2333	2333	2333	2333	2333	2333	2333	2333	2333	2333	2333	2333	2333	2333	2333	2333	2333	2333	2333	2333	2333	2337	2337	2337	2341	2346	2346	2350	2354	2354	2362	2367	2367	2371	2375	2375	2384	2384	2384	2384	2384	2384	2384	2375	2375	2371	2367	2367	2362	2354	2354	2350	2350	2350	2346	2341	2341	2337	2333	2333	2333	2329	2329	2329	2329	2325	2325	2321	2321	2321	2321	0	0	0	0	0	0	0	0	0	0	0	0	0	0	0	0	940	940	940	939	939	939	939	939	939	939	939	939	939	939	939	940	940	940	940	942	942	943	948	948	950	953	953	955	955	955	957	957	955	955	955	952	952	0	0	0	0	0	0	0	0	0	0	0	0	0	0	0	0	0	0	0	0	0	0	0	0	0	0	2633	2633	2633	2633	2633	2633	2633	2633	2633	2633	2633	2633	2633	2633	2633	2633	2633	2633	2633	2633	2633	2633	2633	2639	2639	2639	2639	2639	2639	2639	2639	2639	2639	2639	2639	2639	2639	2639	2639	2639	2639	2639	2639	2639	2639	2639	2639	2639	2639	2639	2639	2639	2639	2639	2639	2639	2639	2639	2639	2639	2639	2639	2639	2639	2639	2639	2639	2639	2644	2644	2644	2649	2649	2649	2649	2649	2649	2649	2649	2649	2655	2655	2649	2649	2649	2649	2649	2649	2649	2649	2649	2649	2644	2639	2639	2639	2639	2639	2639	2639	2639	2633	2633	2633	2628	2628	2628	2628	2628	2628	2628	2628	2628	2628	2628	2633	2633	2633	2633	2633	2633	2633	2633	2639	2639	2639	2644	2649	2649	2649	2649	2649	2655	2655	2655	2655	2660	2660	2660	2660	2666	2666	2666	2671	2671	2676	2676	2682	2687	2687	2687	2687	2699	2699	2704	2704	2704	2704	2704	2704	2704	2704	2704	2715	2715	2715	2704	2704	2699	2699	2699	2687	2682	2682	2676	2676	2676	2671	2671	2671	2671	2671	2671	2671	2671	2671	2671	2666	2666	2666	2666	2666	2666	2666	2666	2666	2660	2660	2660	2655	2655	2655	2649	2649	2649	2644	2639	2639	2639	2639	2639	2639	2639	2639	2639	2639	2639	2639	2639	2639	2649	2649	2649	2649	2649	2655	2655	2655	2655	2660	2660	2660	2666	2666	2676	2676	2687	2699	2699	2715	2715	2715	2732	2744	2744	2755	2755	2744	2738	2738	2738	2732	2732	2732	2721	2721	2715	2715	2715	2715	2715	2715	2715	2715	2721	2721	2721	2721	2721	2721	2721	2721	2721	2715	2715	2715	2715	2715	2704	2699	2699	2699	2687	2687	2687	2682	2682	2682	2682	2682	2682	2682	2682	2687	2687	2687	2699	2699	2704	2704	2704	2715	2715	2721	2732	2732	2738	2738	2738	2744	2744	2744	2744	2744	2744	2744	2744	2744	2744	2732	2732	2732	2715	2715	2704	2687	2687	2676	2671	2671	2660	2655	2655	2655	2655	2655	2655	2649	2649	2655	2649	2649	2655	2655	2655	2655	2655	2655	2655	2655	2655	2655	2655	2649	2649	2649	2649	2649	2649	2644	2644	2639	2639	2639	2639	2633	2633	2633	2633	2633	2633	2628	2628	2628	2628	2628	2628	2628	2623	2623	2623	2623	2623	2623	2623	2623	2623	2628	2628	2628	2628	2633	2633	2633	2633	2633	2633	2639	2639	2639	2639	2639	2639	2639	2633	2633	2633	2628	2628	2628	2623	2612	2607	2607	2602	2597	2597	2587	2581	2581	2571	2566	2566	2566	2566	2571	2571	2571	2587	2587	2597	2607	2607	2612	2623	2623	2628	2628	2628	2628	2628	2628	2623	2623	2612	2602	2602	2587	2566	2551	2551	2532	2517	2517	2502	2493	2488	2488
944	944	948	952	952	957	957	960	962	962	964	964	964	967	967	971	975	975	977	981	981	983	983	984	985	985	986	986	986	987	988	988	989	989	989	990	991	991	992	0	0	0	0	0	0	0	0	0	0	0	0	0	0	0	0	0	0	0	0	0	2125	2125	2135	2135	2149	2170	2170	2181	2181	2189	2207	2207	2211	2211	2211	2211	2215	2215	2215	2215	2211	2211	2211	2211	2211	2211	2211	2211	2211	2215	2215	2215	2218	2218	2218	2222	2222	2230	2237	2237	2253	2253	2264	2284	2284	2296	2312	2312	2325	2329	2329	2333	2333	2333	2337	2337	2337	2337	2337	2337	2341	2341	2341	2341	2341	2341	2341	2341	2341	2341	2341	2341	2341	2341	2341	2341	2341	2341	2341	2341	2341	2341	2346	2346	2346	2350	2350	2350	2358	2358	2362	2371	2371	2384	2388	2388	2388	2397	2397	2401	2410	2410	2410	2410	2410	2410	2410	2401	2397	2397	2388	2384	2375	2375	2371	2367	2367	2358	2354	2354	2350	2346	2346	2346	2346	2346	2346	2341	2337	2337	2337	2337	2337	2337	0	0	0	0	0	0	0	0	0	0	0	0	0	0	0	0	940	940	940	939	939	939	938	938	938	938	938	938	938	938	938	938	938	938	939	940	940	942	944	944	946	948	948	948	952	952	952	952	952	950	950	950	946	946	946	0	0	0	0	0	0	0	0	0	0	0	0	0	0	0	0	0	0	0	0	0	0	0	0	0	0	2633	2633	2633	2633	2633	2633	2633	2633	2633	2633	2633	2633	2633	2633	2633	2633	2633	2633	2633	2633	2633	2633	2633	2633	2633	2633	2633	2633	2633	2633	2639	2639	2639	2639	2639	2639	2639	2639	2639	2639	2639	2639	2639	2639	2639	2639	2639	2639	2633	2633	2633	2633	2633	2633	2633	2633	2633	2633	2633	2633	2633	2633	2633	2639	2639	2639	2639	2639	2639	2644	2644	2644	2649	2649	2649	2649	2649	2649	2649	2649	2649	2649	2649	2649	2649	2649	2644	2644	2644	2644	2639	2639	2639	2639	2639	2639	2639	2633	2633	2633	2628	2628	2628	2628	2628	2628	2628	2628	2628	2628	2628	2628	2628	2633	2633	2633	2633	2633	2633	2633	2633	2639	2639	2639	2644	2649	2649	2649	2649	2649	2655	2655	2655	2655	2660	2660	2660	2660	2666	2666	2666	2671	2671	2676	2676	2682	2687	2687	2687	2687	2699	2699	2704	2704	2704	2704	2704	2704	2704	2704	2704	2715	2715	2715	2704	2704	2699	2699	2699	2687	2682	2682	2676	2676	2676	2671	2671	2671	2671	2671	2671	2671	2671	2671	2671	2666	2666	2666	2666	2666	2666	2666	2666	2666	2660	2660	2660	2655	2655	2655	2649	2649	2649	2639	2633	2633	2633	2633	2633	2628	2628	2628	2628	2628	2633	2633	2633	2639	2639	2639	2639	2644	2644	2649	2649	2649	2655	2655	2655	2655	2660	2660	2666	2676	2676	2687	2687	2699	2699	2699	2715	2732	2732	2738	2744	2744	2738	2738	2732	2732	2732	2732	2721	2721	2715	2715	2715	2715	2715	2715	2715	2715	2715	2715	2715	2715	2715	2715	2715	2715	2704	2704	2704	2704	2699	2699	2699	2687	2687	2687	2687	2687	2682	2682	2682	2676	2676	2676	2676	2676	2682	2682	2682	2682	2687	2687	2699	2699	2704	2715	2715	2715	2721	2721	2721	2732	2732	2732	2732	2732	2732	2732	2732	2721	2715	2715	2704	2704	2704	2687	2682	2682	2671	2666	2666	2655	2649	2649	2649	2639	2639	2639	2639	2633	2633	2633	2639	2639	2639	2639	2639	2639	2639	2644	2644	2644	2649	2649	2649	2649	2649	2649	2649	2649	2649	2649	2644	2639	2639	2639	2639	2639	2633	2633	2633	2633	2633	2633	2633	2628	2628	2628	2628	2628	2628	2623	2623	2623	2618	2618	2618	2618	2618	2618	2618	2623	2623	2623	2628	2628	2628	2628	2633	2633	2633	2633	2633	2633	2639	2639	2633	2633	2633	2633	2633	2628	2628	2628	2623	2612	2612	2607	2602	2597	2597	2587	2581	2581	2571	2566	2566	2566	2566	2571	2571	2571	2587	2587	2597	2607	2607	2612	2623	2623	2628	2628	2628	2633	2633	2628	2628	2628	2618	2612	2612	2597	2581	2566	2566	2546	2532	2532	2512	2498	2493	2493
944	944	948	953	953	957	957	961	962	962	964	964	964	966	967	969	971	971	975	978	978	981	983	983	984	984	985	986	986	986	987	987	988	988	988	988	989	989	989	989	0	0	0	0	0	0	0	0	0	0	0	0	0	0	0	0	0	0	0	0	0	0	0	2174	2174	2174	2189	2200	2200	2203	2207	2207	2211	2211	2211	2211	2215	2215	2215	2215	2211	2211	2211	2211	2211	2211	2211	2211	2211	2215	2215	2215	2218	2218	2218	2222	2222	2230	2237	2237	2253	2253	2264	2284	2284	2296	2312	2312	2325	2329	2329	2333	2333	2333	2337	2337	2337	2337	2337	2337	2341	2341	2341	2341	2341	2341	2341	2341	2341	2341	2341	2341	2341	2341	2341	2341	2341	2341	2341	2341	2341	2341	2346	2346	2346	2350	2350	2350	2358	2358	2362	2371	2371	2384	2388	2388	2388	2397	2397	2401	2410	2410	2410	2410	2410	2410	2410	2410	2415	2415	2415	2410	2410	2401	2397	2388	2388	2384	2371	2371	2367	2362	2362	2362	2358	2358	2358	2358	2358	2354	2354	2358	2362	2362	0	0	0	0	0	0	0	0	0	0	0	0	0	0	0	0	940	940	940	940	940	939	938	938	938	938	938	938	938	938	938	938	938	938	939	940	940	942	944	944	946	948	948	948	952	952	952	952	952	950	950	950	946	946	946	0	0	0	0	0	0	0	0	0	0	0	0	0	0	0	0	0	0	0	0	0	0	0	0	0	0	2633	2633	2633	2633	2633	2633	2633	2633	2633	2633	2633	2633	2633	2633	2633	2633	2633	2633	2633	2633	2633	2633	2633	2633	2633	2633	2633	2633	2633	2633	2633	2633	2633	2633	2633	2633	2633	2633	2633	2633	2633	2633	2633	2633	2633	2633	2633	2633	2633	2633	2633	2633	2633	2628	2628	2628	2628	2628	2628	2628	2633	2633	2633	2633	2633	2633	2633	2639	2639	2639	2639	2639	2639	2644	2644	2644	2644	2644	2644	2644	2644	2644	2644	2644	2644	2644	2644	2644	2639	2639	2639	2639	2639	2639	2633	2633	2633	2628	2628	2628	2618	2618	2618	2612	2612	2612	2612	2612	2612	2607	2607	2607	2612	2618	2618	2618	2623	2623	2623	2628	2628	2628	2633	2633	2639	2639	2639	2644	2649	2649	2649	2649	2649	2655	2655	2655	2655	2655	2655	2655	2660	2660	2660	2666	2671	2671	2671	2676	2676	2676	2682	2682	2682	2687	2682	2682	2687	2687	2687	2687	2687	2699	2699	2699	2687	2687	2682	2682	2682	2676	2671	2671	2666	2660	2660	2660	2655	2655	2655	2655	2655	2655	2655	2655	2655	2655	2655	2655	2655	2655	2655	2655	2649	2649	2649	2649	2649	2649	2644	2644	2644	2639	2639	2639	2633	2633	2633	2633	2633	2628	2628	2628	2628	2628	2633	2633	2633	2639	2639	2639	2639	2644	2644	2649	2649	2649	2655	2655	2655	2655	2660	2660	2666	2676	2676	2687	2687	2699	2699	2699	2715	2732	2732	2738	2744	2744	2738	2738	2732	2732	2732	2732	2732	2732	2721	2715	2715	2715	2715	2715	2715	2715	2715	2715	2715	2715	2715	2715	2715	2715	2704	2704	2704	2704	2699	2699	2699	2687	2687	2687	2687	2687	2682	2682	2682	2676	2676	2676	2676	2676	2682	2682	2682	2682	2687	2687	2699	2699	2704	2715	2715	2715	2721	2715	2715	2715	2715	2715	2704	2704	2704	2699	2699	2687	2687	2687	2682	2676	2676	2671	2660	2660	2655	2649	2644	2644	2639	2633	2633	2633	2628	2628	2628	2623	2623	2623	2628	2628	2628	2628	2633	2633	2633	2639	2639	2639	2644	2644	2644	2644	2644	2649	2649	2649	2644	2644	2644	2639	2639	2639	2639	2639	2633	2633	2633	2633	2633	2633	2633	2628	2628	2628	2628	2628	2628	2623	2623	2623	2618	2618	2618	2618	2618	2618	2618	2618	2623	2623	2623	2628	2628	2628	2628	2628	2633	2633	2633	2633	2633	2633	2633	2633	2633	2633	2633	2628	2628	2628	2623	2618	2618	2607	2602	2597	2597	2587	2581	2581	2571	2566	2566	2566	2566	2566	2566	2571	2581	2581	2597	2602	2602	2612	2618	2618	2628	2628	2628	2628	2628	2628	2628	2628	2618	2612	2612	2597	2581	2566	2566	2546	2532	2532	2512	2498	2493	2493
944	944	948	953	953	958	958	961	962	962	964	964	964	966	969	969	971	971	975	978	978	981	983	983	984	984	985	986	986	986	987	987	988	988	988	988	989	989	989	989	0	0	0	0	0	0	0	0	0	0	0	0	0	0	0	0	0	0	0	0	0	0	0	0	0	2203	2203	2211	2211	2215	2218	2218	2222	2222	2222	2226	2226	2226	2230	2230	2226	2222	2222	2222	2222	2222	2222	2222	2222	2222	2222	2222	2222	2222	2230	2230	2233	2241	2241	2257	2276	2276	2292	2308	2308	2321	2321	2329	2333	2333	2337	2341	2341	2346	2346	2346	2346	2350	2350	2350	2350	2350	2350	2350	2350	2350	2354	2354	2354	2354	2354	2354	2354	2354	2350	2350	2350	2350	2350	2350	2350	2350	2354	2354	2354	2358	2358	2362	2371	2371	2375	2388	2388	2397	2401	2401	2410	2415	2415	2415	2419	2419	2419	2419	2419	2419	2419	2419	2415	2415	2415	2410	2410	2401	2397	2388	2388	2384	2371	2371	2367	2362	2362	2362	2358	2358	2358	2358	2358	2354	2354	2358	2362	2362	0	0	0	0	0	0	0	0	0	0	0	0	0	0	0	0	940	940	940	939	939	938	938	938	938	936	936	936	936	936	936	936	936	937	937	939	939	940	942	942	942	944	944	945	946	946	948	948	948	946	946	946	946	946	946	0	0	0	0	0	0	0	0	0	0	0	0	0	0	0	0	0	0	0	0	0	0	0	0	0	0	2633	2633	2633	2633	2633	2639	2639	2639	2639	2639	2639	2639	2639	2639	2639	2639	2639	2639	2639	2633	2633	2633	2633	2633	2633	2633	2633	2633	2633	2633	2633	2633	2633	2633	2633	2633	2633	2633	2633	2633	2633	2633	2633	2633	2633	2633	2633	2633	2633	2633	2633	2633	2633	2628	2628	2628	2628	2628	2628	2628	2633	2633	2633	2633	2633	2633	2633	2639	2639	2639	2639	2639	2639	2644	2644	2644	2644	2644	2644	2644	2644	2644	2644	2644	2644	2644	2644	2644	2639	2639	2639	2639	2639	2633	2633	2633	2628	2623	2623	2618	2607	2607	2607	2597	2597	2597	2597	2587	2587	2587	2587	2587	2587	2597	2602	2602	2607	2607	2607	2618	2623	2623	2628	2628	2633	2639	2639	2639	2644	2644	2649	2649	2649	2649	2649	2655	2655	2655	2655	2655	2655	2655	2655	2660	2660	2660	2660	2666	2666	2666	2666	2666	2671	2671	2671	2671	2676	2671	2671	2676	2676	2676	2676	2676	2671	2671	2671	2666	2666	2660	2655	2655	2655	2655	2655	2649	2649	2649	2649	2649	2649	2649	2649	2649	2649	2644	2644	2644	2644	2639	2639	2639	2639	2639	2639	2639	2639	2639	2633	2633	2633	2628	2628	2628	2628	2628	2628	2623	2623	2623	2623	2623	2628	2628	2628	2628	2628	2633	2633	2633	2639	2639	2639	2644	2649	2649	2649	2649	2649	2649	2655	2655	2660	2671	2671	2676	2676	2687	2699	2699	2704	2721	2721	2732	2738	2738	2732	2732	2732	2732	2732	2732	2721	2721	2721	2715	2715	2715	2715	2715	2715	2704	2704	2715	2715	2715	2715	2704	2704	2704	2704	2699	2699	2699	2687	2687	2687	2682	2682	2682	2682	2682	2682	2676	2676	2676	2676	2676	2676	2676	2676	2682	2682	2682	2687	2687	2687	2699	2699	2699	2699	2704	2715	2715	2715	2715	2715	2715	2704	2704	2704	2699	2699	2687	2687	2687	2682	2676	2676	2671	2660	2660	2655	2649	2644	2644	2639	2633	2633	2633	2628	2628	2628	2623	2623	2623	2628	2628	2628	2628	2633	2633	2633	2639	2639	2639	2644	2644	2644	2644	2644	2649	2649	2649	2644	2644	2644	2639	2639	2639	2639	2639	2633	2633	2633	2633	2633	2633	2633	2628	2628	2628	2628	2628	2628	2623	2623	2623	2618	2618	2618	2618	2618	2618	2618	2618	2623	2623	2623	2628	2628	2628	2628	2628	2633	2633	2633	2633	2633	2633	2633	2633	2633	2633	2633	2628	2628	2628	2623	2618	2618	2607	2602	2597	2597	2587	2581	2581	2571	2571	2571	2566	2566	2566	2566	2571	2581	2581	2597	2602	2602	2607	2612	2612	2623	2628	2628	2628	2628	2628	2628	2628	2623	2612	2612	2602	2587	2587	2571	2551	2536	2536	2517	2507	2507	2498
944	944	948	953	953	958	958	961	962	962	962	964	964	965	967	967	970	970	972	976	976	980	980	980	983	984	984	985	985	985	986	986	986	986	987	987	987	987	987	987	987	987	987	987	987	0	0	0	0	0	0	0	0	0	0	0	0	0	0	0	0	0	0	0	0	0	0	0	2226	2226	2233	2233	2241	2241	2241	2241	2253	2253	2253	2253	2245	2245	2245	2245	2241	2241	2241	2241	2241	2241	2241	2241	2241	2245	2253	2253	2257	2264	2264	2280	2296	2296	2312	2325	2325	2333	2333	2337	2346	2346	2350	2350	2350	2354	2358	2358	2362	2362	2362	2367	2367	2367	2367	2367	2367	2367	2367	2367	2367	2371	2371	2371	2371	2371	2367	2367	2367	2367	2367	2367	2367	2367	2367	2367	2371	2375	2375	2384	2388	2388	2397	2401	2401	2410	2415	2415	2419	2428	2428	2428	2433	2433	2433	2433	2433	2433	2433	2433	2428	2428	2428	2419	2419	2419	2419	2419	2415	2410	2401	2401	2397	2388	2388	2388	2388	2388	2388	2388	2388	2388	2388	2397	2397	2401	0	0	0	0	0	0	0	0	0	0	0	0	0	0	0	0	940	940	939	939	939	938	936	936	936	936	936	935	935	935	935	935	936	936	936	937	939	939	940	940	940	942	942	942	942	942	942	943	943	944	944	943	943	944	944	944	0	0	0	0	0	0	0	0	0	0	0	0	0	0	0	0	0	0	0	0	0	0	0	0	0	2633	2633	2633	2633	2633	2639	2639	2639	2639	2639	2639	2639	2639	2639	2639	2639	2639	2633	2633	2633	2633	2633	2633	2633	2633	2633	2633	2633	2633	2633	2633	2633	2633	2633	2633	2633	2633	2633	2633	2633	2633	2633	2633	2633	2633	2628	2628	2628	2628	2628	2628	2628	2628	2628	2628	2628	2628	2628	2628	2628	2628	2628	2628	2628	2633	2633	2633	2633	2633	2633	2639	2639	2639	2639	2639	2639	2639	2639	2639	2644	2644	2644	2644	2639	2639	2639	2639	2639	2639	2639	2639	2633	2633	2633	2633	2633	2628	2623	2623	2618	2607	2607	2607	2597	2597	2597	2597	2587	2587	2587	2587	2587	2587	2597	2602	2602	2607	2607	2607	2618	2623	2623	2628	2628	2633	2639	2639	2639	2644	2644	2649	2649	2649	2649	2649	2655	2655	2655	2655	2655	2655	2655	2655	2660	2660	2660	2660	2666	2666	2666	2666	2666	2671	2671	2671	2671	2676	2671	2671	2676	2676	2676	2676	2676	2671	2671	2671	2666	2666	2660	2655	2655	2655	2655	2655	2649	2649	2649	2649	2649	2649	2649	2649	2649	2649	2644	2644	2644	2644	2639	2639	2639	2639	2639	2633	2628	2628	2628	2628	2628	2628	2623	2623	2618	2618	2618	2618	2618	2618	2623	2623	2623	2628	2628	2628	2628	2628	2633	2633	2633	2639	2639	2639	2639	2644	2644	2649	2649	2649	2649	2649	2649	2655	2666	2666	2676	2676	2682	2687	2687	2699	2704	2704	2721	2732	2732	2732	2732	2721	2721	2721	2721	2715	2715	2715	2715	2704	2704	2704	2704	2704	2699	2699	2704	2704	2704	2704	2699	2699	2699	2699	2687	2687	2687	2687	2687	2682	2682	2682	2682	2676	2676	2676	2676	2676	2671	2671	2671	2676	2676	2676	2676	2676	2676	2682	2682	2687	2687	2687	2687	2687	2687	2699	2699	2699	2699	2699	2687	2687	2687	2682	2676	2676	2671	2666	2666	2660	2660	2660	2655	2649	2649	2649	2639	2633	2633	2628	2628	2628	2623	2612	2612	2612	2607	2607	2607	2607	2618	2618	2618	2623	2623	2628	2633	2633	2633	2639	2639	2644	2644	2644	2644	2649	2644	2644	2644	2644	2639	2639	2639	2639	2639	2633	2633	2633	2633	2633	2633	2633	2628	2628	2628	2628	2628	2628	2623	2623	2623	2618	2618	2618	2612	2612	2612	2612	2618	2618	2618	2623	2623	2623	2628	2628	2628	2628	2633	2633	2633	2633	2633	2633	2633	2633	2633	2633	2628	2628	2628	2623	2618	2618	2612	2607	2602	2602	2587	2587	2587	2581	2571	2571	2571	2571	2571	2571	2581	2587	2587	2597	2602	2602	2607	2612	2612	2623	2628	2628	2628	2628	2628	2628	2628	2623	2612	2612	2602	2597	2597	2581	2566	2546	2546	2532	2512	2512	2502
944	944	948	955	955	958	958	960	961	961	962	964	964	964	967	967	968	968	971	975	975	976	980	980	981	983	983	983	984	984	984	986	986	986	986	986	986	986	986	986	986	986	986	986	985	985	985	985	0	0	0	0	0	0	0	0	0	0	0	0	0	0	0	0	0	0	0	0	2226	2226	2233	2233	2241	2241	2241	2241	2253	2253	2253	2253	2245	2245	2245	2245	2241	2241	2241	2241	2241	2241	2241	2241	2241	2245	2253	2253	2257	2264	2264	2280	2296	2296	2312	2325	2325	2333	2333	2337	2346	2346	2350	2350	2350	2354	2358	2358	2362	2362	2362	2367	2367	2367	2367	2367	2367	2367	2367	2367	2367	2371	2371	2371	2371	2371	2367	2367	2367	2367	2367	2367	2367	2367	2367	2367	2371	2375	2375	2384	2388	2388	2397	2401	2401	2410	2415	2415	2419	2428	2428	2442	2442	2442	2442	2446	2446	2446	2446	2446	2442	2442	2442	2442	2442	2442	2442	2442	2433	2428	2428	2428	2419	2419	2419	2415	2415	2419	2415	2415	2415	2415	2415	2415	2415	2428	0	0	0	0	0	0	0	0	0	0	0	0	0	0	0	0	940	940	939	939	939	938	936	936	936	936	936	935	935	935	935	935	936	936	936	937	939	939	940	940	940	942	942	942	942	942	942	943	943	944	944	943	943	944	944	944	0	0	0	0	0	0	0	0	0	0	0	0	0	0	0	0	0	0	0	0	0	0	0	0	0	2633	2633	2633	2633	2639	2639	2639	2639	2639	2639	2639	2639	2639	2639	2639	2639	2639	2633	2633	2633	2633	2633	2633	2633	2633	2633	2628	2628	2628	2628	2633	2633	2633	2633	2628	2628	2633	2633	2628	2628	2628	2628	2628	2628	2628	2628	2628	2628	2623	2623	2623	2623	2623	2618	2618	2618	2618	2618	2618	2618	2623	2623	2623	2628	2628	2628	2628	2628	2628	2633	2633	2633	2633	2639	2639	2639	2639	2639	2639	2639	2639	2639	2639	2639	2639	2639	2639	2633	2633	2633	2633	2628	2628	2628	2628	2628	2623	2612	2612	2607	2597	2597	2587	2581	2571	2571	2571	2571	2571	2571	2571	2571	2571	2581	2587	2587	2597	2602	2602	2612	2618	2618	2628	2628	2628	2633	2633	2639	2639	2639	2644	2644	2649	2649	2649	2649	2649	2649	2649	2649	2649	2649	2649	2655	2655	2655	2655	2655	2655	2655	2655	2655	2660	2660	2660	2660	2660	2660	2660	2660	2660	2660	2660	2660	2655	2655	2655	2655	2655	2649	2649	2649	2649	2644	2644	2644	2639	2639	2639	2639	2639	2639	2639	2639	2639	2639	2633	2633	2633	2633	2633	2633	2633	2633	2633	2628	2628	2628	2628	2628	2628	2623	2623	2618	2618	2618	2618	2618	2618	2623	2623	2623	2628	2628	2628	2628	2628	2633	2633	2633	2639	2639	2639	2639	2644	2644	2649	2649	2649	2649	2649	2649	2655	2666	2666	2676	2676	2682	2687	2687	2699	2704	2704	2721	2732	2732	2732	2732	2721	2721	2721	2721	2715	2715	2715	2715	2704	2704	2704	2704	2704	2699	2699	2704	2704	2704	2704	2699	2699	2699	2699	2687	2687	2687	2687	2687	2682	2682	2682	2682	2676	2676	2676	2676	2676	2671	2671	2671	2676	2676	2676	2676	2676	2676	2682	2682	2682	2682	2682	2682	2682	2682	2682	2682	2676	2676	2676	2671	2666	2666	2666	2660	2660	2655	2655	2655	2655	2649	2649	2644	2639	2639	2639	2633	2628	2628	2623	2618	2618	2607	2607	2607	2602	2602	2602	2602	2602	2607	2607	2612	2623	2623	2628	2628	2628	2633	2639	2639	2639	2644	2644	2644	2644	2644	2644	2644	2644	2639	2639	2639	2639	2639	2633	2633	2633	2633	2633	2633	2633	2628	2628	2628	2628	2628	2628	2623	2623	2623	2618	2618	2618	2612	2612	2612	2612	2612	2612	2612	2618	2623	2623	2623	2628	2628	2628	2628	2628	2633	2633	2633	2633	2633	2633	2633	2633	2628	2628	2628	2623	2618	2618	2612	2607	2602	2602	2587	2587	2587	2581	2571	2571	2571	2571	2571	2571	2581	2587	2587	2597	2602	2602	2607	2612	2612	2623	2623	2623	2623	2623	2623	2623	2623	2623	2612	2612	2602	2587	2587	2581	2566	2546	2546	2532	2512	2512	2502
944	944	948	955	955	958	958	960	961	961	962	964	964	964	967	967	968	968	971	975	975	976	980	980	981	983	983	983	984	984	984	986	986	986	986	986	986	986	986	986	986	986	986	986	985	985	985	985	0	0	0	0	0	0	0	0	0	0	0	0	0	0	0	0	0	0	0	0	2245	2245	2245	2257	2264	2264	2268	2268	2268	2276	2280	2280	2280	2280	2280	2276	2276	2276	2268	2268	2268	2268	2268	2268	2268	2268	2276	2276	2284	2296	2296	2312	2312	2325	2333	2333	2337	2346	2346	2350	2358	2358	2362	2367	2367	2371	2375	2375	2375	2384	2384	2384	2384	2384	2384	2384	2384	2384	2384	2384	2384	2384	2384	2384	2384	2384	2384	2384	2384	2384	2384	2384	2384	2384	2384	2384	2384	2388	2388	2397	2410	2410	2410	2415	2415	2419	2428	2428	2433	2433	2433	2442	2442	2442	2442	2446	2446	2446	2446	2446	2442	2442	2442	2442	2442	2442	2442	2442	2433	2428	2428	2428	2419	2419	2419	2415	2415	2419	2415	2415	2415	2415	2415	2415	2415	2428	2451	0	0	0	0	0	0	0	0	0	0	0	0	0	0	939	939	939	938	938	938	937	936	936	935	935	935	935	934	934	934	934	935	936	936	937	938	938	939	939	940	940	940	940	940	940	941	941	941	941	942	942	942	942	944	944	0	0	0	0	0	0	0	0	0	0	0	0	0	0	0	0	0	0	0	0	0	0	0	0	0	2633	2633	2633	2633	2639	2639	2639	2639	2639	2639	2639	2639	2639	2639	2639	2639	2639	2633	2633	2633	2633	2633	2633	2633	2633	2633	2628	2628	2628	2628	2633	2633	2633	2633	2628	2628	2633	2633	2628	2628	2628	2628	2628	2628	2628	2628	2628	2628	2623	2623	2623	2623	2623	2618	2618	2618	2618	2618	2618	2618	2623	2623	2623	2628	2628	2628	2628	2628	2628	2633	2633	2633	2633	2639	2639	2639	2639	2639	2639	2639	2639	2639	2639	2639	2633	2633	2633	2628	2628	2628	2628	2623	2623	2618	2612	2612	2607	2602	2602	2597	2587	2571	2571	2566	2566	2566	2561	2561	2561	2561	2561	2566	2566	2566	2581	2581	2587	2602	2602	2607	2618	2618	2623	2628	2628	2633	2633	2633	2639	2639	2639	2639	2644	2644	2644	2644	2644	2639	2639	2639	2644	2644	2644	2649	2649	2649	2649	2649	2649	2649	2649	2649	2649	2649	2649	2655	2655	2649	2649	2649	2649	2649	2655	2649	2649	2649	2644	2644	2644	2639	2639	2639	2639	2639	2633	2633	2633	2633	2633	2633	2633	2633	2633	2633	2633	2628	2628	2628	2628	2628	2628	2628	2628	2628	2628	2623	2623	2618	2618	2618	2618	2612	2612	2612	2612	2612	2612	2612	2612	2618	2618	2618	2623	2623	2628	2628	2628	2633	2633	2633	2639	2639	2639	2639	2644	2644	2649	2649	2649	2649	2649	2649	2655	2666	2666	2676	2676	2676	2682	2682	2687	2704	2704	2721	2721	2721	2721	2721	2721	2721	2721	2715	2715	2704	2704	2704	2699	2699	2699	2699	2699	2687	2687	2687	2687	2687	2687	2687	2687	2687	2687	2682	2682	2682	2682	2682	2676	2676	2676	2676	2676	2676	2676	2671	2671	2671	2671	2671	2671	2671	2671	2676	2676	2676	2676	2676	2682	2682	2682	2682	2682	2682	2682	2682	2676	2676	2676	2671	2666	2666	2666	2660	2660	2655	2655	2655	2655	2649	2649	2644	2639	2639	2639	2633	2628	2628	2623	2618	2618	2607	2607	2607	2602	2602	2602	2602	2602	2607	2607	2612	2623	2623	2628	2628	2628	2633	2639	2639	2639	2644	2644	2644	2644	2644	2644	2644	2644	2639	2639	2639	2639	2639	2633	2633	2633	2633	2633	2633	2633	2628	2628	2628	2628	2628	2628	2623	2623	2623	2618	2618	2618	2612	2612	2612	2612	2612	2612	2612	2618	2623	2623	2623	2628	2628	2628	2628	2628	2628	2633	2633	2633	2633	2633	2633	2633	2628	2628	2628	2628	2623	2623	2612	2607	2602	2602	2597	2587	2587	2587	2581	2581	2581	2581	2581	2581	2581	2597	2597	2597	2602	2602	2607	2618	2618	2618	2623	2623	2623	2623	2623	2618	2618	2618	2607	2607	2602	2587	2587	2571	2566	2551	2551	2536	2517	2517	2507
944	944	948	955	955	958	958	960	961	961	962	964	964	964	966	966	968	968	970	972	972	975	976	976	978	980	980	981	983	983	983	984	984	984	985	985	984	984	984	984	984	984	984	984	984	984	984	984	0	0	0	0	0	0	0	0	0	0	0	0	0	0	0	0	0	0	0	0	0	0	2280	2280	2292	2292	2292	2292	2292	2296	2304	2304	2304	2304	2304	2296	2296	2296	2292	2292	2292	2296	2296	2296	2296	2304	2304	2308	2316	2316	2325	2333	2333	2341	2350	2350	2358	2362	2362	2371	2375	2375	2384	2388	2388	2397	2397	2397	2397	2397	2397	2397	2401	2397	2397	2401	2401	2401	2401	2401	2410	2410	2410	2410	2410	2401	2401	2401	2401	2401	2401	2401	2397	2397	2401	2401	2401	2401	2401	2415	2415	2415	2419	2419	2428	2433	2433	2442	2446	2446	2446	2451	2451	2451	2451	2451	2451	2456	2456	2456	2456	2456	2451	2451	2451	2451	2451	2456	2451	2451	2451	2451	2446	2446	2446	2446	2446	2446	2446	2446	2442	2442	2446	2446	2446	2451	2451	0	0	0	0	0	0	0	0	0	0	0	0	0	0	939	939	939	938	937	937	936	935	935	934	934	933	933	933	933	933	933	934	935	935	936	937	937	938	938	938	939	939	939	939	939	939	940	940	940	940	940	940	940	0	0	0	0	0	0	0	0	0	0	0	0	0	0	0	0	0	0	0	0	0	0	0	0	0	0	0	2633	2633	2633	2633	2633	2633	2633	2633	2633	2633	2633	2633	2633	2633	2633	2633	2633	2633	2633	2633	2633	2633	2628	2628	2628	2628	2628	2628	2628	2628	2628	2628	2628	2628	2628	2628	2628	2628	2628	2628	2628	2628	2623	2623	2623	2618	2618	2618	2612	2612	2612	2612	2612	2607	2607	2607	2607	2612	2612	2612	2612	2618	2618	2618	2623	2623	2628	2628	2628	2628	2628	2628	2633	2633	2633	2633	2633	2633	2633	2633	2633	2633	2633	2633	2633	2633	2633	2628	2628	2628	2628	2623	2623	2618	2612	2612	2607	2602	2602	2597	2587	2571	2571	2566	2566	2566	2561	2561	2561	2561	2561	2566	2566	2566	2581	2581	2587	2602	2602	2607	2618	2618	2623	2628	2628	2633	2633	2633	2639	2639	2639	2639	2644	2644	2644	2644	2644	2639	2639	2639	2644	2644	2644	2649	2649	2649	2649	2649	2649	2649	2649	2649	2649	2649	2649	2655	2655	2649	2649	2649	2649	2649	2655	2649	2649	2649	2644	2644	2644	2639	2639	2639	2639	2639	2633	2633	2633	2633	2633	2633	2633	2633	2633	2633	2633	2623	2623	2623	2623	2623	2623	2618	2618	2618	2612	2607	2607	2607	2607	2607	2602	2602	2602	2602	2602	2602	2602	2602	2607	2612	2612	2618	2623	2623	2628	2628	2628	2633	2633	2633	2639	2639	2639	2644	2649	2649	2649	2649	2649	2649	2655	2655	2660	2666	2666	2676	2676	2676	2682	2682	2687	2704	2704	2721	2721	2721	2721	2721	2721	2721	2721	2715	2715	2704	2704	2687	2687	2687	2687	2682	2682	2682	2682	2682	2682	2682	2682	2682	2682	2682	2676	2676	2676	2676	2676	2676	2676	2671	2671	2671	2671	2671	2671	2671	2671	2671	2671	2671	2671	2671	2671	2676	2676	2676	2676	2676	2676	2676	2676	2676	2676	2671	2666	2666	2666	2660	2660	2660	2655	2655	2655	2649	2649	2649	2644	2644	2639	2639	2633	2633	2633	2633	2633	2628	2623	2623	2618	2607	2607	2607	2602	2602	2597	2597	2597	2597	2602	2607	2607	2612	2618	2618	2623	2628	2628	2628	2633	2633	2639	2639	2639	2644	2644	2644	2644	2644	2644	2639	2639	2639	2639	2639	2633	2633	2633	2633	2633	2633	2628	2628	2628	2628	2628	2628	2628	2623	2623	2623	2618	2612	2612	2612	2612	2612	2612	2612	2612	2612	2612	2618	2618	2618	2623	2623	2628	2628	2628	2628	2633	2633	2633	2633	2633	2633	2633	2633	2628	2628	2628	2623	2623	2618	2612	2612	2607	2602	2597	2597	2597	2587	2587	2587	2587	2597	2597	2597	2597	2597	2602	2602	2602	2607	2618	2618	2618	2623	2623	2623	2623	2623	2618	2618	2618	2607	2607	2602	2587	2587	2571	2566	2551	2551	2536	2522	2522	2512
945	945	948	950	955	958	958	960	962	962	962	963	963	964	965	965	967	968	968	970	970	972	973	973	975	976	976	978	980	980	980	980	980	981	982	982	982	983	983	982	982	982	983	983	982	982	982	981	981	0	0	0	0	0	0	0	0	0	0	0	0	0	0	0	0	0	0	0	0	0	2280	2280	2292	2292	2292	2292	2292	2296	2304	2304	2304	2304	2304	2296	2296	2296	2292	2292	2292	2296	2296	2296	2296	2304	2304	2308	2316	2316	2325	2333	2333	2341	2350	2350	2358	2362	2362	2371	2375	2375	2384	2388	2388	2397	2397	2397	2397	2397	2397	2397	2401	2397	2397	2401	2401	2401	2401	2401	2410	2410	2410	2410	2410	2401	2401	2401	2401	2401	2401	2401	2397	2397	2401	2401	2401	2401	2401	2415	2415	2428	2428	2428	2442	2442	2442	2451	2451	2451	2456	2456	2456	2460	2460	2460	2460	2460	2460	2460	2460	2460	2460	2460	2460	2460	2460	2465	2465	2465	2465	2465	2469	2469	2469	2469	2469	2469	2469	2469	2469	2469	2469	2469	2469	2469	2469	0	0	0	0	0	0	0	0	0	0	0	0	0	0	939	939	939	938	937	937	936	935	935	934	934	933	933	933	933	933	933	934	935	935	936	937	937	938	938	938	939	939	939	939	939	939	940	940	940	940	940	940	940	0	0	0	0	0	0	0	0	0	0	0	0	0	0	0	0	0	0	0	0	0	0	0	0	0	0	0	2628	2628	2628	2628	2628	2628	2628	2628	2628	2633	2633	2633	2633	2633	2628	2628	2628	2628	2628	2628	2628	2628	2628	2628	2628	2628	2628	2628	2628	2628	2628	2628	2628	2628	2628	2628	2628	2623	2623	2623	2623	2618	2618	2618	2612	2607	2607	2607	2602	2602	2602	2602	2602	2602	2597	2597	2597	2597	2602	2602	2602	2607	2607	2612	2612	2612	2618	2623	2623	2623	2628	2628	2628	2628	2628	2628	2628	2628	2633	2633	2628	2628	2628	2628	2628	2623	2623	2623	2618	2618	2612	2612	2612	2607	2602	2602	2597	2587	2587	2581	2566	2561	2561	2551	2551	2551	2551	2551	2551	2551	2551	2561	2561	2566	2581	2581	2587	2597	2597	2607	2612	2612	2623	2623	2628	2628	2633	2633	2633	2633	2633	2639	2639	2639	2639	2639	2639	2639	2639	2639	2639	2639	2639	2639	2639	2639	2639	2639	2639	2639	2639	2639	2644	2644	2644	2644	2644	2644	2644	2644	2644	2644	2649	2644	2639	2639	2639	2639	2639	2633	2633	2633	2633	2633	2633	2633	2633	2633	2633	2628	2628	2628	2628	2628	2628	2623	2623	2623	2623	2623	2623	2618	2618	2618	2612	2607	2607	2607	2607	2607	2602	2602	2602	2602	2602	2602	2602	2602	2607	2612	2612	2618	2623	2623	2628	2628	2633	2633	2633	2639	2639	2639	2644	2649	2649	2649	2649	2649	2649	2655	2655	2655	2660	2671	2671	2676	2676	2682	2687	2687	2699	2715	2715	2721	2732	2732	2732	2732	2721	2721	2721	2715	2715	2715	2704	2687	2687	2687	2687	2682	2682	2682	2682	2682	2682	2682	2682	2682	2682	2682	2676	2676	2676	2676	2676	2676	2676	2671	2671	2671	2671	2671	2671	2671	2671	2671	2666	2666	2666	2666	2666	2666	2666	2666	2671	2666	2666	2666	2666	2666	2666	2660	2655	2655	2655	2649	2649	2649	2649	2649	2644	2644	2644	2639	2639	2639	2633	2633	2633	2633	2628	2628	2628	2623	2612	2612	2607	2602	2602	2602	2597	2597	2597	2597	2597	2597	2597	2607	2607	2607	2618	2618	2623	2628	2628	2628	2633	2633	2639	2639	2639	2639	2644	2644	2644	2644	2644	2639	2639	2639	2639	2639	2633	2633	2633	2633	2628	2628	2628	2628	2628	2628	2628	2623	2623	2623	2618	2618	2612	2612	2612	2607	2607	2607	2607	2607	2607	2607	2612	2612	2612	2618	2623	2623	2623	2628	2628	2628	2628	2628	2633	2633	2633	2633	2633	2633	2628	2628	2628	2623	2623	2618	2612	2612	2607	2602	2597	2597	2597	2587	2587	2587	2587	2597	2597	2597	2597	2597	2602	2602	2602	2607	2618	2618	2618	2623	2623	2612	2612	2612	2618	2618	2607	2602	2602	2587	2581	2581	2571	2561	2551	2551	2536	2522	2522	2512
946	946	950	950	955	959	959	961	962	962	962	963	963	964	965	965	967	968	968	970	970	972	973	973	975	976	976	978	980	980	980	980	980	981	982	982	982	983	983	982	982	982	983	983	982	982	982	981	980	980	0	0	0	0	0	0	0	0	0	0	0	0	0	0	0	0	0	0	0	0	0	2304	2304	2304	2308	2308	2308	2308	2312	2312	2312	2312	2312	2312	2312	2312	2312	2312	2312	2312	2316	2316	2321	2321	2321	2329	2333	2333	2337	2346	2346	2350	2362	2362	2371	2384	2384	2388	2401	2401	2401	2410	2410	2415	2410	2410	2410	2415	2415	2415	2415	2415	2415	2419	2419	2419	2419	2419	2419	2419	2419	2419	2419	2419	2419	2419	2419	2415	2415	2415	2415	2415	2415	2415	2415	2415	2415	2419	2419	2428	2428	2428	2442	2442	2442	2451	2451	2451	2456	2456	2456	2460	2460	2460	2460	2460	2460	2460	2460	2460	2460	2460	2460	2460	2460	2465	2465	2465	2465	2465	2469	2469	2469	2469	2469	2469	2469	2469	2469	2469	2469	2469	2469	2469	2469	0	0	0	0	0	0	0	0	0	0	0	0	0	0	938	938	938	937	936	936	936	934	933	933	933	932	932	932	932	932	932	932	933	933	935	936	936	936	936	936	937	937	937	937	937	937	938	938	938	938	938	938	939	0	0	0	0	0	0	0	0	0	0	0	0	0	0	0	0	0	0	0	0	0	0	0	0	0	0	0	2628	2628	2628	2628	2628	2628	2628	2628	2628	2633	2633	2633	2633	2633	2628	2628	2628	2628	2628	2628	2628	2628	2628	2628	2628	2628	2628	2628	2628	2628	2628	2628	2628	2628	2628	2628	2628	2623	2623	2623	2623	2618	2618	2618	2612	2607	2607	2607	2602	2602	2602	2602	2602	2602	2597	2597	2597	2597	2602	2602	2602	2607	2607	2612	2612	2612	2618	2623	2623	2623	2628	2628	2628	2628	2628	2628	2628	2628	2623	2623	2623	2618	2618	2618	2612	2612	2612	2607	2607	2607	2602	2602	2602	2597	2587	2587	2581	2571	2566	2566	2561	2551	2551	2546	2546	2546	2546	2546	2546	2546	2551	2561	2561	2566	2581	2581	2587	2597	2597	2607	2612	2612	2623	2623	2628	2628	2628	2633	2633	2633	2633	2633	2633	2633	2633	2633	2633	2633	2633	2633	2633	2633	2633	2633	2633	2633	2633	2633	2633	2633	2633	2633	2633	2633	2633	2633	2639	2639	2639	2639	2639	2639	2639	2639	2639	2639	2633	2633	2633	2633	2633	2628	2628	2628	2628	2628	2628	2628	2628	2623	2623	2623	2623	2623	2623	2618	2612	2612	2612	2612	2612	2607	2602	2602	2602	2597	2597	2597	2597	2597	2597	2587	2587	2597	2587	2587	2597	2597	2602	2607	2607	2612	2623	2623	2628	2628	2633	2633	2633	2639	2639	2639	2644	2649	2649	2649	2649	2649	2649	2655	2655	2655	2660	2666	2671	2676	2676	2682	2687	2687	2699	2715	2715	2721	2732	2732	2721	2721	2721	2715	2715	2715	2704	2699	2699	2682	2676	2676	2676	2671	2671	2671	2671	2671	2671	2671	2671	2671	2671	2671	2671	2671	2671	2671	2671	2671	2666	2666	2666	2666	2666	2666	2666	2666	2666	2666	2666	2666	2666	2666	2666	2666	2666	2666	2671	2666	2666	2666	2666	2666	2666	2660	2655	2655	2655	2649	2649	2649	2649	2649	2644	2644	2644	2639	2639	2639	2633	2633	2633	2633	2628	2628	2628	2623	2612	2612	2607	2602	2602	2602	2597	2597	2597	2597	2597	2597	2597	2607	2607	2607	2618	2618	2623	2628	2628	2628	2633	2633	2639	2639	2639	2639	2644	2644	2644	2644	2644	2639	2639	2639	2639	2639	2633	2633	2633	2633	2628	2628	2628	2628	2628	2628	2628	2623	2623	2623	2618	2618	2612	2612	2612	2607	2607	2607	2607	2607	2607	2607	2607	2607	2607	2612	2618	2618	2623	2628	2628	2628	2628	2628	2628	2633	2633	2633	2633	2633	2628	2628	2628	2628	2628	2618	2618	2618	2612	2607	2607	2607	2602	2602	2602	2602	2602	2602	2602	2607	2607	2607	2607	2607	2607	2612	2618	2618	2618	2623	2618	2612	2612	2612	2607	2607	2602	2587	2587	2581	2571	2571	2566	2561	2546	2546	2536	2522	2522	2517
946	946	950	950	955	959	959	961	962	962	962	962	962	963	964	964	964	966	966	967	968	968	970	970	971	972	972	973	975	975	975	976	976	977	977	977	978	978	978	978	978	978	980	980	980	980	980	980	980	980	0	0	0	0	0	0	0	0	0	0	0	0	0	0	0	0	0	0	0	0	0	0	0	2316	2316	2316	2316	2321	2325	2325	2325	2325	2325	2325	2325	2325	2325	2325	2325	2325	2329	2329	2329	2333	2333	2337	2341	2341	2346	2354	2354	2367	2384	2384	2397	2397	2410	2410	2410	2415	2415	2415	2419	2419	2419	2419	2419	2419	2428	2428	2428	2433	2433	2433	2433	2433	2433	2433	2433	2433	2433	2433	2433	2433	2433	2433	2428	2428	2428	2419	2419	2419	2419	2419	2419	2419	2419	2428	2428	2433	2442	2442	2446	2451	2451	2456	2456	2456	2465	2465	2465	2465	2469	2469	2469	2469	2469	2469	2469	2469	2469	2469	2469	2469	2469	2474	2474	2474	2474	2474	2479	2479	2479	2479	2483	2483	2483	2483	2483	2483	2483	2483	2483	0	0	0	0	0	0	0	0	0	0	0	0	0	0	0	0	938	937	937	936	936	936	935	934	932	932	932	932	932	932	931	931	931	931	932	932	933	934	934	935	935	935	935	935	935	935	936	936	937	937	937	936	936	936	938	0	0	0	0	0	0	0	0	0	0	0	0	0	0	0	0	0	0	0	0	0	0	0	0	0	0	0	2623	2623	2623	2628	2628	2623	2623	2623	2628	2628	2628	2628	2628	2628	2628	2628	2628	2623	2623	2623	2623	2623	2623	2623	2623	2623	2623	2623	2623	2623	2623	2623	2623	2623	2623	2623	2623	2623	2618	2618	2618	2612	2602	2602	2602	2597	2597	2587	2587	2587	2587	2581	2581	2581	2581	2587	2581	2581	2587	2587	2597	2597	2597	2602	2607	2607	2612	2612	2612	2618	2618	2618	2623	2623	2623	2623	2628	2628	2623	2623	2623	2618	2618	2618	2612	2612	2612	2607	2607	2607	2602	2602	2602	2597	2587	2587	2581	2571	2566	2566	2561	2551	2551	2546	2546	2546	2546	2546	2546	2546	2551	2561	2561	2566	2581	2581	2587	2597	2597	2607	2612	2612	2623	2623	2628	2628	2628	2633	2633	2633	2633	2633	2633	2633	2633	2633	2633	2633	2633	2633	2633	2633	2633	2633	2633	2633	2633	2633	2633	2633	2633	2633	2633	2633	2633	2633	2639	2639	2639	2639	2639	2639	2639	2639	2639	2639	2633	2633	2633	2633	2633	2628	2628	2628	2628	2628	2618	2618	2618	2618	2612	2612	2612	2612	2612	2607	2607	2607	2602	2602	2602	2602	2597	2597	2587	2587	2581	2581	2581	2581	2581	2581	2581	2581	2581	2581	2587	2587	2602	2607	2607	2612	2623	2623	2628	2628	2633	2639	2639	2639	2644	2644	2649	2649	2649	2655	2655	2655	2655	2655	2655	2655	2666	2666	2676	2682	2682	2682	2687	2687	2699	2704	2704	2715	2721	2721	2715	2715	2715	2704	2704	2704	2687	2687	2687	2676	2666	2666	2666	2660	2660	2660	2660	2660	2660	2666	2666	2666	2666	2666	2666	2666	2666	2666	2660	2660	2660	2660	2660	2660	2660	2660	2660	2655	2655	2655	2655	2655	2655	2655	2655	2655	2655	2655	2655	2655	2655	2655	2655	2655	2655	2655	2649	2649	2649	2644	2644	2644	2639	2639	2639	2639	2639	2633	2633	2633	2633	2633	2628	2628	2628	2623	2623	2618	2607	2607	2607	2602	2602	2597	2597	2597	2597	2597	2597	2597	2597	2607	2607	2607	2618	2618	2623	2628	2628	2628	2633	2633	2639	2639	2639	2639	2644	2644	2644	2644	2644	2639	2639	2639	2633	2633	2633	2633	2633	2628	2628	2628	2628	2628	2623	2623	2623	2618	2618	2618	2618	2618	2612	2612	2612	2607	2607	2607	2607	2607	2607	2607	2607	2607	2607	2612	2618	2618	2623	2628	2628	2628	2628	2628	2628	2633	2633	2633	2633	2633	2633	2633	2628	2628	2628	2623	2623	2623	2618	2618	2618	2612	2612	2612	2612	2612	2612	2612	2612	2612	2612	2612	2612	2612	2612	2618	2618	2618	2623	2623	2618	2612	2612	2612	2607	2607	2602	2587	2587	2581	2571	2571	2566	2561	2546	2546	2536	2532	2532	2517
