524	524	524	524	524	524	524	522	522	522	521	521	521	521	521	521	521	521	521	521	521	521	521	521	522	522	523	524	524	524	524	524	524	525	525	525	525	525	525	524	524	523	522	522	521	520	520	520	519	518	518	518	517	517	517	517	517	516	515	515	515	515	515	515	514	514	513	512	512	512	511	511	511	511	511	510	510	510	510	510	510	509	509	509	510	510	510	510	510	510	511	511	511	511	511	511	510	510	509	508	507	505	503	502	501	498	497	495	493	493	492	490	490	489	488	488	488	488	488	489	490	491	493	496	498	501	503	505	508	511	513	515	516	516	517	517	517	517	517	517	516	515	515	515	514	513	512	511	511	510	509	509	506	505	505	504	503	503	503	502	502	502	501	501	501	501	501	501	501	501	500	500	500	500	500	499	499	499	499	498	498	497	497	497	496	496	496	496	496	496	495	495	495	495	494	494	494	494	494	493	493	493	492	492	492	493	493	493	492	492	492	493	493	493	493	493	493	493	493	493	493	493	493	494	494	494	494	494	494	495	494	494	494	493	493	492	491	491	489	489	489	488	487	487	486	485	484	484	483	483	483	483	483	483	483	484	485	485	486	488	488	489	490	491	493	495	496	498	501	503	505	508	509	510	511	512	513	513	513	514	514	514	515	515	515	516	516	516	517	518	518	519	520	520	521	522	522	524	525	526	527	528	529	530	532	533	535	536	536	537	537	537	538	538	538	538	538	538	538	537	537	536	536	536	535	534	534	534	534	534	533	533	533	533	533	533	533	532	531	531	531	531	531	531	531	531	531	531	530	530	530	529	529	529	529	529	529	527	527	526	526	526	525	523	522	521	520	520	519	518	518	517	516	516	516	516	516	516	515	515	514	514	427	0	0	0	0	0	0	0	341	547	547	555	560	560	564	567	571	572	573	574	573	573	573	573	573	571	570	569	565	565	564	561	560	559	558	557	556	555	555	555	555	555	556	559	559	560	563	564	565	568	569	571	573	574	577	577	577	578	580	579	578	578	578	577	576	575	573	569	567	565	565	437	0	0	0	0	0	0	0	0	0	0	0	0	0	0	0	0	0	0	0	0	112	1182	1182	1182	1182	1185	1187	1187	1187	1187	1187	1187	1187	1193	1193	1193	1193	1193	1193	1193	1193	1193	1193	1193	1193	1187	1187	1187	1182	1182	1182	1177	1176	1176	1166	1165	1165	1161	1160	1160	1160	1158	1154	1154	1154	1154	1150	1149	1149	1145	1142	1138	1134	1132	1128	1128	1126	1118	1114	1112	1108	1104	1103	1103	1100	1097	1093	1093	1093	1093	371	0	0	0	0	0	0	0	0	0	0	0	0	0	0	0	0	0	0	0	0	0	0	0	358	703	703	702	701	701	701	701	701	701	701	703	705	707	713	715	719	724	724	724	724	725	726	726	726	726	724	723	721	719	718	717	715	714	713	711	711	711	713	715	719	726	731	739	752	762	778	796	807	822	833	841	856	864	870	880	891	898	912	923	932	955	969	980	1001	1001	1003	1021	1031	1039	1056	1061	1066	1079	1082	1084	1093	1096	1098	1098	1101	1103	1108	1108	1108	1108	1108	1108	1108	1108	1108	1103	1103	1103	1098	1096	1093	1088	1088	1088	1088	1086	1084	1080	1079	1079	1075	1074	1074	1067	1062	1056	1049	1047	1047	1040	1038	1038	1035	1033	1030	1030	1030	1030	1030	1030	1030	1030
524	522	522	522	522	521	521	521	521	521	520	520	520	520	520	520	520	520	520	520	520	520	520	520	521	521	521	522	522	523	524	524	524	524	524	524	524	524	524	524	522	522	522	521	521	520	519	519	518	517	517	517	517	517	516	515	515	515	515	515	514	514	514	514	513	513	512	512	512	511	510	510	510	509	509	509	509	509	509	509	509	509	509	509	509	509	509	509	509	509	509	509	510	510	510	510	509	509	509	508	507	506	504	503	502	500	499	497	495	494	493	491	491	490	489	489	489	489	489	489	490	491	493	496	498	500	502	504	505	508	510	512	513	514	515	516	516	516	516	516	516	516	516	515	514	514	512	512	512	510	509	509	508	506	505	504	504	504	503	502	502	501	501	501	501	501	501	500	500	500	499	499	499	498	498	498	498	498	497	497	497	496	495	495	495	495	495	495	495	495	494	494	494	494	494	494	493	493	493	493	493	493	492	492	492	492	492	492	491	491	491	490	490	490	491	491	491	491	491	491	492	492	492	493	494	494	495	495	495	495	495	495	494	493	493	492	491	491	489	489	489	488	487	487	486	485	484	484	483	483	483	483	483	483	483	484	485	485	486	488	488	489	490	491	493	495	497	500	503	505	508	511	512	513	515	515	516	516	516	517	517	517	517	518	518	518	519	519	519	519	519	519	520	520	521	522	522	524	525	525	526	527	528	530	532	533	535	536	536	537	537	537	538	538	538	540	540	540	538	538	538	537	537	537	535	535	535	534	534	534	533	533	533	533	533	533	531	531	531	531	531	531	531	531	531	531	531	531	531	531	531	531	531	530	530	530	530	529	529	529	527	527	526	526	377	0	0	138	522	521	521	521	521	521	521	521	521	521	521	423	0	0	0	0	0	0	0	0	0	0	348	559	559	560	560	564	566	568	571	572	572	572	571	571	571	570	569	567	565	564	561	560	559	558	557	556	554	554	553	551	551	551	553	553	554	555	557	559	560	561	563	565	566	568	571	572	573	574	575	576	577	577	577	578	414	0	0	0	0	0	0	0	0	0	0	0	0	0	0	0	0	0	0	0	0	0	0	0	0	0	0	134	1187	1187	1187	1182	1182	1182	1182	1185	1187	1187	1187	1187	1187	1187	1187	1193	1193	1193	1193	1193	1193	1193	1193	1193	1193	1193	1193	1187	1187	1187	1182	1182	1182	1177	1174	1171	1166	1165	1165	1161	1158	1154	1154	1154	1154	1154	1152	1149	1149	1147	1144	1139	1138	1138	1134	1132	1128	1124	1121	1113	1113	1112	1108	1104	1102	1098	1095	1092	1088	1088	903	0	0	0	0	0	0	0	0	0	0	0	0	0	0	0	0	0	0	0	0	0	0	400	757	745	731	717	715	714	713	711	711	711	711	711	711	711	713	715	721	722	724	724	725	726	728	729	730	730	730	730	730	729	728	726	724	721	719	718	717	717	717	717	717	719	726	734	738	745	760	772	793	812	824	841	854	862	874	880	885	893	902	909	923	934	943	962	976	987	1005	1005	1007	1021	1031	1039	1052	1059	1066	1074	1077	1079	1084	1089	1093	1098	1101	1103	1103	1103	1103	1108	1108	1108	1108	1108	1108	1108	1106	1103	1103	1101	1098	1098	1098	1098	1094	1093	1093	1089	1087	1084	1084	1084	1084	1076	1071	1065	1062	1058	1052	1048	1046	1043	1039	1037	1034	1031	1030	1030	1030	1030	1030	1033
522	522	522	522	522	521	520	520	520	520	520	519	519	519	519	519	519	519	519	519	519	520	520	520	520	521	521	522	522	522	523	523	523	524	524	524	524	523	523	522	522	522	522	521	520	520	519	518	518	517	517	517	517	516	516	515	515	515	515	514	514	514	514	514	513	512	512	512	511	510	510	510	510	509	509	508	508	508	508	508	508	508	508	508	508	508	508	508	508	508	509	509	510	510	510	510	509	509	508	508	507	506	505	504	502	501	500	498	496	495	494	493	492	491	490	490	490	490	490	490	490	491	493	496	498	500	502	503	504	508	509	511	512	513	514	515	515	515	515	515	516	516	515	514	514	513	512	512	511	510	509	509	507	506	505	504	504	503	502	502	501	501	501	501	500	500	500	500	500	500	498	498	498	498	497	497	497	497	496	496	495	495	495	494	494	494	494	494	494	494	494	494	493	494	494	493	492	492	493	493	493	492	492	492	492	492	492	491	490	490	490	490	490	490	490	490	490	490	490	491	492	492	492	493	494	495	495	495	496	496	496	495	494	494	493	492	492	491	490	489	489	488	487	487	486	485	484	484	483	483	483	483	483	483	483	484	485	485	486	488	488	489	490	491	494	496	498	501	505	507	510	512	513	515	517	517	518	518	518	518	518	518	518	519	519	519	519	519	519	519	519	519	520	520	521	522	522	524	525	525	526	527	528	530	532	533	535	536	536	538	538	539	540	540	540	541	541	541	540	540	539	538	538	538	536	536	536	535	535	534	534	533	533	533	533	533	531	531	531	531	531	531	531	531	531	532	532	531	531	531	531	532	532	532	532	531	530	530	530	530	529	448	263	263	263	264	264	333	524	524	524	522	522	522	522	524	524	524	524	475	264	264	264	264	266	226	0	0	37	280	454	559	559	561	562	564	567	569	570	571	571	570	570	570	570	569	568	566	564	562	560	558	557	556	555	554	553	552	552	551	550	550	551	551	552	554	555	557	558	559	561	563	564	564	567	568	570	571	573	576	577	577	577	349	207	0	0	0	0	0	0	0	0	0	0	0	0	0	0	0	0	0	0	0	0	0	0	385	600	600	598	663	1187	1187	1187	1184	1184	1184	1184	1186	1187	1187	1187	1187	1187	1187	1187	1193	1193	1193	1193	1193	1193	1193	1193	1193	1193	1193	1193	1187	1187	1187	1182	1182	1182	1177	1174	1171	1166	1164	1162	1160	1158	1154	1154	1154	1154	1154	1152	1149	1147	1146	1144	1139	1137	1136	1132	1129	1126	1122	1118	1110	1109	1106	1100	1097	1095	1093	1091	1090	1088	1088	903	0	0	0	0	0	0	0	0	0	0	0	0	0	0	0	0	221	390	390	390	390	386	582	757	745	737	729	727	725	724	722	721	720	720	719	718	713	714	715	721	723	725	726	727	729	730	731	732	733	733	733	732	731	730	728	727	724	722	721	720	719	719	719	719	721	728	739	744	751	769	782	804	824	836	852	863	871	882	888	892	900	907	913	924	936	945	962	976	987	1005	1005	1006	1019	1029	1037	1050	1056	1061	1070	1073	1077	1082	1085	1089	1093	1094	1096	1098	1099	1100	1105	1106	1106	1106	1106	1106	1106	1106	1106	1106	1103	1100	1100	1100	1100	1098	1098	1098	1094	1092	1091	1091	1090	1088	1081	1076	1070	1066	1063	1058	1053	1050	1048	1042	1039	1036	1034	1034	1032	1032	1032	1032	1033
521	521	521	521	521	520	520	520	519	519	519	519	518	518	518	518	518	518	518	518	518	519	519	519	520	521	521	521	521	521	522	522	523	524	524	524	524	522	522	521	521	521	521	520	520	519	518	518	517	517	517	517	516	516	515	515	515	515	514	514	514	513	513	513	512	512	512	511	511	510	510	510	509	509	509	508	508	508	508	508	508	508	508	508	508	508	508	508	508	508	509	509	509	509	509	509	509	509	508	508	507	506	505	504	503	501	500	499	497	497	496	494	493	492	491	491	490	490	490	491	491	492	493	496	498	500	502	503	504	507	508	510	511	511	513	514	514	514	514	514	515	515	515	514	513	513	512	511	511	510	509	509	506	505	505	504	503	503	502	501	501	501	501	501	500	500	500	500	499	499	498	498	497	497	497	496	496	496	495	494	494	494	494	494	493	493	493	493	493	493	493	493	493	493	493	493	492	492	492	493	492	492	492	492	492	491	491	491	490	489	489	489	489	489	489	489	489	490	490	490	491	492	492	493	494	495	495	496	496	496	496	496	495	494	494	493	492	492	490	489	489	488	487	487	486	485	484	484	483	483	483	483	483	483	483	484	485	485	486	488	488	489	490	492	494	497	499	502	507	509	511	514	515	517	519	519	520	520	520	520	520	520	520	520	520	520	519	519	519	519	519	519	520	520	521	522	522	524	525	525	526	527	528	530	532	533	535	536	536	538	539	540	541	542	542	542	542	542	542	541	541	540	540	540	537	537	537	536	535	535	534	534	533	533	533	533	531	531	531	531	531	531	531	531	531	533	532	531	531	531	531	533	533	533	533	532	531	530	530	530	530	370	0	0	150	529	529	528	527	527	526	524	524	524	524	527	528	526	526	527	529	528	528	528	531	453	0	0	74	561	560	559	559	561	563	565	567	569	569	570	571	569	568	568	568	567	567	564	562	561	558	557	555	554	554	553	551	551	551	550	550	549	549	549	550	553	554	555	556	557	559	561	561	561	564	565	567	569	571	576	577	577	577	120	0	0	0	0	0	0	0	0	0	0	0	0	0	0	0	0	0	0	0	0	0	0	0	769	1199	1199	1195	1192	1187	1187	1187	1187	1187	1187	1187	1187	1187	1187	1187	1187	1187	1187	1187	1193	1193	1193	1193	1193	1193	1193	1193	1193	1193	1193	1193	1187	1187	1187	1182	1182	1182	1177	1174	1171	1166	1163	1160	1160	1158	1154	1154	1154	1154	1154	1152	1149	1145	1144	1144	1139	1137	1133	1129	1127	1123	1119	1116	1108	1104	1101	1093	1089	1088	1088	1088	1088	1088	1088	903	0	0	0	0	0	0	0	0	0	0	0	0	0	0	0	0	442	780	780	780	780	771	764	757	745	743	741	739	737	734	732	730	728	728	727	726	716	715	715	721	723	726	728	730	732	732	733	734	736	736	736	734	733	732	730	729	726	724	724	724	722	721	721	721	723	730	744	750	757	778	792	814	836	848	862	872	879	890	896	900	906	913	918	926	938	946	962	976	987	1005	1005	1006	1017	1027	1035	1047	1052	1057	1065	1070	1074	1079	1082	1084	1088	1088	1088	1093	1095	1098	1103	1103	1103	1103	1103	1103	1103	1105	1108	1108	1106	1103	1103	1103	1103	1103	1103	1103	1099	1098	1098	1098	1096	1093	1086	1081	1074	1071	1068	1065	1058	1055	1052	1045	1042	1038	1038	1037	1034	1034	1034	1034	1034
520	520	519	519	519	519	519	519	518	518	518	518	518	518	518	518	517	517	517	518	518	518	519	519	519	520	520	520	521	521	521	521	521	522	522	522	521	521	521	521	520	520	519	519	519	518	517	517	517	516	516	516	515	515	515	515	515	514	513	513	513	512	512	512	512	512	511	510	510	509	509	509	509	508	508	508	508	508	506	506	506	506	506	506	506	506	506	506	506	506	508	508	508	508	508	508	508	508	508	508	507	506	506	506	505	503	503	502	500	499	498	496	496	495	493	493	493	493	493	493	493	494	495	497	499	500	502	502	503	505	506	508	509	509	510	511	511	511	512	512	512	512	512	512	512	512	511	510	510	509	508	508	505	504	504	503	502	502	501	501	501	500	500	500	499	499	499	498	498	498	497	497	496	495	495	494	494	493	492	492	492	492	491	491	491	491	491	491	491	491	491	491	491	491	491	491	492	491	491	491	491	491	490	490	490	489	489	489	489	489	489	489	489	489	489	489	489	490	490	490	491	492	492	493	494	495	495	496	496	497	497	497	497	496	496	495	494	494	492	491	490	489	488	488	487	486	486	485	485	485	484	484	484	484	484	485	486	486	487	489	489	490	493	495	497	501	503	506	511	514	516	519	520	521	522	522	522	522	522	522	522	522	522	520	520	520	520	520	521	520	520	520	521	521	522	523	524	524	525	526	527	528	529	531	533	534	536	537	538	541	542	542	543	544	544	544	544	544	544	544	544	542	542	542	541	539	538	537	536	536	535	535	534	534	534	533	533	532	531	531	531	531	530	530	530	533	533	533	533	533	533	534	534	534	81	181	534	533	532	531	531	371	0	0	150	529	529	528	527	527	527	527	526	526	526	527	528	529	529	529	529	528	528	528	531	453	0	0	74	561	561	561	564	565	565	567	567	567	567	567	567	565	564	564	563	563	563	560	559	558	555	555	554	551	551	551	550	549	548	548	548	547	547	547	548	549	549	550	551	552	553	555	555	556	559	562	567	569	386	0	0	0	0	0	0	0	0	0	0	0	0	0	0	0	0	0	0	0	0	0	0	0	206	1211	1211	1211	1211	1203	1199	1199	1195	1193	1193	1197	1198	1193	1193	1193	1193	1193	1193	1187	1187	1187	1187	1187	1187	1187	1187	1187	1187	1187	1187	1193	1193	1193	1193	1193	1193	1187	1187	1187	1182	1180	1176	1171	1171	1171	1166	1163	1160	1160	1158	1154	1154	1152	1149	1149	1147	1144	1139	1136	1133	1133	1132	1128	1124	1122	1118	1110	1104	1093	1089	1086	1079	1075	1073	1070	1070	868	0	0	0	0	0	0	0	0	0	0	0	0	0	0	0	0	0	0	0	442	780	780	780	780	771	769	768	761	759	757	754	752	750	745	737	728	728	727	726	726	727	728	730	732	734	736	737	739	739	739	739	741	740	739	739	738	736	733	731	730	728	728	728	728	728	728	728	730	736	753	763	776	798	813	838	857	869	883	894	901	909	914	917	919	926	931	940	947	953	969	979	987	1005	1012	1017	1017	1025	1031	1043	1048	1052	1056	1059	1061	1070	1072	1074	1079	1079	1079	1084	1086	1088	1093	1093	1093	1093	1095	1098	1098	1100	1103	1108	1108	1108	1108	1108	1108	1108	1108	1108	1108	1108	1108	1108	1106	1103	1099	1095	1088	1085	1082	1079	1072	1067	1061	1054	1051	1047	1044	1042	1038	1038	1037	1034	1034
520	520	519	518	518	518	518	518	518	518	518	518	518	518	518	518	517	517	517	517	518	518	518	519	519	519	520	520	520	520	520	521	521	522	522	521	521	521	520	520	520	519	519	519	518	518	517	516	516	516	516	516	515	515	514	514	514	514	513	513	513	512	512	512	512	511	510	510	509	509	509	509	508	508	508	507	507	507	506	506	506	506	506	506	506	506	506	506	506	506	507	507	507	507	507	507	507	507	507	507	507	506	506	505	505	504	503	502	501	500	499	498	497	496	495	494	494	494	494	494	494	495	496	498	499	500	502	502	503	504	504	506	507	507	508	509	510	510	510	510	510	510	511	511	511	510	510	509	509	508	507	506	505	504	503	502	502	502	501	501	500	500	500	499	498	498	498	498	497	497	496	496	495	494	493	492	492	492	491	491	491	490	490	490	490	490	490	490	490	490	490	490	490	490	490	490	490	490	490	490	490	490	490	490	489	489	489	489	488	488	488	488	488	488	488	489	489	490	490	490	491	492	492	494	495	496	496	497	497	498	498	498	498	497	497	496	495	495	494	492	491	490	489	489	488	488	487	486	486	486	485	485	485	485	486	486	487	487	488	489	490	491	494	496	498	502	505	508	512	514	516	520	521	522	523	523	523	522	522	522	522	522	522	521	520	520	520	521	522	521	521	521	521	522	523	524	524	524	526	527	528	529	530	532	534	535	537	539	540	542	542	543	544	544	545	546	546	546	546	545	544	544	543	542	542	540	539	538	537	536	536	535	534	534	534	534	533	532	530	530	530	530	530	530	530	533	533	533	533	533	534	534	438	267	40	91	267	267	266	266	266	185	0	0	75	264	264	264	264	264	329	529	529	528	528	530	531	532	532	532	532	532	532	532	537	458	0	0	74	563	563	563	564	565	565	566	566	566	566	566	565	564	564	563	562	562	561	560	558	557	554	554	554	551	551	550	550	549	548	548	547	546	546	547	548	549	549	550	550	551	553	555	555	556	559	465	284	284	193	0	0	0	0	0	0	0	0	0	0	0	0	0	0	0	0	0	0	0	0	116	614	614	716	1211	1211	1211	1211	1207	1205	1205	1201	1199	1199	1199	1199	1196	1196	1196	1193	1193	1193	1187	1187	1187	1187	1187	1187	1187	1187	1187	1187	1187	1187	1190	1190	1190	1190	1190	1190	1187	1186	1184	1182	1180	1176	1171	1170	1168	1165	1163	1160	1160	1158	1154	1152	1151	1149	1147	1146	1144	1139	1136	1133	1131	1129	1126	1122	1119	1113	1105	1099	1088	1085	1082	1076	1071	1069	1068	1068	866	0	0	0	0	0	0	0	0	0	0	0	0	0	0	0	0	0	0	0	442	781	780	780	780	772	771	769	764	762	760	754	752	750	745	741	736	735	734	732	732	733	734	735	736	738	739	740	741	741	741	741	741	741	740	740	739	736	734	732	731	729	729	729	729	729	729	730	733	740	468	382	388	713	833	846	865	877	896	902	906	914	919	922	924	930	935	944	951	957	971	981	989	1005	1013	1019	1019	1025	1031	1043	1047	1050	1054	1056	1059	1066	1068	1070	1074	1076	1076	1079	1081	1084	1088	1088	1088	1090	1092	1093	1093	1096	1100	1103	1104	1106	1106	1106	1108	1108	1109	1110	1110	1110	1110	1113	1111	1108	1104	1101	1096	1092	1089	1084	1078	1074	1068	1061	1057	1052	1048	1046	1042	1041	1039	1036	1035
519	519	518	518	518	518	518	518	517	517	517	517	517	517	517	517	517	517	517	517	517	517	518	518	519	519	519	520	520	520	520	521	521	521	521	521	521	520	520	519	519	519	519	518	518	517	516	516	516	515	515	515	515	515	514	514	514	513	513	513	513	512	512	511	511	511	510	509	509	509	509	509	508	508	508	506	506	506	506	506	506	506	506	506	506	506	506	506	506	506	506	506	506	506	506	506	506	506	506	506	506	506	505	505	505	504	504	503	501	501	500	499	498	497	496	496	495	495	495	495	496	496	497	498	499	501	502	502	503	503	503	504	505	505	506	507	508	508	508	508	509	509	509	510	509	509	509	508	508	508	506	505	505	504	503	502	502	502	501	500	500	499	499	499	498	498	498	497	496	496	495	495	494	492	492	491	490	490	490	490	490	489	489	489	489	489	489	489	489	489	489	489	489	489	489	489	489	489	489	489	489	489	489	489	489	489	489	489	488	488	488	488	488	488	488	489	489	489	490	490	491	492	492	494	495	496	497	498	498	499	499	499	499	498	498	497	496	496	495	494	493	491	490	490	489	489	489	488	487	487	486	486	486	487	487	487	488	488	489	490	491	492	495	497	500	504	507	511	514	515	517	520	521	522	524	524	524	522	522	522	522	522	522	521	521	521	521	521	522	522	522	522	522	522	524	525	525	525	526	527	529	530	532	534	535	536	538	540	541	542	543	544	545	545	545	547	547	547	547	546	545	545	544	543	542	541	541	538	537	537	536	536	535	535	535	534	533	532	530	530	530	530	530	530	530	533	533	533	533	533	534	534	343	0	0	0	0	0	0	0	0	0	0	0	0	0	0	0	0	0	130	531	531	531	531	533	534	535	535	535	535	536	536	536	542	463	0	0	75	565	565	565	565	565	565	565	565	565	565	564	564	564	563	563	561	560	560	559	557	556	554	554	553	551	551	550	549	549	548	548	547	545	545	546	547	549	549	549	549	551	553	555	555	556	559	369	0	0	0	0	0	0	0	0	0	0	0	0	0	0	0	0	0	0	0	0	0	0	0	232	1229	1229	1226	1211	1211	1211	1211	1211	1211	1211	1207	1205	1205	1201	1199	1199	1199	1199	1193	1193	1193	1187	1187	1187	1187	1187	1187	1187	1187	1187	1187	1187	1187	1187	1187	1187	1187	1187	1187	1187	1185	1182	1182	1180	1176	1171	1169	1165	1165	1163	1160	1160	1158	1154	1150	1149	1149	1145	1144	1144	1139	1136	1133	1129	1127	1123	1119	1115	1108	1100	1095	1084	1080	1078	1074	1068	1065	1065	1065	864	0	0	0	0	0	0	0	0	0	0	0	0	0	0	0	0	0	0	0	443	783	780	780	780	773	772	771	768	766	764	754	752	750	745	744	743	741	740	739	739	739	739	741	741	741	743	743	743	743	743	743	741	741	741	741	739	736	734	733	732	730	730	730	730	730	730	732	735	743	182	0	0	628	853	853	872	886	909	909	911	919	924	927	929	934	939	947	954	960	973	983	991	1005	1015	1021	1021	1026	1031	1043	1045	1047	1052	1054	1056	1061	1063	1065	1070	1072	1074	1074	1076	1079	1084	1084	1084	1088	1088	1088	1088	1092	1098	1098	1100	1103	1103	1105	1108	1108	1110	1113	1113	1113	1113	1117	1116	1113	1109	1106	1103	1099	1095	1088	1085	1081	1074	1067	1063	1056	1053	1051	1047	1044	1042	1038	1035
518	518	517	517	517	517	517	517	517	517	517	517	517	517	517	517	516	516	516	517	517	517	517	517	518	519	519	519	519	519	519	520	520	520	520	520	520	519	519	519	518	518	517	517	517	516	516	516	515	515	515	514	514	514	514	513	513	513	513	513	512	511	511	510	510	510	510	509	509	509	508	508	508	507	506	506	506	506	505	505	505	505	505	505	505	505	505	505	505	505	505	505	506	505	505	505	505	505	505	505	505	505	505	505	504	504	504	503	502	502	502	500	500	499	498	498	498	498	498	498	498	498	499	500	500	501	501	501	502	502	502	503	503	503	503	504	504	504	504	504	504	504	504	505	505	505	505	505	505	504	504	504	502	502	502	501	500	499	498	498	498	497	497	497	496	495	495	494	493	493	492	492	491	490	490	489	489	489	489	488	488	487	487	487	486	486	486	486	487	487	487	487	487	488	488	488	488	488	488	488	488	488	488	487	487	487	487	487	486	486	486	486	486	486	487	487	487	489	489	489	491	492	493	495	496	497	498	499	500	501	501	501	501	500	500	500	499	499	497	496	496	495	494	493	492	491	491	490	489	489	489	489	489	489	489	489	490	490	491	493	494	496	499	501	503	508	510	513	516	517	518	520	521	522	524	524	524	524	523	522	522	522	522	522	522	522	522	522	522	522	522	524	524	524	525	526	526	526	527	528	530	532	533	535	537	538	541	542	543	545	546	547	548	549	549	549	549	549	548	547	547	545	545	545	543	542	542	538	537	537	536	535	534	534	534	533	531	531	530	530	530	530	530	530	530	50	0	0	0	202	536	536	344	0	0	0	0	0	0	0	0	0	0	0	0	0	0	0	0	0	131	534	534	534	534	535	536	537	537	537	537	538	538	540	543	463	0	0	74	563	563	563	563	563	563	563	564	564	563	563	563	563	562	561	560	560	560	558	557	556	554	554	553	551	551	550	549	549	549	31	237	545	545	546	547	52	218	549	549	342	0	0	0	0	0	0	0	0	0	0	0	0	0	0	0	0	0	0	0	0	0	0	0	0	0	0	258	1241	1241	1239	1229	1229	1229	1229	1229	1228	1223	1223	1223	1223	1219	1217	1217	1213	1210	1205	1205	1205	1205	1202	1199	1193	1190	1187	1187	1187	1187	1187	1187	1187	1187	1187	1187	1187	1187	1187	1187	1187	1187	1182	1182	1182	1176	1176	1176	1171	1169	1165	1165	1163	1160	1155	1152	1149	1149	1147	1144	1139	1136	1133	1129	1126	1123	1119	1117	1113	1109	1104	1093	1086	1082	1074	1071	1070	1070	1060	1056	1056	1056	857	0	0	0	0	0	0	0	0	0	0	0	0	0	0	0	0	0	0	0	442	780	780	780	780	783	781	780	768	766	764	764	762	759	757	756	754	752	751	750	750	750	750	750	750	750	750	749	748	745	743	741	741	740	739	736	735	734	731	730	730	730	730	730	732	525	0	0	0	0	0	0	0	0	206	909	909	915	937	937	937	937	939	941	944	946	949	958	965	971	985	995	1002	1013	1018	1021	1021	1026	1031	1038	1041	1043	1047	1050	1052	1052	1054	1056	1061	1063	1065	1070	1070	1070	1074	1076	1079	1079	1079	1079	1084	1086	1088	1088	1092	1098	1098	1100	1103	1107	1110	1113	1117	1120	1123	1123	1123	1123	1119	1116	1113	1109	1106	1103	1095	1090	1084	1076	1073	1070	1063	1059	1052	1048	1046	1043	1037
518	518	517	517	517	517	516	516	516	516	516	516	516	516	516	516	516	516	516	516	517	517	517	517	518	518	518	518	519	519	519	519	520	520	520	520	520	519	518	518	518	517	516	516	516	516	515	515	514	514	514	514	514	514	514	513	513	512	512	512	512	511	511	510	510	510	510	509	509	508	508	508	508	507	506	506	506	506	505	505	505	505	505	505	505	505	505	505	505	505	505	505	506	505	505	505	505	505	505	505	505	504	504	504	504	504	504	504	503	502	502	501	501	500	499	499	498	498	498	498	499	499	500	500	500	500	500	501	501	501	501	502	502	502	502	502	502	502	502	502	502	502	503	503	503	504	504	503	503	502	502	502	501	501	500	500	499	498	498	497	497	496	496	495	494	494	493	492	492	492	490	490	490	489	488	488	487	487	487	487	486	486	486	485	484	484	484	484	485	485	485	485	486	486	486	486	486	486	487	487	487	487	487	487	486	486	486	486	485	485	485	485	485	485	486	486	487	488	489	489	491	492	493	495	497	498	498	500	501	502	502	502	502	502	502	502	501	500	499	498	498	496	496	495	494	493	493	492	491	491	490	490	490	491	491	491	492	492	493	495	496	498	501	502	504	509	511	513	515	516	518	520	521	522	523	523	523	523	523	522	522	522	522	522	522	522	523	523	523	523	523	524	525	525	526	527	527	528	529	530	532	534	535	536	538	540	542	543	544	546	547	548	548	549	550	550	550	549	548	548	548	546	545	545	543	542	541	538	537	536	535	534	534	534	533	532	531	531	530	530	530	530	285	265	265	25	0	0	0	202	536	536	344	0	0	0	0	0	0	0	0	0	0	0	0	0	0	0	0	0	65	267	267	267	267	268	268	268	268	268	268	452	539	540	543	463	0	0	74	562	562	562	562	563	563	563	563	563	563	563	563	563	562	561	560	560	560	558	557	557	277	277	276	276	275	275	275	274	274	16	118	272	272	273	274	26	109	274	274	171	0	0	0	0	0	0	0	0	0	0	0	0	0	0	0	0	0	0	0	0	0	0	0	0	0	445	749	1241	1241	1240	1235	1235	1235	1235	1235	1235	1232	1230	1229	1229	1225	1223	1220	1218	1216	1211	1209	1208	1205	1203	1202	1196	1193	1190	1187	1187	1187	1187	1187	1187	1187	1187	1187	1187	1187	1187	1187	1187	1187	1182	1182	1182	1176	1175	1174	1169	1166	1162	1162	1160	1157	1152	1150	1146	1144	1143	1141	1136	1134	1130	1126	1123	1118	1114	1112	1108	1102	1098	1090	1084	1080	1074	1071	1068	1061	1054	1052	1052	1053	954	524	524	435	0	0	0	0	0	0	0	0	0	0	0	36	386	386	357	0	442	780	780	780	780	783	781	780	773	772	771	770	768	766	764	763	761	759	758	757	756	755	754	754	754	754	752	751	749	745	743	741	741	740	738	735	735	734	731	730	730	434	365	365	366	262	0	0	0	0	0	0	0	0	206	909	909	915	937	937	938	944	946	948	951	953	956	966	974	981	993	1000	1006	1015	1020	1024	1024	1028	1032	1038	1041	1043	1045	1047	1050	1050	1052	1054	1058	1060	1060	1066	1066	1068	1072	1073	1074	1074	1075	1076	1081	1082	1084	1086	1089	1093	1093	1095	1098	1102	1105	1108	1115	1117	1120	1123	1123	1123	1121	1120	1118	1114	1111	1108	1100	1095	1088	1081	1078	1074	1068	1063	1056	1051	1048	1043	1035
517	517	517	517	517	516	516	516	516	516	516	516	516	516	516	516	516	516	516	516	516	517	517	517	517	517	517	518	519	519	519	519	519	519	519	519	519	518	518	517	517	517	516	516	516	515	514	514	514	514	514	514	513	513	513	513	513	512	512	512	511	511	511	510	510	510	509	509	509	508	508	508	508	507	506	506	506	506	505	505	505	505	505	505	505	505	505	505	505	505	505	505	505	505	505	505	505	505	505	504	504	504	504	504	504	504	504	504	503	503	502	502	502	501	500	500	499	499	499	499	500	500	500	500	500	500	500	500	500	500	500	501	501	501	500	500	500	500	500	500	500	501	501	501	502	502	502	501	501	501	501	501	500	499	499	498	497	497	497	496	496	495	494	494	493	492	492	491	491	491	489	489	489	487	487	486	485	485	485	485	485	484	484	484	483	483	483	483	483	483	483	484	484	484	485	485	485	485	485	486	486	486	486	486	486	485	485	485	484	484	484	484	484	484	485	486	486	488	489	489	491	492	493	495	497	498	499	500	501	503	503	503	503	503	503	503	502	502	501	500	500	498	498	498	496	495	495	494	493	493	492	492	492	493	493	493	494	494	495	497	498	500	503	504	506	510	511	513	515	516	518	520	520	521	522	522	522	522	522	522	522	522	522	522	522	522	524	524	524	524	524	525	526	526	527	528	528	529	530	532	534	535	536	538	540	541	543	544	545	548	549	549	549	550	550	550	550	550	549	549	549	547	546	545	543	542	541	538	537	536	534	534	533	533	532	531	531	531	530	529	529	529	40	0	0	0	0	0	0	202	536	536	344	0	0	0	0	0	0	0	0	0	0	0	0	0	0	0	0	0	0	0	0	0	0	0	0	0	0	0	0	367	540	540	543	463	0	0	74	561	561	561	561	562	563	563	563	563	563	563	563	563	562	561	560	560	560	558	558	558	0	0	0	0	0	0	0	0	0	0	0	0	0	0	0	0	0	0	0	0	0	0	0	0	0	0	0	0	0	0	0	0	0	0	0	0	0	0	0	0	0	0	0	0	0	890	1241	1241	1241	1241	1241	1241	1241	1241	1241	1241	1241	1237	1235	1235	1231	1228	1223	1223	1222	1217	1213	1211	1205	1205	1205	1199	1196	1193	1187	1187	1187	1187	1187	1187	1187	1187	1187	1187	1187	1187	1187	1187	1187	1182	1182	1182	1176	1174	1171	1166	1163	1160	1160	1158	1154	1150	1147	1144	1139	1138	1138	1134	1131	1128	1124	1120	1113	1109	1107	1103	1095	1092	1088	1081	1078	1074	1071	1066	1052	1048	1047	1047	1050	1051	1047	1047	869	0	0	0	0	0	0	0	0	0	0	0	73	773	773	715	0	442	780	780	780	780	783	781	780	778	778	778	776	775	773	771	770	768	766	765	764	761	760	759	757	757	757	754	752	750	746	743	741	741	739	736	734	734	734	731	730	730	138	0	0	0	0	0	0	0	0	0	0	0	0	206	909	909	915	937	937	940	951	954	956	958	961	964	973	983	991	1001	1006	1010	1017	1022	1026	1026	1031	1034	1038	1041	1043	1043	1045	1047	1047	1050	1052	1056	1056	1056	1061	1063	1065	1070	1070	1070	1070	1072	1074	1079	1079	1079	1084	1086	1088	1088	1090	1093	1097	1100	1103	1112	1115	1118	1122	1123	1123	1123	1123	1123	1119	1116	1113	1105	1100	1093	1086	1083	1079	1072	1068	1061	1054	1050	1043	1034
516	516	516	516	516	516	516	516	516	516	516	516	516	516	516	516	516	516	516	516	516	516	516	516	517	517	517	517	517	517	517	518	518	518	518	518	517	517	517	516	516	516	515	515	515	514	514	514	513	513	513	513	512	512	512	512	512	511	511	511	511	510	510	510	509	509	509	508	508	508	508	508	506	506	506	506	506	506	505	505	505	505	505	505	505	505	505	505	505	505	505	505	505	505	505	505	505	505	505	504	504	504	504	504	504	504	504	504	503	503	503	503	503	502	501	501	501	501	501	501	500	500	500	501	501	500	500	500	500	499	499	499	498	498	498	497	497	497	497	497	497	497	497	497	497	497	497	497	497	497	497	497	496	496	496	495	494	494	493	492	492	491	491	491	490	489	489	489	488	488	487	486	485	484	484	483	482	482	481	481	481	481	480	480	479	478	478	478	479	479	480	480	480	481	482	482	482	483	483	484	484	484	484	484	484	483	483	483	483	483	483	483	483	483	485	486	486	488	489	489	491	492	494	496	498	499	501	502	503	505	506	506	506	506	506	506	506	506	505	504	504	503	502	502	501	500	499	498	498	498	497	497	497	497	497	498	499	499	499	500	501	503	505	507	509	511	512	513	515	515	516	519	519	520	521	521	522	522	523	524	524	524	524	524	524	524	524	524	525	525	525	526	527	527	529	530	530	531	533	534	536	537	539	541	542	544	547	548	548	549	550	550	550	550	550	551	550	550	549	549	549	547	546	545	543	542	541	538	537	536	534	534	533	533	532	531	531	291	0	499	529	529	40	0	0	0	0	0	0	0	0	0	0	0	0	0	0	0	0	0	438	540	540	112	152	538	538	396	0	0	0	0	0	0	0	388	541	541	163	102	543	542	542	542	184	0	0	0	74	560	560	560	560	561	561	561	562	563	564	564	564	564	563	563	560	560	549	0	0	0	0	0	0	0	0	0	0	0	0	0	0	0	0	0	0	0	0	0	0	0	0	0	0	0	0	0	0	0	0	0	0	0	0	0	0	0	0	0	0	0	0	0	0	281	1241	1241	1241	1241	1245	1247	1247	1247	1247	1247	1247	1247	1247	1247	1247	1247	1243	1241	1241	1234	1229	1229	1225	1223	1217	1214	1211	1205	1202	1199	1193	1193	1193	1187	1187	1187	1187	1187	1187	1187	1187	1187	1187	1187	1187	1182	1182	1182	1176	1174	1171	1166	1163	1160	1160	1156	1149	1145	1142	1138	1134	1131	1128	1124	1121	1118	1114	1111	1108	1104	1100	1093	1089	1087	1084	1076	1074	1074	1061	1055	1052	1048	1047	1047	1050	1051	1047	1047	869	0	0	0	0	0	0	0	0	0	0	0	73	773	773	715	0	442	780	780	780	780	783	783	783	785	785	785	785	784	783	780	780	780	776	775	773	771	769	766	761	761	761	757	754	750	746	743	741	739	738	736	733	731	730	730	496	0	0	0	0	0	0	0	0	0	0	0	0	0	0	219	966	966	969	981	981	982	985	988	989	989	992	994	997	1002	1006	1013	1018	1022	1026	1028	1030	1030	1035	1038	1038	1041	1043	1043	1043	1043	1047	1050	1052	1052	1054	1056	1056	1056	1056	1061	1063	1065	1065	1065	1065	1070	1070	1070	1074	1076	1079	1084	1084	1084	1088	1090	1093	1102	1105	1108	1112	1115	1118	1122	1123	1123	1123	1121	1118	1114	1110	1103	1095	1091	1084	1076	1071	1061	1054	1049	1038	1029
516	516	516	516	516	516	516	516	516	516	516	516	516	516	516	516	516	516	516	516	516	516	516	516	516	516	517	517	517	517	517	517	518	518	518	517	516	516	516	516	516	515	514	514	514	514	514	513	512	512	512	512	512	512	512	512	511	511	511	511	510	510	510	510	509	509	509	508	508	508	508	508	506	506	506	506	506	506	505	505	505	505	505	505	505	505	505	505	505	505	505	505	505	505	505	504	504	504	504	504	504	504	504	504	504	504	504	504	503	503	503	503	503	502	502	502	502	502	502	502	501	501	501	501	501	500	500	500	500	499	499	498	498	497	497	496	496	496	495	495	494	494	494	494	495	495	495	495	495	495	495	495	494	494	493	493	492	492	491	491	490	490	490	489	488	488	488	488	487	486	485	484	484	483	482	481	480	480	479	479	479	479	478	478	477	477	476	476	477	477	478	478	479	480	480	480	480	481	482	483	483	483	484	484	483	482	482	482	482	482	482	482	483	483	485	486	486	488	489	490	491	493	494	496	498	500	502	503	504	506	507	508	508	508	508	508	508	508	508	507	506	506	505	504	502	502	501	500	500	500	499	499	499	499	499	500	500	500	500	501	502	504	505	507	509	511	512	513	515	515	516	518	519	520	520	521	522	522	522	522	522	523	523	523	523	524	524	524	525	525	526	526	527	528	530	530	531	532	534	535	537	539	540	542	544	545	548	549	549	550	551	552	552	552	552	552	551	550	550	550	549	548	547	546	544	543	542	539	538	536	534	534	534	272	266	266	266	145	0	250	264	264	20	0	0	0	107	271	271	271	271	271	271	270	270	270	270	270	270	270	489	540	540	326	346	538	538	467	268	268	268	268	268	269	269	463	540	541	163	102	543	542	542	542	184	0	0	0	74	559	559	559	560	560	560	560	562	563	564	564	564	564	563	563	562	413	275	0	0	0	0	0	0	0	0	0	0	0	0	0	0	0	0	0	0	0	0	0	0	0	0	0	0	0	0	0	0	0	0	0	0	0	0	0	0	0	0	0	0	0	0	0	454	758	1238	1240	1242	1244	1248	1250	1250	1250	1250	1250	1250	1251	1254	1254	1254	1254	1249	1247	1244	1239	1235	1232	1228	1226	1220	1217	1213	1205	1202	1199	1193	1193	1193	1190	1188	1187	1187	1187	1187	1187	1187	1187	1187	1186	1184	1182	1181	1179	1176	1174	1171	1166	1163	1160	1157	1153	1146	1142	1139	1136	1131	1128	1123	1119	1116	1113	1109	1106	1103	1099	1095	1088	1087	1085	1082	1076	1073	1070	1060	1055	1052	1048	1047	1047	1050	1052	1050	692	435	0	0	0	0	0	0	0	0	0	0	0	73	772	772	743	388	609	779	780	781	782	784	784	784	786	787	788	786	785	784	783	782	782	777	776	774	771	769	767	764	763	762	758	755	751	747	744	741	739	738	736	733	731	729	729	495	0	0	0	0	0	0	0	0	0	0	0	0	0	0	109	483	483	485	490	490	491	492	494	581	1001	1002	1003	1005	1010	1014	1020	1023	1026	1030	1032	1034	1034	1036	1038	1038	1041	1043	1043	1043	1043	1045	1046	1048	1050	1051	1052	1054	1054	1054	1056	1057	1058	1060	1060	1060	1065	1066	1066	1069	1072	1074	1077	1078	1079	1083	1085	1088	1095	1098	1103	1107	1110	1113	1117	1119	1120	1120	1120	1118	1114	1110	1103	1095	1091	1084	1076	1071	1061	1054	1049	1038	1029
515	515	515	515	515	515	515	515	516	516	516	516	516	516	516	516	516	516	516	516	516	516	516	516	516	516	516	517	517	517	517	517	517	517	517	517	516	516	516	515	515	515	514	514	514	514	513	513	512	512	512	512	512	512	512	511	511	511	511	511	510	510	510	509	509	509	509	508	508	508	508	508	506	506	506	506	506	506	505	505	505	505	505	505	505	505	505	505	505	505	505	505	505	505	505	504	504	504	504	504	504	504	504	504	503	503	503	503	503	503	503	503	503	503	502	502	502	502	502	502	502	502	502	501	501	501	500	500	499	499	499	498	497	497	496	495	495	494	493	493	492	492	492	492	493	493	493	493	493	493	493	493	492	491	491	491	490	490	489	489	489	489	488	488	487	487	487	486	485	484	483	483	482	481	480	479	478	478	477	477	477	477	476	476	475	475	475	475	475	475	475	476	477	478	479	479	479	480	481	482	482	482	483	483	483	482	482	482	482	482	482	482	483	483	485	486	486	488	489	490	491	493	495	497	499	500	503	504	505	508	509	509	509	510	510	510	510	510	510	509	509	508	507	506	504	504	504	502	501	501	501	501	501	501	501	501	502	502	502	503	503	504	506	507	509	511	512	513	515	515	516	518	518	519	520	520	521	521	521	521	521	521	522	522	523	524	524	524	525	526	526	526	527	528	530	531	531	533	535	536	538	540	542	544	546	547	549	550	550	551	552	553	553	553	553	553	552	551	551	550	550	549	548	548	545	544	543	540	538	537	535	535	535	10	0	0	0	0	0	0	0	0	0	0	0	0	215	542	542	542	542	542	542	541	541	541	541	541	541	541	540	540	540	540	539	538	538	538	537	537	537	537	537	537	538	538	539	541	163	102	543	542	542	542	184	0	0	0	74	558	558	558	559	560	560	560	562	563	564	564	564	564	563	563	563	266	0	0	0	0	0	0	0	0	0	0	0	0	0	0	0	0	0	0	0	0	0	0	0	0	0	0	0	0	0	0	0	0	0	0	0	0	0	0	0	0	0	0	0	0	0	0	909	1235	1235	1239	1242	1247	1251	1253	1253	1253	1253	1253	1253	1254	1260	1260	1260	1260	1256	1252	1247	1243	1240	1235	1231	1229	1223	1220	1216	1205	1202	1199	1193	1193	1193	1193	1190	1187	1187	1187	1187	1187	1187	1187	1187	1185	1182	1182	1179	1176	1176	1174	1171	1166	1163	1160	1155	1150	1144	1139	1136	1133	1129	1125	1118	1114	1111	1108	1104	1101	1098	1094	1090	1084	1084	1083	1079	1075	1072	1065	1058	1055	1052	1048	1047	1047	1050	1052	1052	337	0	0	0	0	0	0	0	0	0	0	0	0	73	771	771	771	776	777	778	780	782	783	785	785	785	788	789	790	788	787	785	785	784	783	778	777	776	771	770	768	766	765	764	759	756	752	748	745	741	739	738	736	733	731	728	728	494	0	0	0	0	0	0	0	0	0	0	0	0	0	0	0	0	0	0	0	0	0	0	0	172	1013	1013	1013	1013	1018	1022	1026	1028	1030	1034	1036	1038	1038	1038	1038	1038	1041	1043	1043	1043	1043	1043	1043	1043	1047	1047	1047	1052	1052	1052	1052	1052	1052	1056	1056	1056	1061	1061	1061	1065	1067	1070	1070	1072	1074	1078	1081	1084	1087	1092	1098	1102	1105	1108	1112	1115	1118	1118	1118	1118	1114	1110	1103	1095	1091	1084	1076	1071	1061	1054	1049	1038	1029
515	515	515	515	515	515	515	515	515	515	516	516	516	516	516	516	516	516	516	516	516	515	515	515	515	516	516	516	515	515	515	516	516	516	516	516	515	515	515	514	514	514	514	514	514	513	512	512	512	512	512	512	511	511	511	511	511	510	510	510	509	509	509	509	508	508	508	508	508	508	508	508	506	506	506	506	506	506	506	505	505	505	505	505	505	505	505	505	505	505	505	505	505	505	505	504	504	504	504	504	504	504	504	504	503	503	503	503	503	503	503	503	503	503	503	503	503	503	503	503	502	502	502	502	502	501	501	500	499	499	499	498	497	496	494	493	493	491	490	490	489	489	489	489	489	489	489	489	489	489	489	489	489	489	489	488	487	487	487	486	486	485	485	485	484	483	483	482	481	481	480	480	479	477	477	476	475	475	475	475	475	474	474	474	473	472	472	472	473	473	473	474	474	475	476	476	477	479	479	480	481	481	482	482	482	482	482	482	482	482	482	482	483	483	485	486	486	488	489	491	493	494	496	498	501	502	504	507	508	510	511	511	513	513	513	514	514	514	513	512	512	511	510	510	509	507	506	505	505	505	504	504	504	504	504	503	503	503	504	504	504	504	506	507	509	511	511	512	513	513	514	516	517	518	518	519	520	520	520	520	521	521	522	522	523	524	524	524	525	526	526	526	528	529	530	532	533	534	536	538	540	541	543	545	547	548	550	552	553	553	554	554	554	554	554	554	554	554	553	552	551	551	550	549	547	547	537	0	0	0	0	0	0	0	0	0	0	0	0	0	0	0	0	0	0	0	215	542	542	542	541	541	541	541	541	541	541	540	540	540	540	540	540	540	540	540	538	538	537	537	537	537	537	537	537	538	426	0	0	0	0	370	544	544	185	0	0	356	555	555	556	556	558	559	559	560	562	563	564	565	565	565	565	544	0	0	0	0	0	0	0	0	0	0	0	0	0	0	0	0	0	0	0	0	0	0	0	0	0	0	0	0	0	0	0	0	0	0	0	0	0	0	0	0	0	0	0	0	0	0	0	0	909	1235	1235	1239	1242	1247	1251	1254	1260	1260	1261	1266	1266	1266	1266	1266	1266	1266	1266	1265	1260	1252	1247	1247	1240	1235	1229	1226	1222	1211	1208	1205	1199	1196	1193	1193	1190	1187	1187	1187	1187	1187	1187	1187	1187	1185	1182	1182	1179	1176	1171	1169	1165	1160	1158	1154	1150	1145	1138	1134	1129	1123	1119	1116	1113	1109	1105	1098	1094	1091	1088	1085	1083	1079	1079	1079	1079	1075	1072	1065	1065	1064	1061	1057	1056	1056	1059	861	0	0	0	0	0	0	0	0	0	0	0	0	0	0	73	771	771	771	776	777	778	780	780	780	783	784	785	785	787	788	788	788	788	785	784	783	780	779	778	776	774	771	768	766	764	759	757	754	749	745	741	739	738	736	733	731	728	728	494	0	0	0	0	0	0	0	0	0	0	0	0	0	0	0	0	0	0	0	0	0	0	0	175	1030	1027	1026	1026	1029	1031	1034	1036	1038	1038	1041	1043	1043	1043	1043	1043	1043	1043	1043	1043	1043	1043	1043	1043	1043	1045	1047	1047	1047	1047	1047	1049	1052	1052	1052	1052	1052	1054	1056	1061	1061	1061	1065	1065	1065	1069	1072	1074	1078	1082	1088	1092	1096	1103	1107	1108	1108	1112	1111	1108	1108	1105	1098	1094	1091	1084	1076	1071	1061	1054	1048	1034	1028
515	515	515	515	515	515	515	515	515	515	516	516	516	516	516	516	516	516	516	516	515	515	515	515	515	515	516	516	515	515	515	515	516	516	516	515	514	514	514	514	514	514	514	514	513	512	512	512	512	512	512	512	511	511	511	511	510	510	510	509	509	509	509	508	508	508	508	508	508	508	508	508	507	506	506	506	506	506	506	505	505	505	505	505	505	505	505	505	505	505	505	505	505	505	504	504	504	504	504	504	504	504	504	503	503	503	503	503	503	503	503	503	503	503	503	503	503	503	503	503	503	502	502	502	502	502	501	501	500	499	499	498	496	495	494	492	492	490	489	489	488	487	487	487	487	486	486	486	486	486	486	486	486	486	486	486	485	485	485	484	484	484	483	483	482	482	481	480	479	479	478	478	477	476	476	475	474	474	474	474	474	473	473	472	472	471	471	471	472	472	472	473	474	474	475	476	476	478	478	480	481	481	482	482	482	482	482	482	482	482	482	482	483	484	485	486	487	488	490	491	493	495	497	499	502	503	506	508	509	511	512	512	514	514	515	515	515	515	514	514	513	512	512	512	510	509	508	507	506	506	504	504	504	504	504	503	503	503	504	504	504	504	507	508	509	510	511	512	512	513	514	515	516	516	517	517	518	518	519	519	520	520	521	521	522	522	523	523	524	526	526	526	528	529	530	532	533	534	537	538	540	542	544	546	548	549	550	552	553	554	554	554	554	554	554	554	554	554	554	553	552	552	551	549	548	403	268	0	0	0	0	0	0	0	0	0	0	0	0	0	0	0	0	0	0	0	215	542	542	542	541	541	540	540	540	540	540	540	540	540	540	540	540	540	540	540	538	538	538	538	538	538	537	537	537	539	484	271	271	272	272	457	544	544	365	273	274	452	552	553	554	555	556	557	558	559	560	561	562	563	564	565	410	272	0	0	0	0	0	0	0	0	0	0	0	0	0	0	0	0	0	0	0	0	0	0	0	0	0	0	0	0	0	0	0	0	0	0	0	0	0	0	0	0	0	0	0	0	0	459	608	608	1070	1235	1235	1239	1243	1250	1255	1258	1263	1265	1267	1270	1270	1270	1272	1272	1272	1272	1272	1271	1263	1257	1253	1250	1243	1238	1232	1229	1225	1214	1211	1208	1202	1199	1196	1193	1191	1190	1187	1187	1187	1185	1184	1184	1184	1183	1182	1179	1178	1176	1171	1169	1165	1160	1157	1152	1147	1142	1136	1131	1127	1120	1116	1113	1108	1104	1101	1096	1090	1087	1084	1080	1078	1076	1076	1077	1079	1075	1072	1068	1068	1066	1063	1061	950	528	530	430	0	0	0	0	0	0	0	0	0	0	0	44	386	386	422	771	771	771	776	777	777	779	780	780	783	784	785	785	786	786	786	786	786	785	784	783	780	780	779	777	775	772	770	768	766	762	760	756	750	747	744	741	740	740	739	736	731	731	497	0	0	0	0	0	0	0	0	0	0	0	0	0	408	553	549	547	545	540	538	537	535	532	616	1036	1035	1034	1034	1036	1037	1038	1040	1040	1040	1042	1043	1043	1043	1043	1043	1043	1043	1043	1043	1043	1043	1043	1043	1043	1044	1045	1045	1045	1045	1045	1047	1050	1050	1050	1050	1050	1050	1052	1056	1057	1058	1060	1061	1063	1065	1068	1072	1074	1078	1084	1088	1092	1098	1102	1103	1103	1107	1107	1106	1104	1100	1093	1090	1087	1082	1074	1069	1058	1052	1046	1034	1026
515	515	515	515	515	515	515	515	515	515	515	515	516	516	516	516	516	516	516	515	515	515	515	515	515	515	515	515	515	515	515	515	515	515	515	515	514	514	514	514	514	514	513	513	513	512	512	512	512	511	511	511	511	511	511	510	510	510	509	509	509	509	509	508	508	508	508	508	508	508	508	508	508	507	506	506	506	506	506	505	505	505	505	505	505	505	505	505	505	505	505	505	505	504	504	504	504	504	504	503	503	503	503	503	503	503	503	503	503	503	503	503	503	503	503	503	503	503	503	503	503	503	503	502	502	502	501	501	500	499	499	497	496	495	493	492	491	489	488	488	486	485	485	485	484	484	484	484	484	484	484	484	484	484	484	483	483	483	483	482	482	482	481	481	480	480	480	478	477	477	476	476	475	475	475	474	473	473	473	473	473	472	471	471	470	470	470	470	471	471	471	472	473	474	475	475	475	477	478	479	481	481	481	482	482	481	481	481	482	483	483	483	484	484	485	486	487	489	490	491	493	496	498	500	503	505	508	509	510	512	513	513	515	516	516	516	517	517	515	515	515	514	514	514	512	511	511	509	507	506	505	505	505	505	504	503	503	503	504	504	504	505	508	508	509	510	510	511	511	512	513	514	514	515	516	516	516	517	517	518	519	519	520	521	521	521	522	523	524	526	527	527	528	529	531	532	533	535	537	539	541	543	545	547	548	549	551	552	553	554	554	554	555	555	555	555	555	555	554	554	554	553	551	550	550	259	0	0	0	0	0	0	0	0	0	0	0	0	0	0	0	0	0	0	0	0	215	543	542	542	541	540	540	540	540	540	540	540	540	540	540	540	540	540	540	540	538	538	538	538	538	538	537	537	537	540	541	542	543	543	543	544	544	544	545	545	547	548	549	551	553	554	555	556	556	558	559	559	561	562	563	565	256	0	0	0	0	0	0	0	0	0	0	0	0	0	0	0	0	0	0	0	0	0	0	0	0	0	0	0	0	0	0	0	0	0	0	0	0	0	0	0	0	0	0	0	0	0	0	918	1217	1217	1230	1235	1235	1239	1243	1253	1258	1261	1266	1271	1273	1273	1273	1274	1279	1279	1279	1279	1279	1278	1266	1262	1259	1253	1246	1241	1235	1232	1228	1217	1214	1211	1205	1202	1199	1193	1193	1193	1187	1187	1187	1182	1182	1182	1182	1182	1182	1176	1176	1176	1171	1169	1165	1160	1156	1149	1145	1140	1133	1129	1124	1118	1114	1110	1103	1099	1096	1093	1086	1082	1079	1075	1074	1074	1074	1075	1079	1075	1073	1070	1070	1069	1065	1065	844	0	0	0	0	0	0	0	0	0	0	0	0	0	0	87	771	771	771	771	771	771	776	776	776	778	779	780	783	784	785	785	785	785	785	785	785	785	784	783	780	780	780	778	776	773	771	770	768	764	762	759	751	749	748	744	743	743	745	741	734	734	499	0	0	0	0	0	0	0	0	0	0	0	0	0	815	1106	1098	1094	1090	1079	1076	1073	1070	1064	1058	1043	1043	1043	1043	1043	1043	1043	1043	1043	1043	1043	1043	1043	1043	1043	1043	1043	1043	1043	1043	1043	1043	1043	1043	1043	1043	1043	1043	1043	1043	1043	1045	1047	1047	1047	1047	1047	1047	1047	1052	1054	1056	1056	1058	1061	1061	1064	1070	1070	1073	1079	1083	1087	1093	1097	1098	1098	1102	1103	1103	1099	1095	1088	1085	1083	1079	1072	1067	1056	1049	1044	1034	1025
515	514	514	514	515	515	515	515	515	515	515	515	516	516	516	516	516	516	515	515	515	515	515	515	515	514	514	514	513	513	513	513	513	513	514	514	513	513	513	513	513	513	513	512	512	512	512	512	511	511	511	511	510	510	510	510	510	509	509	509	509	509	509	508	508	508	508	508	508	508	508	508	508	508	508	508	507	506	506	506	506	506	506	506	506	506	506	505	505	505	505	505	504	504	504	504	503	503	503	503	503	503	503	503	503	503	503	503	503	503	503	503	503	503	503	503	503	503	503	503	503	503	503	502	502	502	501	501	500	499	499	497	496	495	493	491	490	488	487	486	484	483	482	481	480	480	480	480	480	480	480	480	480	480	480	480	480	480	480	479	479	478	478	478	477	476	476	475	475	475	474	474	473	472	472	471	470	470	470	469	469	469	468	468	468	467	467	467	468	468	468	469	470	472	473	473	474	475	476	477	479	480	481	482	482	481	481	481	482	483	483	484	485	485	487	488	489	490	492	494	496	498	500	502	505	507	510	511	512	514	515	516	517	518	519	519	519	519	518	518	518	516	515	515	514	513	513	510	510	510	508	507	505	505	505	505	504	504	504	504	504	505	508	508	508	509	509	509	510	510	511	511	511	512	513	513	514	514	514	515	517	517	518	519	519	519	521	522	524	526	526	528	529	531	533	534	535	537	540	541	543	544	546	548	549	549	551	552	553	554	554	554	554	555	555	555	555	555	555	554	554	553	553	532	0	0	0	0	0	0	0	0	0	0	0	0	0	0	0	0	0	0	0	0	0	0	215	543	542	542	541	540	540	540	540	540	540	540	540	540	540	540	540	540	540	540	538	538	538	538	538	538	539	540	540	541	541	542	543	543	543	544	544	544	544	544	545	547	548	549	550	551	553	554	554	555	557	559	561	562	531	0	0	0	0	0	0	0	0	0	0	0	0	0	0	0	0	0	0	0	0	0	0	0	0	0	0	0	0	0	0	0	0	0	0	0	0	0	0	0	0	0	0	0	0	0	914	1182	1182	1195	1203	1217	1226	1232	1241	1245	1250	1260	1264	1267	1273	1277	1280	1286	1286	1287	1293	1293	1293	1293	1289	1285	1279	1275	1272	1260	1252	1247	1241	1234	1229	1223	1216	1211	1205	1202	1199	1193	1193	1193	1187	1187	1187	1182	1182	1182	1182	1179	1176	1176	1174	1171	1165	1163	1160	1155	1150	1144	1139	1134	1128	1119	1116	1113	1105	1101	1098	1094	1090	1084	1080	1077	1074	1071	1070	1070	1070	1071	1074	1078	1078	1074	1074	1074	1074	1084	862	0	0	0	0	0	0	0	0	0	0	0	0	0	0	87	771	771	771	771	771	771	776	776	776	778	778	778	780	782	783	783	784	785	785	785	785	783	783	783	780	780	780	778	777	776	773	772	771	768	767	766	762	761	761	765	767	768	765	764	764	130	0	0	0	0	0	0	0	0	880	1137	1133	1129	1127	1123	1112	1106	1098	1094	1090	1079	1076	1073	1070	1064	1060	1056	1056	1055	1052	1052	1051	1047	1047	1047	1047	1045	1043	1043	1043	1043	1043	1043	1043	1043	1043	1043	1043	1043	1043	1043	1043	1043	1043	1043	1043	1043	1043	1043	1043	1043	1043	1043	1043	1043	1047	1047	1047	1052	1052	1052	1056	1058	1061	1061	1064	1070	1073	1076	1079	1083	1085	1088	1092	1091	1088	1088	1088	1088	1077	1073	1070	1063	1059	1052	1045	1041	1034	1025
514	514	514	514	514	515	515	515	515	515	515	515	516	516	516	516	516	515	515	515	515	515	515	514	514	514	514	514	513	513	513	513	513	513	513	513	513	513	512	512	512	512	512	512	512	512	512	511	510	510	510	510	510	510	510	510	509	509	509	509	509	509	508	508	508	508	508	508	508	508	508	508	508	508	508	508	507	506	506	506	506	506	506	506	506	506	505	505	505	504	504	504	504	504	504	504	503	503	502	502	502	502	502	502	502	502	502	502	502	502	502	502	502	502	502	502	502	502	502	502	502	502	502	502	502	502	501	501	500	499	499	498	496	495	493	491	490	488	486	485	483	482	481	480	479	479	478	478	479	479	479	479	479	479	479	480	479	479	479	478	478	477	477	476	476	476	475	474	474	474	473	473	472	471	471	470	469	469	469	468	468	468	468	467	467	467	466	466	467	468	468	468	469	471	472	473	474	475	476	477	479	480	481	482	482	482	482	482	482	484	484	485	486	487	488	489	490	491	493	495	497	499	501	504	506	508	511	512	513	516	516	517	518	519	520	520	520	519	519	518	518	517	516	516	515	514	513	510	510	510	508	507	506	506	506	506	505	505	504	504	505	506	508	508	508	508	508	508	508	508	508	509	510	510	511	511	512	513	513	514	516	516	518	519	519	519	521	522	523	525	526	528	529	531	533	534	535	537	540	541	543	544	546	548	549	549	551	552	553	554	554	554	554	555	555	556	555	555	555	554	554	554	554	533	0	0	0	0	0	0	0	0	0	0	0	0	0	0	0	0	0	0	0	0	0	0	108	272	271	271	270	504	540	540	539	539	539	540	540	540	540	540	540	540	540	540	539	468	269	269	335	539	540	540	540	541	541	542	543	544	544	544	544	544	544	544	545	547	548	549	550	551	552	553	554	555	394	280	280	281	266	0	0	0	0	0	0	0	0	0	0	0	0	0	0	0	0	0	0	523	554	554	549	548	546	544	544	544	62	204	540	540	346	0	0	0	0	0	0	0	0	0	0	451	569	569	1032	1171	1179	1192	1200	1214	1223	1229	1241	1245	1250	1260	1267	1271	1276	1283	1287	1292	1292	1294	1300	1300	1299	1296	1292	1289	1282	1277	1272	1263	1255	1249	1241	1234	1229	1223	1216	1211	1205	1202	1199	1193	1191	1190	1187	1186	1184	1182	1181	1179	1179	1177	1174	1174	1171	1168	1163	1160	1157	1152	1147	1141	1136	1131	1123	1116	1113	1108	1102	1099	1096	1090	1086	1082	1076	1073	1070	1068	1068	1068	1068	1069	1074	1078	1078	1076	1076	1077	1079	1085	862	0	0	0	0	0	0	0	0	0	0	0	0	0	0	87	771	771	771	772	772	772	776	776	776	778	778	778	780	782	783	783	784	784	784	784	784	783	783	783	780	780	780	779	778	777	776	775	774	773	773	773	772	772	773	779	782	787	795	656	382	65	0	0	0	0	0	455	574	572	1008	1134	1130	1127	1124	1120	1111	1106	1100	1097	1093	1084	1080	1078	1074	1070	1066	1060	1059	1058	1054	1054	1053	1050	1050	1049	1047	1046	1045	1045	1045	1045	1045	1044	1043	1043	1043	1043	1043	1043	1043	1040	1040	1040	1040	1040	1040	1039	1038	1038	1038	1039	1040	1040	1040	1040	1042	1044	1045	1047	1048	1048	1051	1053	1056	1056	1059	1063	1067	1069	1072	1076	1078	1081	1083	1083	1081	1081	1080	1079	1072	1068	1066	1059	1055	1050	1043	1039	1032	1024
514	514	514	514	514	515	515	515	515	515	515	515	515	515	515	516	515	515	515	515	515	515	514	514	513	513	513	513	513	513	513	513	513	513	513	513	513	512	512	512	512	512	512	512	512	512	511	511	510	510	510	510	510	510	510	509	509	509	509	509	509	508	508	508	508	508	508	508	508	508	508	508	508	508	508	508	507	506	506	506	506	506	506	506	506	505	505	505	504	504	504	504	504	504	504	503	503	503	502	502	502	502	502	502	502	502	502	502	502	502	502	502	502	502	502	502	502	502	502	502	502	502	502	502	502	501	501	501	500	499	499	498	497	495	493	491	490	488	486	484	482	481	481	479	478	478	477	477	477	478	478	478	478	478	478	479	478	478	478	477	477	476	475	475	475	475	475	474	473	473	472	472	471	470	470	469	468	468	468	467	467	467	467	467	466	466	466	466	467	467	467	468	469	470	472	473	474	475	476	477	479	480	481	482	482	482	482	482	483	485	485	486	487	488	489	490	491	492	494	496	498	500	502	505	508	509	512	513	514	517	518	518	519	520	520	521	520	520	520	519	518	518	517	517	516	515	514	510	510	510	508	508	508	506	506	506	506	506	505	505	505	506	508	508	508	508	508	508	506	506	506	508	508	509	509	509	510	512	512	513	515	516	517	519	519	519	521	521	522	525	526	528	529	531	533	534	535	537	540	541	543	544	546	548	549	549	551	552	553	554	554	554	554	555	555	556	555	555	555	554	554	554	554	533	0	0	0	0	0	0	0	0	0	0	0	0	0	0	0	0	0	0	0	0	0	0	0	0	0	0	0	469	540	540	538	538	538	540	540	540	540	540	540	540	540	540	540	397	0	0	132	540	540	540	541	541	541	542	543	544	544	544	544	544	544	544	545	547	548	549	550	550	551	552	553	555	230	0	0	0	0	0	0	0	0	0	0	0	0	0	0	0	0	0	0	0	0	0	0	1045	1108	1108	1099	1096	1093	1088	1088	1088	123	407	1079	1079	692	0	0	0	0	0	0	0	0	0	0	902	1138	1138	1150	1160	1176	1189	1197	1211	1220	1227	1241	1245	1250	1260	1269	1274	1279	1289	1294	1299	1299	1300	1306	1306	1305	1299	1295	1292	1286	1278	1272	1266	1258	1252	1241	1234	1229	1223	1216	1211	1205	1202	1199	1193	1190	1187	1187	1185	1182	1182	1179	1176	1176	1174	1171	1171	1168	1165	1160	1158	1154	1149	1145	1138	1134	1127	1118	1114	1109	1103	1099	1096	1093	1086	1082	1079	1072	1068	1065	1065	1065	1065	1065	1067	1074	1078	1079	1079	1079	1080	1084	1087	862	0	0	0	0	0	0	0	0	0	0	0	0	0	0	87	771	771	771	773	773	773	776	776	776	778	778	778	780	782	783	783	783	783	783	783	783	783	783	783	780	780	780	780	779	778	778	778	778	778	779	780	783	784	785	792	798	806	826	548	0	0	0	0	0	0	0	911	1148	1144	1135	1132	1128	1124	1122	1118	1111	1107	1103	1099	1096	1088	1085	1083	1079	1076	1072	1065	1062	1060	1056	1056	1055	1052	1052	1051	1047	1047	1047	1047	1047	1047	1047	1045	1043	1043	1043	1043	1043	1043	1043	1038	1038	1038	1038	1038	1038	1034	1034	1034	1034	1036	1038	1038	1038	1038	1038	1040	1043	1043	1043	1043	1047	1049	1052	1052	1053	1056	1060	1062	1065	1069	1071	1074	1074	1074	1074	1074	1073	1070	1066	1064	1061	1054	1051	1047	1040	1036	1030	1024
514	513	513	513	514	514	514	515	515	515	515	515	515	515	515	516	515	515	515	515	515	514	513	513	513	513	513	512	511	511	511	511	511	511	511	511	511	511	511	511	511	511	511	511	511	511	510	510	510	510	510	510	510	510	509	509	509	509	509	509	508	508	508	508	508	508	508	508	508	508	508	508	508	508	508	508	508	508	506	506	506	506	506	506	505	505	505	505	504	504	504	504	504	503	503	503	502	502	502	501	501	501	501	501	501	501	501	501	501	501	501	501	501	501	501	501	501	501	501	501	501	501	501	501	501	501	501	501	500	499	499	498	497	495	493	491	490	488	486	484	482	481	481	479	478	477	476	476	476	476	476	476	476	477	477	478	477	477	477	476	476	475	475	475	474	473	473	472	471	471	470	470	469	468	468	467	467	467	466	466	466	466	466	466	465	465	465	465	466	466	466	468	469	470	472	473	474	475	476	478	480	480	481	483	483	484	484	485	486	487	487	488	489	489	490	492	493	495	496	498	500	503	505	509	511	512	515	516	517	519	520	521	522	523	524	524	523	522	521	520	520	519	518	518	516	515	514	512	512	512	511	511	510	509	509	508	508	508	508	508	507	506	505	505	505	505	505	505	504	504	504	505	505	506	506	507	508	509	510	512	514	515	516	518	519	519	521	521	522	525	526	528	529	531	533	534	536	540	541	542	544	546	548	550	551	551	554	554	554	555	555	555	556	557	558	558	558	558	558	559	559	559	253	0	0	0	0	0	0	0	0	0	0	0	0	0	0	0	0	527	558	556	554	553	551	548	547	545	542	542	542	541	541	540	538	538	538	540	540	540	540	540	540	540	540	540	540	540	540	540	540	540	541	541	541	541	541	542	543	544	544	544	544	544	545	545	545	547	548	549	550	550	551	552	501	0	0	0	0	0	0	0	0	0	0	0	0	0	0	0	1160	1160	1160	1149	1149	1149	1134	1128	1123	1109	1106	1103	1098	1096	1093	1088	1086	1084	1084	1080	1074	1074	1073	1070	1070	1071	1074	1074	1077	1084	1087	1091	1098	1110	1119	1133	1145	1155	1171	1179	1188	1205	1218	1227	1241	1250	1256	1266	1275	1282	1293	1297	1300	1306	1306	1307	1313	1313	1312	1306	1302	1298	1293	1285	1278	1266	1258	1252	1241	1234	1228	1217	1214	1211	1205	1199	1193	1193	1190	1187	1182	1182	1182	1176	1176	1176	1176	1174	1171	1165	1163	1160	1150	1149	1149	1144	1140	1133	1124	1121	1118	1105	1101	1098	1094	1090	1084	1080	1076	1070	1066	1064	1061	1057	1056	1056	1060	1064	1074	1082	1086	1093	1093	1092	1088	1088	862	0	0	0	0	0	0	0	0	0	0	0	0	0	0	88	773	773	773	776	776	776	776	776	776	778	779	780	780	782	783	783	783	783	783	783	783	783	783	783	780	780	780	780	780	780	783	785	788	793	796	801	805	811	819	831	841	856	881	924	997	997	1025	1084	1084	1102	1144	1144	1142	1138	1130	1127	1123	1119	1116	1108	1104	1101	1093	1089	1087	1084	1081	1078	1074	1071	1069	1065	1065	1064	1061	1058	1056	1056	1056	1056	1052	1049	1047	1047	1047	1047	1047	1045	1043	1043	1043	1043	1038	1038	1038	1038	1036	1034	1034	1034	1034	1034	1032	1030	1030	1030	1030	1030	1032	1034	1034	1036	1038	1038	1038	1038	1042	1043	1043	1046	1047	1047	1051	1053	1056	1056	1058	1061	1057	1056	1056	1056	1056	1056	1053	1051	1047	1044	1043	1043	1039	1036	1030	1024
513	513	513	513	514	514	514	515	515	515	515	515	515	515	516	516	516	515	515	515	515	514	513	513	512	512	512	512	511	510	510	510	510	510	510	510	510	510	510	510	510	510	510	510	510	510	510	510	510	510	510	510	510	509	509	509	509	509	509	509	508	508	508	508	508	508	508	508	508	508	508	508	508	508	508	508	508	508	507	506	506	506	506	505	505	505	505	504	504	504	504	504	504	503	503	502	502	502	502	501	501	500	500	500	500	500	500	500	500	500	500	500	500	500	500	500	500	500	500	500	500	500	500	500	501	500	500	500	500	499	499	498	497	495	494	491	490	488	486	485	482	481	481	479	478	477	476	476	476	476	476	476	476	477	477	478	477	477	477	476	475	475	475	474	474	473	472	472	471	470	470	469	468	468	467	466	466	466	466	466	466	466	466	465	465	465	465	465	465	466	466	468	469	470	472	473	474	475	476	478	480	481	482	484	484	485	485	485	486	488	488	489	490	490	492	494	495	497	498	500	502	505	507	510	513	514	516	518	519	520	522	523	524	525	525	525	524	523	522	522	521	519	518	518	516	516	515	513	513	512	512	511	511	510	510	509	509	508	508	507	507	506	505	505	505	504	504	504	504	504	504	504	505	506	506	506	508	509	510	512	514	515	516	518	519	519	521	522	523	525	526	528	530	531	534	537	538	542	544	545	546	548	549	552	552	553	554	554	555	556	556	556	557	558	558	558	558	559	560	401	280	280	127	0	0	0	0	0	0	0	0	0	0	276	282	282	281	280	280	543	558	556	554	553	551	548	547	545	542	542	542	541	541	540	539	539	539	540	540	540	540	540	540	540	540	540	540	540	540	540	540	540	541	541	541	541	542	542	544	544	544	544	544	544	545	545	546	372	274	274	275	275	276	276	250	0	0	0	0	0	0	0	0	0	0	0	0	0	300	588	1160	1160	1160	1149	1149	1149	1134	1128	1123	1111	1107	1103	1098	1096	1093	1088	1086	1084	1084	1080	1074	1074	1073	1070	1070	1071	1072	1074	1076	1082	1087	1090	1096	1107	1116	1130	1143	1152	1166	1176	1185	1202	1215	1224	1238	1249	1256	1270	1279	1285	1296	1300	1304	1313	1313	1313	1313	1313	1313	1310	1303	1298	1290	1283	1277	1263	1255	1249	1238	1230	1222	1214	1211	1208	1199	1194	1190	1190	1187	1184	1179	1179	1179	1174	1174	1174	1171	1168	1166	1163	1160	1157	1147	1145	1144	1139	1135	1130	1122	1118	1113	1104	1100	1096	1090	1086	1082	1077	1074	1068	1064	1062	1058	1057	1056	1056	1060	1064	1074	1083	1088	1093	1093	1094	1096	1097	988	566	171	0	0	0	0	0	0	0	0	0	0	0	0	88	776	776	776	777	777	777	777	778	778	779	780	780	782	782	783	783	783	783	783	783	783	783	783	783	782	782	782	782	782	782	786	790	794	801	806	812	821	828	839	895	907	914	941	963	997	997	1025	1084	1084	1100	1138	1140	1139	1136	1128	1124	1118	1114	1111	1106	1102	1099	1093	1089	1087	1082	1078	1076	1074	1071	1069	1065	1064	1063	1061	1058	1056	1056	1055	1054	1052	1050	1049	1047	1047	1047	1047	1045	1043	1043	1042	1040	1038	1037	1036	1036	1035	1034	1032	1031	1030	1030	1029	1028	1028	1028	1028	1028	1029	1030	1032	1033	1034	1036	1036	1036	1038	1039	1040	1042	1042	1042	1045	1047	1050	1050	1050	1052	1050	1050	1050	1050	1050	1050	1048	1046	1042	1041	1040	1038	1037	1035	1030	1025
513	513	513	513	513	514	514	515	515	515	515	515	515	516	516	516	516	516	515	515	515	514	513	513	512	511	511	511	510	510	510	510	510	510	510	510	510	510	510	510	510	510	510	510	510	510	510	510	509	509	509	509	509	509	509	509	509	509	509	509	508	508	508	508	508	508	508	508	508	509	509	509	508	508	508	508	508	508	508	507	506	506	505	505	505	505	505	504	504	504	504	504	503	503	503	502	502	502	501	501	501	500	500	500	500	500	500	500	500	500	500	500	500	499	499	499	499	500	500	500	500	500	500	500	500	500	500	500	499	499	499	498	497	496	494	492	491	489	487	485	483	482	481	479	478	477	476	476	476	476	476	476	476	477	477	478	477	477	477	476	475	475	474	474	473	472	472	471	470	470	469	469	468	467	467	466	466	466	466	465	465	465	465	465	465	465	465	465	465	465	466	468	469	471	473	473	474	476	477	479	481	482	483	485	485	486	486	486	487	489	489	490	491	492	494	495	497	499	500	502	504	507	510	512	515	516	518	519	520	522	523	524	526	526	526	526	525	525	524	523	522	519	518	518	517	516	516	514	513	513	512	512	512	511	511	510	509	509	508	506	506	506	505	505	505	503	503	503	504	504	504	504	504	505	505	506	508	509	510	511	513	515	516	518	519	519	521	522	524	526	526	527	530	532	535	539	541	544	546	547	549	550	551	553	554	554	554	555	555	556	556	556	558	559	559	559	559	559	561	243	0	0	0	0	0	0	0	0	0	0	0	0	0	552	563	563	561	561	560	559	558	556	554	553	551	548	547	545	542	542	542	541	541	540	540	540	540	540	540	540	540	540	540	540	540	541	540	540	540	540	540	540	541	541	541	542	542	543	544	545	545	545	545	545	545	545	547	196	0	0	0	0	0	0	0	0	0	0	0	0	0	0	0	0	0	0	0	0	599	1176	1160	1160	1160	1149	1149	1149	1134	1128	1123	1114	1109	1103	1098	1096	1093	1088	1086	1084	1084	1080	1074	1074	1073	1070	1070	1070	1070	1073	1076	1079	1086	1090	1093	1105	1114	1128	1140	1148	1160	1172	1182	1199	1212	1221	1235	1248	1257	1273	1282	1288	1299	1304	1308	1320	1320	1319	1313	1313	1313	1313	1304	1298	1286	1282	1277	1260	1252	1246	1235	1225	1217	1211	1208	1205	1193	1190	1187	1187	1184	1182	1176	1176	1176	1171	1171	1171	1165	1163	1160	1160	1157	1154	1145	1142	1138	1133	1131	1128	1119	1114	1108	1104	1099	1093	1085	1082	1079	1075	1071	1065	1062	1059	1056	1056	1056	1056	1060	1064	1074	1085	1089	1093	1093	1095	1103	1107	1113	1133	342	0	0	0	0	0	0	0	0	0	0	0	0	88	778	778	778	778	778	778	778	779	780	780	780	780	783	783	783	783	783	783	783	783	783	783	783	783	783	783	783	783	783	783	789	795	801	810	816	824	836	846	859	958	973	973	1000	1002	997	997	1025	1084	1084	1099	1133	1137	1137	1133	1125	1120	1113	1109	1107	1103	1099	1097	1093	1089	1086	1079	1076	1074	1074	1071	1069	1065	1062	1061	1061	1058	1056	1056	1054	1052	1052	1052	1052	1047	1047	1047	1047	1045	1043	1043	1040	1038	1038	1036	1034	1034	1034	1034	1030	1028	1026	1026	1026	1026	1026	1026	1026	1026	1026	1026	1030	1030	1030	1034	1034	1034	1034	1036	1038	1038	1038	1038	1038	1040	1043	1043	1043	1043	1043	1043	1043	1043	1043	1043	1043	1042	1038	1038	1037	1034	1034	1033	1030	1027
513	513	513	513	513	514	514	515	515	515	515	515	516	516	516	516	516	516	515	514	514	513	512	512	511	510	510	510	510	510	509	509	509	509	509	509	509	509	509	509	509	509	509	509	509	509	509	509	509	509	509	509	509	509	509	509	509	508	508	508	508	508	508	508	508	508	508	509	509	509	509	509	508	508	508	508	508	508	508	507	506	506	505	505	505	505	505	504	504	504	503	503	503	502	502	502	501	501	500	500	500	500	499	499	499	499	499	499	498	498	498	498	498	498	498	498	498	498	498	498	498	498	499	499	499	499	499	499	499	499	499	498	497	496	494	493	491	489	488	486	484	482	481	480	479	478	477	477	477	477	477	477	477	478	478	478	477	477	477	476	475	475	474	474	473	472	471	470	469	469	467	467	466	466	466	465	464	464	464	464	464	464	464	464	464	464	464	465	465	465	466	468	469	472	474	474	475	477	479	481	483	485	486	488	488	489	489	489	490	492	492	494	495	496	498	499	501	503	505	507	510	512	514	517	519	520	522	524	525	526	527	527	528	528	528	527	526	525	524	523	522	520	519	519	518	517	517	516	515	514	513	513	512	510	510	509	508	507	506	505	505	505	505	505	504	503	503	503	504	504	504	504	504	504	505	505	506	508	510	511	513	515	516	518	519	519	521	522	524	526	526	527	529	531	534	537	539	544	546	547	549	550	551	553	554	554	555	556	556	556	557	558	558	559	560	561	561	519	0	0	0	0	0	0	0	0	0	0	0	0	564	564	564	561	561	561	561	560	559	558	557	556	554	553	551	549	547	545	543	543	542	542	542	542	541	541	541	541	541	541	541	541	541	541	541	541	542	542	542	542	542	541	541	541	542	543	430	0	0	0	0	0	0	0	0	0	0	0	0	0	0	0	0	0	0	0	0	0	0	0	0	0	0	0	0	627	1187	1182	1179	1176	1165	1163	1160	1154	1152	1149	1138	1131	1123	1118	1114	1108	1103	1101	1098	1093	1089	1084	1084	1080	1074	1071	1070	1070	1070	1070	1070	1070	1071	1074	1078	1083	1093	1101	1107	1118	1130	1139	1154	1167	1175	1187	1205	1215	1229	1246	1257	1273	1282	1288	1299	1309	1314	1320	1320	1320	1320	1320	1318	1306	1302	1298	1286	1274	1265	1253	1242	1235	1229	1219	1210	1199	1196	1193	1187	1184	1182	1176	1173	1171	1165	1165	1165	1165	1163	1160	1160	1157	1154	1149	1149	1149	1139	1136	1133	1128	1124	1118	1114	1109	1103	1099	1094	1088	1085	1081	1074	1071	1068	1065	1058	1056	1056	1056	1056	1056	1060	1064	1074	1085	1090	1098	1105	1110	1118	1125	1129	1133	342	0	0	0	0	0	0	0	0	0	0	0	0	88	780	780	780	780	780	780	783	783	783	783	783	783	783	783	783	783	783	783	785	785	785	785	784	783	783	784	785	790	792	795	805	813	822	839	851	865	955	966	966	972	973	973	1000	1013	1030	1052	1065	1084	1103	1114	1128	1132	1132	1128	1120	1117	1113	1109	1107	1103	1099	1096	1088	1085	1083	1079	1073	1070	1070	1067	1065	1065	1062	1060	1056	1056	1055	1052	1052	1051	1047	1047	1047	1043	1043	1043	1043	1043	1043	1038	1038	1038	1034	1034	1034	1030	1028	1026	1026	1024	1021	1021	1021	1021	1021	1021	1021	1021	1023	1026	1026	1028	1030	1030	1032	1034	1034	1034	1034	1034	1033	1030	1030	1030	1030	1030	1030	1030	1030	1030	1030	1030	1030	1030	1030	1030	1030	1030	1030	1030	1033	1033	1030	1027
513	513	513	513	513	513	514	514	514	514	515	515	516	516	516	516	516	515	514	514	513	512	512	511	510	510	510	510	509	509	508	508	508	508	508	508	508	508	508	508	508	508	508	508	508	508	508	508	508	508	508	508	509	509	509	509	509	508	508	508	508	508	508	508	508	508	508	508	508	508	508	508	508	508	508	508	508	508	508	507	506	506	505	505	505	505	504	504	504	504	503	503	502	502	502	502	501	501	500	500	500	500	499	499	498	498	498	498	498	497	497	497	497	498	497	497	497	497	497	497	497	498	498	498	498	498	498	498	498	498	498	498	497	496	494	493	492	490	488	487	484	482	481	480	479	478	478	478	478	478	478	478	478	478	478	478	477	477	477	476	475	475	474	474	473	472	471	470	469	469	467	467	466	466	465	464	464	464	464	464	464	464	464	464	464	464	464	465	465	465	466	468	470	472	474	475	476	478	480	482	484	486	488	489	490	490	490	491	492	494	495	496	498	499	500	502	503	506	508	509	512	514	516	518	521	522	524	525	526	528	528	528	528	528	528	527	526	525	524	524	523	521	520	519	518	518	517	516	515	514	513	512	512	510	509	508	507	506	506	505	505	505	505	505	504	504	504	504	504	504	504	504	504	504	505	505	506	508	509	511	513	515	516	313	260	260	260	330	525	526	526	527	529	531	534	537	540	546	547	548	550	550	550	552	553	554	554	554	554	554	555	556	556	558	560	561	562	520	0	0	0	0	155	284	284	284	278	0	0	0	564	564	564	561	561	561	561	560	559	558	557	556	554	553	551	549	548	546	543	543	542	542	542	542	541	540	540	541	454	270	270	270	270	270	270	270	271	271	271	271	271	270	270	271	271	271	215	0	0	0	0	0	0	0	0	0	0	0	0	0	0	0	0	0	0	0	0	0	0	0	0	0	0	22	594	907	1187	1182	1179	1176	1165	1163	1160	1154	1152	1149	1138	1132	1126	1118	1114	1108	1103	1101	1098	1093	1089	1084	1082	1079	1074	1071	1069	1068	1068	1068	1068	1068	1069	1072	1076	1080	1088	1096	1102	1113	1125	1133	1146	1161	1170	1184	1202	1213	1229	1244	1255	1273	1282	1289	1302	1310	1314	1320	1320	1319	1316	1316	1315	1302	1298	1294	1282	1271	1261	1247	1236	1228	1220	1210	1201	1193	1190	1187	1179	1176	1173	1165	1162	1160	1157	1157	1157	1155	1153	1152	1149	1148	1146	1144	1142	1141	1136	1132	1128	1123	1120	1116	1111	1106	1098	1094	1090	1086	1080	1077	1072	1067	1065	1063	1057	1056	1056	1056	1056	1056	649	532	537	964	1104	1108	1115	1120	1128	1134	1018	566	171	0	0	0	0	0	0	0	0	0	0	0	248	441	784	783	782	782	782	783	784	784	784	784	785	786	786	786	785	784	784	784	786	786	785	785	785	784	785	787	789	795	799	803	817	826	838	857	883	919	961	966	966	981	988	997	1022	1033	1048	1066	1078	1094	1109	1117	1126	1129	1129	1126	1120	1116	1110	1107	1104	1100	1095	1091	1086	1083	1080	1074	1070	1068	1068	1064	1063	1063	1060	1058	1056	1055	1054	1052	1050	1049	1047	1046	1045	1043	1043	1043	1043	1042	1040	1036	1036	1036	1032	1031	1030	1028	1026	1024	1022	1020	1019	1019	1019	1019	1019	1019	1019	1019	1020	1022	1023	1025	1028	1028	1030	1032	1032	1032	1032	1030	1029	1028	1026	1025	1024	1024	1024	1024	1022	1022	1022	1023	1024	1024	1024	1024	1026	1026	1026	1028	1031	1032	1032	1029
513	513	513	513	513	513	513	514	514	514	515	515	516	516	516	516	516	515	514	514	513	512	511	511	510	509	509	509	508	508	508	506	506	506	506	506	506	506	507	508	508	508	508	508	508	508	508	508	508	508	508	508	509	509	509	509	509	508	508	508	508	508	508	508	508	508	508	508	508	508	508	508	508	508	508	508	508	508	508	507	506	506	505	505	505	504	504	504	503	503	503	503	502	502	502	501	501	501	500	499	499	499	499	499	498	498	498	497	497	497	496	496	496	497	496	496	496	496	496	496	497	497	497	498	498	498	498	498	498	498	498	498	497	497	495	494	492	490	489	487	485	483	482	480	479	479	478	478	478	478	478	478	478	479	479	478	477	477	477	476	476	475	474	474	473	472	471	469	469	469	467	467	466	465	465	464	464	464	464	464	464	464	464	464	464	464	464	465	465	465	466	469	470	473	475	476	477	479	480	483	485	487	489	491	491	491	492	493	494	496	497	498	500	501	503	504	506	508	510	512	514	516	518	520	523	524	526	527	527	529	529	529	529	528	528	527	526	526	525	524	524	522	521	520	519	518	518	516	515	514	513	512	511	509	509	508	506	506	505	505	505	505	505	505	504	504	504	504	504	504	504	504	504	504	505	505	506	508	509	511	513	515	516	107	0	0	0	139	526	526	526	527	529	531	534	537	540	547	548	549	550	550	550	551	552	553	553	553	553	553	554	554	555	557	559	561	562	521	0	0	0	0	310	567	567	567	556	0	0	0	564	564	563	561	561	561	561	560	559	558	557	556	554	553	551	549	548	547	543	543	542	541	541	541	540	540	540	541	367	0	0	0	0	0	0	0	0	0	0	0	0	0	0	0	0	0	0	0	0	0	0	0	0	0	0	0	0	0	0	0	0	0	0	0	0	0	0	0	0	0	0	0	0	45	1187	1187	1187	1182	1179	1176	1165	1163	1160	1154	1152	1149	1138	1133	1128	1119	1114	1108	1103	1101	1098	1093	1089	1084	1080	1077	1074	1071	1068	1065	1065	1065	1065	1065	1067	1070	1073	1077	1084	1091	1097	1108	1120	1127	1138	1155	1165	1182	1199	1210	1229	1242	1252	1273	1282	1290	1306	1311	1314	1320	1320	1319	1313	1313	1311	1299	1295	1291	1279	1268	1258	1241	1230	1222	1211	1201	1193	1187	1184	1182	1171	1168	1165	1154	1151	1149	1149	1149	1149	1144	1144	1144	1138	1138	1138	1138	1136	1133	1133	1129	1123	1118	1116	1113	1109	1102	1093	1089	1087	1084	1076	1073	1070	1063	1061	1061	1057	1056	1056	1056	1056	1056	239	0	0	844	1118	1118	1125	1130	1138	1142	907	0	0	0	0	0	0	0	0	0	0	0	0	0	495	794	788	786	785	785	785	785	785	785	785	785	787	788	788	788	788	785	785	785	788	787	785	785	785	785	788	790	793	801	805	811	829	840	853	875	915	973	967	966	966	989	1003	1021	1043	1053	1065	1081	1090	1103	1115	1120	1123	1127	1127	1123	1119	1115	1108	1104	1102	1098	1091	1087	1084	1080	1077	1070	1067	1065	1065	1062	1061	1061	1058	1056	1056	1053	1052	1052	1049	1047	1047	1045	1043	1043	1043	1043	1043	1040	1038	1034	1034	1034	1030	1028	1026	1026	1023	1021	1017	1017	1017	1017	1017	1017	1017	1017	1017	1017	1017	1017	1021	1023	1026	1026	1028	1030	1030	1030	1030	1027	1026	1026	1022	1020	1017	1017	1017	1017	1014	1013	1013	1016	1017	1017	1017	1018	1021	1021	1022	1026	1029	1031	1034	1031
513	512	512	512	512	513	513	514	514	514	514	514	515	515	515	515	515	514	513	513	512	511	510	510	509	508	507	506	506	506	505	505	505	505	505	505	505	505	505	505	505	505	505	506	506	506	506	506	506	508	508	508	508	508	508	508	508	508	508	508	508	508	508	508	507	506	506	506	506	508	508	508	508	508	508	508	508	508	508	507	506	506	505	505	504	504	504	503	503	503	502	502	502	501	501	501	500	500	500	499	499	498	498	498	497	496	496	496	495	495	495	495	495	495	495	495	495	495	495	495	495	495	496	496	496	497	497	497	497	497	497	497	497	497	495	494	493	491	490	488	486	484	483	482	481	481	480	480	480	480	480	480	480	481	481	481	480	480	478	477	477	476	475	474	473	472	471	469	469	469	467	467	466	465	465	464	464	464	464	464	464	464	464	464	464	465	465	466	466	466	467	470	471	474	476	477	478	481	483	486	488	490	492	494	494	495	496	497	498	500	501	503	504	504	506	508	510	512	514	515	517	519	521	524	526	527	529	529	529	531	530	529	529	529	529	528	527	527	526	525	525	524	522	521	520	519	518	516	515	515	513	512	511	509	509	508	506	506	505	505	505	505	505	505	504	504	504	504	504	504	504	504	504	504	505	505	506	508	345	0	0	0	0	0	0	0	0	0	0	0	0	0	0	0	0	0	114	551	551	551	550	550	550	551	551	551	551	552	553	553	554	554	555	557	558	560	562	563	567	568	569	571	569	567	567	567	556	0	0	0	564	564	563	561	561	561	561	560	559	558	557	556	554	553	551	549	548	547	544	544	544	541	541	541	540	540	540	92	0	0	0	0	0	0	0	0	0	0	0	0	0	0	0	0	0	0	0	0	0	0	0	0	0	0	0	0	0	0	0	0	0	0	0	0	0	0	0	0	0	0	0	0	653	1193	1187	1187	1187	1182	1182	1182	1171	1166	1160	1154	1152	1149	1138	1133	1128	1119	1114	1108	1103	1101	1098	1093	1089	1084	1080	1077	1074	1071	1068	1065	1062	1061	1061	1064	1065	1065	1069	1073	1079	1086	1091	1098	1110	1117	1128	1144	1154	1171	1192	1204	1223	1236	1245	1260	1278	1288	1299	1304	1307	1313	1308	1305	1299	1295	1293	1293	1284	1278	1266	1255	1245	1229	1218	1210	1193	1187	1181	1171	1168	1165	1160	1154	1149	1138	1135	1133	1128	1128	1128	1123	1123	1123	1123	1123	1123	1123	1123	1123	1118	1118	1118	1113	1111	1108	1099	1094	1088	1080	1077	1074	1074	1073	1070	1063	1059	1056	1049	1047	1047	217	0	0	0	0	0	0	0	0	857	1165	1165	330	0	0	0	0	0	0	0	0	0	0	0	0	0	0	495	795	793	793	793	793	793	793	790	790	790	790	790	790	790	790	790	790	790	790	790	790	790	790	790	790	795	799	803	813	822	833	851	499	0	892	980	973	973	985	1005	1023	1034	1047	1062	1071	1084	1096	1100	1103	1115	1118	1118	1122	1122	1118	1114	1112	1108	1100	1096	1088	1085	1083	1079	1073	1069	1065	1065	1064	1061	1058	1056	1056	1053	1052	1052	1049	1047	1047	1047	1047	1043	1043	1043	1038	1038	1038	1034	1034	1034	1030	1030	1030	1026	1023	1021	1021	1019	1017	1013	1013	1013	1009	1009	1009	1009	1009	1009	1013	1013	1013	1017	1019	1021	1026	1026	1026	1026	1026	1026	1022	1020	1017	1014	1012	1009	1006	1004	1001	1001	1001	1001	1004	1006	1009	1009	1010	1013	1016	1018	1021	1021	1023	1030	1030
512	512	512	512	512	512	513	514	514	514	514	514	514	515	515	515	515	514	513	513	512	510	510	509	508	507	506	506	505	505	504	504	504	504	504	504	504	504	504	504	504	504	504	505	505	506	506	506	506	506	506	506	506	506	506	506	506	506	506	506	506	506	506	506	506	506	506	506	506	507	507	507	507	507	507	507	507	507	507	506	506	506	505	505	504	504	504	503	503	502	502	502	502	501	501	500	500	500	500	499	498	498	498	497	496	496	496	496	495	495	494	494	494	494	494	494	494	494	494	494	494	495	496	496	496	496	496	496	496	497	497	497	497	497	496	494	493	492	490	489	487	485	484	483	482	482	482	482	482	482	482	482	482	482	482	482	482	481	479	478	478	476	476	475	474	472	471	470	469	469	467	467	466	466	465	464	464	464	464	464	464	464	464	465	465	465	466	466	467	467	468	471	473	476	478	479	480	483	485	488	490	492	494	496	496	497	498	499	500	502	503	504	506	506	508	510	511	514	516	517	518	521	523	526	527	528	529	529	529	531	530	530	530	530	529	528	528	527	526	526	525	524	523	522	520	519	518	516	516	515	513	512	511	509	509	508	506	506	506	506	506	506	506	505	504	504	504	504	504	504	504	505	505	505	291	253	253	254	173	0	0	0	0	0	0	0	0	0	0	0	0	0	0	0	0	0	114	551	551	551	550	550	551	551	551	551	551	552	553	553	554	554	555	557	558	560	562	563	567	568	569	571	570	558	284	284	278	0	0	0	282	420	563	561	561	561	561	560	559	558	557	556	554	553	551	549	549	548	303	272	272	271	270	270	270	270	270	46	0	0	0	0	0	0	0	0	0	0	0	0	0	0	0	0	0	0	0	0	0	0	0	0	0	0	0	0	0	0	0	0	0	0	0	0	0	0	0	0	0	0	0	0	653	1193	1190	1190	1190	1184	1183	1182	1171	1167	1162	1157	1153	1149	1141	1135	1128	1121	1116	1110	1104	1101	1098	1093	1090	1086	1080	1077	1074	1071	1068	1065	1062	1061	1061	1063	1063	1063	1067	1070	1074	1082	1087	1096	1107	1114	1126	1139	1149	1166	1186	1198	1217	1230	1239	1256	1270	1278	1289	1298	1303	1306	1304	1302	1296	1290	1286	1286	1280	1274	1256	1245	1236	1220	1209	1201	1184	1177	1170	1160	1157	1154	1146	1141	1136	1128	1125	1123	1120	1119	1118	1116	1116	1116	1116	1116	1116	1118	1118	1118	1113	1113	1113	1108	1106	1103	1096	1092	1086	1080	1077	1074	1070	1068	1066	1058	1055	1052	1044	1042	1042	216	0	0	0	0	0	0	0	0	836	1135	1129	703	533	526	512	503	486	474	468	468	159	0	0	0	0	0	497	799	797	796	796	796	795	794	792	792	792	792	792	792	792	792	792	792	792	792	792	792	792	794	795	796	801	806	811	824	833	844	866	704	474	933	980	979	988	1001	1020	1038	1047	1058	1072	1079	1088	1098	1101	1103	1111	1113	1113	1117	1117	1116	1110	1107	1106	1098	1093	1086	1083	1080	1074	1071	1069	1065	1064	1062	1058	1055	1054	1054	1053	1052	1050	1048	1047	1045	1045	1044	1040	1040	1040	1036	1035	1034	1032	1032	1032	1028	1027	1025	1024	1021	1019	1017	1016	1015	1011	1011	1011	1009	1009	1009	1009	1009	1009	1013	1013	1013	1017	1019	1021	1026	1026	1026	1026	1025	1024	1020	1017	1013	1008	1006	1003	1000	998	995	995	995	995	997	998	999	1002	1004	1005	1010	1012	1017	1018	1020	1026	1027
512	512	512	512	512	512	512	513	514	514	514	514	514	515	515	515	514	514	513	512	511	510	509	509	508	506	506	505	504	504	504	503	503	503	503	503	503	503	503	503	503	503	504	504	504	505	505	505	505	505	505	505	505	505	505	505	505	505	505	505	505	505	505	505	505	505	506	506	506	506	506	506	506	506	506	506	506	506	506	505	505	505	505	505	504	504	504	503	502	502	502	502	501	501	501	500	500	500	499	498	498	498	497	497	496	496	496	495	495	495	494	494	494	493	493	493	493	493	493	494	494	494	495	495	495	496	496	496	496	497	497	497	497	497	496	495	494	492	490	489	488	486	485	484	483	483	483	483	483	483	483	483	484	484	484	484	483	482	480	479	479	477	476	476	474	473	472	470	469	469	467	467	466	466	466	465	464	464	464	464	464	465	465	465	466	466	466	467	468	468	469	473	475	477	480	481	483	485	487	489	492	494	496	498	498	499	500	501	502	504	504	506	507	508	510	511	513	515	517	518	520	523	525	527	528	528	529	529	529	531	531	531	531	530	530	529	528	528	527	526	526	525	524	524	521	520	519	517	516	515	513	512	511	509	509	508	506	506	506	506	506	506	506	506	505	505	505	505	505	505	505	506	506	506	76	0	0	0	0	0	0	0	0	0	0	0	0	0	0	0	0	0	0	0	0	0	114	551	551	551	551	551	551	551	551	551	551	552	553	553	554	554	555	557	558	560	562	563	567	568	569	571	571	549	0	0	0	0	0	0	0	276	563	561	561	561	560	560	559	558	557	556	554	553	551	549	549	549	62	0	0	0	0	0	0	0	0	0	0	0	0	0	0	0	0	0	0	0	0	0	0	0	0	0	0	0	0	0	0	0	0	0	0	0	0	0	0	0	0	0	0	0	0	0	0	0	0	0	0	0	0	0	653	1193	1193	1193	1193	1187	1184	1182	1171	1168	1165	1160	1155	1149	1144	1137	1128	1123	1119	1113	1104	1101	1098	1093	1091	1088	1080	1077	1074	1071	1068	1065	1062	1061	1061	1061	1061	1061	1064	1067	1070	1077	1083	1093	1105	1112	1123	1134	1143	1160	1180	1192	1211	1224	1234	1253	1262	1268	1279	1293	1299	1299	1299	1298	1293	1284	1279	1279	1275	1270	1247	1236	1227	1211	1200	1192	1176	1167	1159	1149	1146	1144	1133	1128	1123	1118	1115	1113	1113	1111	1108	1108	1108	1108	1108	1108	1108	1113	1113	1113	1108	1108	1108	1103	1101	1098	1094	1090	1084	1080	1077	1074	1066	1064	1061	1054	1050	1047	1040	1038	1038	215	0	0	0	0	0	0	0	0	815	1105	1093	1077	1066	1052	1025	1005	973	949	937	937	318	0	0	0	0	0	500	803	801	799	798	798	796	795	795	795	795	793	793	793	795	794	793	793	794	795	795	795	795	798	799	801	808	813	819	835	845	856	881	910	947	974	980	985	1003	1016	1034	1053	1061	1070	1082	1087	1093	1101	1103	1103	1107	1108	1108	1112	1113	1113	1105	1103	1103	1095	1091	1084	1080	1077	1070	1070	1069	1065	1062	1060	1056	1053	1052	1052	1052	1051	1047	1047	1046	1043	1043	1042	1038	1038	1038	1034	1032	1030	1030	1030	1030	1026	1023	1021	1021	1019	1017	1013	1013	1013	1009	1009	1009	1009	1009	1009	1009	1009	1009	1013	1013	1013	1017	1019	1021	1026	1026	1026	1026	1024	1021	1018	1014	1009	1002	1000	997	994	992	989	989	989	989	989	989	989	995	997	997	1003	1007	1013	1016	1018	1021	1025
511	511	511	511	511	512	512	512	513	513	513	513	514	514	514	514	513	513	512	510	510	509	508	507	505	504	504	503	503	503	502	502	502	502	501	501	501	501	501	501	502	502	502	503	503	503	503	503	503	504	504	504	504	504	504	505	505	505	505	505	504	504	504	504	505	505	505	505	505	505	505	505	505	505	505	506	506	506	505	505	505	505	504	504	504	503	503	503	502	502	502	502	501	500	500	500	499	499	498	498	498	497	496	496	496	495	495	494	493	493	493	492	492	492	492	492	492	492	492	492	493	493	493	494	494	494	495	495	496	496	496	496	497	497	496	495	495	494	492	491	489	488	488	487	487	487	487	487	487	488	488	488	488	489	489	488	487	486	484	483	482	479	478	477	476	475	474	472	471	470	468	468	467	466	466	466	466	466	466	466	466	466	466	466	467	467	468	470	471	472	473	476	477	480	483	485	487	489	491	493	495	497	500	502	502	503	504	504	505	507	508	510	511	511	513	514	516	518	520	522	524	526	527	528	528	528	530	531	531	533	533	533	531	531	531	530	529	529	528	527	527	526	525	525	524	522	521	520	518	517	515	514	513	512	511	510	509	509	508	508	508	508	508	508	508	506	506	506	506	506	506	67	0	0	0	0	0	0	0	0	0	0	0	0	0	0	0	0	0	0	0	0	0	0	0	0	0	0	0	0	0	377	555	553	553	553	553	553	553	553	553	553	554	555	556	561	563	564	568	570	571	572	259	0	0	0	0	0	0	0	0	276	563	561	561	561	560	560	559	558	557	556	554	553	551	551	333	0	0	0	0	0	0	0	0	0	0	0	0	0	0	0	0	0	0	0	0	0	0	0	0	0	0	0	0	0	0	0	0	0	0	0	0	0	0	0	0	0	0	0	0	0	0	0	0	0	0	0	0	0	0	0	656	1199	1199	1199	1199	1193	1190	1187	1182	1177	1171	1165	1160	1154	1149	1142	1133	1128	1124	1118	1109	1106	1103	1098	1096	1093	1085	1082	1079	1071	1068	1065	1065	1064	1061	1061	1061	1061	1061	1064	1070	1077	1082	1088	1096	1102	1113	1128	1138	1154	1170	1181	1199	1216	1227	1241	1254	1262	1273	1277	1280	1286	1277	1272	1266	1254	1247	1247	1236	1227	1211	1197	1185	1171	1158	1148	1138	1132	1127	1118	1113	1108	1103	1100	1098	1093	1093	1093	1093	1091	1088	1088	1090	1093	1093	1093	1093	1098	1098	1098	1098	1098	1098	1093	1093	1093	1093	1090	1084	1075	1073	1070	1062	1059	1056	1049	1044	1038	1038	1038	1038	215	0	0	0	0	0	0	0	0	815	1105	1093	1077	1066	1052	984	955	955	926	912	912	310	0	0	0	109	824	816	810	806	804	803	801	801	801	801	799	798	798	800	801	801	801	801	801	801	801	803	804	806	808	812	816	824	830	838	858	868	880	933	941	947	974	990	1009	1024	1034	1047	1059	1066	1074	1074	1077	1084	1087	1090	1093	1097	1098	1098	1098	1098	1098	1098	1095	1088	1085	1082	1074	1071	1069	1065	1062	1060	1056	1050	1047	1047	1044	1043	1043	1043	1043	1043	1040	1038	1038	1038	1038	1034	1034	1034	1030	1028	1026	1026	1026	1026	1021	1019	1017	1013	1013	1013	1009	1009	1009	1009	1007	1005	1005	1005	1005	1005	1005	1005	1005	1007	1009	1013	1015	1017	1021	1021	1021	1017	1015	1013	1010	1006	1001	994	992	989	982	981	981	975	973	973	976	978	981	981	982	985	994	997	997	1003	1008	1017	1017
510	510	510	510	510	511	512	512	512	512	512	513	513	513	513	513	512	512	512	510	509	508	507	506	504	504	503	502	502	502	502	501	501	501	501	500	500	500	500	500	501	501	502	502	502	502	502	502	502	503	503	504	504	504	504	504	504	504	504	504	504	504	504	504	504	504	504	504	504	504	504	505	505	505	505	506	506	505	505	505	505	504	504	504	504	503	503	502	502	502	502	502	501	500	500	500	499	499	498	498	498	497	496	496	496	495	494	494	493	492	492	492	491	492	492	492	492	492	492	492	492	492	492	493	493	494	494	495	495	495	496	496	496	496	496	495	495	494	493	492	490	489	489	488	488	488	488	488	489	489	489	490	490	490	490	490	488	487	486	484	483	481	480	479	477	476	474	473	472	471	468	468	468	467	466	466	466	466	466	466	466	466	466	467	468	468	469	471	472	473	474	478	480	482	486	487	489	491	493	496	498	500	502	504	504	506	506	506	508	509	510	512	513	513	514	516	517	519	521	523	524	526	527	528	529	529	532	532	533	534	534	534	532	532	532	530	530	529	529	528	527	526	526	525	524	523	521	521	387	258	258	257	256	256	256	255	255	254	254	254	365	509	509	509	509	508	508	508	508	412	253	33	0	0	0	0	0	0	0	0	0	0	0	0	0	0	0	0	0	0	0	0	0	0	0	0	0	0	0	0	0	377	555	554	554	554	554	553	553	553	553	553	554	555	556	561	563	543	284	285	286	286	130	0	0	0	0	0	0	0	0	276	563	561	561	561	560	560	559	558	558	557	298	276	276	276	166	0	0	0	0	0	0	0	0	0	0	0	0	0	0	0	0	0	0	0	0	0	0	0	0	0	0	0	0	0	0	0	0	0	0	0	0	0	0	0	0	0	0	0	0	0	0	0	0	0	0	0	0	0	0	0	659	1205	1205	1205	1205	1199	1196	1193	1184	1182	1179	1171	1165	1160	1155	1147	1138	1133	1129	1123	1116	1113	1110	1104	1100	1096	1089	1086	1082	1073	1070	1068	1065	1064	1061	1061	1061	1061	1061	1064	1070	1077	1082	1088	1096	1102	1113	1126	1136	1152	1165	1176	1193	1208	1218	1232	1243	1250	1260	1266	1270	1273	1264	1258	1248	1238	1232	1232	1219	1209	1194	1180	1169	1152	1141	1133	1123	1119	1115	1106	1101	1098	1094	1091	1088	1086	1085	1084	1084	1084	1084	1084	1086	1088	1088	1089	1090	1093	1093	1093	1095	1097	1098	1093	1092	1090	1089	1084	1077	1069	1067	1066	1058	1054	1050	1046	1043	1038	1038	881	519	108	0	0	0	0	0	0	0	0	408	552	546	538	533	526	825	955	955	926	912	912	596	433	426	423	474	824	818	814	810	808	807	804	804	804	804	803	802	802	803	804	804	805	806	806	807	808	810	811	812	817	822	826	835	843	852	870	886	906	935	947	960	984	998	1015	1030	1038	1047	1057	1062	1068	1069	1073	1079	1083	1085	1088	1091	1091	1091	1091	1091	1091	1091	1090	1086	1081	1077	1070	1068	1066	1060	1059	1057	1052	1047	1045	1042	1040	1038	1038	1038	1038	1038	1037	1036	1034	1034	1034	1032	1032	1032	1028	1025	1024	1024	1022	1021	1017	1016	1015	1011	1011	1011	1009	1008	1007	1007	1006	1005	1005	1004	1003	1003	1003	1003	1005	1006	1007	1011	1013	1015	1017	1018	1019	1015	1013	1011	1006	1002	997	990	988	985	978	976	974	970	970	970	971	972	974	976	978	981	989	991	993	999	1004	1013	1014
510	510	510	510	510	511	511	511	512	512	512	512	512	513	513	512	511	511	511	509	509	508	505	505	504	503	503	502	501	501	501	500	500	500	500	500	499	499	499	500	500	500	501	501	501	501	501	501	502	502	502	503	503	503	503	504	504	504	504	504	504	504	504	504	504	504	504	504	504	504	504	504	505	505	505	505	505	505	505	505	505	504	504	504	503	503	503	502	502	502	502	502	501	500	500	500	499	499	498	498	498	497	496	496	495	494	494	493	492	492	492	491	491	491	491	491	491	491	491	491	491	491	491	492	492	493	494	494	494	495	495	495	496	496	496	495	495	494	493	493	491	490	490	490	489	489	489	490	490	490	491	491	491	492	492	491	490	489	487	486	485	483	482	481	478	476	475	474	473	472	469	469	468	467	467	466	466	466	466	466	466	467	467	468	469	469	470	472	474	475	476	479	482	485	488	490	491	493	495	498	500	502	504	506	507	508	508	509	510	511	512	514	515	515	516	517	518	520	523	524	524	526	527	529	530	530	533	534	534	535	535	535	534	533	533	531	530	530	530	529	528	527	526	526	525	523	522	522	256	0	0	0	0	0	0	0	0	0	0	0	221	510	510	510	510	510	510	510	510	318	0	0	0	0	0	0	0	0	0	0	0	0	0	0	0	0	0	0	0	0	0	0	0	0	0	0	0	0	0	0	0	377	555	554	554	554	554	553	553	553	553	553	554	555	556	561	563	521	0	0	0	0	0	0	0	0	0	0	0	0	0	276	563	561	561	561	560	560	559	558	558	558	42	0	0	0	0	0	0	0	0	0	0	0	0	0	0	0	0	0	0	0	0	0	0	0	0	0	0	0	0	0	0	0	0	0	0	0	0	0	0	0	0	0	0	0	0	0	0	0	0	0	0	0	0	0	0	0	0	0	0	0	663	1211	1211	1211	1211	1205	1202	1199	1187	1187	1187	1176	1171	1165	1160	1153	1144	1138	1134	1128	1123	1121	1118	1109	1104	1098	1094	1090	1084	1075	1073	1070	1066	1064	1061	1061	1061	1061	1061	1064	1070	1077	1082	1088	1096	1102	1113	1124	1133	1149	1161	1170	1187	1200	1209	1223	1231	1237	1247	1256	1260	1260	1251	1244	1229	1221	1217	1217	1202	1191	1176	1163	1152	1133	1124	1117	1108	1105	1102	1093	1090	1088	1084	1081	1079	1079	1076	1074	1074	1076	1079	1079	1081	1084	1084	1086	1088	1088	1088	1088	1093	1095	1098	1093	1091	1088	1084	1079	1070	1062	1061	1061	1053	1049	1043	1043	1041	1038	1038	725	0	0	0	0	0	0	0	0	0	0	0	0	0	0	0	0	667	955	955	926	912	912	883	866	853	845	839	824	821	818	814	812	811	808	808	808	806	806	806	806	807	808	808	810	811	811	813	814	816	817	819	827	831	836	847	855	865	882	905	933	937	952	973	995	1007	1021	1036	1041	1047	1055	1058	1061	1064	1068	1074	1078	1081	1084	1084	1084	1084	1084	1084	1084	1084	1084	1084	1076	1072	1065	1065	1063	1056	1056	1054	1047	1044	1042	1038	1035	1034	1034	1034	1034	1034	1034	1033	1030	1030	1030	1030	1030	1030	1026	1023	1021	1021	1019	1017	1013	1013	1013	1009	1009	1009	1009	1007	1005	1005	1005	1005	1005	1003	1001	1001	1001	1001	1005	1005	1005	1009	1011	1013	1013	1015	1017	1013	1011	1009	1002	998	993	986	984	981	974	971	966	966	966	966	966	966	966	971	974	977	983	986	989	995	1000	1009	1012
509	509	509	509	510	510	510	510	511	511	511	511	511	511	511	511	510	510	509	506	506	506	504	504	503	501	501	500	499	499	499	498	498	498	498	498	498	498	498	498	498	498	499	499	499	500	500	500	501	501	501	501	502	502	502	502	502	502	502	502	502	503	503	503	503	503	503	503	503	503	504	504	504	504	504	504	504	504	504	504	504	504	503	503	503	502	502	502	502	502	501	501	501	500	500	500	499	499	498	497	497	496	496	496	495	494	494	493	492	492	491	490	490	490	489	489	489	489	489	489	489	489	490	490	490	491	492	492	492	493	493	494	495	495	495	496	496	496	495	495	493	492	492	492	493	493	493	493	493	494	494	494	494	494	494	493	492	491	489	488	488	486	485	484	481	480	479	476	475	475	472	472	471	470	469	468	468	468	469	469	469	469	470	471	472	472	473	475	477	478	480	484	486	488	491	493	495	497	498	500	502	504	505	507	508	509	510	510	511	513	513	514	515	516	518	519	520	520	523	524	526	528	529	530	532	533	534	535	535	536	535	535	534	534	534	531	531	531	530	530	500	0	0	0	0	0	0	0	0	0	0	0	0	0	0	0	0	0	0	0	222	511	511	511	511	511	309	0	0	0	0	0	0	0	0	0	0	0	0	0	0	0	0	0	0	0	0	0	0	0	0	0	0	0	0	0	0	0	0	0	0	0	0	0	366	554	554	554	554	554	554	554	555	220	0	0	0	0	0	0	0	0	0	0	0	0	0	0	0	0	0	0	0	0	0	0	0	0	0	0	0	0	0	0	0	0	0	0	0	0	0	0	0	0	0	0	0	0	0	0	0	0	0	0	0	0	0	0	0	0	0	0	0	0	0	0	0	0	0	0	0	0	0	0	0	0	0	0	0	0	0	0	0	0	0	0	0	0	0	0	0	0	676	1235	1223	1223	1223	1217	1214	1211	1199	1196	1193	1182	1179	1176	1165	1160	1154	1149	1147	1144	1134	1131	1128	1123	1121	1118	1109	1104	1098	1089	1085	1079	1071	1068	1065	1065	1065	1065	1065	1067	1070	1077	1082	1088	1096	1102	1113	1121	1127	1138	1150	1158	1171	1179	1186	1199	1203	1207	1217	1221	1222	1217	1213	1208	1193	1186	1179	1160	1160	1158	1144	1131	1122	1108	1102	1097	1088	1083	1079	1079	1076	1074	1070	1067	1065	1065	1068	1070	1065	1065	1065	1074	1074	1074	1079	1079	1079	1084	1086	1088	1093	1095	1098	1093	1091	1088	1080	1076	1070	1058	1056	1056	1048	1046	1043	1036	1034	1034	195	0	0	0	0	0	0	0	0	0	0	0	0	0	0	0	0	0	0	0	0	609	893	880	872	866	853	845	840	830	828	826	822	818	816	814	814	814	814	814	814	814	815	816	819	821	822	824	826	827	833	835	838	847	851	856	870	880	890	908	919	933	956	969	985	1007	1016	1026	1033	1037	1043	1051	1053	1056	1060	1062	1065	1069	1070	1070	1073	1074	1074	1074	1074	1074	1078	1079	1079	1072	1069	1065	1062	1060	1056	1053	1050	1043	1040	1037	1034	1031	1030	1030	1030	1030	1030	1030	1029	1026	1026	1026	1026	1023	1021	1021	1019	1017	1017	1017	1017	1013	1011	1009	1009	1007	1005	1005	1003	1001	1001	1001	1001	1001	1001	1001	1001	1001	1001	1005	1005	1005	1009	1009	1009	1013	1013	1013	1009	1006	1001	998	994	989	982	978	973	970	967	962	962	962	962	962	963	966	968	970	973	979	983	989	995	999	1005	1008
