1252	1251	1251	1251	1251	1256	1256	0	0	0	0	0	0	847	847	847	848	848	848	848	850	850	850	852	852	852	853	853	853	853	853	854	854	854	854	854	854	855	855	855	855	855	855	855	855	854	853	853	852	849	848	848	846	844	844	843	842	841	841	838	836	834	834	830	829	829	827	826	826	826	825	824	824	822	821	819	819	816	814	814	813	813	812	812	812	813	813	813	814	815	815	817	817	819	822	822	824	826	826	827	828	829	833	833	836	840	840	842	842	843	844	844	845	847	847	848	849	849	851	851	853	853	853	853	853	853	854	854	854	853	853	853	853	851	851	851	849	849	849	848	848	848	848	848	848	848	847	847	847	848	849	849	850	850	850	851	853	853	854	854	855	857	857	857	857	857	857	858	858	858	858	858	858	859	859	859	859	859	859	859	859	859	859	859	859	859	859	859	859	860	860	860	860	860	860	860	860	860	860	860	860	860	860	860	860	860	859	859	859	858	858	858	857	857	857	857	855	855	853	853	853	851	850	850	850	848	848	849	848	848	0	0	0	0	0	0	0	672	671	671	671	669	669	668	666	665	665	665	665	665	664	663	662	662	661	661	661	661	661	661	661	661	662	662	662	663	663	662	662	661	661	660	660	659	658	658	658	657	657	657	657	657	657	657	657	657	658	659	659	660	661	661	662	664	664	665	665	665	665	665	0	0	0	0	0	0	0	0	0	0	0	0	0	0	859	859	859	859	859	858	858	858	858	858	858	858	858	858	858	858	859	859	859	859	859	859	859	859	859	859	860	860	860	860	860	860	860	860	860	860	860	860	860	860	860	860	860	860	860	858	858	858	858	858	858	858	858	858	858	858	858	858	858	858	858	858	858	858	858	858	858	858	859	859	859	859	859	859	860	860	860	860	860	860	860	860	860	860	860	860	860	860	860	860	860	860	861	861	861	861	862	862	862	862	862	861	861	861	861	861	860	860	860	860	860	860	860	859	859	859	858	857	857	855	855	855	853	853	853	853	853	852	852	851	851	852	852	852	852	852	853	853	853	854	854	854	855	857	857	858	858	858	859	859	859	860	860	860	860	860	860	860	860	859	859	859	859	859	859	858	858	858	858	858	858	858	858	858	857	857	857	857	855	854	854	853	851	851	849	848	846	846	845	843	843	843	842	842	841	841	841	840	840	840	840	841	841	841	841	842	842	842	842	842	0	0	0	0	0	0	687	687	687	686	686	685	685	683	683	682	681	681	680	678	678	678	677	677	677	677	676	676	676	676	676	676	676	677	677	677	678	678	680	681	681	683	683	685	685	685	686	686	686	685	685	685	684	683	683	682	682	682	681	681	681	681	681	681	681	681	0	0	0	0	0	0	0	0	0	0	0	0	0	0	0	0	0	0	0	0	0	0	0	0	0	0	0	0	0	0	0	0	0	0	0	0	0	0	1823	1823	1823	1823	1823	1823	1825	1825	1825	1828	1830	1830	1833	1833	1833	1836	1836	1836	1833	1833	1833	1833	1833	1830	1828	1828	1828	1828	1828	1828	1825	1825	1825	1825	1825	1825	1823	1823	1823	1820	1820	1820	1820	1820	1820	1818	1818	1818	1818	1818	1818	1818	1818	1818	1818	1818	1818	1818	1818	1818
1252	1251	1251	1251	1251	0	0	0	0	0	0	0	0	847	847	847	848	848	848	848	850	850	850	852	852	852	853	853	853	853	853	854	854	854	852	852	852	852	852	852	852	853	853	853	853	852	850	849	849	848	847	847	845	845	845	844	843	842	842	840	839	839	836	834	831	831	829	828	827	827	826	826	826	825	824	824	823	821	820	820	819	817	817	817	817	817	817	817	817	817	819	821	821	823	824	824	826	827	827	828	828	830	834	834	837	840	840	842	842	843	843	843	844	845	845	846	847	847	848	849	849	850	851	850	850	852	851	851	851	850	849	849	848	847	847	846	845	845	845	844	844	844	843	843	843	843	842	842	842	843	843	843	844	844	844	845	845	845	847	848	848	850	852	851	851	852	852	853	854	854	855	855	855	855	857	857	857	857	857	857	857	857	857	857	857	857	857	857	857	857	857	858	858	858	858	858	858	858	858	858	858	858	858	858	858	858	858	858	857	857	855	855	855	854	854	854	853	853	851	851	851	850	848	848	849	848	848	848	848	848	0	0	0	0	0	0	0	672	671	671	671	669	669	668	666	665	665	665	665	665	664	663	662	662	660	660	660	659	659	659	659	659	659	659	659	660	660	659	659	659	658	657	657	657	657	657	657	656	656	656	656	656	656	656	656	657	657	658	658	658	660	660	661	664	664	665	665	665	665	665	0	0	0	0	0	0	0	0	0	0	0	0	0	0	857	857	855	855	857	855	855	855	855	855	855	855	855	855	855	855	857	857	857	857	857	857	857	857	857	857	858	858	858	858	858	858	858	858	858	858	858	858	858	858	858	858	858	858	858	858	858	858	858	858	858	858	858	858	858	858	858	858	858	858	858	858	858	858	858	858	858	858	859	859	859	859	859	859	860	860	860	860	860	860	860	860	860	860	860	860	860	860	860	860	860	860	861	861	861	861	862	862	862	862	862	861	861	861	861	861	860	860	860	860	860	860	860	859	859	859	858	857	857	855	855	855	853	853	853	853	853	852	852	851	851	852	852	852	852	852	853	853	853	854	854	854	855	857	857	858	858	858	859	859	859	860	860	860	860	860	860	860	860	859	859	859	859	859	859	858	858	858	858	858	858	858	858	858	857	857	857	857	855	854	854	853	851	851	849	848	848	847	845	844	844	844	843	843	842	842	842	842	842	842	841	841	842	842	842	842	842	842	842	842	842	0	0	0	0	0	687	687	686	686	686	685	685	684	684	683	681	681	680	679	678	678	677	677	677	676	676	676	676	676	676	676	676	676	676	677	677	677	678	680	680	681	682	682	682	682	683	683	683	682	681	681	681	680	680	680	679	679	679	679	679	679	679	680	679	679	0	0	0	0	0	0	0	0	0	0	0	0	0	0	0	0	0	0	0	0	0	0	0	0	0	0	0	0	0	0	0	0	0	0	0	0	0	0	1818	1818	1818	1818	1820	1820	1823	1823	1823	1823	1825	1825	1825	1825	1825	1825	1828	1828	1825	1825	1825	1825	1825	1823	1823	1823	1823	1823	1823	1823	1823	1823	1823	1823	1823	1823	1823	1823	1820	1818	1818	1818	1818	1818	1818	1818	1818	1818	1818	1818	1818	1818	1818	1818	1818	1818	1818	1818	1818	1818
1246	1245	1245	1251	1251	0	0	0	0	0	0	0	845	845	847	846	846	847	847	847	847	847	848	849	849	849	850	850	850	850	850	851	851	851	851	852	852	852	852	852	852	853	853	853	853	852	850	849	849	848	847	847	845	845	845	844	843	842	842	841	840	840	839	836	834	834	831	830	830	829	828	827	827	826	826	826	825	824	824	824	823	821	821	821	821	821	821	821	821	821	822	823	823	824	826	826	826	827	827	829	829	831	834	834	837	840	840	842	842	843	843	843	844	845	845	846	847	847	848	849	849	850	851	850	850	852	851	851	851	850	849	849	848	847	847	846	845	845	845	844	844	844	843	843	843	843	842	842	842	843	843	843	844	844	844	845	845	845	847	848	848	850	852	851	851	852	852	853	854	854	855	855	855	855	857	857	857	857	857	857	857	857	857	857	857	857	857	857	857	857	857	855	855	855	855	855	855	855	855	855	855	855	855	855	855	855	855	855	855	854	853	853	853	852	852	852	850	850	850	850	848	848	848	848	848	847	847	848	848	848	0	0	0	0	0	0	0	673	672	672	671	670	670	668	667	666	666	665	665	665	664	663	661	661	660	659	658	658	658	657	657	657	657	657	657	657	657	657	657	657	657	656	656	656	656	656	656	655	655	655	655	655	656	656	656	656	656	657	658	658	659	659	661	664	664	665	665	665	666	666	0	0	0	0	0	0	0	0	0	0	0	0	0	0	853	853	853	853	853	853	853	853	853	853	853	853	853	853	853	853	853	853	853	853	853	853	853	853	853	854	855	855	855	855	855	855	855	855	855	855	855	855	855	855	855	855	855	855	855	855	855	855	855	855	855	855	855	855	855	855	854	854	854	854	854	854	854	855	855	855	855	855	857	857	857	857	858	858	858	858	858	858	858	858	858	858	858	858	858	858	858	859	859	859	859	859	859	860	860	860	860	860	860	860	859	859	859	859	858	857	857	857	855	855	855	854	854	853	853	853	853	851	851	851	850	850	850	849	848	848	848	848	848	848	848	848	848	848	849	849	849	850	850	851	852	852	853	853	853	855	855	855	857	857	857	858	858	858	858	858	858	858	858	857	857	858	858	857	857	857	857	857	855	855	857	855	855	855	855	853	853	854	853	853	853	851	850	850	848	848	848	847	845	844	844	844	843	843	842	842	842	842	842	842	841	841	842	842	842	842	842	842	842	842	842	0	0	0	0	0	0	0	686	686	686	685	685	684	684	683	682	682	680	679	678	678	677	677	677	676	676	676	676	676	676	676	676	676	676	677	677	677	678	680	680	681	682	682	682	682	683	683	683	682	681	681	681	680	680	680	679	679	679	679	679	679	679	680	679	679	0	0	0	0	0	0	0	0	0	0	0	0	0	0	0	0	0	0	0	0	0	0	0	0	0	0	0	0	0	0	0	0	0	0	0	0	0	0	1818	1818	1818	1818	1820	1820	1823	1823	1823	1823	1825	1825	1825	1825	1825	1825	1828	1828	1825	1825	1825	1825	1825	1823	1823	1823	1823	1823	1823	1823	1823	1823	1823	1823	1823	1823	1823	1823	1820	1818	1818	1818	1818	1818	1818	1818	1818	1818	1818	1818	1818	1818	1815	1815	1815	1815	1815	1815	1815	1818
1242	1238	1238	1238	1238	0	0	0	0	0	0	0	845	845	845	845	845	845	845	845	846	846	847	847	847	847	847	847	847	847	847	848	848	848	848	848	848	848	848	848	848	849	849	849	848	848	848	847	847	846	845	845	845	844	844	843	843	842	842	841	840	840	839	836	834	834	831	830	830	829	828	827	827	826	826	826	825	824	824	824	823	821	821	821	821	821	821	821	821	821	822	823	823	824	826	826	826	827	827	829	829	831	834	834	837	840	840	841	841	842	843	843	844	844	844	845	845	845	846	847	847	847	848	848	848	848	848	848	848	847	847	847	845	845	844	844	843	843	843	842	841	841	839	837	835	835	834	834	834	834	836	838	838	840	844	842	842	843	843	843	843	845	846	846	846	847	847	848	849	849	851	852	852	853	853	853	853	853	853	853	853	853	853	854	854	854	854	854	854	854	854	854	855	855	855	855	855	855	855	855	855	855	855	855	855	855	855	855	855	854	853	853	853	852	852	852	850	850	850	850	848	848	848	848	848	847	847	848	848	848	0	0	0	0	0	0	0	673	672	672	671	670	670	669	667	666	666	665	665	665	664	663	661	661	660	659	658	658	658	657	657	657	657	657	657	657	657	657	657	657	657	656	656	656	656	656	656	655	655	655	655	655	656	656	656	656	656	657	658	658	659	659	661	664	664	665	665	666	668	668	0	0	0	0	0	0	0	0	0	0	0	0	0	0	853	853	853	853	853	853	853	853	853	853	853	853	853	853	853	853	853	853	853	853	853	853	853	853	853	854	855	855	855	855	855	855	855	855	853	853	853	853	853	853	853	853	853	852	852	852	852	852	852	851	851	851	851	851	851	851	851	851	850	850	851	851	851	851	851	852	852	852	853	853	853	854	855	855	855	855	855	855	855	855	855	855	855	855	855	855	855	855	855	857	857	857	857	857	857	857	857	857	855	854	854	853	851	851	849	848	847	847	847	847	847	846	845	845	845	846	846	846	846	846	846	846	846	846	846	846	845	845	846	846	846	846	846	847	847	847	847	848	848	848	849	849	850	851	851	853	853	853	854	855	855	855	855	855	855	855	855	855	855	855	855	855	855	854	854	853	853	853	853	853	853	853	853	852	852	852	852	852	852	851	851	850	848	848	848	847	847	847	845	845	845	844	844	844	843	843	843	843	842	842	842	842	842	842	842	842	842	842	842	842	842	0	0	0	0	0	0	0	686	686	686	685	685	684	684	683	682	682	680	679	678	678	677	677	677	676	676	676	676	676	676	676	676	676	676	676	677	677	677	678	678	678	679	679	680	680	680	679	679	679	678	678	678	678	678	678	678	678	678	678	678	678	678	678	678	679	0	0	0	0	0	0	0	0	0	0	0	0	0	0	0	0	0	0	0	0	0	0	0	0	0	0	0	0	0	0	0	0	0	0	0	0	0	0	1815	1815	1815	1815	1815	1815	1818	1818	1818	1818	1818	1818	1820	1823	1823	1823	1823	1823	1823	1823	1823	1820	1820	1818	1818	1818	1818	1818	1818	1818	1820	1820	1820	1820	1820	1818	1818	1818	1818	1818	1818	1818	1818	1818	1818	1818	1818	1818	1818	1818	1818	1818	1815	1815	1815	1815	1815	1815	1815	1818
1242	1238	1238	1238	1238	0	0	0	0	0	0	0	0	845	845	845	845	845	845	845	846	845	845	845	845	845	845	845	845	845	845	845	845	845	845	845	845	845	846	846	846	846	847	847	846	846	846	845	845	845	844	844	844	843	843	843	843	842	842	842	841	841	840	838	838	836	834	832	832	831	830	828	828	828	827	827	826	826	826	826	825	825	824	824	824	824	824	824	824	824	824	825	825	826	826	826	827	827	828	830	830	831	834	834	836	838	838	840	840	842	842	842	843	844	844	844	844	844	845	845	845	845	845	845	845	845	845	845	845	845	844	844	844	843	842	842	841	840	837	837	834	831	829	829	828	827	827	827	827	828	828	829	830	830	833	833	834	837	837	840	842	842	843	843	843	844	845	845	846	846	847	848	848	848	849	849	849	850	850	850	850	850	850	851	851	851	851	851	851	851	851	851	851	852	852	852	852	852	852	852	852	852	852	852	852	852	852	852	852	851	851	851	850	849	849	849	848	848	848	847	847	847	847	847	847	847	847	847	847	848	0	0	0	0	0	0	0	673	672	672	671	670	670	669	667	666	666	665	665	665	664	663	661	661	659	658	657	657	657	656	656	656	656	656	656	656	656	656	656	656	656	656	656	656	655	655	655	655	655	655	655	655	655	655	656	656	656	657	657	657	659	659	661	664	664	665	665	666	668	668	673	673	0	0	0	0	0	0	0	0	0	0	0	0	853	849	849	849	849	849	849	849	849	849	849	849	849	849	850	850	850	850	850	850	850	850	850	850	850	851	851	851	852	853	853	853	853	853	853	853	853	853	853	853	853	853	853	852	852	852	852	852	852	851	851	851	851	851	851	851	851	851	850	850	851	851	851	851	851	852	852	852	853	853	853	854	855	855	855	855	855	855	855	855	855	855	855	855	855	855	855	855	855	857	857	857	857	857	857	857	857	857	855	854	854	853	851	851	849	848	847	847	847	847	847	846	845	845	845	846	846	846	846	846	846	846	846	846	846	846	845	845	846	846	846	846	846	847	847	847	847	848	848	848	849	849	850	851	851	853	853	853	854	855	855	855	855	855	855	855	855	855	855	855	855	855	855	854	854	853	853	853	853	853	853	853	853	852	852	852	852	852	852	851	851	850	848	848	848	847	847	847	845	845	845	844	844	844	844	843	843	843	842	842	842	843	843	842	842	842	841	841	841	841	841	0	0	0	0	0	0	0	686	686	686	685	685	685	685	684	682	682	681	680	678	678	677	677	677	676	676	676	676	675	675	675	675	675	675	676	676	676	676	677	677	677	677	677	677	678	678	677	677	677	677	677	677	677	677	677	677	677	677	677	677	678	678	678	678	0	0	0	0	0	0	0	0	0	0	0	0	0	0	0	0	0	0	0	0	0	0	0	0	0	0	0	0	0	0	0	0	0	0	0	0	0	0	1813	1813	1813	1813	1813	1813	1813	1815	1815	1815	1815	1815	1815	1818	1818	1818	1818	1818	1818	1818	1818	1818	1818	1818	1815	1815	1815	1815	1818	1818	1818	1818	1818	1818	1818	1818	1818	1818	1818	1815	1815	1815	1815	1815	1815	1815	1815	1815	1815	1815	1815	1815	1815	1815	1815	1815	1815	1815	1815	1815	1815
1235	1235	1235	1238	1238	0	0	0	0	0	0	0	844	844	844	844	845	845	844	844	845	845	845	845	845	845	845	845	845	845	845	845	845	845	845	845	845	845	846	846	846	846	847	847	846	846	846	845	845	845	844	844	844	843	843	843	843	842	842	842	841	841	840	840	840	838	837	835	835	834	832	832	830	829	829	829	828	827	827	827	826	826	826	826	826	826	825	825	825	826	826	826	826	826	826	827	828	828	829	830	830	831	834	834	836	838	838	840	840	842	842	842	843	844	844	844	844	844	845	845	845	845	845	845	845	845	845	845	845	845	844	844	844	843	842	842	841	840	837	837	834	831	829	829	828	827	827	827	827	828	828	829	830	830	833	833	834	837	837	840	842	842	843	843	843	844	845	845	846	846	847	848	848	848	849	849	849	850	850	847	847	847	847	847	847	847	847	847	847	847	847	847	848	848	848	848	848	848	848	848	848	848	848	848	849	849	849	849	849	848	848	848	848	847	847	847	847	846	846	846	845	845	845	845	845	845	847	847	847	0	0	0	0	0	0	0	0	674	674	673	672	671	671	669	668	666	666	666	665	665	664	663	660	660	659	657	657	657	656	655	655	655	655	655	655	655	655	655	655	655	655	655	655	655	655	655	655	655	655	655	655	655	655	655	656	656	656	657	657	657	659	659	662	664	664	666	666	668	670	670	673	673	676	0	0	0	0	0	0	0	0	0	0	0	0	847	847	847	847	847	847	847	847	847	847	847	847	847	847	848	847	847	847	847	847	847	847	848	848	848	848	848	848	849	849	849	849	849	849	849	849	849	849	849	849	849	849	848	848	848	848	848	848	848	848	848	848	848	848	847	847	847	847	847	848	848	848	848	848	848	848	849	849	850	851	851	852	852	852	852	852	852	852	852	852	852	852	852	853	853	853	853	853	853	853	853	853	852	852	851	849	849	848	847	845	845	844	843	843	843	843	843	842	842	843	843	843	843	843	843	843	843	844	844	844	845	845	845	845	845	845	845	845	845	845	845	845	845	845	845	845	845	847	847	847	847	848	848	848	849	851	851	852	853	853	853	853	853	853	853	853	853	853	852	852	852	852	852	852	851	851	850	850	850	850	850	850	850	850	849	849	849	849	848	848	848	848	848	847	847	847	846	845	845	845	845	844	844	844	843	843	843	843	843	843	843	843	842	842	842	841	841	841	841	841	0	0	0	0	0	0	0	686	686	686	685	685	685	685	684	683	683	682	680	678	678	677	677	677	676	676	676	676	675	675	675	675	675	675	676	676	676	676	677	677	677	677	677	677	678	678	677	677	677	677	677	677	677	677	677	677	677	677	677	677	0	0	0	0	0	0	0	0	0	0	0	0	0	0	0	0	0	0	0	0	0	0	0	0	0	0	0	0	0	0	0	0	0	0	0	0	0	0	0	0	0	0	1813	1813	1813	1813	1813	1813	1813	1815	1815	1815	1815	1815	1815	1818	1818	1818	1818	1818	1818	1818	1818	1818	1818	1818	1815	1815	1815	1815	1818	1818	1818	1818	1818	1818	1818	1818	1815	1815	1815	1815	1813	1813	1813	1813	1813	1813	1813	1813	1813	1813	1813	1813	1813	1813	1813	1813	1813	1813	1813	1815	1815
1229	1229	1235	0	0	0	0	0	0	0	844	844	844	844	844	843	843	843	843	843	844	844	844	844	844	844	844	844	844	844	844	844	844	844	844	844	844	844	844	844	844	844	844	844	844	844	844	844	844	844	843	843	843	843	843	843	842	842	842	842	841	841	840	840	840	838	837	835	835	834	832	832	830	829	829	829	828	827	827	827	826	826	826	826	826	826	825	825	825	826	826	826	826	826	826	827	828	828	829	830	830	831	833	833	835	837	837	839	839	841	842	842	842	843	843	843	843	843	843	844	844	844	844	844	844	844	844	844	844	844	843	843	843	842	840	840	837	834	830	828	828	826	826	826	825	824	824	824	824	824	824	825	826	826	827	828	828	829	832	832	835	835	839	841	841	842	843	843	843	844	844	845	846	846	847	847	847	847	847	847	847	847	847	847	847	847	847	847	847	847	847	847	848	848	848	848	848	848	848	848	848	848	848	848	849	849	849	849	849	848	848	848	848	847	847	847	847	846	846	846	845	845	845	845	845	845	0	0	0	0	0	0	0	0	0	0	0	675	675	674	673	671	671	670	668	667	667	666	665	665	664	663	660	660	659	657	657	657	656	655	655	655	655	655	655	655	655	655	655	655	655	655	655	655	655	655	655	655	655	655	655	655	655	655	656	656	656	657	657	658	659	659	662	665	665	667	667	670	670	672	675	675	676	0	0	0	0	0	0	0	0	0	0	0	0	847	847	847	847	847	847	847	847	847	847	847	847	847	847	848	847	847	847	847	847	847	847	845	845	845	845	846	846	847	847	847	847	847	847	847	847	847	847	847	847	846	846	846	846	846	845	845	845	845	845	845	845	845	845	845	845	845	845	845	845	845	845	846	846	846	846	847	847	847	848	848	848	848	848	849	849	849	848	848	848	848	848	848	849	849	848	848	848	848	848	848	848	847	845	845	844	844	844	843	842	842	840	838	836	836	836	835	835	835	835	835	835	836	840	840	841	842	842	842	842	843	843	843	843	844	844	844	844	844	844	844	844	844	844	844	844	845	845	845	845	846	846	847	847	847	848	848	848	849	849	849	850	850	850	850	849	848	848	849	848	848	848	848	848	848	848	848	848	848	848	848	847	847	848	848	847	847	847	847	847	847	846	846	846	845	845	845	845	845	845	844	844	844	844	843	843	843	843	843	843	842	842	842	841	841	841	840	840	840	838	838	0	0	0	0	0	0	686	686	686	685	685	685	685	684	683	683	682	680	678	678	677	677	677	676	676	676	676	675	675	675	675	675	675	676	676	676	676	676	676	676	676	676	676	676	676	676	676	676	676	676	677	677	677	677	677	677	677	677	677	0	0	0	0	0	0	0	0	0	0	0	0	0	0	0	0	0	0	0	0	0	0	0	0	0	0	0	0	0	0	0	0	0	0	0	0	0	0	0	0	1808	1808	1808	1810	1810	1810	1810	1813	1813	1813	1813	1813	1813	1813	1813	1815	1815	1815	1815	1815	1815	1815	1815	1813	1813	1813	1813	1813	1813	1813	1813	1813	1813	1813	1815	1815	1815	1815	1815	1815	1815	1815	1813	1813	1813	1813	1813	1813	1813	1813	1813	1813	1813	1813	1813	1813	1813	1813	1813	1813	1813	1815	1815
1229	1229	0	0	0	0	0	0	0	0	843	843	843	843	843	843	843	843	843	843	843	843	843	843	843	843	843	843	843	843	843	843	843	843	843	843	843	843	843	843	843	843	843	843	843	843	843	843	843	843	843	843	842	842	842	842	841	841	841	841	841	841	841	840	840	839	837	837	837	836	834	834	833	832	832	830	830	829	829	828	828	828	827	827	827	827	827	827	827	826	826	826	827	827	827	827	828	828	829	830	830	830	832	832	834	836	836	837	839	839	841	841	841	842	842	842	842	842	843	843	843	843	843	843	843	843	843	843	842	842	842	841	841	839	835	832	832	828	827	825	825	823	821	819	819	817	817	817	817	819	821	821	822	824	824	825	825	826	827	827	828	832	832	835	835	838	840	840	842	843	843	844	844	844	845	845	845	845	845	845	845	845	845	845	845	845	845	845	845	845	845	845	845	845	845	846	846	846	846	846	846	847	847	847	847	847	847	847	846	846	846	845	845	845	845	845	845	845	845	845	845	845	845	844	844	844	844	0	0	0	0	0	0	0	0	0	0	675	675	674	673	671	671	670	668	667	667	666	665	665	664	663	660	660	659	657	656	656	655	655	655	655	655	655	655	655	655	655	655	655	655	655	655	655	655	655	655	655	655	655	655	655	655	655	656	656	656	657	657	658	659	659	662	665	665	667	667	670	670	672	675	675	676	677	0	0	0	0	0	0	0	0	0	0	0	845	845	845	845	845	845	845	845	845	845	845	845	845	845	845	845	845	845	845	845	845	845	845	845	845	845	846	846	847	847	847	847	847	847	847	847	847	847	847	847	846	846	846	846	846	845	845	845	845	845	845	845	845	845	845	845	845	845	845	845	845	845	846	846	846	846	847	847	847	848	848	848	848	848	849	849	849	848	848	848	848	848	848	849	849	848	848	848	848	848	848	848	847	845	845	844	844	844	843	842	842	840	838	836	836	836	835	835	835	835	835	835	836	840	840	841	842	842	842	842	843	843	843	843	844	844	844	844	844	844	844	844	844	844	844	844	845	845	845	845	846	846	847	847	847	848	848	848	849	849	849	850	850	850	850	849	848	848	849	848	848	848	848	848	848	848	848	848	848	848	848	847	847	848	848	847	847	847	847	847	847	846	846	845	845	845	845	845	844	844	844	844	844	844	843	843	843	843	843	842	842	842	841	840	838	838	837	837	837	836	835	835	835	0	0	0	0	0	687	687	686	686	686	686	685	685	685	682	681	681	679	678	677	677	676	676	676	676	675	675	675	675	675	675	676	676	676	676	676	676	676	676	676	676	676	676	676	676	676	676	676	676	676	677	677	677	677	677	677	0	0	0	0	0	0	0	0	0	0	0	0	0	0	0	0	0	0	0	0	0	0	0	0	0	0	0	0	0	0	0	0	0	0	0	0	0	0	0	0	1803	1803	1803	1803	1805	1808	1808	1808	1808	1808	1810	1810	1810	1810	1810	1810	1810	1813	1813	1813	1813	1813	1810	1810	1808	1808	1808	1808	1808	1808	1808	1810	1810	1810	1810	1813	1813	1813	1813	1813	1813	1813	1813	1813	1813	1813	1813	1813	1813	1813	1813	1813	1813	1813	1813	1813	1813	1813	1813	1813	1813	1813	1813	1813
1225	1229	0	0	0	0	0	0	0	0	843	843	843	843	843	843	843	843	843	843	843	843	843	843	843	843	843	843	843	843	843	843	843	843	843	843	843	843	843	843	843	843	843	843	843	843	843	843	843	843	843	843	842	842	842	842	841	841	841	841	841	841	841	840	840	840	838	838	838	837	836	836	835	834	834	833	832	832	831	830	829	829	829	828	828	828	828	828	828	827	827	827	828	828	828	828	828	828	829	830	830	830	832	832	834	836	836	837	839	839	841	841	841	842	842	842	842	842	843	843	843	843	843	843	843	843	843	843	842	842	842	841	841	839	835	832	832	828	827	825	825	823	821	819	819	817	817	817	817	819	821	821	822	824	824	825	825	826	827	827	828	832	832	835	835	838	840	840	840	842	842	842	843	843	843	844	844	844	844	844	844	844	844	844	844	844	844	844	844	844	844	844	844	844	844	844	844	844	844	844	844	844	845	845	845	845	845	845	844	844	844	844	844	844	844	844	844	844	844	844	844	844	844	844	844	844	844	0	0	0	0	0	0	0	0	0	0	675	675	674	673	672	672	670	669	667	667	666	665	665	664	663	661	661	659	657	656	656	655	655	655	655	655	655	655	655	655	655	655	655	655	655	655	655	655	655	655	655	655	655	655	655	656	656	656	657	657	657	657	659	660	660	663	665	665	669	669	0	675	675	676	676	677	677	0	0	0	0	0	0	0	0	0	0	0	843	843	843	843	843	843	843	843	844	844	844	844	844	844	844	844	844	844	844	844	844	844	844	844	844	844	844	844	845	845	845	845	845	845	845	845	845	845	845	844	844	844	844	844	844	844	844	844	844	843	843	843	843	843	843	843	843	843	843	844	844	844	844	844	844	844	845	845	845	845	845	846	846	846	846	846	846	845	845	845	845	845	845	845	845	845	845	845	845	845	844	844	844	843	843	842	841	841	838	838	832	832	830	829	828	828	827	827	828	828	828	828	828	840	840	834	834	834	837	840	840	841	842	842	842	843	843	843	843	843	843	843	843	843	844	844	844	844	844	844	845	845	845	845	845	846	847	847	847	847	847	848	848	848	847	847	846	846	846	846	845	845	845	845	845	845	845	845	845	845	845	845	846	846	845	845	845	845	845	845	845	845	845	845	845	845	845	845	844	844	844	844	844	844	843	843	843	843	843	842	842	842	841	840	838	838	837	837	837	836	835	835	835	0	0	0	0	0	688	688	687	687	687	687	687	687	687	686	684	684	682	680	679	679	678	677	677	676	676	676	676	676	676	676	676	676	676	676	676	676	676	676	676	676	676	676	676	676	676	676	676	676	676	677	677	677	677	677	677	0	0	0	0	0	0	0	0	0	0	0	0	0	0	0	0	0	0	0	0	0	0	0	0	0	0	0	0	0	0	0	0	0	0	0	0	0	0	0	0	1803	1803	1803	1803	1805	1808	1808	1808	1808	1808	1810	1810	1810	1810	1810	1810	1810	1813	1813	1813	1813	1813	1810	1810	1808	1808	1808	1808	1808	1808	1805	1805	1805	1805	1805	1808	1808	1808	1810	1808	1808	1808	1808	1810	1810	1810	1810	1810	1810	1810	1813	1813	1813	1813	1813	1810	1810	1810	1810	1810	1810	1810	1810	1810
1225	0	0	0	0	0	0	0	0	843	843	843	843	843	843	842	842	843	843	842	842	842	842	842	842	842	842	842	842	842	842	842	842	842	842	842	842	842	842	842	842	842	842	842	842	842	842	842	842	842	842	842	841	841	841	841	840	840	840	840	840	840	840	840	840	839	838	838	838	837	836	836	835	834	834	833	832	832	831	830	829	829	829	828	828	828	828	828	828	827	827	827	828	828	828	828	828	828	829	829	829	830	832	832	834	834	834	836	837	837	839	839	840	840	840	841	841	841	841	841	841	841	841	841	841	841	841	841	841	841	840	837	835	835	831	828	826	826	824	821	817	817	814	813	813	812	812	812	813	813	814	814	816	817	817	819	821	821	824	826	826	828	828	830	833	833	837	837	840	842	842	842	843	843	843	844	844	844	844	844	844	844	844	844	844	844	844	844	844	844	844	844	844	844	844	844	844	844	844	844	844	844	845	845	845	845	845	845	844	844	844	844	844	844	844	844	844	844	844	844	844	844	844	844	844	844	844	0	0	0	0	0	0	0	0	0	0	0	0	0	674	672	672	670	669	667	667	666	665	665	664	663	661	661	659	657	656	656	656	655	655	655	655	655	655	655	655	655	655	655	655	655	655	655	655	655	655	655	656	656	656	656	656	656	657	657	658	659	659	660	662	662	0	666	666	671	671	0	675	675	676	676	678	678	0	0	0	0	0	0	0	0	0	0	0	843	843	843	843	843	843	843	843	844	844	844	844	843	843	843	843	843	843	843	843	843	843	843	843	843	843	843	843	843	843	843	843	843	843	843	843	843	843	843	843	843	843	843	843	843	843	843	842	842	842	842	842	842	842	842	842	842	842	842	843	843	843	843	843	843	843	843	843	844	844	844	844	844	844	844	844	844	844	844	844	844	844	844	843	843	843	843	843	843	842	841	841	840	837	834	834	832	832	828	828	826	826	826	825	825	825	823	823	824	824	824	824	824	825	0	826	826	834	828	828	829	829	829	830	830	831	831	831	832	833	833	834	836	836	837	837	839	841	841	842	843	843	843	844	844	845	845	845	845	845	845	845	845	845	845	845	845	844	844	844	844	844	844	844	844	844	844	844	844	844	844	844	844	844	844	844	844	844	844	844	844	844	844	844	844	844	844	844	844	844	844	844	844	843	843	843	843	842	842	842	841	841	840	838	836	836	833	832	830	830	830	830	835	0	0	0	0	0	688	688	687	687	687	687	687	687	687	686	684	684	682	680	679	679	678	677	677	676	676	676	676	676	676	676	676	676	676	676	676	676	676	676	676	676	676	676	676	676	676	676	676	676	676	677	677	677	677	677	677	677	677	0	0	0	0	0	0	0	0	0	0	0	0	0	0	0	0	0	0	0	0	0	0	0	0	0	0	0	0	0	0	0	0	0	0	0	0	0	0	1803	1800	1800	1800	1800	1803	1800	1800	1803	1803	1803	1805	1803	1803	1803	1803	1803	1803	1803	1805	1805	1805	1805	1805	1803	1803	1803	1803	1803	1803	1803	1805	1805	1805	1805	1808	1808	1808	1810	1808	1808	1808	1808	1810	1810	1810	1810	1810	1810	1810	1813	1813	1813	1813	1813	1810	1810	1810	1810	1810	1810	1810	1810	1810
0	0	0	0	0	0	0	0	0	843	842	842	842	842	842	842	842	842	842	841	841	841	841	841	841	841	840	840	840	840	840	840	840	840	840	840	840	840	840	840	840	840	840	840	840	840	840	840	840	840	840	840	840	840	839	839	839	838	838	838	838	838	838	838	839	838	838	838	838	838	838	837	837	836	836	835	834	834	834	833	833	832	831	830	830	830	829	829	829	828	828	828	828	828	828	828	828	828	829	829	829	830	831	831	832	833	833	834	836	836	837	838	838	839	839	839	839	839	839	839	839	839	839	839	839	838	838	838	838	838	837	834	832	832	828	826	824	824	824	815	812	811	811	810	810	810	810	810	810	810	811	812	812	813	814	814	816	816	820	823	823	826	826	827	829	829	832	836	836	839	839	841	842	842	842	842	842	843	843	843	843	843	843	843	843	843	843	843	843	843	843	843	843	843	843	843	843	843	843	843	843	843	843	843	843	843	843	843	843	843	843	843	843	843	843	843	843	843	843	843	843	843	843	843	843	843	844	0	0	0	0	0	0	0	677	677	676	676	0	0	674	672	672	670	668	667	667	666	665	665	664	663	661	661	659	657	656	656	656	655	655	655	655	655	655	655	655	655	655	655	655	655	655	655	655	655	655	655	656	656	656	656	656	656	657	657	658	659	659	660	662	662	665	665	666	671	671	675	675	675	676	676	678	678	0	0	0	0	0	0	0	0	0	0	0	842	842	842	842	842	842	842	842	842	842	842	843	843	843	843	843	843	843	843	843	843	843	843	843	843	843	843	843	843	843	843	843	843	843	843	843	843	843	843	843	843	843	843	843	843	843	843	842	842	842	842	842	842	842	842	842	842	842	842	843	843	843	843	843	843	843	843	843	844	844	844	844	844	844	844	844	844	844	844	844	844	844	844	843	843	843	843	843	843	842	841	841	840	837	834	834	832	832	828	828	826	826	826	825	825	825	823	823	824	824	824	824	824	825	0	826	826	0	828	828	829	829	829	830	830	831	831	831	832	833	833	834	836	836	837	837	839	841	841	842	843	843	843	844	844	845	845	845	845	845	845	845	845	845	845	845	845	844	844	844	844	844	844	844	844	844	844	844	844	844	844	844	843	843	843	843	843	843	843	843	843	843	843	843	843	843	844	844	843	843	843	843	843	843	843	843	842	842	842	841	840	838	838	836	833	829	829	828	827	827	826	826	0	0	0	0	0	0	0	690	689	689	689	689	688	688	688	687	687	687	685	684	684	682	681	681	680	679	678	678	677	677	677	677	677	677	677	676	676	676	676	676	676	676	676	676	676	676	676	676	676	676	677	677	677	677	677	677	677	677	677	0	0	0	0	0	0	0	0	0	0	0	0	0	0	0	0	0	0	0	0	0	0	0	0	0	0	0	0	0	0	0	0	0	0	0	0	1790	1790	1790	1793	1793	1793	1793	1793	1793	1793	1793	1793	1798	1798	1798	1798	1798	1798	1798	1798	1798	1798	1798	1798	1798	1798	1798	1798	1793	1793	1793	1798	1798	1798	1800	1800	1800	1803	1803	1803	1805	1805	1805	1805	1805	1805	1805	1808	1808	1808	1808	1808	1810	1810	1810	1810	1810	1810	1808	1808	1808	1805	1805	1805	1805	1805
0	0	0	0	0	0	0	0	0	843	842	842	842	842	842	842	842	842	842	841	841	841	841	841	841	841	840	840	840	840	840	840	840	840	840	840	840	840	840	840	840	840	840	840	840	840	840	840	840	840	840	840	840	840	839	839	839	838	838	838	838	838	838	838	839	838	838	838	838	838	838	838	837	837	837	837	836	836	836	835	835	834	834	834	832	831	830	830	830	829	829	829	828	828	828	828	828	828	829	829	829	830	831	831	832	833	833	834	836	836	837	838	838	839	839	839	839	839	839	839	839	839	839	839	839	838	838	838	838	838	837	834	832	832	828	826	824	824	824	815	812	811	811	810	810	810	810	810	810	810	811	812	812	813	814	813	813	815	815	819	819	823	825	825	827	827	829	832	832	836	836	838	840	840	841	841	841	841	841	841	841	841	841	841	841	841	841	841	841	841	842	842	842	842	842	842	842	842	842	842	842	842	842	842	842	842	842	842	842	842	842	842	842	842	842	842	842	842	842	842	842	842	842	842	842	842	0	0	0	0	0	0	678	678	677	677	676	676	676	675	674	672	672	671	668	667	667	666	665	665	665	663	661	661	660	659	657	657	656	656	656	655	655	655	655	655	655	655	655	655	655	655	655	655	655	656	656	656	656	656	657	657	657	658	658	658	660	660	660	662	663	663	665	665	667	673	673	675	675	676	676	677	679	679	0	0	0	0	0	0	0	0	0	0	0	840	840	840	840	841	841	840	840	841	841	841	841	841	841	841	841	841	841	841	841	841	841	841	841	841	842	842	842	842	842	842	842	842	842	842	842	842	842	842	842	842	842	842	842	841	841	841	841	841	840	840	840	840	840	840	840	840	840	840	840	841	841	841	841	841	841	842	842	842	842	842	843	843	843	843	843	843	843	843	843	842	842	842	841	840	840	839	837	837	836	834	831	831	829	827	826	826	826	824	824	823	821	819	819	817	816	816	816	815	815	815	815	824	825	819	819	819	820	821	821	822	823	823	823	823	823	823	824	824	825	825	825	826	826	827	828	828	830	833	833	837	837	840	841	841	842	843	843	844	844	844	844	844	844	844	844	843	843	843	843	843	843	843	842	842	842	843	843	843	843	843	843	843	843	843	843	843	843	843	843	843	843	843	843	843	843	844	844	843	843	843	843	843	843	843	843	842	842	842	841	840	838	838	836	833	829	829	828	827	827	826	826	0	0	0	0	0	0	0	0	694	694	694	692	692	692	691	690	690	688	687	687	687	686	685	685	685	684	684	683	681	681	681	681	680	680	679	678	678	677	676	676	676	676	676	676	676	676	676	676	676	676	677	677	677	677	677	677	678	0	0	0	0	0	0	0	0	0	0	0	0	0	0	0	0	0	0	0	0	0	0	0	0	0	0	0	0	0	0	0	0	0	0	0	0	0	0	1790	1790	1790	1793	1793	1793	1793	1793	1793	1793	1793	1793	1798	1798	1798	1798	1798	1798	1798	1798	1798	1798	1798	1790	1786	1786	1786	1786	1786	1786	1786	1786	1790	1790	1790	1793	1793	1793	1798	1798	1798	1800	1800	1800	1800	1800	1800	1803	1803	1803	1805	1805	1808	1808	1808	1808	1808	1805	1805	1805	1803	1803	1803	1800	1800	1800
0	0	0	0	0	0	0	0	0	842	842	842	842	841	841	841	841	841	841	840	840	840	840	839	839	839	838	838	838	838	838	838	838	838	838	837	837	837	837	837	838	838	837	837	837	837	837	837	838	838	838	837	837	837	837	837	837	837	837	837	837	837	837	837	837	837	837	837	837	838	838	838	837	837	837	837	836	836	836	835	835	834	834	834	832	831	830	830	830	829	829	829	828	828	828	828	828	828	829	829	829	830	830	830	831	832	832	833	834	834	835	836	836	836	837	837	837	837	837	837	837	837	837	837	837	836	836	836	836	834	834	831	829	829	827	825	821	821	821	812	810	809	809	809	809	809	809	809	809	809	810	810	810	810	811	811	813	815	815	819	819	823	825	825	827	827	829	832	832	836	836	838	840	840	841	841	841	841	841	841	841	841	841	841	841	841	841	841	841	841	842	842	842	842	842	842	842	842	842	842	842	842	842	842	842	842	842	842	842	842	842	842	842	842	842	842	842	842	842	842	842	842	842	842	842	842	0	0	0	0	0	0	678	678	677	677	677	676	676	675	674	672	672	671	669	667	667	666	665	665	665	664	664	663	662	661	661	660	658	657	657	656	656	656	656	656	656	656	656	656	656	656	656	656	656	656	656	657	657	657	658	658	658	660	661	661	662	662	662	663	663	664	665	665	668	673	673	675	675	0	677	677	679	679	0	0	0	0	0	0	0	0	0	0	0	837	837	837	837	837	837	837	838	838	838	838	838	838	838	838	838	838	838	838	838	838	838	838	839	839	839	839	840	840	840	840	840	840	840	840	840	840	840	840	840	840	840	840	840	839	839	838	838	838	837	837	837	837	837	837	837	837	837	837	837	838	838	838	838	838	838	839	840	840	840	841	841	841	841	841	841	841	841	841	841	840	838	838	837	834	831	831	828	827	826	826	826	825	825	823	821	821	820	817	816	816	814	813	813	813	811	811	811	811	811	811	811	810	810	810	819	819	820	821	821	822	823	823	811	811	811	811	811	812	812	814	817	817	820	820	822	825	825	826	828	828	830	830	834	837	837	840	840	842	843	843	843	843	843	843	843	842	842	842	841	841	840	840	840	840	840	840	841	841	841	841	842	842	842	842	842	842	842	842	842	842	842	843	843	843	843	843	843	843	843	843	843	843	843	842	842	842	841	841	840	838	836	836	833	829	826	826	825	824	824	822	822	0	0	0	0	0	0	0	0	694	694	694	692	692	692	691	690	690	688	687	687	687	686	685	685	685	684	684	683	681	681	681	681	680	680	679	678	678	677	676	676	676	676	676	676	676	676	676	676	676	676	677	677	677	677	677	677	678	0	0	0	0	0	0	0	0	0	0	0	0	0	0	0	0	0	0	0	0	0	0	0	0	0	0	0	0	0	0	0	0	0	0	0	0	0	0	1790	1790	1786	1783	1783	1783	1783	1783	1783	1783	1783	1783	1786	1790	1790	1786	1786	1786	1786	1786	1786	1786	1790	1790	1786	1786	1786	1786	1786	1786	1786	1786	1790	1790	1790	1793	1793	1793	1798	1798	1798	1800	1800	1800	1800	1800	1800	1803	1803	1803	1805	1805	1808	1808	1808	1808	1808	1805	1805	1805	1803	1803	1803	1800	1800	1800
0	0	0	0	0	0	0	842	842	842	842	842	841	841	841	841	840	839	839	838	837	837	837	837	837	837	836	836	836	836	836	836	836	836	836	836	836	836	836	836	836	836	836	836	836	836	836	836	836	836	835	835	835	835	835	835	835	835	835	835	835	835	835	836	836	836	836	837	837	837	837	837	837	838	838	837	837	837	837	836	836	835	835	835	834	833	832	832	831	830	830	829	829	829	829	829	829	829	829	829	829	829	830	830	830	831	831	832	833	833	833	834	834	834	834	834	834	834	834	834	834	834	834	834	834	834	834	834	834	831	831	829	827	825	825	821	817	812	810	810	809	808	808	807	807	807	807	807	807	807	808	809	809	809	810	810	810	812	812	814	819	819	823	823	825	827	827	829	829	832	834	834	837	837	837	839	839	839	838	838	838	839	839	839	839	839	839	839	839	839	839	839	839	840	840	840	840	840	840	840	840	840	841	841	841	841	841	841	840	840	840	840	840	840	840	840	840	840	840	840	840	840	840	841	842	842	0	0	0	0	679	679	678	678	677	677	677	676	676	675	674	672	672	671	669	667	667	666	665	665	665	664	664	663	662	661	661	660	658	657	657	656	656	656	656	656	656	656	656	656	656	656	656	656	656	656	656	657	657	657	658	658	658	660	661	661	662	662	662	663	663	664	665	665	668	673	673	675	675	0	677	677	679	679	0	0	0	0	0	0	0	0	0	0	0	837	837	837	837	837	837	837	838	838	838	838	838	838	838	838	838	838	838	838	838	838	838	838	839	839	839	839	840	840	840	840	840	840	840	840	840	840	840	840	840	840	840	840	840	839	839	838	838	838	837	837	837	837	837	837	837	837	837	837	837	838	838	838	838	838	838	839	840	840	840	841	841	841	841	841	841	841	841	841	841	840	838	838	837	834	831	831	828	827	826	826	826	825	825	823	821	821	820	817	816	816	814	813	813	813	811	811	811	811	811	811	811	810	810	810	0	0	0	0	0	0	0	0	811	811	811	811	811	812	812	814	817	817	820	820	822	825	825	826	828	828	830	830	834	837	837	840	840	842	843	843	843	843	843	843	843	842	842	842	841	841	837	837	837	837	837	837	837	837	837	838	839	839	840	840	840	840	841	841	841	841	841	841	842	842	842	842	842	842	842	842	842	842	842	841	841	840	840	837	837	835	833	829	829	826	824	820	820	815	812	812	822	0	0	0	0	0	0	0	700	700	698	698	698	697	697	696	696	694	692	690	690	688	688	688	687	687	687	687	687	687	687	687	686	686	686	685	685	682	679	677	677	676	676	676	676	677	677	677	677	677	677	678	678	678	678	678	678	0	0	0	0	0	0	0	0	0	0	0	0	0	0	0	0	0	0	0	0	0	0	0	0	0	0	0	0	0	0	0	0	0	0	0	0	0	0	0	1776	1776	1776	1776	1776	1776	1776	1776	1776	1776	1776	1776	1776	1776	1776	1776	1776	1776	1776	1776	1781	1781	1781	1781	1781	1781	1781	1776	1776	1781	1781	1781	1783	1783	1783	1783	1783	1786	1786	1786	1790	1790	1790	1793	1793	1793	1793	1798	1798	1798	1800	1800	1803	1803	1803	1803	1803	1803	1800	1800	1798	1798	1798	1793	1793	1793
0	0	0	0	0	0	0	842	842	842	842	842	841	841	841	841	840	839	839	838	837	837	837	837	837	837	836	836	836	836	836	836	836	836	836	836	836	836	836	836	836	836	836	836	836	836	836	836	836	836	835	835	835	835	835	835	835	835	835	835	835	835	835	836	836	836	836	837	837	837	837	837	837	838	838	837	837	837	837	837	837	837	835	835	835	834	834	833	831	830	830	830	829	829	829	829	829	829	829	829	829	829	830	830	830	831	831	832	833	833	833	834	834	834	834	834	834	834	834	834	834	834	834	834	834	834	834	834	834	831	831	829	827	825	825	821	817	812	810	810	809	808	808	804	804	804	804	805	806	806	806	807	807	808	809	809	809	810	810	811	814	814	819	819	823	826	826	827	827	829	830	830	833	834	834	835	836	836	836	836	836	836	836	836	836	836	836	836	836	836	836	836	836	836	837	837	837	837	837	837	837	837	837	838	838	838	838	838	838	838	838	837	837	837	837	837	837	837	837	837	837	840	840	841	0	0	0	0	0	679	679	679	678	678	677	677	677	676	676	676	675	675	674	672	670	670	668	667	666	666	665	664	664	664	663	662	662	661	660	660	659	658	657	657	657	657	657	657	657	657	657	657	657	657	657	658	658	659	659	659	660	661	661	662	662	663	663	663	664	665	665	665	666	666	669	670	674	675	675	0	677	677	678	678	0	0	0	0	0	0	0	0	0	0	834	834	834	834	834	834	834	834	834	834	835	835	835	835	835	835	835	835	835	835	835	835	835	835	835	836	836	836	836	836	836	836	836	837	837	837	837	837	837	837	837	837	837	837	837	836	836	836	835	834	834	834	835	835	835	834	834	834	834	834	834	835	835	835	835	835	835	835	835	835	837	837	837	837	837	837	837	837	835	834	830	830	828	826	826	825	823	819	819	819	819	815	815	814	813	813	813	813	813	812	811	811	811	810	810	810	810	809	809	809	809	809	808	807	807	806	804	803	803	803	803	0	0	0	811	811	811	811	811	812	812	814	817	817	812	812	812	814	819	819	823	823	826	827	827	829	829	832	836	836	839	839	841	842	842	841	841	840	840	839	839	837	837	837	837	837	837	837	837	837	837	838	839	839	840	840	840	840	841	841	841	841	841	841	842	842	842	842	842	842	842	842	842	842	842	841	841	840	840	837	837	835	833	829	829	826	824	820	820	815	812	812	0	0	0	0	0	0	0	0	700	700	700	700	700	699	699	699	699	698	698	697	695	692	691	691	691	690	690	690	689	689	688	688	688	688	0	0	0	0	681	678	678	678	677	677	677	677	677	677	677	0	678	678	679	679	0	0	0	0	0	0	0	0	0	0	0	0	0	0	0	0	0	0	0	0	0	0	0	0	0	0	0	0	0	0	0	0	0	0	0	0	0	0	0	0	0	0	1776	1776	1776	1776	1776	1776	1776	1776	1776	1776	1776	1776	1776	1766	1766	1766	1766	1766	1766	1769	1769	1769	1769	1769	1769	1773	1773	1773	1769	1769	1769	1773	1773	1773	1776	1776	1776	1776	1781	1781	1783	1783	1783	1783	1786	1786	1790	1790	1790	1793	1798	1798	1798	1800	1800	1800	1800	1800	1798	1798	1793	1790	1790	1790	1786	1786
0	0	0	0	0	0	0	841	841	841	840	840	839	839	838	838	837	837	837	836	835	835	835	834	834	834	834	834	834	834	834	834	834	834	834	834	834	834	834	834	834	834	833	833	833	833	834	834	834	834	834	834	834	833	833	833	833	833	833	833	833	833	834	834	834	834	834	834	836	836	836	837	837	837	837	837	837	837	837	837	837	837	835	835	835	834	834	833	831	830	830	830	829	829	829	829	829	829	829	829	829	829	829	829	830	830	830	830	831	831	831	832	832	832	833	833	832	832	832	832	832	832	831	831	831	830	830	830	829	828	828	827	825	822	817	817	813	810	809	809	807	806	806	804	804	804	804	805	806	806	806	807	807	808	809	809	809	810	810	811	814	814	819	819	823	826	826	827	827	829	830	830	833	834	834	835	836	836	836	836	836	836	836	836	836	836	836	836	836	836	836	836	836	836	837	837	837	837	837	837	837	837	837	838	838	838	838	838	838	838	838	837	837	837	837	837	837	837	837	837	837	0	0	0	0	0	0	0	0	679	679	679	678	678	678	678	677	677	677	676	675	675	674	674	672	672	670	667	666	666	665	665	665	664	664	663	663	663	662	662	661	660	660	659	659	659	659	658	658	658	658	658	659	659	659	660	660	661	661	661	662	662	663	663	663	664	664	664	665	665	665	666	667	667	670	670	674	675	675	0	0	678	678	678	0	0	0	0	0	0	0	0	0	0	834	834	831	831	831	831	831	832	832	832	832	832	832	832	832	832	832	832	832	832	832	832	832	832	832	833	833	833	833	833	833	833	833	834	834	834	834	835	834	834	834	834	834	834	834	834	834	834	833	832	832	832	833	833	833	832	832	832	832	832	832	832	832	832	831	831	831	831	831	831	832	833	832	832	834	833	830	829	829	827	826	823	823	819	813	811	811	809	809	809	809	809	809	809	809	809	810	810	810	810	810	810	810	810	810	810	809	809	809	808	807	807	806	804	801	801	799	797	796	796	796	796	796	796	796	796	796	797	798	798	799	799	801	804	804	807	809	809	810	810	813	817	817	822	822	825	827	827	829	829	832	836	836	837	839	839	840	839	837	837	837	835	834	834	834	834	835	834	834	834	834	835	835	835	837	837	837	837	838	838	838	838	838	839	840	840	840	841	841	841	841	841	841	841	841	840	840	838	837	834	834	832	829	827	827	824	817	812	810	810	808	801	801	0	0	0	0	0	0	0	700	700	700	700	700	699	699	699	699	698	698	697	695	692	691	691	691	690	690	690	689	689	688	688	688	688	691	0	0	0	681	678	678	676	676	677	677	677	677	677	677	678	678	678	679	679	0	0	0	0	0	0	0	0	0	0	0	0	0	0	0	0	0	0	0	0	0	0	0	0	0	0	0	0	0	0	0	0	0	0	0	0	0	0	0	0	0	0	1766	1766	1766	1766	1766	1766	1766	1766	1766	1766	1766	1766	1766	1766	1766	1766	1766	1766	1766	1769	1769	1769	1769	1769	1769	1773	1773	1773	1769	1769	1769	1773	1773	1773	1776	1776	1776	1776	1781	1781	1783	1783	1783	1783	1786	1786	1790	1790	1790	1793	1798	1798	1798	1800	1800	1800	1800	1800	1798	1798	1793	1790	1790	1790	1786	1786
0	0	0	0	0	0	840	839	839	838	837	837	837	836	836	836	835	834	834	834	833	833	833	832	832	832	832	832	832	832	831	831	831	831	832	832	832	832	832	832	832	831	831	831	831	831	831	831	831	831	831	831	830	830	830	830	830	830	830	830	830	830	831	831	831	832	832	833	834	834	834	835	835	836	837	837	837	837	837	837	837	836	836	836	835	834	834	834	832	831	831	830	830	830	829	829	829	829	829	829	829	829	829	829	829	829	829	830	830	830	830	830	830	830	830	830	830	830	830	829	829	829	829	828	828	828	828	828	827	826	825	825	823	822	813	813	811	809	807	807	805	803	802	802	802	803	804	804	804	804	804	805	805	806	807	807	809	809	809	810	812	812	815	819	821	824	824	826	827	827	828	828	829	831	831	832	832	832	832	832	832	833	833	833	833	833	833	833	833	833	833	833	833	833	833	833	834	834	834	834	834	834	834	834	835	835	835	835	835	835	835	835	835	835	835	835	835	835	835	835	835	0	0	0	0	0	0	679	679	679	678	678	678	678	678	678	677	677	677	676	675	675	674	674	672	672	670	667	666	666	665	665	665	664	664	663	663	663	662	662	661	660	660	659	659	659	659	658	658	658	658	658	659	659	659	660	660	661	661	661	662	662	663	663	663	664	664	664	665	665	665	666	667	667	670	670	674	675	675	676	676	678	678	678	0	0	0	0	0	0	0	0	0	0	0	0	831	831	831	831	831	832	832	832	832	832	832	832	832	832	832	832	832	832	832	832	832	832	832	833	833	833	833	833	833	833	833	834	834	834	834	835	834	834	834	834	834	834	834	834	834	834	833	832	832	832	833	833	833	832	832	832	832	832	832	832	832	832	831	831	831	831	831	831	832	833	832	832	834	833	830	829	829	827	826	823	823	819	813	811	811	809	809	809	809	809	809	809	809	809	810	810	810	810	810	810	810	810	810	810	809	809	809	808	807	807	806	804	801	801	799	797	796	796	796	796	796	796	796	796	796	797	798	798	799	799	801	804	804	807	809	809	810	810	813	817	817	822	822	825	827	827	829	829	832	836	831	831	834	834	837	837	836	834	834	833	833	833	833	832	832	832	831	831	831	831	832	834	834	834	834	834	834	834	835	836	836	836	837	837	837	838	838	838	839	839	839	839	838	837	835	835	834	831	831	829	827	826	826	821	814	810	810	801	801	796	793	793	0	0	0	0	0	0	0	0	704	704	703	702	701	701	701	700	700	699	698	697	697	697	695	695	695	695	695	694	693	692	692	691	691	696	696	0	0	0	0	676	676	0	677	677	678	678	678	678	678	679	680	680	0	0	0	0	0	0	0	0	0	0	0	0	0	0	0	0	0	0	0	0	0	0	0	0	0	0	0	0	0	0	0	0	0	0	0	0	0	0	0	0	0	0	1750	1747	1747	1747	1747	1747	1747	1750	1750	1750	1752	1752	1752	1754	1757	1757	1759	1759	1759	1759	1759	1759	1762	1762	1762	1762	1762	1762	1766	1766	1766	1766	1766	1766	1766	1769	1769	1769	1773	1773	1773	1776	1776	1776	1781	1781	1783	1783	1783	1786	1790	1790	1793	1793	1793	1793	1793	1793	1790	1790	1786	1786	1786	1783	1781	1781
0	0	0	0	0	0	840	839	839	838	837	837	837	836	836	836	835	834	834	834	833	833	833	832	832	832	832	832	832	832	831	831	831	831	832	832	832	832	832	832	832	831	831	831	831	831	831	831	831	831	831	831	830	830	830	830	830	830	830	830	830	830	831	831	831	832	832	833	834	834	834	835	835	836	837	837	837	837	837	837	837	836	836	836	835	834	834	834	832	831	831	830	830	830	829	829	829	829	829	829	829	829	829	829	829	829	829	830	830	830	830	830	830	830	830	830	830	830	830	829	829	829	829	828	828	828	828	828	827	826	821	821	819	813	811	809	809	808	805	805	803	801	801	801	801	801	801	801	802	803	803	803	804	804	805	807	807	808	808	809	810	810	812	816	816	821	821	824	825	825	826	827	827	828	828	829	829	829	829	829	830	830	830	830	830	830	830	830	830	830	830	830	830	830	830	830	830	830	830	830	830	830	830	831	831	831	832	832	832	832	832	832	832	832	831	831	832	831	831	831	831	832	0	0	0	0	0	679	679	678	678	678	678	678	678	678	677	677	677	676	676	676	675	674	673	673	671	669	667	667	666	665	665	665	664	664	664	663	663	663	662	662	662	661	661	661	660	660	660	660	660	660	660	660	661	661	662	662	662	663	664	664	664	665	665	665	665	665	665	666	666	667	669	669	671	671	675	675	675	676	676	0	0	0	0	0	0	0	0	0	0	0	0	0	0	0	829	829	829	829	829	829	829	829	830	829	829	830	829	829	829	829	830	830	830	829	829	830	830	830	830	830	830	830	830	830	831	831	831	831	831	832	832	832	832	832	832	832	832	831	831	831	830	830	830	830	830	830	830	830	830	829	829	829	829	829	829	829	829	828	828	828	828	828	828	828	829	829	828	828	826	825	821	821	815	811	810	807	807	803	800	800	800	801	801	801	802	803	803	805	806	806	807	809	809	809	809	809	809	809	809	808	808	807	806	806	804	801	798	796	796	795	795	795	794	794	794	794	794	794	794	794	794	794	794	796	796	797	800	800	802	802	806	809	809	810	810	812	816	816	821	821	825	826	826	829	829	831	834	834	837	837	836	834	834	833	833	833	833	832	832	832	831	831	831	831	832	834	834	834	834	834	834	834	835	836	836	836	837	837	837	838	838	838	839	839	839	839	838	837	835	835	834	831	831	829	827	826	826	821	814	810	810	801	801	796	793	793	0	0	0	0	0	0	0	0	0	710	709	707	707	706	705	703	703	701	700	700	700	699	699	699	698	698	698	698	698	698	698	697	697	696	696	0	0	0	0	0	0	0	678	678	0	681	681	0	0	0	0	0	0	0	0	0	0	0	0	0	0	0	0	0	0	0	0	0	0	0	0	0	0	0	0	0	0	0	0	0	0	0	0	0	0	0	0	0	0	0	0	0	0	0	1750	1747	1747	1747	1743	1743	1743	1743	1743	1743	1745	1745	1745	1745	1747	1747	1750	1752	1752	1754	1754	1754	1757	1757	1757	1757	1757	1757	1759	1759	1759	1759	1762	1762	1762	1762	1762	1766	1766	1766	1769	1769	1769	1769	1773	1773	1776	1776	1776	1781	1783	1783	1786	1786	1786	1790	1790	1790	1786	1786	1783	1781	1781	1776	1773	1769
0	0	0	0	0	0	837	837	837	837	836	835	835	834	834	834	833	832	832	831	830	830	830	830	830	830	830	830	830	830	830	830	830	830	830	830	830	830	830	830	830	830	829	829	829	829	829	829	829	829	829	829	829	829	829	829	829	829	829	829	829	829	829	829	829	830	830	830	831	831	833	834	834	834	835	835	835	836	836	836	836	836	835	835	835	834	834	833	832	831	831	830	830	830	829	829	829	829	828	828	828	828	828	828	828	828	828	829	829	829	829	829	829	829	828	828	828	828	828	828	828	828	827	827	827	826	826	826	826	824	821	821	819	813	811	809	809	808	805	805	803	801	801	801	801	801	801	801	802	803	803	803	804	804	805	807	807	808	808	809	810	810	812	816	816	821	821	824	825	825	826	827	827	828	828	829	829	829	829	829	830	830	830	830	830	830	830	830	830	830	830	830	830	830	830	830	830	830	830	830	830	830	830	831	831	831	832	832	832	832	832	832	832	832	831	831	832	831	831	831	831	832	0	0	0	0	0	0	0	678	678	678	678	678	678	678	678	677	677	677	676	676	676	675	675	675	672	670	670	669	667	666	666	666	665	665	665	664	664	664	664	663	663	663	662	662	662	662	662	662	662	662	662	662	662	662	663	664	664	664	665	665	665	665	665	666	666	666	667	667	667	669	669	670	672	672	675	676	676	676	676	677	0	0	0	0	0	0	0	0	0	0	0	0	0	0	828	828	828	828	828	828	828	828	828	828	828	828	828	828	828	828	828	828	828	828	828	828	828	828	828	828	828	828	828	829	829	829	829	829	829	830	830	830	830	830	830	830	830	830	829	829	829	829	829	829	828	828	828	828	828	828	828	828	828	827	827	827	827	827	827	827	826	826	826	826	826	826	825	821	814	814	810	810	815	811	810	796	795	795	794	794	795	795	795	796	796	797	798	798	802	802	804	806	806	807	807	807	808	808	807	807	807	806	804	801	801	800	797	795	795	794	793	793	792	792	792	791	791	791	791	791	791	791	792	793	793	794	795	795	796	798	798	801	801	804	807	807	810	810	812	816	816	821	821	825	827	827	830	830	834	835	834	832	830	830	830	830	830	830	829	829	829	829	829	829	829	830	830	830	830	830	831	831	831	833	834	834	834	834	834	835	835	835	836	836	836	836	836	834	833	833	831	829	828	828	826	824	817	811	811	810	804	797	794	794	792	792	0	0	0	0	0	0	0	0	0	710	709	707	707	706	705	703	703	701	700	700	700	699	699	699	698	698	698	698	698	698	698	697	697	696	696	700	0	0	0	0	0	0	678	678	0	681	681	0	0	0	0	0	0	0	0	0	0	0	0	0	0	0	0	0	0	0	0	0	0	0	0	0	0	0	0	0	0	0	0	0	0	0	0	0	0	0	0	0	0	0	0	0	0	0	1740	1740	1740	1740	1740	1743	1743	1743	1743	1743	1745	1745	1745	1745	1747	1747	1750	1752	1752	1754	1754	1754	1757	1757	1757	1757	1757	1757	1759	1759	1759	1759	1762	1762	1762	1762	1762	1766	1766	1766	1769	1769	1769	1769	1773	1773	1776	1776	1776	1781	1783	1783	1786	1786	1786	1790	1790	1790	1786	1786	1783	1781	1781	1776	1773	1769
0	0	0	0	0	835	835	834	834	834	834	831	831	831	830	829	829	829	829	829	829	828	828	828	828	828	828	828	828	828	828	828	828	828	828	828	828	828	828	828	828	828	828	828	828	828	828	828	828	828	828	828	828	828	828	828	828	828	828	828	828	828	828	828	828	828	828	829	829	829	830	831	831	832	833	833	834	834	834	834	834	834	834	834	834	833	833	832	830	830	830	829	829	829	828	828	828	828	828	828	828	828	828	828	828	828	828	828	828	828	828	828	828	828	828	828	827	827	827	827	827	827	826	826	826	825	824	823	823	821	817	817	817	811	809	808	808	806	804	801	801	800	800	800	800	800	800	800	801	801	801	801	802	802	804	805	805	807	807	808	809	809	811	813	813	817	817	821	823	823	825	826	826	827	827	827	828	828	828	828	828	828	828	828	828	828	828	828	828	828	828	828	828	828	828	828	828	828	828	828	828	828	828	828	829	829	829	829	829	829	829	829	829	829	829	829	828	828	828	829	831	832	0	0	0	0	0	678	678	678	678	678	678	678	678	678	677	677	677	677	676	676	676	675	675	675	672	670	670	669	667	666	666	666	665	665	665	664	664	664	664	663	663	663	662	662	662	662	662	662	662	662	662	662	662	662	663	664	664	664	665	665	665	665	665	666	666	666	667	667	667	669	669	670	674	674	675	676	676	676	676	677	0	0	0	0	0	0	0	0	0	0	0	0	0	0	828	828	828	828	828	828	828	828	828	828	828	828	828	828	828	828	828	828	828	828	828	828	828	828	828	828	828	828	828	829	829	829	829	829	829	830	830	830	830	830	830	830	830	830	829	829	829	829	829	829	828	828	828	828	828	828	828	828	828	827	827	827	827	827	827	827	826	826	826	826	826	826	825	821	814	814	810	810	0	0	0	796	795	795	794	794	795	795	795	796	796	797	798	798	802	802	804	806	806	807	807	807	808	808	807	807	807	806	804	801	801	800	797	795	795	794	793	793	792	792	792	791	791	791	791	791	791	791	792	793	793	794	795	795	796	798	798	801	801	804	807	803	803	807	807	809	812	812	816	816	823	823	826	828	828	830	830	830	829	829	829	828	828	828	828	828	828	828	828	828	828	828	828	828	829	829	829	829	829	830	830	830	830	831	831	832	833	833	833	834	833	833	833	832	830	830	829	828	826	826	825	824	817	810	810	807	800	796	793	793	790	787	787	0	0	0	0	0	0	0	0	711	711	711	710	709	708	708	707	706	706	704	703	702	702	702	701	701	701	701	701	701	701	701	701	700	700	700	0	0	0	0	0	0	0	0	0	0	0	0	0	0	0	0	0	0	0	0	0	0	0	0	0	0	0	0	0	0	0	0	0	0	0	0	0	0	0	0	0	0	0	0	0	0	0	0	0	0	0	0	0	0	0	0	0	0	1740	1736	1736	1736	1736	1738	1738	1738	1738	1738	1738	1740	1740	1743	1745	1745	1747	1747	1747	1750	1752	1752	1752	1754	1754	1757	1757	1757	1757	1757	1757	1757	1757	1757	1759	1759	1759	1759	1759	1759	1762	1762	1762	1762	1766	1766	1766	1773	1773	1773	1776	1776	1776	1781	1781	1783	1783	1783	1781	1781	1781	1776	1776	1773	1769	1766
0	0	0	0	0	835	835	834	834	834	834	831	831	831	830	829	829	829	829	829	829	828	828	828	828	828	828	828	828	828	828	828	828	828	828	828	828	828	828	828	828	828	828	828	828	828	828	828	828	828	828	828	828	828	828	828	828	828	828	828	828	828	828	828	828	828	828	829	829	829	830	831	831	832	833	833	834	834	834	834	834	834	834	834	834	833	833	832	830	830	830	829	829	829	828	828	828	828	828	828	828	828	828	828	828	828	828	828	828	828	828	828	828	828	828	828	827	826	826	826	825	825	825	824	823	823	821	819	815	815	813	811	811	809	808	806	806	804	801	800	800	799	799	799	799	799	799	799	799	800	800	800	801	801	801	804	804	805	807	807	808	808	810	811	811	814	817	817	820	820	823	824	824	825	826	826	826	826	826	826	826	826	827	827	827	826	826	826	826	826	826	826	826	826	826	826	826	826	826	826	826	827	827	827	827	827	827	827	827	827	827	827	827	827	827	827	827	827	827	827	0	0	0	0	0	0	0	678	678	678	678	678	678	678	678	678	677	677	677	677	676	676	676	676	676	675	674	672	672	671	669	668	668	667	666	666	665	665	665	665	665	665	665	664	664	664	664	664	664	663	663	663	663	664	664	664	664	664	664	665	665	665	665	666	666	667	667	667	668	670	670	671	671	672	674	674	675	676	676	676	676	677	678	678	0	0	0	0	0	0	0	0	0	0	0	0	827	827	827	827	827	827	827	827	827	827	827	827	827	827	827	827	827	827	827	827	827	827	827	827	827	827	827	827	827	827	827	827	828	828	828	828	828	828	828	828	828	828	828	828	828	828	828	828	828	828	827	827	827	827	827	827	826	826	826	826	826	826	826	825	825	825	825	825	825	824	824	823	819	812	812	814	810	810	795	793	793	792	791	789	789	789	791	791	792	793	793	794	795	795	797	800	800	802	802	804	806	806	806	807	807	806	806	804	804	801	801	798	796	795	795	794	793	793	792	791	791	789	789	788	788	788	788	789	789	789	791	791	792	792	793	794	794	796	797	797	799	803	803	807	807	809	812	812	816	816	823	823	826	828	828	830	830	830	829	829	829	828	828	828	828	828	828	828	828	828	828	828	828	828	829	829	829	829	829	830	830	830	830	831	831	832	833	833	833	834	833	833	833	832	830	830	829	828	826	826	825	825	0	810	810	807	800	796	793	793	790	787	787	0	0	0	0	0	0	0	0	713	712	712	711	711	711	711	709	709	709	707	706	706	706	705	705	704	704	704	704	704	704	704	704	704	704	704	0	0	0	0	0	0	0	0	0	0	0	0	0	0	0	0	0	0	0	0	0	0	0	0	0	0	0	0	0	0	0	0	0	0	0	0	0	0	0	0	0	0	0	0	0	0	0	0	0	0	0	0	0	0	0	0	0	0	0	1727	1727	1727	1727	1731	1734	1734	1734	1736	1736	1736	1738	1738	1740	1740	1745	1747	1747	1747	1747	1747	1750	1752	1752	1754	1754	1754	1754	1754	1754	1754	1754	1754	1754	1757	1757	1757	1757	1757	1757	1757	1757	1759	1759	1759	1759	1762	1762	1766	1769	1769	1773	1773	1773	1776	1776	1776	1776	1776	1773	1773	1769	1769	1762	1762
0	0	0	0	834	832	832	830	830	830	830	829	829	829	828	828	828	828	827	827	827	827	827	827	827	827	827	827	827	827	827	827	827	827	827	827	827	827	827	827	827	827	827	827	827	827	827	827	827	827	827	827	827	827	827	827	827	827	826	826	826	826	827	827	827	827	827	827	828	828	829	829	829	830	830	830	831	832	832	832	832	832	832	832	831	830	830	830	829	829	829	828	828	828	828	828	828	827	827	827	827	827	827	827	827	827	827	827	827	827	827	827	827	827	826	826	826	826	826	826	825	825	825	824	823	823	821	819	815	815	813	811	811	809	808	806	806	804	801	800	800	799	799	799	799	799	799	799	799	800	800	800	801	801	801	804	804	805	807	807	808	808	810	811	811	814	817	817	820	820	823	824	824	825	826	826	826	826	826	826	826	826	827	827	827	826	826	826	826	826	826	826	826	826	826	826	826	826	826	826	826	827	827	827	827	827	827	827	827	827	827	827	827	827	827	827	827	827	827	827	0	0	0	0	0	0	0	678	678	678	678	678	678	678	678	678	678	678	678	677	677	677	676	676	676	676	675	675	674	673	671	671	670	668	667	667	666	666	666	666	665	665	665	665	665	665	665	664	664	664	665	665	665	665	665	665	665	665	665	665	666	666	666	667	667	668	668	669	670	670	671	672	672	673	675	675	676	676	676	676	676	677	678	678	0	0	0	0	0	0	0	0	0	0	0	0	826	826	826	826	826	826	826	826	826	826	826	826	826	826	826	826	826	826	826	826	826	826	826	826	826	826	826	826	826	826	826	826	827	827	827	827	827	827	828	828	828	828	828	827	827	827	827	827	827	827	827	826	826	826	826	826	825	825	825	825	824	824	824	823	823	821	821	819	819	817	814	811	811	807	807	0	0	788	788	785	783	783	783	783	783	783	786	787	787	789	792	792	794	794	795	797	797	799	801	801	802	802	804	805	804	804	804	803	801	800	800	798	796	795	795	794	793	793	792	791	791	789	789	788	788	788	788	789	789	789	790	790	791	791	791	792	792	793	794	794	795	796	796	799	802	802	812	810	810	814	814	821	821	825	825	827	827	827	827	827	827	827	827	827	826	826	826	826	826	826	826	826	826	827	827	827	827	827	827	828	828	828	828	828	828	829	829	829	830	830	830	830	830	829	828	828	828	827	826	826	824	819	813	810	810	805	799	795	793	793	789	784	782	782	761	761	0	0	720	720	720	713	712	712	711	711	711	711	709	709	709	707	706	706	706	705	705	704	704	704	704	704	704	704	704	704	704	704	0	0	0	0	0	0	0	0	0	0	0	0	0	0	0	0	0	0	0	0	0	0	0	0	0	0	0	0	0	0	0	0	0	0	0	0	0	0	0	0	0	0	0	0	0	0	0	0	0	0	0	0	0	0	0	0	0	0	0	1727	1727	1727	1727	1731	1734	1734	1734	1736	1736	1736	1738	1738	1740	1740	1745	1747	1747	1747	1747	1747	1750	1752	1752	1754	1754	1754	1754	1754	1754	1754	1754	1754	1754	1757	1757	1757	1757	1757	1757	1757	1757	1759	1759	1759	1759	1762	1762	1766	1769	1769	1773	1773	1773	1776	1776	1776	1776	1776	1773	1773	1769	1769	1762	1762
0	0	0	0	829	829	829	828	828	828	828	828	827	827	827	826	826	826	826	826	826	826	826	826	826	826	826	826	826	826	826	826	826	826	826	826	826	826	826	826	826	826	826	826	826	826	826	826	826	826	826	826	826	826	826	826	826	826	826	826	826	826	826	826	826	826	826	826	827	827	827	828	828	828	829	829	829	830	830	830	830	830	829	829	829	829	829	829	828	828	828	827	827	827	827	827	827	826	826	826	826	826	826	826	826	826	826	826	826	826	826	826	826	826	825	825	825	825	825	824	823	822	822	821	819	819	817	814	812	812	810	809	808	808	806	804	804	802	800	799	799	798	798	798	798	798	798	798	798	798	798	798	799	799	800	802	802	804	805	805	807	807	809	810	810	811	813	813	817	819	819	821	821	823	824	824	825	825	825	825	825	825	825	825	825	825	825	825	825	825	825	825	825	825	825	825	825	825	825	825	825	825	826	826	826	826	826	826	826	826	826	826	826	826	826	826	826	826	826	827	0	0	0	0	0	0	677	677	677	677	677	677	677	678	678	678	678	678	678	677	677	677	676	676	676	676	675	675	674	673	671	671	670	668	667	667	666	666	666	666	665	665	665	665	665	665	665	664	664	664	665	665	665	665	665	665	665	665	665	665	666	666	667	668	668	669	669	670	671	671	672	673	673	674	675	675	676	676	676	677	677	677	678	678	0	0	0	0	0	0	0	0	0	0	0	0	826	826	826	826	826	826	826	826	826	826	826	826	826	826	826	826	826	826	826	826	826	826	826	826	826	826	826	826	826	826	826	826	827	827	827	827	827	827	828	828	828	828	828	827	827	827	827	827	827	827	827	826	826	826	826	826	825	825	825	825	824	824	824	823	823	821	821	819	819	817	814	811	811	807	807	0	0	788	788	785	783	783	783	783	783	783	786	787	787	789	792	792	794	794	795	797	797	799	801	801	802	802	804	805	804	804	804	803	801	800	800	798	796	795	795	794	793	793	792	791	791	790	789	789	789	789	789	789	789	789	790	790	791	791	791	792	792	792	793	793	793	794	794	794	796	796	799	810	809	809	809	812	812	819	824	824	826	826	826	826	826	826	826	825	825	825	825	825	825	825	825	825	825	825	826	826	826	826	826	826	826	826	826	827	827	828	828	828	828	828	828	828	828	828	827	827	827	826	825	825	822	817	812	809	809	805	799	794	789	783	779	779	772	764	761	761	0	723	720	720	720	715	713	713	712	711	711	711	710	709	709	709	707	707	707	706	706	706	706	706	705	705	704	704	704	705	705	707	0	0	0	0	0	0	0	0	0	0	0	0	0	0	0	0	0	0	0	0	0	0	0	0	0	0	0	0	0	0	0	0	0	0	0	0	0	0	0	0	0	0	0	0	0	0	0	0	0	0	0	0	0	0	0	0	0	0	0	1709	1709	1715	1715	1718	1722	1722	1724	1729	1729	1731	1736	1736	1740	1740	1743	1745	1745	1747	1747	1747	1747	1750	1750	1752	1752	1752	1752	1752	1752	1752	1752	1752	1752	1752	1752	1752	1754	1754	1754	1754	1754	1754	1754	1757	1757	1759	1759	1759	1762	1762	1766	1766	1766	1769	1769	1769	1769	1769	1769	1766	1762	1762	1759	1757
0	0	0	0	829	829	829	828	828	828	828	828	827	827	827	826	826	826	826	826	826	826	826	826	826	826	826	826	826	826	826	826	826	826	826	826	826	826	826	826	826	826	826	826	826	826	826	826	826	826	826	826	826	826	826	826	826	826	826	826	826	826	826	826	826	826	826	826	827	827	827	828	828	828	829	829	829	830	830	830	830	830	829	829	829	829	829	829	828	828	828	827	827	827	827	827	827	826	826	826	826	826	826	826	826	826	826	826	825	825	825	825	825	824	824	824	823	822	821	821	820	819	819	817	814	813	813	811	810	810	809	808	806	806	804	802	802	801	799	798	798	797	797	797	797	797	797	797	797	797	797	797	798	798	799	800	800	801	803	803	805	807	807	809	809	810	812	812	814	815	815	817	821	821	822	822	823	823	823	824	824	824	824	824	824	824	824	824	823	823	823	823	823	823	823	823	823	823	823	823	823	824	824	824	824	825	825	825	825	825	825	825	825	825	825	825	825	825	825	825	0	0	0	0	0	0	677	677	677	677	677	677	677	678	678	678	678	678	678	678	678	678	677	677	677	676	676	676	675	674	673	673	671	671	671	669	668	667	667	667	667	667	666	666	666	666	665	665	665	665	665	665	665	665	665	665	666	666	666	666	667	667	667	668	668	669	669	670	671	671	672	673	673	674	675	675	676	676	676	677	677	677	678	678	0	0	0	0	0	0	0	0	0	0	826	826	826	826	826	826	826	825	825	825	825	825	825	825	825	825	825	825	825	825	825	824	824	824	824	825	825	825	825	825	825	825	826	826	826	826	826	826	826	826	826	826	826	826	826	826	826	826	826	826	826	826	826	826	826	825	825	825	824	824	824	823	822	822	822	820	819	819	817	814	814	813	810	808	800	800	800	0	786	782	780	780	780	780	780	780	780	782	782	783	783	787	789	789	792	792	794	795	795	797	799	799	801	802	802	804	803	803	801	801	801	800	800	797	796	795	795	794	793	793	792	791	791	790	789	789	789	789	789	789	789	791	791	791	791	791	791	792	792	792	793	793	793	794	794	794	796	796	799	0	809	809	809	812	812	819	824	824	826	826	826	826	826	826	826	825	825	825	825	825	825	825	825	825	825	825	826	826	826	826	826	826	826	826	826	827	827	828	828	828	828	828	828	828	828	828	827	827	827	826	825	825	822	817	812	809	809	809	799	794	789	783	779	779	772	764	764	0	0	723	721	721	721	717	714	714	712	712	712	711	711	711	710	709	708	708	707	707	707	707	706	706	706	706	706	706	706	706	706	707	0	0	0	0	0	0	0	0	0	0	0	0	0	0	0	0	0	0	0	0	0	0	0	0	0	0	0	0	0	0	0	0	0	0	0	0	0	0	0	0	0	0	0	0	0	0	0	0	0	0	0	0	0	0	0	0	0	0	1689	1689	1689	1695	1695	1702	1709	1709	1711	1722	1722	1727	1734	1734	1738	1738	1740	1740	1740	1745	1747	1747	1747	1747	1747	1750	1750	1750	1750	1752	1752	1752	1752	1752	1750	1750	1752	1750	1750	1750	1750	1750	1750	1750	1752	1752	1752	1754	1754	1754	1757	1759	1759	1759	1762	1762	1762	1762	1762	1762	1762	1759	1757	1757	1757	1752
0	0	0	0	829	827	827	827	827	826	826	826	826	826	826	825	825	825	825	825	825	825	825	825	825	825	825	825	826	826	826	825	825	825	826	826	826	826	826	826	826	826	825	825	825	825	825	825	825	825	825	825	825	825	824	824	824	824	824	824	825	825	825	825	825	825	825	825	826	826	826	827	827	827	827	828	828	828	828	828	828	828	828	828	828	828	827	827	827	827	827	826	826	826	826	826	826	826	826	826	826	826	826	826	826	826	826	826	825	825	825	825	825	824	824	824	823	822	821	821	820	819	819	817	814	813	813	811	810	810	809	808	806	806	804	802	802	801	799	798	798	797	797	797	797	797	797	797	797	797	797	797	798	798	799	800	800	801	803	803	805	807	807	809	809	810	812	812	814	815	815	817	821	821	822	822	823	823	823	824	824	824	824	824	824	824	824	824	823	823	823	823	823	823	823	823	823	823	823	823	823	824	824	824	824	825	825	825	825	825	825	825	825	825	825	825	825	825	825	825	0	0	0	0	0	0	0	678	678	678	678	678	678	679	679	679	679	680	680	680	680	680	679	678	678	678	677	677	676	676	676	675	674	673	673	671	670	669	669	669	668	668	668	667	667	667	666	666	666	666	666	666	666	666	666	666	666	667	667	667	667	668	669	669	670	671	671	672	672	672	673	674	674	675	675	676	676	676	677	678	678	678	680	680	0	0	0	0	0	0	0	0	0	0	826	826	825	825	825	825	825	825	825	825	824	824	824	824	824	823	823	823	823	823	823	823	823	823	823	823	823	823	823	824	824	824	825	825	825	825	825	825	826	826	826	826	826	826	826	826	826	826	826	825	825	825	825	824	824	824	823	823	823	821	821	821	820	819	819	819	817	817	813	811	810	810	808	802	800	800	783	780	780	780	779	779	779	779	779	779	780	780	780	782	783	785	788	788	791	792	793	794	794	796	798	798	800	801	801	801	801	801	801	801	800	798	798	797	796	795	795	794	793	793	793	792	792	791	791	791	791	790	790	790	790	791	791	791	791	791	791	792	792	792	792	792	792	793	793	793	793	793	795	0	809	809	808	808	811	811	816	816	820	823	823	824	824	824	824	824	823	823	823	822	822	823	823	823	823	823	824	824	824	824	825	825	825	825	825	826	826	826	826	826	826	827	827	827	827	827	826	826	826	825	824	824	821	817	812	809	809	809	799	794	783	778	774	765	765	764	764	733	726	723	721	721	720	717	714	714	712	712	712	711	711	711	710	709	708	708	707	707	707	707	706	706	706	706	706	706	706	706	706	707	0	0	0	0	0	0	0	0	0	0	0	0	0	0	825	825	825	825	826	826	826	826	825	825	0	0	0	0	0	0	0	0	0	0	0	0	0	0	0	0	0	0	0	0	0	0	0	0	0	0	0	0	0	0	0	0	0	0	1689	1689	1689	1695	1695	1702	1709	1709	1711	1722	1722	1727	1734	1734	1738	1738	1740	1740	1740	1745	1747	1747	1747	1747	1747	1750	1750	1750	1750	1752	1752	1752	1752	1752	1750	1750	1752	1750	1750	1750	1750	1750	1750	1750	1752	1752	1752	1754	1754	1754	1757	1759	1759	1759	1762	1762	1762	1762	1762	1762	1762	1759	1757	1757	1757	1752
0	0	0	0	0	825	825	825	825	825	825	825	824	824	824	824	824	823	823	823	823	823	823	823	823	824	824	824	824	824	824	824	824	824	824	824	824	824	824	824	824	824	824	824	824	824	823	823	823	823	823	823	822	822	822	822	822	822	822	822	822	822	822	823	823	823	824	824	825	825	825	826	826	826	826	826	826	827	827	827	827	827	827	826	826	826	826	826	826	826	826	825	825	825	825	825	825	825	825	825	825	825	825	825	825	825	825	824	824	824	823	823	823	822	821	820	820	819	817	817	816	814	813	813	811	811	811	810	809	807	807	806	803	803	801	800	799	799	797	796	796	796	796	796	796	796	796	796	796	796	796	796	797	797	798	799	799	800	801	801	803	805	805	808	808	809	810	810	811	812	812	814	817	817	819	819	820	821	821	821	821	821	821	821	821	821	821	821	820	820	820	820	820	820	820	820	820	820	821	821	821	821	821	821	822	823	823	823	823	823	823	823	823	823	823	823	823	823	822	821	821	821	0	0	0	0	0	678	678	678	678	678	678	679	679	679	679	680	680	680	680	680	679	678	678	678	677	677	676	676	676	675	674	673	673	671	670	669	669	669	668	668	668	667	667	667	666	666	666	666	667	667	667	667	667	668	668	668	668	669	669	670	670	670	671	672	672	673	674	674	674	674	675	676	676	676	677	677	678	679	679	681	681	681	0	0	0	0	0	0	0	0	0	0	0	0	825	825	825	825	825	825	825	825	824	824	824	824	824	823	823	823	823	823	823	823	823	823	823	823	823	823	823	824	824	824	825	825	825	825	825	825	826	826	826	826	826	826	826	826	826	826	826	825	825	825	825	824	824	824	823	823	823	821	821	821	820	819	819	819	817	817	813	811	810	810	808	802	802	0	783	780	780	780	779	779	779	779	779	779	780	780	780	782	785	785	788	788	791	793	793	794	794	796	798	798	800	801	801	801	801	801	801	801	800	798	798	797	796	795	795	794	794	794	793	793	793	793	792	792	792	792	792	792	792	792	792	792	792	792	792	791	791	791	791	791	791	791	791	791	791	793	793	794	794	796	799	799	806	806	810	812	812	817	817	819	824	820	820	821	820	819	819	819	819	820	820	821	821	821	821	821	821	822	823	823	823	823	823	824	825	825	825	825	825	826	826	826	826	826	825	825	825	823	822	819	819	816	812	810	810	807	800	795	781	774	767	765	765	765	0	732	726	724	724	722	720	717	717	716	713	712	712	712	711	711	710	709	709	709	707	707	707	707	707	707	707	707	707	707	707	707	707	707	0	0	0	0	0	0	0	0	0	0	0	0	0	0	824	824	824	825	825	825	825	825	824	824	824	824	0	0	0	0	0	0	0	0	0	0	0	0	0	0	0	0	0	0	0	0	0	0	0	0	0	0	0	0	0	0	0	0	1689	1689	1684	1684	1689	1689	1700	1700	1706	1715	1715	1722	1729	1729	1736	1736	1740	1740	1740	1745	1745	1745	1745	1747	1747	1747	1747	1747	1747	1747	1747	1747	1747	1747	1747	1750	1750	1747	1747	1747	1747	1747	1747	1747	1750	1750	1750	1750	1752	1752	1752	1754	1754	1754	1757	1757	1757	1757	1757	1754	1754	1754	1752	1752	1750	1747
0	0	0	0	0	825	825	825	825	825	825	825	824	824	824	824	824	823	823	823	823	823	823	823	823	824	824	824	824	824	824	824	824	824	824	824	824	824	824	824	824	824	824	824	824	824	823	823	823	823	823	823	822	822	822	822	822	822	822	822	822	822	822	823	823	823	824	824	825	825	825	826	826	826	826	826	826	827	827	827	827	827	827	826	826	826	826	826	826	826	826	825	823	823	823	823	823	823	823	823	823	823	823	823	823	823	823	822	821	821	820	820	819	819	817	816	816	814	813	812	812	811	810	810	810	809	809	809	807	805	805	802	801	799	799	798	797	797	796	796	796	795	795	795	795	795	795	795	795	795	796	796	796	797	797	798	798	798	800	800	801	803	803	805	807	807	809	809	810	811	811	812	813	813	815	816	816	817	817	817	817	817	817	819	819	819	819	819	817	817	817	817	817	817	817	817	817	817	817	819	819	819	819	819	820	820	820	821	821	821	821	821	821	821	821	821	820	819	819	819	821	821	0	0	0	0	0	0	0	679	679	680	680	680	681	681	681	682	682	682	682	682	681	681	680	679	678	678	677	676	676	676	675	674	674	673	672	672	671	671	671	670	669	669	669	668	668	668	668	667	667	667	667	667	667	668	668	668	668	669	669	670	670	670	671	672	672	673	674	674	674	674	675	676	676	676	677	677	678	679	679	681	681	681	0	0	0	0	0	0	0	0	0	0	0	824	824	824	824	824	824	823	823	823	823	823	822	822	822	821	821	821	821	821	821	821	821	821	821	821	821	821	821	821	822	822	823	823	823	823	823	824	824	824	824	824	824	824	824	825	824	824	824	824	824	824	823	823	823	821	821	821	820	819	819	819	817	816	816	814	814	811	811	810	810	810	808	802	791	783	780	779	779	779	779	779	779	779	779	779	780	780	780	782	785	785	787	787	791	793	793	794	794	796	797	797	798	800	800	800	801	801	800	800	800	798	798	797	796	795	795	794	794	794	794	794	794	793	793	793	793	793	793	793	793	793	793	793	793	792	792	791	791	791	791	791	791	791	791	791	791	793	793	794	794	796	799	799	806	806	810	812	812	817	817	819	0	820	820	821	820	819	819	819	819	820	820	821	821	821	821	821	821	822	823	823	823	823	823	824	825	825	825	825	825	826	826	826	826	826	825	825	825	823	822	819	819	816	812	810	810	807	800	795	781	774	767	767	0	0	0	732	726	724	724	723	721	719	719	716	714	713	713	712	711	711	711	709	709	709	709	708	708	707	707	707	707	707	707	707	707	708	708	0	0	0	0	0	0	0	0	0	0	0	0	0	0	0	824	824	824	825	825	825	825	825	824	824	824	824	0	0	0	0	0	0	0	0	0	0	0	0	0	0	0	0	0	0	0	0	0	0	0	0	0	0	0	0	0	0	0	0	0	0	1684	1680	1680	1680	1687	1695	1695	1709	1709	1718	1727	1727	1734	1736	1738	1740	1740	1743	1745	1745	1745	1747	1747	1747	1747	1747	1747	1747	1747	1747	1747	1747	1747	1747	1747	1747	1745	1745	1745	1745	1747	1747	1747	1747	1747	1747	1747	1747	1747	1750	1750	1750	1752	1752	1752	1752	1752	1750	1750	1750	1747	1747	1747	1745
0	0	0	0	0	825	822	822	822	821	821	821	821	821	821	821	821	821	821	821	821	821	821	821	821	821	821	821	821	821	821	822	822	822	822	822	821	821	821	821	822	822	821	821	821	821	821	820	820	819	819	819	819	819	819	819	819	819	819	819	819	819	819	819	819	820	821	821	822	823	823	824	824	824	825	825	825	825	825	825	825	825	825	825	825	825	825	825	824	824	823	823	823	823	823	823	823	823	823	823	823	823	823	823	823	823	823	822	821	821	820	820	819	819	817	816	816	814	813	812	812	811	810	810	810	809	809	809	807	805	805	802	801	799	799	798	797	797	796	796	796	795	795	795	795	795	795	795	795	795	796	796	796	797	797	798	798	798	800	800	801	803	803	805	807	807	809	809	810	811	811	812	813	813	815	816	816	817	817	817	817	817	817	819	819	819	819	819	817	817	817	817	817	817	817	817	817	817	817	819	819	819	819	819	820	820	820	821	821	821	821	821	821	821	821	821	820	819	819	819	0	0	0	0	0	0	0	0	0	0	681	681	681	682	683	683	683	683	683	684	685	683	683	683	682	681	681	680	679	678	678	677	676	676	676	675	674	674	673	673	673	672	671	671	671	670	670	670	670	669	669	669	669	669	669	669	670	670	670	670	670	671	672	672	673	674	674	674	674	675	675	675	676	676	676	677	678	678	679	0	681	681	682	683	0	0	0	0	0	0	0	0	0	0	0	823	823	823	823	823	822	821	821	821	821	821	820	820	820	819	819	819	819	819	819	819	817	817	819	819	819	819	819	819	820	820	820	821	821	821	821	821	822	822	822	822	823	823	823	823	823	822	822	822	821	821	821	820	820	819	819	817	817	816	815	815	814	814	814	813	812	810	810	809	804	798	794	787	787	781	780	779	779	779	779	779	779	779	779	779	780	780	780	782	783	785	787	787	791	793	793	794	794	796	797	797	798	799	799	800	800	800	800	800	799	798	798	797	796	795	795	795	794	794	794	794	794	793	793	793	793	793	793	793	793	793	793	793	793	792	792	791	791	791	789	789	789	788	788	788	789	789	789	791	793	793	794	794	798	804	804	809	809	811	813	813	0	815	815	817	817	817	817	817	817	817	817	817	819	819	819	819	819	820	820	820	821	821	821	821	823	823	823	823	823	824	824	824	824	824	824	823	823	821	820	817	817	815	812	810	810	807	800	795	781	774	767	743	743	743	0	731	726	724	724	723	721	719	719	716	714	713	713	712	711	711	711	709	709	709	709	708	708	707	707	707	707	707	707	707	707	708	708	0	0	0	0	0	0	0	0	0	822	822	822	823	823	823	823	823	823	824	824	824	823	823	823	823	823	823	823	0	0	0	0	0	0	0	0	0	0	0	0	0	0	0	0	0	0	0	0	0	0	0	0	0	0	0	0	0	0	0	0	0	0	1680	1680	1680	1687	1695	1695	1709	1709	1718	1727	1727	1734	1738	1738	1740	1740	1743	1745	1745	1745	1747	1747	1747	1747	1747	1747	1747	1747	1747	1747	1747	1747	1747	1747	1747	1745	1745	1745	1745	1747	1747	1747	1747	1747	1747	1747	1747	1747	1750	1750	1750	1752	1752	1752	1752	1752	1750	1750	1750	1747	1747	1747	1745
0	0	0	0	0	819	817	817	817	817	817	819	817	817	817	817	817	817	817	817	817	817	817	817	817	819	819	819	819	819	819	819	819	819	819	819	819	819	819	819	819	819	819	819	817	817	817	817	817	816	816	816	815	815	815	814	814	815	815	815	816	816	816	816	817	817	817	819	819	820	820	821	821	821	822	823	823	823	823	823	823	823	823	823	823	822	822	821	821	821	821	821	821	820	820	820	821	821	821	821	821	821	821	821	820	820	820	819	819	817	817	816	814	814	813	813	812	812	811	810	810	810	809	809	809	808	806	806	804	802	802	800	798	797	797	797	796	796	795	795	795	795	795	795	795	795	795	795	795	795	795	795	795	796	796	797	797	797	798	798	799	801	801	803	805	805	807	809	809	809	809	810	811	811	812	813	813	814	814	814	814	815	815	815	815	815	815	815	815	814	814	814	814	815	815	815	815	815	815	816	816	816	817	817	817	817	819	819	819	819	819	819	819	819	817	817	817	817	817	815	815	815	814	814	0	0	0	0	0	0	681	681	681	682	683	683	683	683	683	684	685	683	683	683	682	681	681	680	679	678	678	677	676	676	676	675	674	674	674	674	674	674	673	673	673	672	672	672	671	671	671	671	671	671	671	671	671	671	672	672	672	673	673	674	674	674	675	675	675	676	676	676	676	677	677	678	680	680	680	0	682	682	682	684	0	0	0	0	0	0	0	0	0	0	0	823	823	823	823	823	822	821	821	821	821	821	820	820	820	819	819	819	819	819	819	819	817	817	819	819	819	819	819	819	820	820	820	821	821	821	821	821	822	822	822	822	823	823	823	823	823	822	822	822	821	821	821	820	820	819	819	817	817	816	815	815	814	814	814	813	812	810	810	809	804	798	794	787	787	781	780	779	779	779	779	779	779	779	779	779	780	781	781	783	783	786	789	789	791	793	793	794	794	796	797	797	798	799	799	800	800	800	800	800	799	798	798	797	796	796	796	795	795	795	794	794	794	794	794	794	794	794	794	794	793	793	793	793	793	793	792	792	791	791	789	789	787	786	786	786	786	786	786	787	789	789	791	794	794	804	804	809	808	808	810	810	811	812	812	813	813	814	814	814	814	814	814	815	815	815	816	816	816	817	817	817	817	817	817	819	820	820	821	821	821	821	822	822	821	821	821	820	820	819	817	816	816	814	813	813	811	809	809	0	0	0	745	739	737	734	734	731	727	725	725	723	721	720	720	718	714	713	713	712	711	711	711	710	709	709	709	709	709	709	708	708	708	708	708	708	708	709	709	0	0	0	0	0	0	0	0	0	821	821	821	821	821	821	822	822	822	823	823	823	823	821	821	821	821	821	820	820	0	0	0	0	0	0	0	0	0	0	0	0	0	0	0	0	0	0	0	0	0	0	0	0	0	0	0	0	0	0	0	0	0	1680	1680	1680	1687	1689	1689	1700	1700	1711	1724	1724	1734	1738	1738	1740	1740	1740	1743	1743	1745	1745	1745	1745	1745	1745	1745	1745	1745	1745	1745	1745	1745	1745	1745	1745	1745	1745	1745	1745	1745	1745	1745	1745	1745	1745	1745	1745	1745	1747	1747	1747	1747	1747	1747	1747	1747	1745	1745	1745	1745	1745	1745	1743
0	0	0	0	0	819	817	817	817	817	817	819	817	817	817	817	817	817	817	817	817	817	817	817	817	819	819	819	819	819	819	819	819	819	819	819	819	819	819	819	819	819	819	819	817	817	817	817	817	816	816	816	815	815	815	814	814	815	815	815	816	816	816	816	817	817	817	819	819	820	820	821	821	821	822	823	823	823	823	823	820	820	820	819	819	819	819	819	819	817	817	817	817	817	817	817	817	817	817	817	817	817	817	817	817	817	816	816	815	814	814	813	812	811	811	811	810	810	810	809	809	809	808	808	807	806	804	804	802	800	798	798	797	796	796	796	795	795	794	794	794	794	794	794	794	794	794	794	794	794	794	794	795	795	795	796	797	797	797	798	798	800	800	801	804	804	805	807	807	808	809	809	810	810	810	811	811	812	812	812	812	813	813	813	813	813	813	813	813	813	813	813	813	813	813	813	813	813	813	814	814	814	814	814	814	815	815	815	816	816	816	816	816	815	815	816	814	814	814	814	814	814	813	813	0	0	0	0	0	686	686	683	683	684	684	685	685	685	686	686	686	686	686	686	685	684	684	682	681	681	680	678	677	677	676	676	676	675	675	674	674	674	673	673	673	672	672	672	671	671	671	671	671	671	671	671	671	671	672	672	672	673	673	674	674	674	675	675	675	676	676	676	676	677	677	678	680	680	680	682	682	682	682	684	686	686	0	0	0	0	0	0	0	0	0	821	821	821	821	821	820	819	819	819	819	817	817	817	817	817	816	816	816	816	816	816	815	815	816	816	816	816	816	817	817	817	817	819	819	819	819	819	819	819	819	820	820	820	820	820	820	820	820	819	819	817	817	817	816	816	815	814	814	814	813	813	812	812	811	811	810	808	808	808	804	798	789	782	779	779	779	779	779	779	779	779	779	779	779	779	780	781	781	783	783	786	789	789	791	792	793	794	794	795	796	796	797	798	798	798	799	799	799	799	799	798	798	797	797	797	796	796	795	795	795	795	795	795	794	794	794	794	794	794	794	794	794	793	793	793	792	792	791	791	789	789	787	786	786	786	786	786	786	787	789	789	791	794	794	0	0	0	808	808	810	810	811	812	812	813	813	814	814	814	814	814	814	815	815	815	816	816	816	817	817	817	817	817	817	819	820	820	821	821	821	821	822	822	821	821	821	820	820	819	817	816	816	814	813	813	811	811	0	0	0	0	745	739	737	734	734	731	727	725	725	723	723	721	721	719	717	714	714	713	712	712	711	711	711	711	709	709	710	709	709	709	709	709	709	709	709	709	709	0	0	0	0	0	0	0	0	0	821	821	821	821	821	821	822	822	822	823	823	823	823	821	821	821	821	821	820	815	815	814	814	0	0	0	0	0	0	0	0	0	0	0	0	0	0	0	0	0	0	0	0	0	0	0	0	0	0	0	0	0	0	0	0	0	1689	1689	1689	1700	1700	1711	1724	1724	1734	1734	1738	1740	1740	1740	1743	1743	1743	1743	1743	1745	1745	1745	1745	1743	1743	1743	1745	1745	1743	1743	1743	1743	1743	1743	1743	1743	1743	1743	1743	1743	1743	1745	1745	1745	1745	1745	1745	1745	1745	1745	1745	1745	1745	1743	1743	1743	1740	1740	1740	1740
0	0	0	0	814	814	814	814	814	814	814	814	814	814	814	814	814	814	814	814	814	814	814	814	815	815	816	816	816	816	816	816	816	816	816	816	816	815	815	815	815	815	815	814	814	814	813	813	813	813	813	812	812	812	812	812	812	812	812	812	813	813	813	813	813	813	814	815	815	816	817	817	817	819	819	819	820	820	820	820	820	820	820	819	819	819	819	819	819	817	817	817	817	817	817	817	817	817	817	817	817	817	817	817	817	817	816	816	815	814	814	813	812	811	811	811	810	810	810	809	809	809	808	808	807	806	804	804	802	800	798	798	797	796	796	796	795	795	794	794	794	794	794	794	794	794	794	794	794	794	794	794	795	795	795	796	797	797	797	798	798	800	800	801	804	804	805	807	807	808	809	809	810	810	810	811	811	812	812	812	812	813	813	813	813	813	813	813	813	813	813	813	813	813	813	813	813	813	813	814	814	814	814	814	814	815	815	815	816	816	816	816	816	815	815	816	814	814	814	814	814	814	813	813	0	0	0	0	0	686	686	686	686	687	687	687	687	687	687	687	687	687	687	687	687	687	686	685	684	684	682	681	679	679	678	677	677	676	676	675	675	675	674	674	674	674	674	674	673	673	673	673	673	673	673	673	673	673	674	674	674	674	674	675	675	675	676	676	676	676	677	677	677	678	678	679	681	681	682	682	684	684	684	685	686	686	0	0	0	0	0	0	0	0	0	819	819	819	819	819	817	817	817	817	816	815	815	814	814	814	814	814	814	814	814	814	814	814	814	814	814	814	814	814	814	814	815	815	815	816	816	816	816	817	817	817	817	817	817	817	817	816	816	816	815	814	814	814	814	814	813	813	813	812	811	811	811	810	810	810	809	803	803	808	0	0	781	779	778	778	777	777	778	778	778	779	779	780	780	780	780	781	781	783	783	786	789	789	792	792	793	794	794	795	796	796	797	797	797	798	798	798	798	798	798	797	797	797	796	796	796	796	795	795	795	795	795	795	794	794	794	794	794	794	794	794	794	793	793	793	792	792	791	790	788	788	787	785	785	784	783	783	785	785	786	786	787	791	791	793	797	797	808	808	809	809	810	811	811	811	812	812	812	812	812	813	813	813	813	813	813	813	814	814	814	814	814	816	816	816	817	817	817	819	819	819	819	819	819	819	819	817	816	816	814	814	814	813	811	810	810	810	0	0	0	739	739	737	734	734	734	730	727	725	725	723	723	721	721	719	717	714	714	713	712	712	711	711	711	711	709	709	710	709	709	709	709	709	709	709	709	709	709	0	0	0	0	0	0	0	0	819	819	819	820	820	821	821	821	821	821	821	822	821	820	819	819	819	819	819	817	815	815	814	814	0	0	0	0	0	0	0	0	0	0	0	0	0	0	0	0	0	0	0	0	0	0	0	0	0	0	0	0	0	0	0	0	0	0	0	1706	1706	1706	1718	1727	1727	1734	1734	1738	1740	1740	1740	1743	1743	1743	1743	1743	1745	1745	1745	1745	1743	1743	1743	1745	1745	1743	1743	1743	1743	1743	1743	1743	1743	1743	1743	1743	1743	1743	1745	1745	1745	1745	1745	1745	1745	1745	1745	1745	1745	1745	1743	1743	1743	1740	1740	1740	1740
