1190	1190	1191	1192	1192	0	0	0	0	0	0	0	0	0	0	0	750	750	750	750	750	749	749	750	750	750	750	750	750	750	749	749	750	750	750	750	750	749	749	749	749	748	748	748	747	747	745	743	742	742	740	739	739	739	737	737	0	0	0	0	678	678	678	677	676	676	676	676	675	675	674	673	673	672	670	669	669	667	667	667	666	666	665	665	665	665	665	665	664	664	664	664	664	664	665	665	665	665	666	666	667	669	669	672	672	674	676	676	677	677	680	683	683	686	686	688	690	690	694	694	697	699	699	701	701	709	709	715	715	723	723	728	728	736	736	740	748	748	751	751	751	751	751	751	751	751	751	751	751	751	751	751	751	751	751	750	750	750	750	750	750	750	750	750	749	749	749	749	749	748	748	747	747	747	747	747	746	746	746	746	746	746	746	746	746	746	746	747	747	747	748	748	748	749	749	750	750	750	750	750	750	750	751	751	751	751	751	751	751	751	751	751	751	752	752	752	752	752	751	751	751	751	751	751	751	751	751	751	751	751	751	751	751	751	751	751	751	751	751	751	751	751	751	751	751	752	752	752	752	752	752	752	752	752	753	753	753	753	753	754	754	754	754	754	754	754	754	754	753	753	753	753	753	753	753	753	753	753	753	753	753	753	753	753	752	752	752	752	753	753	753	753	753	753	753	753	753	753	753	753	753	753	753	753	753	753	753	753	753	753	753	753	753	753	752	752	752	752	752	752	751	751	751	751	751	751	751	750	750	750	750	750	750	750	751	751	751	752	752	752	753	753	753	755	755	757	757	757	758	758	758	758	758	758	757	757	757	757	757	756	756	756	756	756	756	756	756	757	757	757	757	757	757	757	757	756	756	757	756	756	756	756	756	757	757	757	757	757	757	757	757	757	758	758	758	758	758	758	758	758	758	758	758	758	758	757	757	757	756	755	754	754	754	754	754	754	753	753	753	753	753	753	753	753	753	753	753	753	752	752	752	752	752	752	752	752	752	752	752	752	752	753	753	753	754	754	754	756	756	757	757	757	757	757	757	757	757	757	758	758	758	758	758	758	0	0	0	0	0	0	0	0	0	0	0	0	755	755	755	755	756	756	469	469	468	468	468	468	468	467	467	467	467	467	467	753	753	753	753	753	753	753	753	0	0	0	0	0	0	0	0	0	0	0	0	0	0	0	0	0	0	0	0	0	0	0	0	0	0	0	0	0	0	761	761	762	762	763	764	764	764	764	764	764	764	764	763	763	763	762	762	763	762	762	763	762	762	762	762	762	762	762	762	762	761	760	760	758	756	754	754	753	752	750	750	750	748	748	746	744	741	741	738	737	735	735	732	730	727	727	725	724	723	723	723	723	723	722	721	721	721	720	720	720	720	720	720	720	721	721	722	723	723	724	727	730	734	736	738	738	744	744	748	750	750	751	751	753	755	755	756	757	757	757	757	757	757	757	757	756	756	755	755	755	754	754	754	754	754	754	754	754	755	755	755	756	756	756	757	757	758	758	758	760	761	761	762	763	763	763	763	763	764	764	0	0	0	0	0	0	0	0	0	0	0	0	0	0	0	0	0	0	0	0	0	0	0	0	0	1640	1640	1640	1646	1648	1648	1648	1653	1653	1657	1661	1661	1663	1665	1665	1667	1667	1667	1669	1669	1669	1669	1669	1669	1669	1669	1667	1667	1667	1667
1190	1190	1190	1192	1192	0	0	0	0	0	0	0	0	0	0	749	749	749	749	749	749	749	748	748	748	748	748	748	749	749	749	748	748	748	748	748	748	748	747	747	747	746	746	746	744	743	743	741	739	739	738	738	737	737	736	736	0	0	0	680	678	678	678	677	676	676	676	675	675	675	674	673	673	672	670	669	669	667	667	667	666	666	665	665	665	665	665	665	664	664	664	664	664	664	665	665	665	665	666	666	667	669	669	672	672	674	676	676	677	677	680	683	683	686	686	687	689	689	692	692	695	698	698	700	700	707	707	713	713	721	721	728	728	736	736	739	746	746	750	750	750	750	750	750	750	750	751	751	751	751	751	751	751	751	751	750	750	750	750	750	750	750	750	750	749	749	749	749	749	748	748	747	747	747	747	747	746	746	746	746	746	746	746	746	746	746	746	747	747	747	748	748	748	749	749	750	750	750	750	750	750	750	751	751	751	751	751	751	751	751	751	751	751	752	752	752	752	752	751	751	751	751	751	751	751	751	751	751	751	751	751	751	751	751	751	751	751	751	751	751	751	751	751	751	751	752	752	752	752	752	752	752	752	752	753	753	753	753	753	754	754	754	754	754	754	754	754	754	753	753	753	753	753	753	753	753	753	753	753	753	753	753	753	753	752	752	752	752	753	753	753	753	752	751	751	751	751	751	751	751	751	751	751	751	751	751	751	751	751	751	751	751	751	751	751	751	751	751	751	751	751	751	751	751	750	750	750	750	750	750	750	750	750	750	750	750	751	751	751	752	752	752	753	753	753	754	755	755	756	756	756	756	756	755	755	755	754	754	754	754	754	754	754	754	754	754	754	754	754	754	754	754	754	754	754	754	754	754	754	754	754	754	754	754	754	754	754	754	754	754	754	755	755	755	755	756	756	757	757	756	756	756	756	755	755	755	754	754	754	753	753	753	753	753	753	753	753	753	753	753	753	753	753	753	752	752	752	752	752	752	752	751	751	751	751	751	751	751	751	751	751	751	752	752	752	753	753	753	754	754	754	755	755	755	756	756	757	757	757	757	757	757	758	758	0	0	0	0	0	0	0	0	0	0	0	0	753	753	753	753	753	470	469	469	468	468	468	468	468	467	467	467	467	467	467	752	752	752	752	752	752	752	753	0	0	0	0	0	0	0	0	0	0	0	0	0	0	0	0	0	0	0	0	0	0	0	0	0	0	0	0	753	753	756	756	758	760	760	760	760	760	761	761	761	761	761	761	761	761	760	760	761	760	760	761	761	761	761	761	761	761	761	761	761	760	759	759	757	756	754	754	753	752	750	750	750	748	748	746	744	740	740	738	737	735	735	732	730	727	727	725	724	723	723	723	723	723	723	723	723	722	722	722	721	721	722	722	723	723	723	724	725	725	727	727	734	734	737	740	740	746	746	749	750	750	752	752	753	755	755	756	757	757	757	757	757	757	757	757	756	756	755	755	755	754	754	754	754	754	754	754	754	755	755	755	756	756	756	757	757	758	758	758	760	761	761	762	763	763	763	763	763	764	764	0	0	0	0	0	0	0	0	0	0	0	0	0	0	0	0	0	0	0	0	0	0	0	0	0	1640	1640	1640	1646	1648	1648	1648	1653	1653	1659	1661	1661	1663	1665	1665	1667	1667	1667	1669	1669	1669	1669	1669	1669	1669	1669	1667	1667	1667	1667
0	1190	1190	0	0	0	0	0	0	0	0	0	0	748	748	748	748	748	747	747	748	748	747	747	747	748	748	747	747	747	747	747	747	747	746	746	746	746	746	746	744	744	744	743	742	740	740	739	738	738	737	737	736	736	732	732	0	0	0	680	679	678	678	677	676	676	676	675	675	675	674	673	673	672	670	669	669	667	667	667	666	666	665	665	665	665	665	665	665	665	665	665	665	665	665	665	665	666	667	667	668	669	670	673	673	675	676	676	677	677	680	683	683	686	686	687	688	688	691	691	695	697	697	699	699	704	707	711	713	717	721	735	734	734	734	737	744	744	750	750	750	750	750	750	750	750	750	750	750	750	750	750	750	750	750	750	750	750	750	750	749	749	749	748	748	747	747	746	746	746	745	745	745	744	744	744	744	743	743	743	743	744	744	744	744	744	744	744	745	745	746	746	746	747	747	748	748	748	749	750	750	750	750	750	750	750	750	750	750	750	750	750	750	750	750	750	750	750	750	750	750	750	750	750	750	750	750	750	750	750	750	750	750	750	750	750	750	750	750	750	750	750	750	750	750	751	751	751	751	751	751	751	751	751	752	752	752	752	752	752	753	753	753	753	753	753	753	753	752	752	752	752	752	752	752	752	752	752	752	752	751	751	752	752	751	751	751	751	751	751	751	751	751	751	751	751	751	751	751	751	751	751	751	751	751	751	751	751	751	751	751	751	751	751	751	751	751	751	751	751	751	751	751	751	750	750	750	750	750	750	750	750	750	750	750	750	751	751	751	752	752	752	753	753	753	754	755	755	756	756	756	756	756	755	755	755	754	754	754	754	754	754	754	754	754	754	754	754	754	754	754	754	754	754	754	754	754	754	754	754	754	754	754	754	754	754	754	754	754	754	754	755	755	755	755	756	756	757	757	756	756	756	756	755	755	755	754	754	754	753	753	753	753	753	753	753	753	753	753	753	753	753	753	753	752	752	752	752	752	752	752	751	751	751	751	751	751	751	750	750	750	750	750	750	751	752	752	752	753	753	753	753	753	754	754	754	755	756	756	756	756	757	0	0	0	0	0	0	0	0	0	0	0	0	752	752	752	752	752	752	471	470	469	469	469	469	469	469	468	468	468	468	468	468	751	751	751	751	751	751	752	752	0	0	0	0	0	0	0	0	0	0	0	0	0	0	0	0	0	0	0	0	0	0	0	0	0	750	750	750	0	752	752	753	753	754	756	756	757	757	757	758	758	758	758	758	758	758	758	758	758	758	758	759	760	760	760	760	760	760	760	760	760	760	759	758	758	757	755	754	754	752	751	750	750	750	748	748	746	744	740	740	738	737	736	736	734	731	728	728	726	725	724	724	724	723	723	723	723	723	722	722	722	721	721	722	722	723	723	723	724	725	725	727	727	734	734	737	740	740	746	746	749	750	750	752	752	753	754	754	754	754	754	755	755	755	756	756	755	755	755	754	754	754	754	754	754	754	753	753	753	753	753	753	754	754	754	754	755	755	756	757	757	758	759	759	760	761	761	762	762	762	763	763	0	0	0	0	0	0	0	0	0	0	0	0	0	0	0	0	0	0	0	0	0	0	0	0	0	1638	1638	1638	1642	1646	1646	1648	1653	1653	1657	1661	1661	1663	1665	1665	1667	1667	1667	1667	1669	1669	1669	1669	1667	1667	1667	1667	1665	1665	1665
0	0	0	0	0	0	0	0	0	0	0	0	0	748	748	748	748	748	747	747	748	748	747	747	747	748	748	747	747	747	747	747	747	747	746	746	746	746	746	746	744	744	744	743	742	740	740	739	738	738	737	737	736	736	732	732	0	0	0	683	680	678	678	677	676	676	676	676	675	675	674	673	673	672	670	669	669	668	667	667	666	666	665	665	665	665	665	665	665	665	665	665	665	665	665	666	666	666	668	668	669	669	671	673	673	675	676	676	677	677	680	683	683	686	686	687	688	688	691	691	695	697	697	699	699	704	711	711	717	717	0	0	734	734	734	737	742	742	748	748	749	750	750	750	750	750	750	750	750	750	750	750	750	750	750	749	749	749	748	748	748	747	747	747	746	745	745	744	744	744	743	743	743	743	743	743	742	742	742	742	742	742	742	742	743	743	743	743	743	743	744	744	744	746	746	747	747	747	748	749	749	749	750	750	750	750	750	750	750	750	750	750	750	750	750	750	750	750	750	750	750	750	750	750	750	750	750	750	750	750	750	750	750	750	750	750	750	750	750	750	750	750	750	750	750	750	750	750	750	750	750	750	750	750	751	751	751	751	751	751	751	751	751	751	751	751	751	751	751	751	751	751	751	751	751	750	750	750	750	750	750	750	751	751	750	750	750	750	751	751	751	751	751	750	750	750	750	750	750	750	750	750	750	750	750	750	750	750	750	750	750	750	750	750	750	750	750	750	750	750	750	750	750	750	750	750	750	750	750	750	750	750	750	750	750	750	750	751	751	751	752	752	752	753	753	753	753	753	754	754	754	753	753	753	753	753	753	753	753	753	753	753	753	753	753	753	753	753	753	753	753	753	753	753	753	753	753	753	753	753	753	753	753	753	753	753	753	753	753	753	753	753	753	753	753	753	753	754	754	754	754	754	754	753	753	753	753	753	753	753	753	753	752	752	752	752	752	752	752	752	752	752	752	752	752	752	752	751	751	751	751	750	750	750	750	750	750	750	750	750	750	750	750	750	751	752	752	752	753	753	753	753	753	754	754	754	755	756	756	756	756	0	0	0	0	0	0	0	0	0	0	0	0	0	752	752	752	752	752	752	471	471	471	471	470	470	470	470	469	469	469	469	751	751	751	751	751	751	751	751	0	0	0	0	0	0	0	0	0	0	0	0	0	0	0	0	0	0	0	0	0	0	0	0	0	0	0	750	750	750	0	752	752	753	753	754	756	756	757	757	757	758	758	758	758	758	758	758	758	758	758	758	758	759	760	760	760	760	760	760	760	760	760	760	759	758	758	757	755	754	754	752	751	750	750	750	748	748	746	744	741	741	738	737	736	736	734	732	730	730	728	727	727	725	725	724	724	724	724	724	723	723	723	723	723	723	723	724	725	725	726	729	729	732	732	738	738	739	742	744	748	748	750	750	751	752	752	752	753	753	753	754	754	754	754	754	754	754	754	754	754	754	753	753	753	753	753	753	753	753	753	753	753	753	753	753	753	753	753	754	754	754	754	756	757	757	758	760	760	760	760	760	762	763	0	0	0	0	0	0	0	0	0	0	0	0	0	0	0	0	0	0	0	0	0	0	0	0	0	1638	1638	1638	1642	1646	1646	1648	1655	1655	1657	1661	1661	1663	1665	1665	1665	1667	1667	1667	1667	1667	1667	1667	1667	1665	1665	1665	1663	1663	1661
0	0	0	0	0	0	0	0	0	0	0	0	0	746	746	746	746	746	746	747	747	747	746	746	746	746	746	746	745	745	745	745	744	744	744	744	744	744	743	743	743	742	741	741	740	739	739	738	737	737	737	736	735	730	730	728	728	0	0	683	680	678	678	677	676	676	676	676	675	675	674	673	673	672	670	669	669	668	667	667	666	666	665	665	665	665	665	665	665	665	665	665	665	665	665	666	666	666	668	668	669	669	671	673	673	675	676	676	677	677	680	683	683	685	685	687	688	688	690	691	693	696	696	698	698	702	711	711	717	717	0	0	0	0	737	737	742	742	748	748	749	750	750	750	750	750	750	750	750	750	750	750	750	750	750	749	749	749	748	748	748	747	747	747	746	745	745	744	744	744	743	743	743	743	743	743	742	742	742	742	742	742	742	742	743	743	743	743	743	743	744	744	744	746	746	747	747	747	748	749	749	749	750	750	750	750	750	750	750	750	750	750	750	750	750	750	750	750	750	750	750	750	750	750	750	750	750	750	750	750	750	750	750	750	750	750	750	750	750	750	750	750	750	750	750	750	750	750	750	750	750	750	750	750	751	751	751	751	751	751	751	751	751	751	751	751	751	751	751	751	751	751	751	751	751	750	750	750	750	750	750	750	750	750	750	750	750	750	750	750	750	750	750	750	750	750	750	750	750	750	749	749	749	749	750	749	749	749	749	749	749	749	749	750	750	750	750	750	750	750	750	750	750	750	750	750	750	750	750	750	750	750	750	750	750	750	750	750	750	750	751	751	751	752	752	752	752	752	752	752	752	752	752	752	752	752	752	752	751	751	751	751	752	751	751	751	751	752	752	752	752	752	752	752	752	751	751	752	752	751	751	751	751	751	751	751	751	752	752	752	752	752	752	752	752	752	752	752	752	752	752	752	752	752	752	752	752	752	752	752	752	752	752	752	752	752	752	752	752	752	752	752	751	751	751	751	751	751	750	750	750	750	750	750	749	749	749	749	749	749	749	749	750	750	750	750	750	750	751	751	751	752	752	752	753	753	753	754	754	756	756	0	0	0	0	0	0	0	0	0	0	0	0	0	752	752	752	752	472	472	471	471	471	471	470	470	470	470	469	469	469	469	470	750	750	750	750	750	750	751	0	0	0	0	0	0	0	0	0	0	0	0	0	0	0	0	0	0	0	0	0	0	0	0	745	745	745	746	748	748	750	750	750	751	752	752	752	753	753	753	753	754	754	754	754	755	755	755	755	755	755	756	756	757	758	758	758	759	759	759	759	759	759	759	758	758	758	757	754	753	753	752	751	750	750	750	748	748	746	744	741	741	738	737	736	736	736	734	734	732	731	729	729	727	726	726	726	725	725	725	725	725	725	725	725	725	725	726	726	728	731	731	734	734	736	738	738	742	742	746	750	750	750	750	751	752	752	752	753	753	753	754	754	754	754	754	754	754	754	754	754	754	753	753	753	753	753	753	753	753	753	753	753	753	753	753	753	753	753	754	754	754	754	756	757	757	758	760	760	760	760	760	762	0	0	0	0	0	0	0	0	0	0	0	0	0	0	0	0	0	0	0	0	0	0	0	0	0	0	0	0	1642	1642	1646	1646	1653	1655	1655	1659	1661	1661	1665	1665	1665	1665	1667	1667	1667	1667	1667	1667	1667	1667	1665	1665	1665	1663	1663	1661
0	0	0	0	0	0	0	0	0	0	0	0	0	746	746	744	744	744	744	745	745	745	744	744	744	744	744	744	743	743	743	743	743	743	743	742	742	742	742	741	741	740	740	740	739	738	738	737	737	736	736	735	734	728	728	725	725	700	700	683	681	678	678	677	676	676	676	675	675	675	674	673	673	672	670	669	669	668	667	667	666	666	666	666	665	665	665	665	665	665	665	665	665	665	666	666	666	667	669	669	670	670	672	674	674	675	676	676	677	677	679	682	682	685	685	687	688	688	689	691	691	695	695	698	698	701	710	710	717	717	723	723	731	731	737	737	741	741	747	747	748	749	749	749	749	748	748	749	749	749	749	749	748	748	748	748	748	747	747	747	746	746	745	745	744	744	744	743	742	742	742	742	742	742	741	741	741	740	740	740	740	741	741	741	741	742	742	742	742	742	743	743	743	744	745	745	746	746	747	747	747	748	748	748	749	749	749	749	749	749	749	749	749	749	749	749	749	749	749	749	749	749	748	748	749	749	749	749	749	749	749	749	749	749	749	749	749	749	749	749	749	749	749	749	750	750	750	750	750	750	750	750	750	750	750	750	750	750	750	750	750	750	750	750	750	750	750	750	750	750	750	750	750	750	750	750	750	750	750	750	750	750	750	750	750	750	750	750	750	750	750	750	750	750	750	750	750	750	750	750	749	749	749	749	750	749	749	749	749	749	749	749	749	750	750	750	750	750	750	750	750	750	750	750	750	750	750	750	750	750	750	750	750	750	750	750	750	750	750	750	751	751	751	752	752	752	752	752	752	752	752	752	752	752	752	752	752	752	751	751	751	751	752	751	751	751	751	752	752	752	752	752	752	752	752	751	751	752	752	751	751	751	751	751	751	751	751	752	752	752	752	752	752	752	752	752	752	752	752	752	752	752	752	752	752	752	752	752	752	752	752	752	752	752	752	752	752	752	752	752	752	752	751	751	751	751	751	751	750	750	750	749	748	748	747	747	747	746	746	746	746	746	747	747	747	747	747	748	749	749	749	750	750	750	750	750	750	754	754	0	0	0	0	0	0	0	0	0	0	0	0	0	0	0	752	752	473	473	472	472	472	472	472	472	471	471	471	471	471	471	470	470	470	749	749	749	750	750	750	0	0	0	0	0	0	0	0	0	0	0	0	0	0	0	0	0	0	0	0	0	0	0	0	0	745	745	745	745	746	746	747	750	750	750	750	750	750	750	750	751	752	752	752	752	752	753	753	753	753	753	753	754	754	754	756	756	756	757	757	757	757	757	757	757	757	757	755	755	754	753	753	752	751	750	750	750	749	749	747	744	742	742	739	737	737	737	736	734	734	732	731	729	729	727	726	726	726	725	725	725	725	725	725	725	725	725	725	726	726	728	731	731	734	734	736	738	738	742	742	746	750	750	750	750	751	752	752	752	753	753	753	753	753	753	753	753	753	753	753	753	753	753	753	753	752	752	752	752	752	752	752	752	752	752	752	752	752	752	752	753	753	753	754	754	755	755	757	757	757	758	758	758	760	0	0	0	0	0	0	0	0	0	0	0	0	0	0	0	0	0	0	0	0	0	0	0	0	0	0	0	0	1642	1642	1646	1646	1653	1655	1655	1659	1661	1661	1663	1665	1665	1665	1665	1665	1665	1665	1665	1665	1665	1663	1663	1663	1661	1659	1659	1657
0	0	0	0	0	0	0	0	0	0	0	0	0	0	0	744	744	744	744	745	745	745	744	744	744	744	744	744	743	743	743	743	743	743	743	742	742	742	742	741	741	740	740	740	739	738	738	737	737	736	736	735	734	728	728	725	725	700	700	684	681	679	679	677	676	676	676	675	675	675	674	673	673	672	671	670	670	669	668	668	667	667	667	666	666	666	666	666	666	666	666	666	666	666	667	667	667	669	669	671	671	671	673	674	674	675	676	676	677	677	679	682	682	685	685	687	688	688	689	691	691	695	695	698	698	701	710	710	717	717	723	723	728	728	736	736	739	739	744	744	747	747	747	747	747	747	747	747	747	747	747	747	747	747	747	746	746	746	745	744	744	744	743	743	743	742	742	741	741	740	740	740	740	740	740	739	739	739	739	739	739	740	740	740	740	740	740	740	741	741	741	742	742	743	743	743	744	745	745	746	746	746	747	747	747	747	747	747	747	748	747	747	747	747	747	747	747	747	747	747	747	747	747	747	747	747	747	747	747	747	747	747	747	747	747	747	747	747	747	748	748	748	748	748	748	748	748	748	749	749	749	749	749	749	749	749	749	749	750	749	749	750	750	750	750	750	750	750	749	749	749	749	749	749	749	749	749	749	749	749	749	749	749	749	749	749	749	749	750	750	750	750	750	749	749	749	749	749	749	748	747	747	747	747	747	747	747	747	747	747	747	747	747	747	747	748	748	748	748	749	749	749	749	749	750	750	750	750	750	750	750	750	750	750	750	750	750	750	750	750	750	750	750	751	751	751	751	751	751	751	751	751	751	751	751	750	750	750	750	750	750	750	750	750	750	750	750	750	750	750	750	750	750	750	750	750	750	750	750	750	750	750	750	750	750	750	750	750	750	750	750	750	750	750	750	751	751	751	751	751	751	751	751	751	751	751	751	751	751	751	751	751	751	751	751	751	751	751	751	751	751	751	751	751	751	750	750	750	750	750	750	749	748	748	747	747	747	746	746	746	746	746	747	747	747	747	747	748	749	749	749	750	750	750	750	750	750	0	0	0	0	0	0	0	0	0	0	0	0	0	0	0	0	0	752	752	473	473	473	473	472	472	472	472	472	472	472	472	472	472	472	750	749	749	749	749	750	0	0	0	0	0	0	0	0	0	0	0	0	0	0	0	0	0	0	0	0	0	0	0	0	0	0	0	0	0	745	745	746	746	747	0	750	750	750	750	750	750	750	751	752	752	752	752	752	753	753	753	753	753	753	754	754	754	756	756	756	757	757	757	757	757	757	757	757	757	755	755	754	753	753	752	751	751	750	750	749	749	747	744	742	742	740	738	738	737	737	735	735	734	733	733	731	730	729	729	728	727	727	727	727	727	727	727	727	727	728	730	730	732	734	734	737	737	737	740	740	744	744	748	749	750	750	750	751	751	751	752	752	752	752	752	752	752	753	753	753	753	753	753	753	752	752	752	752	752	752	752	751	751	752	752	752	752	751	751	751	751	752	752	752	752	753	753	753	754	754	754	755	755	756	756	757	0	0	0	0	0	0	0	0	0	0	0	0	0	0	0	0	0	0	0	0	0	0	0	0	0	0	0	0	0	1648	1648	1648	1653	1655	1655	1659	1661	1661	1661	1661	1661	1661	1661	1661	1663	1663	1661	1661	1661	1659	1657	1657	1657	1653	1648	1648
0	0	0	0	0	0	0	0	0	0	742	742	0	0	743	743	743	743	743	743	743	743	743	743	743	742	742	742	742	741	741	741	741	741	741	740	740	740	740	739	739	739	738	738	738	737	737	737	736	735	735	734	733	727	727	724	710	700	700	684	681	679	679	677	676	676	676	675	675	675	674	673	673	672	671	670	670	669	668	668	667	667	667	666	666	666	666	666	666	666	666	666	666	666	667	667	667	669	669	671	671	671	673	674	674	675	676	676	677	677	679	681	681	684	684	686	687	687	688	690	690	695	695	698	698	701	710	710	0	0	723	723	728	728	736	736	739	739	744	744	747	747	747	747	747	747	747	747	747	747	747	747	747	747	747	746	746	746	745	744	744	744	743	743	743	742	742	741	741	740	740	740	740	740	740	739	739	739	739	739	739	740	740	740	740	740	740	740	741	741	741	742	742	743	743	743	744	745	745	746	746	746	747	747	747	747	747	747	747	748	747	747	747	747	747	747	747	747	747	747	747	747	747	747	747	747	747	747	747	747	747	747	747	747	747	747	747	747	747	748	748	748	748	748	748	748	748	748	749	749	749	749	749	749	749	749	749	749	750	749	749	750	750	750	750	750	750	750	749	747	747	747	747	747	747	747	747	747	747	747	747	747	747	747	747	747	747	747	748	748	748	748	748	748	747	747	747	747	747	747	746	746	746	745	745	745	746	746	746	746	746	746	746	746	746	746	747	747	747	747	747	748	748	748	748	748	749	749	749	749	749	749	749	749	750	750	750	750	750	750	750	750	750	750	750	750	750	750	750	750	750	750	750	750	750	750	750	750	750	750	750	750	750	750	750	750	750	750	750	750	750	750	750	750	750	750	750	750	750	750	750	750	750	750	750	750	750	750	750	750	750	750	750	750	750	750	750	750	750	750	750	750	750	750	750	750	750	751	751	750	750	750	750	751	751	751	751	751	751	750	750	750	750	750	750	750	750	750	749	748	748	748	747	747	746	744	744	744	743	743	743	743	743	743	743	743	743	743	744	744	744	745	746	746	747	747	747	0	0	0	0	0	0	0	0	0	0	0	0	0	0	0	0	752	751	751	473	473	473	473	472	472	472	472	472	472	472	472	472	472	472	748	747	747	747	747	750	0	0	0	0	0	0	0	0	0	0	0	0	0	0	0	0	0	0	0	0	0	0	0	0	0	0	744	744	744	744	744	744	744	746	746	746	747	748	748	749	750	750	750	750	750	750	751	751	751	752	752	752	752	752	752	753	753	754	754	754	754	755	755	756	756	757	757	756	755	754	754	754	753	753	752	751	751	750	750	749	749	747	745	743	743	741	739	739	738	737	736	736	736	734	734	734	732	732	731	731	730	730	730	730	730	730	730	731	731	732	733	733	735	735	737	738	738	739	743	743	746	746	749	749	750	750	750	751	751	751	752	752	752	752	752	752	752	753	753	753	753	753	753	753	752	752	752	752	752	752	752	751	751	752	752	752	752	751	751	751	751	752	752	752	752	753	753	753	754	754	754	755	755	756	756	757	0	0	0	0	0	0	0	0	0	0	0	0	0	0	0	0	0	0	0	0	0	0	0	0	0	0	0	0	0	0	0	1657	1657	1657	1657	1659	1661	1661	1661	1661	1661	1661	1661	1661	1663	1663	1661	1661	1661	1653	1648	1648	1648	1646	1642	1642
0	0	0	0	0	0	0	0	739	739	739	740	740	740	740	740	740	741	741	741	742	742	741	740	740	740	740	740	739	739	739	739	739	739	739	739	739	739	739	738	738	738	738	738	737	737	737	737	736	735	735	734	732	727	727	715	709	700	700	686	682	682	680	677	677	677	676	676	675	675	675	674	674	673	672	670	670	669	668	668	668	667	667	667	666	666	666	666	666	666	666	667	667	667	668	668	669	670	670	672	672	672	674	675	675	676	676	676	677	677	678	681	681	683	684	686	687	687	688	690	690	695	695	698	698	701	710	710	714	714	723	723	727	727	734	734	738	738	742	742	744	745	745	745	745	745	745	745	745	746	746	745	744	744	744	744	744	744	743	742	742	742	742	742	741	740	740	740	739	739	739	739	739	739	739	739	739	739	739	739	739	739	739	739	739	739	739	739	740	740	740	740	740	742	742	742	743	743	743	744	744	744	744	745	745	745	745	745	746	746	746	745	745	745	745	745	745	745	745	745	745	745	744	744	746	746	745	745	745	745	745	745	745	746	746	746	746	746	746	746	746	746	746	746	746	747	747	747	747	747	747	747	747	747	747	747	747	747	748	748	748	748	748	748	748	748	748	748	748	747	747	747	747	747	747	747	747	747	747	747	747	747	747	747	747	747	747	747	748	748	748	748	748	748	747	747	747	747	747	747	746	746	746	745	745	745	746	746	746	746	746	746	746	746	746	746	747	747	747	747	747	748	748	748	748	748	749	749	749	749	749	749	749	749	750	750	750	750	750	750	750	750	750	750	750	750	750	750	750	750	750	750	750	750	750	750	750	750	750	750	750	750	750	750	750	750	750	750	750	750	750	750	750	750	750	750	750	750	750	750	750	750	750	750	750	750	750	750	750	750	750	750	750	750	750	750	750	750	750	750	750	750	750	750	750	750	750	751	751	750	750	750	750	751	751	751	751	751	750	750	750	750	750	750	750	750	749	749	748	747	747	746	745	744	744	743	742	742	741	740	740	740	739	739	739	739	739	739	739	739	740	740	740	740	741	747	747	0	0	0	0	0	0	0	0	0	0	0	0	0	0	752	752	751	751	751	473	473	473	473	473	473	473	473	472	472	472	472	472	472	745	744	744	744	744	747	0	0	0	0	0	0	0	0	0	0	0	0	0	0	0	0	0	0	0	0	0	0	0	0	0	745	745	744	744	744	744	744	744	744	744	744	744	745	745	745	746	747	747	748	749	749	749	750	750	750	750	750	750	751	751	751	752	752	753	753	753	753	754	754	754	754	754	754	754	754	753	753	753	753	753	752	751	751	750	750	749	749	747	745	743	743	741	739	739	738	737	736	736	736	734	734	734	732	732	731	731	730	730	730	730	730	730	730	731	731	732	733	733	735	735	737	738	738	739	742	743	746	746	749	749	750	750	750	751	751	751	751	751	751	751	752	752	752	752	752	752	752	752	752	752	752	752	752	752	752	751	751	751	751	751	751	751	751	751	751	751	751	751	751	751	751	752	752	752	752	752	752	753	753	753	754	754	0	0	0	0	0	0	0	0	0	0	0	0	0	0	0	0	0	0	0	0	0	0	0	0	0	0	0	0	0	0	0	1657	1657	1657	1657	1659	1659	1659	1659	1659	1659	1659	1659	1659	1657	1657	1657	1655	1655	1653	1648	1648	1648	1646	1642	1642
0	0	0	0	0	0	0	0	739	739	739	740	740	740	740	740	740	741	741	741	742	742	741	740	740	740	740	740	739	739	739	739	739	739	739	739	739	739	739	738	738	738	738	738	737	737	737	737	736	735	735	734	732	727	727	715	709	700	700	686	684	684	680	677	677	677	676	676	675	675	675	674	674	673	672	672	672	670	669	669	668	668	668	667	667	667	667	667	667	667	667	667	669	669	669	669	670	672	672	673	673	673	674	675	675	676	676	676	677	677	678	680	680	683	685	685	687	687	688	690	690	695	695	698	698	701	710	710	714	714	722	722	726	726	734	734	737	737	740	742	742	743	743	743	743	743	743	743	743	743	743	743	743	743	743	742	742	742	742	740	740	740	740	739	739	739	739	739	739	738	738	738	738	738	738	738	738	738	738	738	738	738	738	738	738	739	739	739	739	739	739	739	739	740	740	740	741	742	742	742	743	743	743	743	743	743	743	743	743	743	743	743	743	743	743	743	743	743	743	743	743	743	743	743	743	743	743	743	743	743	743	743	743	743	743	743	744	744	744	744	744	744	744	744	744	744	744	744	745	745	745	745	745	745	745	745	745	745	746	746	746	746	746	746	746	746	746	746	746	745	745	746	746	745	745	745	745	745	745	745	745	745	745	746	745	745	745	745	746	746	746	746	746	746	746	746	746	745	745	744	744	744	744	743	743	744	744	744	744	744	744	744	744	744	744	744	745	745	745	746	746	746	746	747	747	747	747	747	747	748	748	748	748	748	748	748	748	749	749	749	749	749	749	749	749	749	749	749	749	749	750	749	749	749	749	749	749	749	749	749	749	749	749	749	749	749	749	749	749	749	749	749	749	749	748	748	748	749	749	749	748	748	748	748	748	748	748	748	748	748	748	748	748	748	748	749	749	749	749	750	750	750	750	750	750	750	750	750	750	750	750	750	750	750	750	750	750	750	750	750	750	750	750	750	750	750	749	749	748	747	747	746	745	744	744	743	742	742	741	740	740	740	739	739	739	739	739	739	739	739	740	740	740	740	741	0	0	0	0	0	0	0	0	0	0	0	0	0	0	0	0	752	752	751	751	751	474	473	473	473	473	473	473	473	473	473	473	473	473	746	745	744	744	744	744	0	0	0	0	0	0	0	0	0	0	0	0	0	0	0	0	0	0	0	0	0	0	0	0	0	0	745	745	744	744	744	744	744	744	744	744	744	744	745	745	745	746	747	747	748	749	749	749	750	750	750	750	750	750	751	751	751	752	752	753	753	753	753	754	754	754	754	754	754	754	754	753	753	752	752	752	751	751	751	750	750	749	749	747	746	746	744	742	740	740	738	737	737	737	737	736	736	735	734	734	734	734	734	733	732	732	732	733	733	733	734	735	735	735	737	737	738	739	739	742	742	745	747	747	749	749	750	750	750	750	750	750	750	751	751	751	751	751	751	751	751	751	752	751	751	751	751	752	751	751	751	751	751	751	751	751	750	750	750	750	750	750	750	750	750	750	750	750	750	751	751	751	751	751	751	752	752	752	0	0	0	0	0	0	0	0	0	0	0	0	0	0	0	0	0	0	0	0	0	0	0	0	0	0	0	0	0	0	0	0	0	0	1659	1659	1659	1659	1657	1657	1657	1655	1655	1653	1648	1648	1648	1646	1642	1642	1642	1640	1640	1640	1638	1638
0	0	0	0	0	0	0	0	738	738	738	738	739	739	739	739	739	739	739	739	739	740	739	739	739	739	739	738	738	738	738	738	738	738	738	738	738	738	738	738	738	737	737	737	737	737	737	737	736	735	735	734	732	727	723	715	709	699	690	686	684	684	680	677	677	677	676	676	675	675	675	674	674	673	672	672	672	670	669	669	668	668	668	667	667	667	667	667	667	667	667	667	669	669	669	669	670	672	672	673	673	673	674	675	675	676	676	676	677	677	678	680	680	683	685	685	687	687	688	690	690	695	695	699	699	703	710	710	714	714	722	722	726	726	734	734	737	737	740	742	742	743	743	743	743	743	743	743	743	743	743	743	743	743	743	742	742	742	742	740	740	740	740	739	739	739	739	739	739	738	738	738	738	738	738	738	738	738	738	738	738	738	738	738	738	739	739	739	739	739	739	739	739	740	740	740	741	742	742	742	743	743	743	743	743	743	743	743	743	743	743	743	743	743	743	743	743	743	743	743	743	743	743	743	743	743	743	743	743	743	743	743	743	743	743	743	744	744	744	744	744	744	744	744	744	744	744	744	745	745	745	745	745	745	745	745	745	745	743	743	743	743	743	743	743	743	743	743	743	743	743	744	744	744	744	744	744	744	744	743	743	743	743	743	743	743	743	743	744	744	744	744	744	744	744	744	743	743	743	743	742	742	742	742	742	742	742	742	742	742	742	743	743	743	743	743	743	744	744	744	744	744	744	745	745	746	746	746	746	746	746	746	747	747	747	747	747	748	748	747	747	748	748	748	748	747	747	748	748	748	748	748	748	748	748	748	748	748	747	747	747	747	747	747	747	747	747	747	747	747	747	747	747	747	747	747	747	747	747	747	747	747	747	747	747	747	747	747	747	747	747	747	747	747	747	747	748	748	748	748	748	748	749	749	749	749	749	750	750	750	750	750	750	750	750	750	750	750	750	750	750	750	750	750	750	749	748	748	747	746	746	745	744	742	742	742	740	740	739	739	739	738	738	738	738	737	737	738	737	737	738	738	738	738	738	0	0	0	0	0	0	0	0	0	0	0	0	0	0	0	753	752	752	751	751	751	474	473	473	473	473	473	473	473	473	473	473	473	473	742	741	739	739	739	739	0	0	0	0	0	0	0	0	0	0	0	0	0	0	0	0	0	0	0	0	0	0	0	0	0	0	745	745	744	744	744	744	743	743	744	743	743	743	743	743	743	743	744	745	745	746	746	747	748	748	749	750	750	750	750	750	750	751	751	751	752	752	752	753	753	753	753	753	753	753	753	753	753	752	752	752	751	751	751	750	750	749	749	748	746	746	744	743	741	741	739	738	738	737	737	737	737	737	736	736	736	735	735	735	735	735	735	735	735	735	736	736	736	737	737	737	738	740	740	742	742	745	747	747	749	749	750	750	750	750	750	750	750	751	751	751	751	751	751	751	751	751	752	751	751	751	751	752	751	751	751	751	751	751	751	751	750	750	750	750	750	750	750	750	750	750	750	750	750	751	751	751	751	751	751	752	752	752	0	0	0	0	0	0	0	0	0	0	0	0	0	0	0	0	0	0	0	0	0	0	0	0	0	0	0	0	0	0	0	0	0	0	0	1661	1661	1659	1657	1657	1657	1648	1648	1646	1642	1642	1642	1640	1638	1638	1634	1634	1634	1634	1632	1632
0	0	0	0	0	0	0	737	737	738	738	738	738	738	738	738	738	738	738	738	738	738	738	738	738	738	738	737	737	737	737	737	737	737	737	737	737	737	737	737	737	737	737	737	737	737	737	736	736	735	735	734	733	727	723	723	723	699	690	686	684	684	681	678	677	677	676	676	676	675	675	674	674	674	673	673	672	671	670	670	669	669	669	668	668	668	667	667	668	668	668	669	669	670	671	671	671	672	672	673	674	674	675	675	675	676	676	676	677	677	678	680	680	682	685	685	687	687	688	690	690	695	695	699	699	703	705	710	714	714	722	722	726	726	734	734	737	737	739	740	740	740	740	740	740	740	740	741	741	741	741	741	741	741	741	740	740	740	740	739	739	739	739	738	738	738	738	738	738	738	738	738	738	738	738	738	738	738	738	738	738	738	738	738	738	738	738	738	738	738	738	739	739	739	739	739	740	740	740	741	741	741	742	742	742	742	742	742	742	742	742	742	742	742	742	742	742	742	742	742	742	741	741	741	742	742	742	742	742	742	742	742	742	742	742	742	742	742	742	742	742	742	742	743	742	742	743	743	743	743	743	743	743	743	743	743	743	743	743	743	743	743	743	743	743	743	743	743	743	743	743	744	744	744	744	744	744	744	744	743	743	743	743	743	743	743	743	743	744	744	744	744	744	744	744	744	743	743	743	743	742	742	742	742	742	742	742	742	742	742	742	743	743	743	743	743	743	744	744	744	744	744	744	745	745	746	746	746	746	746	746	746	747	747	747	747	747	748	748	747	747	748	748	748	748	747	747	748	748	748	748	748	748	748	748	748	748	748	747	747	747	747	747	747	747	747	747	747	747	747	747	747	747	747	747	747	747	747	747	747	747	747	747	747	747	747	747	747	747	747	747	747	747	747	747	747	748	748	748	748	748	748	749	749	749	749	749	750	750	748	748	748	748	749	749	749	749	749	749	749	749	749	748	748	748	748	747	747	746	744	743	743	742	741	741	740	739	739	738	738	737	737	737	737	737	737	737	737	736	736	737	736	736	736	736	736	737	737	0	0	0	0	0	0	0	0	0	0	0	0	753	752	752	752	751	750	474	474	474	474	474	474	474	473	473	473	473	739	739	739	738	737	737	737	737	0	0	0	0	0	0	0	0	0	0	0	0	0	0	0	0	0	0	0	0	0	0	0	0	0	0	745	745	744	743	743	743	742	742	742	742	742	742	742	742	742	742	742	743	743	744	745	745	746	746	747	748	748	749	749	749	750	750	750	750	750	750	751	751	751	752	752	752	752	752	752	751	751	751	751	751	750	750	750	750	750	749	749	747	746	746	744	743	741	741	739	738	738	737	737	737	737	737	736	736	736	735	735	735	735	735	735	735	735	735	736	736	736	737	737	737	738	740	740	742	742	744	746	746	747	749	749	749	749	750	750	750	750	750	750	750	750	750	750	750	750	750	751	751	751	751	751	751	751	751	751	750	750	750	750	750	750	750	750	750	750	750	750	750	750	750	750	750	750	750	750	750	750	751	750	750	750	750	0	0	0	0	0	0	0	0	0	0	0	0	0	0	0	0	0	0	0	0	0	0	0	0	0	0	0	0	0	0	0	0	0	0	0	1661	1661	1655	1653	1653	1648	1648	1648	1646	1642	1642	1642	1640	1638	1638	1634	1634	1634	1634	1632	1632
0	0	0	0	0	0	0	737	737	738	738	738	738	738	738	738	738	738	738	738	738	738	738	738	738	738	738	737	737	737	737	737	737	737	737	737	737	737	737	737	737	737	737	737	737	737	737	736	736	735	735	734	733	727	723	723	723	699	690	686	684	684	681	678	677	677	676	676	676	675	675	675	675	674	674	674	673	672	672	671	670	670	670	669	669	669	668	668	668	668	669	670	670	671	671	671	672	673	673	674	674	674	675	675	675	676	676	676	677	677	678	680	680	682	683	685	687	687	688	690	690	695	695	699	699	705	705	711	716	716	723	723	726	726	732	732	736	736	737	738	738	739	739	739	739	739	739	739	739	739	739	739	739	739	739	739	739	739	739	738	738	738	738	738	738	738	737	737	737	737	737	737	737	737	737	737	737	737	737	737	737	737	737	737	737	737	737	737	737	737	738	738	738	738	739	739	739	739	739	739	740	740	740	740	740	740	740	740	740	740	740	740	740	740	740	739	739	739	739	739	739	740	740	740	740	740	740	740	740	740	740	740	740	740	740	740	740	740	740	740	740	740	740	740	740	740	740	740	740	741	741	741	741	741	741	742	742	741	741	741	741	741	741	741	741	741	741	741	741	741	741	742	742	742	742	742	742	742	742	742	742	741	741	742	741	741	741	741	742	742	742	742	742	742	742	742	742	742	741	741	740	740	740	740	740	740	740	740	741	741	741	741	741	742	742	742	742	742	742	742	743	743	743	743	743	744	744	744	744	744	744	744	745	745	746	746	746	746	746	746	746	746	746	746	746	746	746	746	746	746	746	746	746	746	746	746	746	746	745	745	745	745	745	745	745	745	745	745	745	745	745	745	745	745	745	745	745	745	745	745	745	745	744	744	744	744	744	745	745	745	745	745	745	745	745	745	746	746	746	746	746	746	747	747	747	748	748	748	748	748	748	748	748	749	749	749	749	749	749	749	749	749	748	748	748	748	747	747	746	744	743	743	742	741	741	740	739	739	738	738	737	737	737	737	737	737	737	737	736	736	737	736	736	736	736	736	737	737	0	0	0	0	0	0	0	0	0	0	0	0	753	752	752	752	751	750	475	475	475	475	475	475	474	474	474	474	474	739	739	739	738	737	737	737	737	0	0	0	0	0	0	0	0	0	0	0	0	0	0	0	0	0	0	0	0	0	0	0	0	0	0	745	745	744	743	743	743	742	742	742	742	742	742	742	742	742	742	742	743	743	744	745	745	746	746	747	748	748	749	749	749	750	750	750	750	750	750	751	751	751	751	751	751	751	751	751	750	750	750	750	750	750	750	750	750	749	748	748	747	746	746	744	743	742	742	740	739	739	738	738	737	737	737	737	737	737	736	736	736	736	736	736	736	737	737	737	737	737	737	738	738	739	741	741	742	742	743	744	744	746	747	747	747	748	748	748	749	749	749	749	749	750	750	750	750	750	750	750	750	750	750	750	750	750	750	750	750	750	750	750	750	750	750	750	749	749	749	749	749	749	749	749	749	749	749	750	750	750	750	750	750	750	750	750	0	0	0	0	0	0	0	0	0	0	0	0	0	0	0	0	0	0	0	0	0	0	0	0	0	0	0	0	0	0	0	0	0	0	0	0	1648	1646	1646	1642	1642	1640	1640	1638	1634	1634	1632	1628	1628	1628	1628	1628	1626	1626	1626
0	0	0	0	0	0	0	737	737	737	737	737	738	737	737	737	737	737	737	737	737	737	737	737	737	737	737	737	737	737	737	737	737	737	737	737	737	737	737	737	737	737	737	737	737	737	737	736	736	735	735	734	732	726	723	723	708	698	690	686	684	684	681	678	677	677	676	676	676	675	675	675	675	674	674	674	673	672	672	671	670	670	670	669	669	669	668	668	668	668	669	670	670	671	671	671	672	673	673	674	675	675	675	675	675	676	676	676	677	677	678	680	680	683	683	685	687	687	688	691	691	696	696	700	700	706	706	711	716	716	723	723	726	726	732	732	736	736	737	738	738	739	739	739	739	739	739	739	739	739	739	739	739	739	739	739	739	739	739	738	738	738	738	738	738	738	737	737	737	737	737	737	737	737	737	737	737	737	737	737	737	737	737	737	737	737	737	737	737	737	738	738	738	738	739	739	739	739	739	739	740	740	740	740	740	740	740	740	740	740	740	740	740	740	740	739	739	739	739	739	739	740	740	740	740	740	740	740	740	740	740	740	740	740	740	740	740	740	740	740	740	740	740	740	740	740	739	739	739	739	739	739	739	739	739	739	739	739	739	739	739	739	739	739	739	740	739	739	740	739	739	740	740	740	740	740	740	739	739	739	739	739	739	739	739	739	739	740	740	740	740	740	740	740	740	740	740	739	739	739	739	739	739	739	739	739	739	739	739	739	739	740	740	740	740	740	740	740	740	740	741	741	742	742	742	742	742	742	742	743	743	743	743	743	744	744	743	743	744	744	744	744	744	744	743	743	743	744	744	744	743	743	743	743	743	743	743	743	743	743	743	743	743	743	743	743	743	743	743	743	743	743	743	743	743	743	743	743	743	743	743	743	743	743	743	743	743	743	743	743	743	743	743	743	743	743	744	744	744	744	744	744	744	746	746	746	746	746	746	746	746	747	747	747	747	747	747	747	747	747	747	747	747	747	747	746	745	745	744	743	742	742	741	740	740	739	738	737	737	737	737	737	736	736	736	735	735	735	734	734	734	734	734	734	734	734	734	734	0	0	0	0	0	0	0	0	0	0	753	753	753	752	752	751	750	750	475	475	475	475	475	475	474	474	474	474	474	738	738	739	738	736	735	735	735	0	0	0	0	0	0	0	0	0	0	0	0	0	0	0	0	0	0	0	0	0	0	0	0	0	0	745	745	744	743	743	743	742	742	742	742	742	742	742	741	741	741	741	742	742	743	744	744	745	746	746	747	747	747	748	748	748	749	749	750	750	750	750	750	750	751	751	751	751	751	751	750	750	750	750	750	750	750	750	750	749	748	748	747	746	746	744	743	742	742	740	740	740	739	738	738	738	737	737	737	737	737	737	737	737	737	737	737	737	737	737	737	737	738	739	739	739	741	741	742	742	743	744	744	746	747	747	747	748	748	748	749	749	749	749	749	750	750	750	750	750	750	750	750	750	750	750	750	750	750	750	750	750	750	750	750	750	750	750	749	749	749	749	749	749	749	749	749	749	749	750	750	750	750	750	750	750	750	750	0	0	0	0	0	0	0	0	0	0	0	0	0	0	0	0	0	0	0	0	0	0	0	0	0	0	0	0	0	0	0	0	0	0	0	0	1648	1638	1638	1638	1634	1632	1632	1628	1626	1626	1626	1626	1626	1622	1622	1622	1622	1622	1622
0	0	0	0	0	737	737	737	737	737	737	737	737	737	737	737	737	737	737	737	737	737	737	737	736	736	736	736	736	736	736	736	736	736	736	736	737	737	737	737	737	737	737	737	737	736	736	736	735	734	734	732	731	725	723	723	708	698	690	687	685	685	682	678	677	677	676	676	676	676	675	675	675	674	674	674	674	673	673	672	671	670	670	670	669	669	669	669	669	669	670	670	670	671	672	672	673	673	673	674	675	675	675	675	675	676	676	676	677	677	678	680	680	683	683	685	687	687	688	691	691	696	696	700	700	706	706	711	716	716	722	722	725	725	731	731	735	735	737	737	737	737	737	737	737	738	738	738	738	738	738	738	738	738	738	738	738	738	738	738	738	738	737	737	737	737	737	737	737	737	737	737	737	737	737	737	737	737	737	737	737	737	737	737	737	737	737	737	737	737	737	737	738	738	738	738	738	738	738	738	738	739	739	739	739	739	739	739	739	739	739	739	739	739	738	738	738	738	738	738	738	738	739	739	739	739	739	739	739	739	739	739	739	738	738	738	738	739	739	739	739	739	739	739	739	739	739	739	739	739	739	739	739	739	739	739	739	739	739	739	739	739	739	739	739	740	739	739	740	739	739	740	740	740	740	740	740	739	739	739	739	739	739	739	739	739	739	740	740	740	740	740	740	740	740	740	740	739	739	739	739	739	739	739	739	739	739	739	739	739	739	740	740	740	740	740	740	740	740	740	741	741	742	742	742	742	742	742	742	743	743	743	743	743	744	744	743	743	744	744	744	744	744	744	743	743	743	744	744	744	743	743	743	743	743	743	743	743	743	743	743	743	743	743	743	743	743	743	743	743	743	743	743	743	743	743	743	743	743	743	743	743	743	743	743	743	743	743	743	743	743	743	743	743	743	743	744	744	742	742	743	743	743	743	743	744	744	744	744	744	744	744	745	745	745	745	745	745	746	746	745	745	745	745	745	744	743	742	742	742	740	740	740	739	739	738	737	737	737	736	736	736	735	734	734	733	732	731	731	731	731	731	731	731	731	731	731	734	0	0	0	0	0	0	0	0	0	0	752	752	752	751	751	751	750	750	477	477	476	476	476	476	475	475	475	737	737	738	738	735	735	734	734	734	734	0	0	0	0	0	0	0	0	0	0	0	0	0	0	0	0	0	0	0	0	0	0	0	0	0	0	744	744	744	743	742	742	741	740	740	740	740	740	740	739	739	739	739	740	740	740	742	742	743	743	743	744	744	744	746	746	747	747	747	748	749	749	750	750	750	750	750	750	750	750	750	750	750	750	749	749	749	748	748	748	747	747	747	746	744	744	744	743	742	742	740	740	740	739	738	738	738	737	737	737	737	737	737	737	737	737	737	737	737	737	737	737	737	738	739	739	739	740	740	741	741	742	743	743	744	744	744	745	746	746	746	747	747	747	748	748	748	748	748	749	749	749	750	750	750	750	750	750	750	750	750	750	750	750	749	749	749	748	748	748	748	748	748	748	748	748	748	748	748	748	748	748	748	748	748	749	749	749	749	749	749	749	0	0	0	0	0	0	0	0	0	0	0	0	0	0	0	0	0	0	0	0	0	0	0	0	0	0	0	0	0	0	0	0	0	0	1638	1638	1638	1634	1632	1632	1628	1626	1626	1626	1626	1626	1622	1622	1622	1622	1622	1622
0	0	0	0	0	737	737	737	737	737	737	737	737	737	737	737	737	737	737	737	737	737	737	737	736	736	736	736	736	736	736	736	736	736	736	736	737	737	737	737	737	737	737	737	737	736	736	736	735	734	734	732	731	725	725	725	0	699	691	687	687	687	683	680	678	678	677	676	676	676	675	675	675	675	674	674	674	673	673	672	672	671	671	671	670	670	670	670	670	670	670	671	671	672	673	673	673	674	674	674	675	675	675	675	676	676	676	676	677	677	679	681	681	683	683	685	687	687	688	691	691	697	697	700	700	706	706	711	716	716	722	722	725	725	731	731	734	734	736	736	736	737	737	737	737	737	737	737	737	737	737	737	737	737	737	737	737	737	737	737	737	737	737	737	737	737	737	737	737	737	737	736	736	736	736	736	736	736	736	736	736	736	736	736	736	736	736	736	737	737	737	737	737	737	737	737	737	737	737	737	738	738	738	738	738	738	738	738	738	738	738	738	738	738	737	737	737	737	737	737	737	737	737	737	737	737	737	737	738	738	738	738	738	737	737	737	737	738	738	738	738	738	738	738	738	738	738	738	738	738	738	738	738	738	738	738	738	738	738	738	738	738	738	738	738	739	738	738	738	738	738	739	739	739	739	739	738	738	738	738	738	738	738	738	738	738	738	738	738	738	738	738	738	738	738	738	738	738	738	738	738	738	738	738	738	738	738	738	738	738	739	739	739	739	739	739	739	739	739	739	739	739	739	740	740	740	740	740	740	740	740	740	742	742	742	742	742	742	742	742	742	742	742	742	741	741	741	742	742	742	742	742	742	742	742	742	742	742	741	741	741	740	740	740	740	740	740	741	740	740	740	740	740	740	740	740	740	740	740	740	740	740	740	740	741	741	741	741	741	741	741	742	742	742	742	742	742	742	742	742	743	743	743	743	743	744	744	744	744	744	744	744	745	745	745	745	745	745	746	746	745	745	745	745	745	744	743	742	742	742	740	740	740	739	739	738	737	737	737	736	736	736	735	734	734	733	732	731	731	731	731	731	731	731	731	731	731	0	0	0	0	0	0	0	0	0	0	0	752	752	752	751	751	751	750	750	750	478	478	478	478	477	477	477	477	737	737	0	0	735	735	734	734	734	734	0	0	0	0	0	0	0	0	0	0	0	0	0	0	0	0	0	0	0	0	0	0	0	0	0	0	744	744	744	743	742	742	741	740	740	740	740	740	740	739	739	739	739	740	740	740	742	742	743	743	743	744	744	744	745	745	745	746	746	746	747	747	747	748	748	748	748	748	748	748	748	748	748	748	747	747	747	747	746	746	746	745	745	744	743	743	743	742	741	741	740	740	740	739	739	739	738	738	737	737	737	737	737	737	737	737	737	737	737	737	738	738	738	738	738	738	739	739	739	740	740	741	742	742	742	742	742	743	743	743	744	744	744	745	745	745	746	746	746	747	748	748	748	748	748	748	748	748	748	749	749	748	748	748	748	748	747	747	747	747	746	746	746	746	746	746	746	746	746	746	747	746	746	748	747	747	747	747	747	747	747	747	747	747	0	0	0	0	0	0	0	0	0	0	0	0	0	0	0	0	0	0	0	0	0	0	0	0	0	0	0	0	0	0	0	0	1632	1628	1628	1628	1626	1626	1622	1622	1622	1620	1618	1618	1618	1618	1618	1618	1618	1618
0	0	0	0	0	737	737	737	737	737	737	737	737	737	737	737	737	737	736	736	736	736	736	736	735	735	735	735	735	735	735	735	735	735	736	736	736	736	736	736	736	736	736	736	736	735	735	735	734	733	733	731	728	725	725	725	0	699	691	687	687	687	683	680	678	678	677	676	676	676	675	675	675	675	674	674	674	673	673	672	672	671	671	671	671	671	671	671	671	671	672	672	672	673	674	674	674	674	674	675	675	675	675	675	676	676	676	677	677	677	679	682	682	684	684	686	687	687	688	692	692	698	698	701	701	707	707	711	716	716	722	722	725	725	0	734	734	734	736	736	736	737	737	737	737	737	737	737	737	737	737	737	737	737	737	737	737	737	737	737	737	737	737	737	737	737	737	737	737	737	737	736	736	736	736	736	736	736	736	736	736	736	736	736	736	736	736	736	737	737	737	737	737	737	737	737	737	737	737	737	738	738	738	738	738	738	738	738	738	738	738	738	738	738	737	737	737	737	737	737	737	737	737	737	737	737	737	737	738	738	738	738	738	737	737	737	737	737	737	737	737	737	737	737	737	737	737	737	737	737	737	737	737	737	737	737	737	737	737	737	737	737	737	737	737	737	737	737	737	737	737	738	738	737	737	737	737	737	737	737	737	737	737	737	737	737	737	737	737	737	737	737	737	737	737	737	737	737	737	737	737	737	737	737	737	737	737	738	738	738	738	738	738	738	738	738	738	738	738	738	738	739	739	739	739	739	739	739	739	739	739	739	739	739	739	739	739	739	739	739	739	739	740	739	739	739	739	740	740	740	740	740	739	739	739	739	739	739	739	739	739	739	739	739	739	739	739	739	739	739	739	739	739	739	739	739	739	739	739	739	739	739	739	739	739	739	739	739	739	739	739	739	739	739	740	740	740	740	740	740	740	740	740	742	742	742	742	742	742	742	742	743	743	743	743	743	743	743	743	743	743	743	743	743	742	742	741	740	740	739	739	739	739	738	738	737	737	736	736	736	734	734	734	732	732	731	730	730	730	729	729	730	730	728	728	728	730	0	0	0	0	0	0	0	0	0	0	752	751	751	751	750	750	750	748	747	747	478	478	478	478	477	477	477	477	737	737	0	734	734	734	733	732	732	732	732	732	732	0	0	0	0	0	0	0	0	0	0	0	0	0	0	0	0	0	0	0	0	0	0	0	744	744	744	743	742	742	741	740	740	739	739	739	739	738	738	738	738	739	739	739	740	740	740	742	742	742	743	743	744	745	745	746	746	746	747	747	747	748	748	748	748	748	748	748	748	748	748	748	747	747	747	747	746	746	746	745	745	744	743	743	743	742	741	741	740	740	740	739	739	739	738	738	738	738	738	737	737	737	737	737	737	737	738	738	738	738	738	738	738	738	739	739	739	740	740	741	742	742	742	742	742	743	743	743	744	744	744	745	745	745	746	746	746	747	748	748	748	748	748	748	748	748	748	749	749	748	748	748	748	748	747	747	747	747	746	746	746	746	746	746	746	746	746	746	747	746	746	748	747	747	747	747	747	747	747	747	747	747	0	0	0	0	0	0	0	0	0	0	0	0	0	0	0	0	0	0	0	0	0	0	0	0	0	0	0	0	0	0	0	0	1628	1626	1626	1622	1620	1620	1620	1618	1618	1618	1618	1618	1616	1616	1616	1616	1616	1616
0	0	0	0	737	737	737	737	737	737	737	737	737	736	736	736	736	736	735	735	735	735	735	734	734	734	734	734	734	734	734	734	734	734	734	734	734	735	735	735	735	735	735	734	734	734	734	734	732	731	728	728	726	723	723	0	0	0	692	688	688	688	685	681	679	679	677	676	676	676	676	675	675	675	675	675	674	674	674	673	672	672	672	671	671	671	671	671	671	671	672	672	672	673	674	674	674	674	674	675	675	675	675	675	676	676	676	677	677	677	679	682	682	684	684	686	687	687	688	692	692	698	698	701	701	707	707	711	711	716	722	722	724	724	728	728	732	734	734	735	735	736	736	736	736	736	736	737	737	737	737	737	737	737	737	737	737	737	737	737	737	737	737	737	737	737	736	736	736	736	736	736	735	735	735	735	735	735	734	734	734	734	734	735	735	735	735	735	736	736	736	736	736	736	736	737	737	737	737	737	737	737	737	737	737	737	737	737	737	737	737	737	737	737	737	737	737	737	737	737	737	737	737	737	737	737	737	737	737	737	737	737	737	737	737	737	737	737	737	737	737	737	737	737	737	737	737	737	737	737	737	737	737	737	737	737	737	737	737	737	737	737	737	737	737	737	737	737	737	737	737	738	738	737	737	737	737	737	737	737	737	737	737	737	737	737	737	737	737	737	737	737	737	737	737	737	737	737	737	737	737	737	737	737	737	737	737	738	738	738	738	738	738	738	738	738	738	738	738	738	738	739	739	739	739	739	739	739	739	739	739	739	739	739	739	739	739	739	739	739	739	739	740	739	739	739	739	740	740	740	740	740	739	739	739	739	739	739	739	739	739	739	739	739	739	739	739	739	739	739	739	739	739	739	739	739	739	739	739	739	739	739	739	739	739	739	739	738	738	738	738	738	738	738	738	738	739	739	739	739	739	739	739	739	739	739	739	739	739	740	740	740	740	741	740	740	741	741	741	741	740	740	740	740	740	740	739	739	739	738	738	738	738	737	737	737	737	736	736	735	734	734	732	731	730	730	729	728	728	728	728	728	728	728	728	728	728	731	731	0	0	0	0	0	0	751	751	751	750	750	750	750	748	748	747	744	742	478	478	478	478	478	478	478	736	735	734	734	734	732	732	732	732	732	731	731	732	732	0	0	0	0	0	0	0	0	0	0	0	0	0	0	0	0	0	0	0	0	0	0	0	0	0	744	742	741	741	740	739	739	739	738	738	738	737	737	737	738	738	738	738	739	739	739	740	740	740	742	742	742	743	743	743	744	744	744	746	746	746	746	746	746	746	746	746	746	746	745	745	745	744	744	744	744	744	743	743	743	743	742	742	742	741	740	740	739	739	739	739	738	738	738	738	738	738	738	737	737	737	737	737	737	737	737	737	737	738	738	738	738	738	738	739	739	739	739	739	739	740	740	740	740	740	742	742	742	742	742	743	743	743	744	744	744	745	746	746	746	746	746	746	746	746	746	747	747	746	746	746	746	746	746	745	744	744	744	744	745	744	744	744	744	744	744	744	745	745	745	746	746	745	745	745	745	746	746	746	746	747	0	0	0	0	0	0	0	0	0	0	0	0	0	0	0	0	0	0	0	0	0	0	0	0	0	0	0	0	0	0	0	0	1628	1626	1626	1622	1620	1620	1620	1618	1618	1618	1618	1618	1616	1616	1616	1616	1616	1616
0	0	0	0	737	737	737	737	737	737	737	737	737	736	736	736	736	736	735	735	735	735	735	734	734	734	734	734	734	734	734	734	734	734	734	734	734	735	735	735	735	735	735	734	734	734	734	734	732	731	728	728	726	723	723	0	0	0	0	690	690	690	686	682	680	680	677	676	676	676	676	675	675	675	675	675	675	674	674	674	673	673	673	673	673	672	672	672	672	672	673	673	673	674	674	674	674	674	674	675	675	675	676	676	676	676	676	677	678	678	680	683	683	685	685	687	687	687	689	690	694	698	698	701	701	707	707	711	711	715	721	721	724	724	726	726	730	732	732	733	734	734	734	734	734	735	735	735	736	736	736	736	736	736	736	736	736	736	736	736	736	736	736	736	736	736	735	735	735	735	735	734	734	734	734	734	734	734	733	733	733	733	733	734	734	734	734	734	734	734	734	734	735	735	735	736	736	736	736	736	736	736	736	737	737	737	737	737	737	737	737	737	737	737	737	736	736	736	736	736	736	736	736	736	736	736	736	736	736	736	736	736	736	736	736	736	736	736	736	736	736	737	737	737	737	737	737	737	737	737	737	737	737	737	737	737	737	737	737	737	737	737	737	737	737	737	737	737	737	737	737	737	737	737	737	737	737	737	737	737	737	737	737	737	737	737	737	737	737	737	737	737	737	737	737	737	737	737	737	737	737	737	737	737	737	737	737	737	737	737	737	737	737	737	737	737	737	737	737	737	737	737	737	737	737	737	737	737	737	738	738	738	738	738	738	738	738	738	738	738	738	738	738	738	738	738	738	738	738	738	738	738	738	738	738	738	738	738	738	738	738	738	738	738	738	738	738	738	737	737	737	737	738	738	738	738	738	738	738	738	738	738	738	738	738	738	738	738	738	738	738	738	738	738	738	738	739	739	739	739	739	739	739	739	739	739	739	739	739	740	740	740	740	741	740	740	741	741	741	741	740	740	740	740	740	740	739	739	739	738	738	738	738	737	737	737	737	736	736	735	734	734	732	731	730	730	729	728	728	728	728	728	728	728	728	728	728	731	731	0	0	0	0	0	0	751	751	751	750	750	750	750	748	748	747	744	742	742	740	739	739	738	737	736	736	735	734	734	734	732	732	732	732	732	731	731	0	0	0	0	0	0	0	0	0	0	0	0	0	0	0	0	0	0	0	0	0	0	0	0	0	0	0	744	742	741	741	740	739	739	739	738	738	738	737	737	737	738	738	738	738	738	738	738	739	739	739	739	739	740	741	741	742	742	742	743	743	743	744	744	744	744	744	744	744	744	743	743	743	743	742	742	742	742	742	742	741	741	741	740	740	740	739	739	739	739	739	739	738	738	738	738	738	738	737	737	737	737	737	737	737	737	737	737	737	737	737	737	737	737	737	737	738	738	738	738	738	738	739	739	739	739	739	739	739	739	740	740	740	741	742	742	742	742	743	743	743	744	744	744	744	744	744	744	744	744	744	743	743	743	743	743	743	743	743	743	743	743	743	743	743	743	743	743	743	743	744	744	743	743	743	744	744	744	743	743	743	744	744	744	0	0	0	0	0	0	0	0	0	0	0	0	0	0	0	0	0	0	0	0	0	0	0	0	0	0	0	0	0	0	0	1622	1622	1622	1620	1618	1618	1616	1616	1616	1616	1614	1614	1614	1614	1614	1614	1614	1614
0	0	737	737	737	737	737	737	736	736	736	736	735	735	735	735	735	735	734	734	734	734	734	733	733	733	732	732	732	732	732	732	732	732	732	733	733	734	734	734	734	734	734	733	733	732	731	731	730	728	726	726	724	723	723	0	0	701	701	690	690	689	686	682	680	680	677	676	676	676	676	676	676	675	675	675	675	675	675	674	674	674	674	673	673	673	673	673	673	673	674	674	674	674	674	674	674	674	675	675	675	676	676	676	676	677	677	678	679	679	682	684	684	686	686	687	688	688	690	690	695	698	698	701	701	707	707	711	711	715	721	721	724	724	726	726	730	732	732	733	734	734	734	734	734	735	735	735	736	736	736	736	736	736	736	736	736	736	736	736	736	736	736	736	736	736	735	735	735	735	735	734	734	734	734	734	734	734	733	733	733	733	733	734	734	734	734	734	734	734	734	734	735	735	735	736	736	736	736	736	736	736	736	737	737	737	737	737	737	737	737	737	737	737	737	736	736	736	736	736	736	736	736	736	735	735	735	735	735	735	735	735	735	735	735	735	735	735	735	735	735	735	735	736	736	736	736	736	736	736	736	736	736	736	736	736	736	736	736	736	736	736	736	736	736	736	736	736	736	736	736	736	736	736	736	736	736	736	736	736	736	736	736	736	736	736	736	736	736	736	736	736	736	736	736	736	736	736	736	736	736	736	736	737	737	736	736	736	737	737	737	737	737	737	737	737	737	737	737	737	737	737	737	737	737	737	737	737	737	737	737	737	737	737	737	737	737	737	737	737	737	737	737	737	737	737	737	737	737	737	737	737	737	737	737	737	737	737	737	737	737	737	737	737	737	737	737	737	737	737	737	737	737	737	737	737	737	737	737	737	737	737	737	737	737	737	737	737	737	737	737	737	737	737	737	737	737	738	738	738	738	738	738	738	738	738	738	738	738	738	738	738	739	739	739	739	739	739	739	739	739	739	739	739	738	738	738	738	738	738	738	738	737	737	737	737	736	736	736	734	733	733	732	731	730	730	729	728	728	728	728	728	727	727	728	728	728	731	731	0	0	0	0	0	749	749	750	750	749	748	748	748	746	746	744	742	739	739	738	737	737	737	736	735	735	734	733	733	732	732	732	731	731	731	731	731	0	0	0	0	0	0	0	0	0	0	0	0	0	0	0	0	0	0	0	0	0	0	0	0	0	0	0	744	741	740	740	739	738	738	738	738	738	737	737	737	737	737	737	737	737	738	738	738	739	739	739	739	739	740	741	741	742	742	742	743	743	743	744	744	744	744	744	744	744	744	743	743	743	743	742	742	742	742	742	742	741	741	741	740	740	740	739	739	739	739	739	739	738	738	738	738	738	738	737	737	737	737	737	737	737	737	737	737	737	737	737	737	737	737	737	737	738	738	738	738	738	738	739	739	739	739	739	739	739	739	740	740	740	741	742	742	742	742	743	743	743	744	744	744	744	744	744	744	744	744	744	743	743	743	743	743	743	743	743	743	743	743	743	743	743	743	743	743	743	743	744	744	743	743	743	744	744	744	743	743	743	744	744	744	0	0	0	0	0	0	0	0	0	0	0	0	0	0	0	0	0	0	0	0	0	0	0	0	0	0	0	0	0	0	0	1622	1618	1618	1618	1616	1616	1616	1612	1612	1612	1612	1612	1612	1612	1612	1612	1612	1612
0	0	737	737	736	736	736	736	735	735	735	734	734	734	734	734	734	732	732	732	732	731	731	731	731	730	730	730	730	730	730	730	730	730	730	731	731	731	731	731	731	731	731	730	730	730	729	727	727	725	724	724	723	721	716	712	710	701	701	698	693	689	687	685	685	682	678	677	677	676	676	676	676	675	675	675	675	675	675	674	674	674	674	673	673	673	673	673	673	673	674	674	674	674	674	674	674	674	675	675	675	676	676	676	676	677	677	678	679	679	682	683	684	686	686	687	688	688	690	690	695	698	698	701	701	707	707	711	711	714	720	720	723	723	725	726	728	730	730	731	732	732	732	733	733	733	734	734	734	734	734	735	735	735	735	735	735	735	735	735	735	735	735	734	734	734	734	734	734	733	732	732	732	732	732	732	731	731	731	731	731	731	731	731	731	732	732	732	732	732	732	733	734	734	734	734	734	734	734	734	735	735	735	736	736	736	736	736	736	736	736	736	736	736	736	735	735	735	735	735	735	735	735	735	735	735	735	735	735	735	735	735	735	735	735	735	735	735	735	735	735	735	735	736	736	736	736	736	736	736	736	736	736	736	736	736	736	736	736	736	736	736	736	736	736	736	736	736	736	736	736	736	736	736	736	736	736	736	736	736	736	736	736	736	736	736	736	736	736	736	736	736	736	736	736	736	736	736	736	736	736	736	736	737	737	736	736	736	737	737	737	737	737	737	737	737	737	737	737	737	737	737	737	737	737	737	737	737	737	737	737	737	737	737	737	737	737	737	737	737	737	737	737	737	737	737	737	737	737	737	737	737	737	737	737	737	737	737	737	737	737	737	737	737	737	737	737	737	737	737	737	737	737	737	737	737	737	736	736	737	737	737	737	737	737	737	737	737	737	737	737	737	737	737	737	737	737	737	737	737	737	737	737	737	737	737	737	737	737	737	737	737	737	737	737	737	737	737	737	738	738	737	737	737	737	737	737	737	737	737	737	737	737	737	737	737	736	735	735	734	733	733	731	730	729	729	728	728	728	728	727	727	727	727	728	728	728	731	731	0	0	0	0	747	747	747	748	748	747	746	746	745	743	743	742	739	738	738	737	737	737	736	735	734	734	733	732	732	732	731	731	731	731	730	730	730	0	0	0	0	0	0	0	0	0	0	0	0	0	0	0	0	0	0	0	0	0	0	0	0	0	0	0	0	740	739	739	738	738	738	737	737	737	737	737	737	737	737	737	737	737	737	737	737	738	738	738	739	739	739	739	739	740	740	740	741	742	742	742	742	742	742	742	742	742	742	742	741	740	740	740	740	740	740	739	739	739	739	739	739	739	739	738	738	738	738	738	738	738	738	738	738	737	737	737	737	737	737	737	737	737	737	737	737	737	737	737	737	737	737	737	737	737	737	737	737	737	738	738	738	738	738	738	738	738	738	739	739	739	739	739	739	740	741	741	742	742	742	742	742	742	742	742	742	742	742	742	742	742	742	742	742	742	742	742	742	742	742	741	741	742	742	742	742	742	742	742	742	742	743	743	743	743	743	742	742	742	742	742	742	0	0	0	0	0	0	0	0	0	0	0	0	0	0	0	0	0	0	0	0	0	0	0	0	0	0	0	0	0	0	0	0	1618	1618	1618	1616	1616	1616	1612	1612	1612	1612	1612	1612	1612	1612	1612	1612	1612
0	0	0	0	736	736	736	736	735	735	735	734	734	734	734	734	734	732	732	732	732	731	731	731	731	730	730	730	730	730	730	730	730	730	730	731	731	731	731	731	731	731	731	730	730	730	729	727	727	725	724	724	723	721	716	712	710	703	703	699	697	692	688	688	687	685	680	677	677	676	676	676	676	676	675	675	675	675	675	675	674	674	674	674	674	674	674	674	674	674	674	674	674	675	675	675	675	675	675	676	676	676	676	676	677	677	677	679	681	681	683	683	685	686	686	687	688	688	691	691	695	699	699	701	701	707	707	711	711	714	719	719	722	722	724	725	725	727	727	728	730	730	730	731	731	731	732	732	733	733	733	734	734	734	734	734	734	734	734	734	734	734	734	733	733	732	732	731	731	731	731	731	730	730	730	730	730	730	730	730	730	730	730	730	730	730	730	730	730	730	730	731	731	731	732	732	732	732	733	733	733	734	734	734	734	734	734	734	734	735	735	735	735	734	734	734	734	734	734	733	733	733	734	734	734	734	734	734	734	734	734	734	734	733	733	734	734	734	734	734	734	734	734	734	735	735	735	735	735	735	735	735	735	735	735	735	735	735	735	735	735	734	734	735	735	735	735	735	735	735	735	735	735	735	735	735	735	734	734	734	734	734	734	734	735	735	735	735	735	735	735	735	735	735	735	735	735	735	735	735	735	735	735	736	736	735	735	735	736	736	736	736	736	736	736	736	736	736	736	736	736	736	736	736	736	736	736	736	736	736	736	736	736	736	736	736	736	736	736	736	736	737	737	737	737	737	737	737	737	737	737	737	737	737	737	737	737	737	737	737	737	737	737	736	736	736	736	736	736	736	736	736	736	736	736	736	736	736	736	737	737	737	737	737	737	737	737	737	737	737	737	737	737	737	737	737	737	737	737	737	737	737	737	737	737	737	737	737	737	737	737	737	737	737	737	737	737	737	737	738	738	737	737	737	737	737	737	737	737	737	737	737	737	737	737	737	736	735	735	734	733	733	731	730	729	729	728	728	728	728	727	727	727	727	728	728	728	0	0	0	0	0	0	747	747	747	748	748	747	746	746	745	743	743	742	739	738	738	737	737	737	736	735	734	734	733	732	732	732	731	731	731	731	730	730	730	0	0	0	0	0	0	0	0	0	0	0	0	0	0	0	0	0	0	0	0	0	0	0	0	0	0	0	0	740	739	739	738	738	738	737	737	737	736	736	736	736	736	736	737	737	737	737	737	737	737	737	738	738	738	738	739	739	739	739	739	739	739	740	740	740	740	740	740	739	739	739	739	739	739	739	738	738	738	738	738	738	738	738	738	738	738	737	737	737	737	737	737	737	737	737	737	737	737	737	737	737	737	737	737	737	737	737	737	737	737	737	737	737	737	737	737	737	737	737	737	737	737	737	737	737	737	737	737	737	737	737	738	738	738	738	738	739	739	739	740	740	740	740	740	740	740	740	740	740	740	740	740	740	740	740	740	740	740	740	740	740	740	740	740	740	740	740	740	740	740	740	740	740	740	740	740	740	740	740	740	740	740	740	740	740	0	0	0	0	0	0	0	0	0	0	0	0	0	0	0	0	0	0	0	0	0	0	0	0	0	0	0	0	0	0	0	1618	1618	1616	1614	1614	1614	1612	1612	1610	1610	1610	1610	1610	1610	1610	1610	1610
0	0	0	0	734	734	734	734	734	733	733	733	732	732	731	731	731	730	730	730	730	729	729	729	728	728	728	728	728	728	728	728	728	728	728	728	728	728	729	728	728	728	728	728	727	727	726	725	725	724	723	722	722	720	716	712	710	703	703	699	699	696	691	691	688	686	682	678	678	677	676	676	676	676	676	676	675	675	675	675	675	675	675	675	675	675	675	675	675	675	675	675	675	675	675	675	675	675	676	676	676	676	677	677	677	678	678	680	682	682	684	684	686	687	687	688	689	689	692	692	696	699	699	702	702	707	707	711	711	714	719	719	722	722	724	725	725	727	727	728	730	730	730	731	731	731	732	732	733	733	733	734	734	734	734	734	734	734	734	734	734	734	734	733	733	732	732	731	731	731	731	731	730	730	730	730	730	730	730	730	730	730	730	730	730	730	730	730	730	730	730	731	731	731	732	732	732	732	733	733	733	734	734	734	734	734	734	734	734	735	735	735	735	733	733	732	732	732	732	731	731	731	731	731	731	731	731	731	731	731	731	731	731	731	731	732	732	732	732	732	732	732	733	733	734	734	734	734	734	734	734	734	734	734	734	734	734	734	734	734	734	734	734	734	734	734	734	734	734	734	734	734	734	734	734	734	734	733	733	733	733	733	733	734	734	734	734	734	734	734	734	734	734	734	734	734	734	734	734	734	734	734	734	734	734	734	734	734	734	734	734	734	734	734	735	735	735	735	735	735	735	735	735	735	735	734	734	734	734	734	734	734	734	734	734	734	734	734	734	734	735	735	735	735	735	736	736	736	736	736	736	736	736	736	736	736	736	736	736	736	736	736	736	735	735	735	735	735	735	734	734	734	735	735	735	735	735	735	735	735	735	736	736	736	736	736	736	736	736	736	736	736	737	737	737	737	737	737	737	737	736	736	736	736	736	736	737	737	737	737	737	737	737	737	737	737	737	737	737	737	737	737	737	737	737	737	737	737	737	737	737	737	737	737	736	736	735	734	734	734	732	732	731	730	728	728	727	727	727	727	727	727	727	727	728	728	728	0	0	0	0	0	0	747	747	746	745	745	744	744	744	743	741	739	739	738	737	737	737	736	735	735	734	734	734	732	732	732	732	731	731	731	731	730	730	730	0	0	0	0	0	0	0	0	0	0	0	0	0	0	0	0	0	0	0	0	0	0	0	0	0	0	0	0	740	739	739	737	737	737	737	737	737	736	736	736	736	736	736	737	737	737	737	737	737	737	737	738	738	738	738	739	739	739	739	739	739	739	740	740	740	740	740	740	739	739	739	739	739	739	739	738	738	738	738	738	738	738	738	738	738	738	737	737	737	737	737	737	737	737	737	737	737	737	737	737	737	737	737	737	737	737	737	737	737	737	737	737	737	737	737	737	737	737	737	737	737	737	737	737	737	737	737	737	737	737	737	738	738	738	738	738	739	739	739	740	740	740	740	740	740	740	740	740	740	740	740	740	740	740	740	740	740	740	740	740	740	740	740	740	740	740	740	740	740	740	740	740	740	740	740	740	740	740	740	740	740	740	740	740	740	0	0	0	0	0	0	0	0	0	0	0	0	0	0	0	0	0	0	0	0	0	0	0	0	0	0	0	0	0	0	0	0	0	1616	1614	1614	1612	1610	1610	1610	1610	1610	1610	1608	1608	1608	1608	1608
0	733	732	732	732	731	731	731	731	731	731	730	729	729	729	729	728	728	728	727	727	727	727	727	727	726	726	726	726	726	726	726	726	726	726	726	726	726	727	727	726	726	726	725	725	725	725	724	724	723	722	721	721	718	715	712	712	711	706	701	699	696	691	691	688	686	682	678	678	677	676	676	676	676	676	676	675	675	675	675	675	675	675	675	675	675	675	675	675	675	675	675	675	675	675	675	675	675	676	676	676	676	677	677	677	678	678	680	682	682	684	684	686	687	687	688	689	689	692	692	696	697	699	702	702	707	707	711	711	713	717	717	721	721	723	724	724	725	726	726	727	727	728	728	728	730	731	731	731	731	731	731	732	732	732	732	732	732	732	732	732	732	732	731	731	731	730	730	730	730	729	729	728	728	728	728	728	728	728	728	728	728	728	728	728	728	728	728	728	728	729	729	730	730	730	730	731	731	731	731	731	732	732	733	733	733	733	734	734	734	734	734	734	733	733	732	732	732	732	731	731	731	731	731	731	731	731	731	731	731	731	731	731	731	731	732	732	732	732	732	732	732	733	733	734	734	734	734	734	734	734	734	734	734	734	734	734	734	734	734	734	734	734	734	734	734	734	734	734	734	734	734	734	734	734	734	734	733	733	733	733	733	733	734	734	734	734	734	734	734	734	734	734	734	734	734	734	734	734	734	734	734	734	734	734	734	734	734	734	734	734	734	734	734	735	735	735	735	735	735	735	735	735	735	735	734	734	734	734	734	734	734	734	734	734	734	734	734	734	734	735	735	735	735	735	736	736	736	736	736	736	736	736	736	736	736	736	736	736	736	736	736	736	735	735	735	734	734	734	733	733	733	733	733	734	734	734	734	734	734	734	734	735	735	735	735	735	735	735	736	736	736	736	736	736	736	736	736	736	736	736	736	735	735	735	735	735	735	735	735	735	735	735	736	736	736	736	736	736	736	736	736	736	736	736	736	736	736	736	736	736	736	736	736	735	735	734	734	734	732	732	732	730	730	728	728	727	727	727	727	727	727	727	727	728	728	729	0	0	0	0	0	0	742	742	742	743	743	742	741	740	740	739	738	738	737	737	737	736	735	734	734	734	734	734	732	732	732	732	732	732	732	732	732	732	0	0	0	0	0	0	0	0	0	0	0	0	0	0	0	0	0	0	0	0	0	0	0	0	0	0	0	0	0	0	0	0	736	736	735	735	735	735	735	735	735	735	735	735	736	736	736	737	737	737	737	737	737	737	737	737	738	738	738	738	738	738	738	738	739	739	739	738	738	738	738	738	738	738	738	737	737	737	737	737	737	737	737	737	737	737	737	737	737	737	737	737	737	737	737	737	737	737	737	737	737	737	737	737	737	737	737	737	737	737	737	737	737	737	737	737	737	737	737	737	737	737	737	737	737	737	737	737	737	737	737	737	737	737	737	737	737	738	738	738	739	739	739	739	739	739	739	739	739	739	739	739	739	739	739	739	739	739	739	739	739	739	739	739	739	739	739	739	739	739	739	739	739	739	739	739	739	739	739	739	739	739	738	738	739	739	0	0	0	0	0	0	0	0	0	0	0	0	0	0	0	0	0	0	0	0	0	0	0	0	0	0	0	0	0	0	0	0	0	0	1614	1614	1612	1610	1610	1610	1610	1610	1610	1608	1608	1608	1608	1608
0	733	732	732	732	731	731	731	731	731	731	730	729	729	729	729	728	728	728	727	727	727	727	727	727	726	726	726	726	726	726	726	726	726	726	726	726	726	727	727	726	726	726	725	725	725	725	724	724	723	721	720	720	717	714	712	712	711	708	707	701	701	699	695	690	690	685	685	681	678	677	677	676	676	676	676	676	676	676	676	676	676	676	675	675	675	675	675	675	675	676	676	676	676	676	676	676	676	676	677	677	677	678	678	679	680	680	681	683	683	685	685	686	687	687	688	690	690	694	694	697	697	699	702	702	707	707	711	711	713	716	716	720	720	722	723	723	724	725	725	725	726	726	727	727	727	728	729	729	729	729	730	730	730	730	730	730	730	730	730	730	730	730	730	729	729	728	728	728	728	727	727	727	727	726	726	726	726	726	726	726	726	726	726	726	726	726	727	727	727	727	727	727	728	728	728	728	728	729	730	730	730	731	731	731	731	731	732	732	732	732	732	732	731	731	731	731	731	730	730	730	730	730	730	730	729	729	729	729	730	730	729	729	729	729	730	730	730	730	731	731	731	731	731	732	732	732	732	732	732	732	732	732	732	732	732	732	732	732	732	732	731	731	731	731	732	732	732	732	732	732	732	732	732	732	732	732	731	731	731	731	731	732	732	732	732	732	732	732	732	732	733	733	733	733	733	733	733	733	733	733	733	733	733	733	733	733	733	733	733	733	733	733	733	734	734	734	734	734	734	734	734	734	734	734	733	733	733	733	732	732	732	732	733	733	733	733	733	733	734	734	734	734	734	734	734	734	734	735	735	735	735	735	735	735	735	735	735	735	735	734	734	734	734	734	734	734	734	734	733	733	733	733	733	734	734	734	734	734	734	734	734	735	735	735	735	735	735	735	736	736	736	736	736	736	736	736	736	736	736	736	736	735	735	735	735	735	735	735	735	735	735	735	736	736	736	736	736	736	736	736	736	736	736	736	736	736	736	736	736	736	736	736	736	735	735	734	734	734	732	732	732	730	730	728	728	728	727	727	727	727	727	727	727	728	728	0	0	0	0	0	0	0	742	742	742	743	743	742	741	740	740	739	738	738	737	737	737	736	735	734	734	734	734	734	733	733	733	732	732	732	732	732	0	0	0	0	0	0	0	0	0	0	0	0	0	0	0	0	0	0	0	0	0	0	0	0	0	0	0	0	0	0	0	0	0	734	734	734	734	734	734	734	734	734	734	734	734	734	734	734	735	736	736	736	736	736	737	737	737	737	737	737	737	737	737	737	737	737	737	737	737	737	737	737	737	737	737	737	737	737	737	737	737	737	737	736	736	736	736	736	736	736	736	736	736	736	736	736	736	736	736	736	736	737	737	737	737	736	736	736	736	737	737	737	737	737	737	737	737	737	737	737	737	736	736	736	736	736	736	736	736	736	736	736	736	736	736	736	737	737	737	737	737	737	737	737	737	738	738	738	738	738	738	738	738	738	738	738	738	738	738	738	738	738	738	738	738	738	738	738	738	738	738	738	739	739	738	738	738	738	738	738	738	737	737	738	737	737	737	737	0	0	0	0	0	0	0	0	0	0	0	0	0	0	0	0	0	0	0	0	0	0	0	0	0	0	0	0	0	0	0	0	0	1614	1610	1610	1610	1610	1610	1610	1608	1608	1608	1608	1608	1608	1608	1606
730	730	729	729	729	728	728	728	727	727	727	727	727	727	727	726	726	726	726	725	725	725	725	725	725	725	725	725	725	725	725	725	725	725	725	725	725	725	725	725	725	725	725	724	724	724	724	723	723	723	721	720	720	717	714	712	712	711	710	707	704	704	700	699	695	691	691	688	686	682	679	679	678	677	677	676	676	676	676	676	676	676	676	676	676	676	676	676	676	676	676	676	676	677	676	676	677	677	677	678	678	678	679	679	681	682	682	683	683	685	686	686	687	688	688	689	691	691	695	695	698	698	700	703	703	708	708	711	711	713	716	716	720	720	722	723	723	724	725	725	725	726	726	727	727	727	728	729	729	729	729	730	730	730	730	730	730	730	730	730	730	730	730	730	729	729	728	728	728	728	727	727	727	727	726	726	726	726	726	726	726	726	726	726	726	726	726	727	727	727	727	727	727	728	728	728	728	728	729	730	730	729	729	729	730	730	730	730	731	731	731	731	730	730	730	730	729	729	728	728	728	728	727	727	727	727	727	727	727	727	727	727	727	728	728	728	728	728	728	729	729	729	730	730	730	730	730	731	731	731	731	731	731	731	731	730	730	730	730	730	730	730	730	730	730	730	730	730	730	730	730	730	730	730	730	730	730	729	729	730	730	730	730	730	730	731	731	731	731	731	731	731	731	731	731	731	731	731	731	731	731	731	731	731	731	731	731	731	731	731	731	731	731	731	732	732	732	732	732	732	732	731	731	731	731	731	731	731	731	731	731	731	731	731	731	731	731	731	731	732	732	732	732	733	733	733	733	733	734	734	734	734	734	734	734	734	734	734	734	734	733	733	733	732	732	732	732	731	731	731	731	731	731	731	732	732	732	732	732	733	733	733	734	734	734	734	734	734	734	735	735	735	735	735	735	735	735	735	735	735	734	734	734	734	734	734	734	734	734	734	734	734	734	734	734	734	734	734	734	734	734	734	735	735	735	735	735	735	735	735	735	735	735	735	734	734	734	733	733	732	731	731	730	730	728	728	728	727	727	727	727	727	727	727	728	728	0	0	0	0	738	738	739	739	741	741	741	740	740	740	739	739	738	737	737	737	736	735	735	735	734	734	734	734	734	733	733	733	732	732	732	732	732	0	0	0	0	0	0	0	0	0	0	0	0	0	0	0	0	0	0	0	0	0	0	0	0	0	0	0	0	0	0	0	0	0	734	734	734	734	734	734	734	734	734	734	734	734	734	734	734	735	736	736	736	736	736	737	737	737	737	737	737	737	737	737	737	737	737	737	737	737	737	737	737	737	737	737	737	737	737	737	737	737	737	737	736	736	736	736	736	736	736	736	736	736	736	736	736	736	736	736	736	736	737	737	737	737	736	736	736	736	737	737	737	737	737	737	737	737	737	737	737	737	736	736	736	736	736	736	736	736	736	736	736	736	736	736	736	737	737	737	737	737	737	737	737	737	738	738	738	738	738	738	738	738	738	738	738	738	738	738	738	738	738	738	738	738	738	738	738	738	738	738	738	739	739	738	738	738	738	738	738	738	737	737	737	737	737	737	737	737	0	0	0	0	0	0	0	0	0	0	0	0	0	0	0	0	0	0	0	0	0	0	0	0	0	0	0	0	0	0	0	0	1614	1610	1610	1610	1608	1608	1608	1608	1608	1608	1606	1604	1604	1604	1604
727	727	727	727	726	726	726	725	725	725	725	725	725	725	725	725	725	725	725	724	724	724	724	724	724	724	724	724	724	724	724	724	724	724	724	724	724	724	724	724	724	723	723	723	723	723	723	722	721	721	719	717	717	716	714	712	712	711	710	707	704	704	700	699	695	691	691	688	686	682	679	679	678	677	677	676	676	676	676	676	676	676	676	676	676	676	676	676	676	676	676	676	676	677	676	676	677	677	677	678	678	678	679	679	681	682	682	683	683	685	686	686	687	688	688	689	691	691	695	695	698	698	700	703	703	708	708	711	711	712	715	715	718	720	721	722	722	723	724	724	724	725	725	725	725	725	726	727	727	727	727	727	728	728	728	728	728	728	728	728	728	728	728	728	727	727	727	727	727	726	726	725	725	725	725	725	725	725	725	725	725	725	725	725	725	725	725	725	725	725	725	725	726	726	726	726	727	727	727	727	727	728	729	729	730	730	730	730	731	731	731	731	730	730	730	730	729	729	728	728	728	728	727	727	727	727	727	727	727	727	727	727	727	728	728	728	728	728	728	729	729	729	730	730	730	730	730	731	731	731	731	731	731	731	731	730	730	730	730	730	730	730	730	730	730	730	730	730	730	730	730	730	730	730	730	730	730	729	729	730	730	730	730	730	730	731	731	731	731	731	731	731	731	731	731	731	731	731	731	731	731	731	731	731	731	731	731	731	731	731	731	731	731	731	732	732	732	732	732	732	732	731	731	731	731	731	731	731	731	731	731	731	731	731	731	731	731	731	731	732	732	732	732	733	733	733	733	733	734	734	734	734	734	734	734	734	732	732	732	731	731	731	731	731	730	730	730	730	730	729	729	729	729	730	730	730	730	730	730	731	731	731	732	732	732	733	733	733	734	734	734	734	734	734	734	734	734	734	734	734	733	733	733	732	732	732	732	732	732	732	732	732	732	732	732	732	733	733	733	733	733	733	733	734	734	734	734	734	734	734	734	734	734	734	733	733	732	732	732	731	731	731	730	730	728	728	728	727	727	727	727	727	727	727	0	0	0	0	0	0	738	738	739	739	739	739	739	739	739	738	738	738	737	737	737	736	736	735	735	735	734	734	734	734	734	734	733	733	732	732	0	0	0	0	0	0	0	0	0	0	0	0	0	0	0	0	0	0	0	0	0	0	0	0	0	0	0	0	0	0	0	0	0	0	0	0	732	732	732	732	732	732	732	733	733	733	733	733	733	733	733	734	735	735	735	736	736	736	736	736	736	736	736	736	737	737	737	737	737	737	737	737	737	737	737	737	737	736	736	736	736	735	735	735	735	735	735	735	734	734	734	734	734	734	734	735	734	734	735	735	735	735	735	735	736	736	736	736	736	736	736	736	736	736	736	736	736	736	736	736	736	736	736	736	736	736	736	736	736	735	735	735	735	735	735	735	735	736	736	736	736	736	737	737	737	737	737	737	737	737	737	737	737	737	737	737	737	737	737	737	737	737	737	737	737	737	737	737	737	737	737	737	737	737	738	738	737	737	737	737	737	737	737	737	737	737	737	737	737	737	737	737	0	0	0	0	0	0	0	0	0	0	0	0	0	0	0	0	0	0	0	0	0	0	0	0	0	0	0	0	0	0	0	0	0	1610	1610	1610	1608	1608	1608	1608	1608	1608	1606	1604	1604	1604	1604
727	727	727	727	726	726	726	725	725	725	725	725	725	725	725	725	725	725	725	724	724	724	724	724	724	724	724	724	724	724	724	724	724	724	724	723	723	723	723	723	723	722	722	722	721	721	721	720	719	719	717	716	715	715	714	712	712	711	711	709	709	707	704	700	698	698	696	696	688	688	687	684	681	680	680	678	677	677	677	677	677	677	677	677	677	677	677	677	677	677	677	677	677	677	677	677	678	678	678	679	679	680	681	681	683	683	684	685	685	686	687	687	688	688	688	691	691	694	697	697	699	699	700	704	704	709	709	711	711	712	714	714	717	719	719	721	721	722	723	723	723	724	724	724	724	724	725	725	725	725	725	725	726	726	726	726	726	726	726	726	726	726	726	726	726	726	725	725	725	725	725	725	725	725	725	725	725	725	725	725	725	725	725	725	725	725	725	725	725	725	725	725	725	725	725	725	725	725	726	726	726	727	727	727	728	728	728	728	729	729	728	728	728	728	728	727	727	727	727	726	726	726	726	726	726	726	725	725	725	725	726	726	726	726	726	726	727	727	727	728	728	728	728	728	728	728	728	729	729	729	729	729	728	728	728	728	728	728	728	728	728	728	728	728	728	728	728	728	728	728	728	728	728	728	728	728	728	728	728	728	728	728	728	728	728	729	729	729	729	729	730	730	730	730	730	730	730	730	730	730	730	730	730	730	729	729	729	729	729	729	729	729	730	730	730	730	730	730	730	730	730	730	730	730	730	730	730	729	729	729	729	729	729	730	730	730	730	730	730	730	730	730	731	731	731	731	731	731	732	732	732	732	732	732	732	732	732	732	732	731	731	731	731	731	730	730	730	730	730	729	729	729	729	730	730	730	730	730	730	731	731	731	732	732	732	733	733	733	734	734	734	734	734	734	734	734	734	734	734	734	733	733	733	732	732	732	732	732	732	732	732	732	732	732	732	732	733	733	733	733	733	733	733	734	734	734	734	734	734	734	734	734	734	734	733	733	732	732	732	731	731	731	730	730	728	728	728	728	728	728	728	728	728	0	0	0	0	0	0	0	738	738	739	739	739	739	739	739	739	738	738	738	737	737	737	736	736	736	735	735	734	734	734	734	734	734	734	734	734	734	0	0	0	0	0	0	0	0	0	0	0	0	0	0	0	0	0	0	0	0	0	0	0	0	0	0	0	0	0	0	0	0	0	731	731	731	731	731	730	730	730	730	731	731	731	731	731	731	731	732	732	733	733	733	734	734	734	734	735	735	735	735	735	735	735	735	736	736	736	736	736	736	736	736	736	735	735	735	735	735	734	734	734	734	734	733	733	733	733	733	732	732	732	732	732	732	732	732	733	733	733	734	734	734	734	734	734	735	735	735	735	735	735	735	735	735	735	735	735	735	735	736	736	736	735	735	735	735	735	735	734	734	734	734	734	734	734	734	734	734	735	735	735	736	736	736	736	736	736	736	736	737	737	737	737	737	737	737	737	737	737	737	737	737	737	737	737	737	737	737	737	737	737	737	737	737	737	737	737	737	737	737	737	737	737	736	736	736	736	736	735	735	0	0	0	0	0	0	0	0	0	0	0	0	0	0	0	0	0	0	0	0	0	0	0	0	0	0	0	0	0	0	0	0	0	1610	1610	1608	1608	1608	1608	1606	1606	1606	1604	1604	1604	1604	1604
726	725	725	725	725	725	725	724	724	724	724	724	724	724	724	724	724	724	724	723	723	723	723	723	723	723	723	723	723	723	723	723	723	723	723	723	723	723	723	723	723	722	722	722	721	721	721	720	719	719	717	716	715	715	714	713	713	712	711	711	711	709	707	704	704	701	699	699	0	0	689	687	686	686	683	682	680	680	679	679	679	678	678	678	678	678	678	678	678	678	678	678	678	679	679	679	679	679	680	680	681	683	683	683	685	685	686	687	687	687	688	688	689	689	691	694	694	697	697	699	700	700	702	706	706	709	709	711	711	712	714	714	717	719	719	721	721	722	723	723	723	724	724	724	724	724	725	725	725	725	725	725	726	726	726	726	726	726	726	726	726	726	726	726	726	726	725	725	725	725	725	725	725	725	725	725	725	725	725	725	725	725	725	725	725	725	725	725	725	725	725	724	724	724	724	725	725	725	725	725	725	725	726	726	726	727	727	727	727	727	728	728	727	727	726	726	726	726	726	725	725	725	725	725	725	725	725	725	725	725	725	725	725	725	725	725	725	725	726	726	726	726	726	726	727	727	727	727	727	727	727	727	727	727	727	727	727	727	727	727	726	726	726	726	726	726	727	727	727	727	727	726	726	726	726	726	726	726	726	726	726	726	726	726	727	727	727	727	727	727	728	728	728	728	728	728	728	728	728	728	728	728	728	727	727	727	727	727	727	727	727	727	727	727	727	728	728	728	728	728	728	728	728	728	728	728	728	727	727	727	727	727	727	728	728	728	728	728	728	728	728	728	729	729	729	729	730	730	730	731	731	731	731	731	731	730	730	730	730	730	729	729	729	728	728	728	728	728	728	728	727	727	727	728	728	728	728	728	728	729	730	730	731	731	731	731	731	731	732	732	732	732	732	732	732	732	732	732	732	732	731	731	731	731	731	731	730	730	730	730	731	731	731	731	731	731	731	731	731	731	731	731	731	732	732	732	732	732	732	733	733	733	733	732	732	732	731	730	730	730	730	729	729	729	728	728	728	728	728	728	728	728	728	0	0	0	0	0	0	0	737	737	738	738	738	738	738	737	737	737	737	737	737	737	737	736	736	736	735	735	734	734	734	734	734	734	734	734	734	734	0	0	0	0	0	0	0	0	0	0	0	0	0	0	0	0	0	0	0	0	0	0	0	0	0	0	0	0	0	0	0	0	0	731	731	731	731	731	730	730	730	730	731	731	731	731	731	731	731	732	732	733	733	733	734	734	734	734	735	735	735	735	735	735	735	735	736	736	736	736	736	736	736	736	736	735	735	735	735	735	734	734	734	734	734	733	733	733	733	733	732	732	732	732	732	732	732	732	733	733	733	734	734	734	734	734	734	735	735	735	735	735	735	735	735	735	735	735	735	735	735	736	736	736	735	735	735	735	735	735	734	734	734	734	734	734	734	734	734	734	735	735	735	736	736	736	736	736	736	736	736	737	737	737	737	737	737	737	737	737	737	737	737	737	737	737	737	737	737	737	737	737	737	737	737	737	737	737	736	736	736	736	736	736	735	735	735	735	734	734	734	734	734	734	0	0	0	0	0	0	0	0	0	0	0	0	0	0	0	0	0	0	0	0	0	0	0	0	0	0	0	0	0	0	0	0	0	1608	1606	1606	1606	1606	1606	1604	1604	1604	1604	1604	1604
725	725	725	724	724	724	724	724	724	723	723	723	723	723	723	723	723	723	723	723	723	723	723	723	723	723	723	723	722	722	722	722	722	722	722	721	721	721	721	721	721	721	720	720	720	719	719	718	717	717	716	715	714	714	714	713	713	712	711	711	711	709	707	704	704	701	699	699	702	698	689	687	686	686	683	682	680	680	679	679	679	678	678	678	678	678	678	678	678	678	678	678	678	679	679	679	679	679	680	680	681	683	683	683	685	685	686	687	687	687	688	688	689	689	691	694	694	697	697	699	700	700	702	704	706	709	709	711	711	712	714	714	716	717	717	719	719	721	721	721	722	723	723	723	723	723	724	724	724	724	725	725	725	725	725	725	725	725	725	725	725	725	725	725	725	725	725	725	725	725	724	724	724	724	724	724	724	724	724	724	724	724	724	724	724	724	724	724	724	724	724	724	724	724	724	725	725	725	725	725	725	725	726	726	726	727	727	727	727	727	728	728	727	727	726	726	726	726	726	725	725	725	725	725	725	725	725	725	725	725	725	725	725	725	725	725	725	725	726	726	726	726	726	726	727	727	727	727	727	727	727	727	727	727	727	727	727	727	727	727	726	726	726	726	726	726	727	727	727	727	727	726	726	726	726	726	726	726	726	726	726	726	726	726	727	727	727	727	727	727	728	728	728	728	728	728	728	728	728	728	728	728	728	727	727	727	727	727	727	727	727	727	727	727	727	728	728	728	728	728	728	728	728	728	728	728	728	727	727	727	727	727	727	728	728	728	728	728	728	728	728	728	729	729	729	728	728	728	728	728	728	728	728	728	728	728	728	728	727	727	727	727	727	727	726	726	726	726	726	726	726	726	726	726	726	726	726	727	727	727	728	728	728	729	729	730	730	730	730	730	730	730	731	731	731	731	730	730	730	730	730	729	729	729	729	729	728	728	728	728	729	729	729	729	729	729	729	729	729	729	729	729	729	730	730	730	731	731	731	731	731	731	731	731	730	730	730	729	729	729	729	728	728	728	728	728	728	728	728	728	728	728	728	0	0	0	0	0	737	737	737	737	737	737	737	737	737	737	737	737	737	737	737	736	736	736	736	736	735	735	735	735	734	734	735	734	734	734	734	734	0	0	0	0	0	0	0	0	0	0	0	0	0	0	0	0	0	0	0	0	0	0	0	0	0	0	730	730	0	730	730	730	730	730	730	730	729	729	728	728	728	728	729	730	729	729	730	730	730	730	730	731	731	731	732	732	732	732	733	733	733	734	734	734	734	734	734	734	734	734	734	734	734	734	734	734	734	734	733	733	733	732	732	732	732	731	731	731	731	731	731	730	730	730	730	730	730	731	731	731	731	731	731	732	732	732	733	734	734	734	734	734	734	734	734	734	734	734	734	734	734	735	735	735	735	735	734	734	734	734	734	734	734	734	734	734	733	733	733	733	733	734	734	734	734	734	735	735	735	735	735	735	736	736	736	736	736	736	736	736	736	736	736	736	736	736	736	736	737	737	737	737	737	737	737	737	737	737	736	736	736	736	736	736	735	735	735	735	734	734	734	734	734	734	0	0	0	0	0	0	0	0	0	0	0	0	0	0	0	0	0	0	0	0	0	0	0	0	0	0	0	0	0	0	0	0	0	0	1606	1606	1606	1606	1606	1604	1604	1604	1604	1604	1604
725	725	725	724	724	724	724	724	724	723	723	723	723	723	723	723	723	723	723	723	723	723	723	721	721	721	721	721	721	721	721	721	720	720	720	720	720	720	720	719	719	718	718	718	718	717	717	717	716	716	716	714	714	714	713	713	713	712	712	712	711	711	710	710	707	704	702	702	702	698	698	691	691	688	687	686	686	685	683	681	681	680	680	680	679	679	679	679	679	679	679	679	680	680	680	680	680	681	682	682	683	685	685	686	687	687	687	688	688	688	688	690	691	691	694	697	697	699	699	700	702	702	704	704	707	710	710	711	711	712	713	713	714	716	716	717	718	718	720	720	721	721	721	722	723	723	723	723	723	723	724	724	724	724	724	724	724	724	724	724	724	724	724	724	724	724	724	724	724	724	724	724	724	724	724	724	724	724	724	724	724	724	724	724	724	724	724	724	724	724	724	724	724	724	724	724	724	724	724	724	725	725	725	725	725	726	726	726	726	726	726	726	726	726	725	725	725	725	725	725	724	724	724	724	724	724	724	724	724	724	724	724	724	724	724	724	725	725	725	725	725	725	725	725	725	726	726	726	726	726	726	726	726	726	726	726	725	725	725	725	725	725	725	725	725	725	725	725	725	725	725	725	725	725	725	725	725	725	725	725	725	725	725	725	725	725	725	725	726	726	726	726	726	726	726	726	726	726	726	726	726	726	726	725	725	725	725	725	725	725	725	725	726	726	726	726	726	726	726	726	726	726	726	726	726	726	726	726	726	726	726	726	726	726	726	726	726	727	727	727	727	727	727	727	728	728	728	728	728	728	728	728	728	728	728	728	728	728	727	727	727	727	727	727	726	726	726	726	726	726	726	726	726	726	726	726	726	727	727	727	728	728	728	729	729	730	730	730	730	730	730	730	731	731	731	731	730	730	730	730	730	729	729	729	729	729	728	728	728	728	729	729	729	729	729	729	729	729	729	729	729	729	729	730	730	730	731	731	731	731	731	731	731	731	730	730	730	729	729	729	729	728	728	728	728	728	728	728	728	728	729	730	730	0	0	0	0	0	737	737	737	737	737	737	737	737	737	737	737	737	737	737	737	736	736	736	736	736	735	735	735	735	735	735	735	734	734	735	735	0	0	0	0	0	0	0	0	0	0	0	0	0	0	0	0	0	0	0	725	725	725	0	0	0	0	0	728	728	728	728	728	728	728	727	727	727	727	727	727	727	727	727	727	727	728	728	728	728	728	728	729	729	730	730	730	730	730	731	731	731	731	731	731	732	732	732	732	732	732	732	732	732	732	732	732	732	732	732	731	731	731	731	730	730	730	730	730	730	729	729	729	728	728	728	728	728	728	728	729	729	729	730	730	730	731	731	731	732	732	732	732	732	732	733	733	733	734	734	734	734	734	734	734	734	734	734	734	734	734	734	734	734	733	732	732	732	732	731	731	731	731	732	732	732	732	732	733	733	733	734	734	734	734	734	734	734	735	735	735	735	735	735	735	735	735	735	735	735	735	735	735	736	736	736	736	736	736	736	735	735	735	735	735	735	734	734	734	733	733	734	732	732	733	732	732	0	0	0	0	0	0	0	0	0	0	0	0	0	0	0	0	0	0	0	0	0	0	0	0	0	0	0	0	0	0	0	0	0	1606	1606	1604	1604	1604	1604	1604	1604	1604	1604	1604
724	723	723	723	723	723	723	723	723	722	722	722	722	722	721	721	721	721	721	721	721	721	721	721	721	721	721	721	721	721	721	721	720	720	720	720	720	720	720	719	719	718	718	718	718	717	717	717	716	716	716	714	714	714	713	713	713	712	712	712	711	711	711	711	709	708	708	706	703	700	699	699	697	694	690	690	688	687	686	686	685	683	682	682	681	680	680	680	680	680	680	681	681	681	681	682	682	682	684	684	685	686	686	687	687	687	688	688	689	691	691	693	695	695	697	697	699	700	700	701	704	704	707	707	709	711	711	711	711	712	713	713	714	716	716	717	718	718	720	720	721	721	721	722	723	723	723	723	723	723	724	724	724	724	724	724	724	724	724	724	724	724	724	724	724	724	724	724	724	724	724	724	724	724	724	724	724	724	724	723	723	723	723	723	723	723	723	723	723	723	723	723	723	723	723	723	723	723	723	724	724	724	724	725	725	725	725	725	725	725	725	725	725	725	725	725	725	724	724	724	724	724	724	724	724	723	723	723	723	723	723	723	723	723	724	724	724	724	724	724	725	725	725	725	725	725	725	725	725	725	725	725	725	725	725	725	725	725	725	725	725	725	725	725	725	725	725	725	725	725	725	725	725	725	725	724	724	724	724	724	724	724	724	724	724	725	725	725	725	725	725	725	725	725	725	725	725	725	725	725	725	725	725	725	725	725	725	725	725	725	725	725	725	725	725	725	725	725	725	725	725	725	725	725	725	725	725	725	725	725	725	725	725	725	725	725	725	725	725	725	726	726	726	726	726	726	726	726	726	727	727	727	727	727	727	726	726	726	726	726	725	725	725	725	725	725	725	725	725	725	725	725	725	725	725	725	725	726	726	726	726	727	727	727	728	728	728	728	728	728	728	728	729	729	729	728	728	728	728	728	728	727	727	727	727	727	727	727	727	727	727	727	727	727	727	727	727	728	728	728	728	728	728	728	728	728	728	728	729	729	729	729	729	729	728	728	728	728	728	728	727	727	728	728	728	728	728	728	728	728	729	730	730	0	0	0	0	737	737	737	737	737	737	737	737	737	737	737	737	736	736	737	736	736	736	736	736	736	735	735	735	735	735	735	735	734	734	735	735	0	0	0	0	0	0	0	0	0	0	0	0	0	0	0	0	0	0	0	725	725	725	0	0	0	0	0	728	728	728	728	728	728	728	727	727	727	727	727	727	727	727	727	727	727	728	728	728	728	728	728	729	729	730	730	730	730	730	731	731	731	731	731	731	732	732	732	732	732	732	732	732	732	732	732	732	732	732	732	731	731	731	731	730	730	730	730	730	730	729	729	729	728	728	728	728	728	728	728	729	729	729	730	730	730	731	731	731	732	732	732	732	732	732	733	733	733	734	734	734	734	734	734	734	734	734	734	734	734	734	734	734	734	733	732	732	732	732	731	731	731	731	732	732	732	732	732	733	733	733	734	734	734	734	734	734	734	735	735	735	735	735	735	735	735	735	735	735	734	734	734	734	734	734	734	734	734	734	734	734	734	734	734	734	734	733	732	732	732	732	732	732	731	731	731	731	0	0	0	0	0	0	0	0	0	0	0	0	0	0	0	0	0	0	0	0	0	0	0	0	0	0	0	0	0	0	0	0	0	0	0	1604	1604	1604	1604	1604	1604	1604	1604	1604
