576	576	577	577	577	578	579	581	582	584	586	588	590	593	595	598	600	602	606	609	611	614	614	614	617	620	622	625	627	628	630	631	632	634	634	634	634	633	632	630	628	627	626	625	623	622	621	620	620	620	620	620	620	620	620	619	619	619	619	620	620	621	622	622	623	624	626	626	626	628	630	632	634	635	636	638	639	640	641	642	643	645	644	643	643	642	641	640	640	640	639	638	636	636	636	635	634	633	633	632	631	630	628	627	626	626	626	624	624	624	624	623	622	622	622	622	622	620	620	620	619	619	617	616	616	614	614	614	612	611	610	609	607	606	606	604	602	600	599	598	596	595	594	593	592	592	591	590	590	590	591	592	592	592	592	593	593	594	596	596	598	598	599	600	601	602	604	606	607	608	610	611	611	612	613	614	615	616	616	617	617	618	619	619	620	620	620	622	622	622	622	623	624	624	625	626	628	629	630	630	630	631	632	632	632	634	634	634	632	632	632	633	634	634	635	636	636	636	636	636	636	636	636	636	636	636	634	634	634	632	631	629	627	625	624	621	620	618	616	614	612	610	608	606	606	606	606	607	607	607	607	607	608	608	608	609	609	609	608	608	608	608	608	608	608	608	607	607	607	607	607	606	605	604	604	603	603	602	601	600	599	599	596	595	594	592	591	590	590	588	587	586	585	584	583	582	582	581	580	579	579	578	577	576	575	575	575	575	576	577	578	580	582	584	586	589	591	593	595	597	600	602	602	603	604	604	604	606	606	607	608	609	610	612	612	614	614	615	616	616	616	616	616	616	615	615	615	614	614	613	612	611	610	608	608	607	604	604	603	602	601	600	598	598	597	596	595	594	593	592	592	591	591	591	592	592	592	593	593	592	592	593	593	593	594	594	594	594	594	595	595	596	598	600	602	604	605	608	609	610	612	614	615	616	615	614	612	610	609	608	606	605	602	600	598	594	594	594	590	587	585	580	577	574	570	566	563	560	556	552	548	544	542	539	537	535	531	529	528	525	524	522	520	519	518	517	516	516	515	515	515	515	514	514	514	514	514	515	516	516	516	517	518	518	519	519	520	520	520	520	520	520	519	518	518	518	517	516	516	516	516	516	517	518	518	518	518	520	521	523	526	528	531	532	534	537	540	542	547	550	551	553	555	556	559	565	570	578	586	591	601	607	611	617	621	624	629	631	633	632	631	630	630	630	629	629	629	630	629	629	629	629	628	628	628	629	629	630	630	630	628	628	628	627	626	624	622	621	620	618	617	616	614	612	610	609	609	608	608	608	608	608	609	610	613	615	618	620	622	626	631	633	638	643	647	651	654	656	658	661	662	660	659	658	655	654	653	650	650	649	646	645	644	644	643	643	642	641	640	640	640	640	642	643	644	647	649	650	652	653	654	657	658	659	661	660	658	653	652	650	648	647	646	645	645	645	643	642	640	638	638	638	1580	1726	1682	1641	1623	1601	1593	1345	776	1379	1533	1523	1519	1518	1518	1532	1543	1561	1591	1612	1649	1673	1689	1712	1733	1744	1754	1762	1769	1779	1771	1766	1766	1762	1758	1748	1732	1722	1712	1698	1686	1666	1659	1653	1644	1635	1627	1612	1606	1601	1596	1591	1586	1586	1586	1586	1586	1588	1591	1606	1614	1622	1633	1638	1644	1654	1655	1655	1655	1650	1644	1629	1619	1606	1593	1585	1576	1559	1556	1556	1544	1534	1518	1503
576	576	576	577	577	577	578	580	581	583	586	587	589	593	595	597	600	602	605	608	611	614	614	614	617	620	622	625	627	628	631	632	633	635	635	635	635	634	633	631	629	628	628	626	625	625	623	622	622	622	622	622	622	622	622	622	622	622	622	622	624	624	625	625	626	627	628	628	628	630	631	633	636	636	636	638	639	640	641	642	643	645	644	643	643	642	641	640	640	640	639	638	636	636	636	635	634	633	633	632	631	630	629	628	627	627	627	625	625	625	625	624	624	624	624	624	624	623	622	622	622	622	620	619	619	617	616	616	613	612	611	610	609	608	607	606	604	602	601	599	598	597	595	594	593	592	592	592	591	591	591	592	592	592	592	594	594	595	597	597	598	599	600	601	602	603	605	607	607	608	610	611	611	612	613	614	615	616	616	617	617	619	619	619	620	620	620	622	622	622	622	623	624	625	626	627	628	629	630	631	631	631	633	633	633	636	636	636	635	635	635	636	636	636	638	638	638	638	638	638	638	638	638	638	637	636	635	635	635	633	632	630	628	627	625	623	621	619	617	615	613	611	609	607	607	607	607	607	607	607	607	607	608	608	608	610	610	610	610	610	610	611	610	610	610	610	610	610	610	610	610	609	608	607	606	605	605	604	604	602	601	601	598	597	597	594	593	592	591	590	589	588	587	585	584	584	584	583	582	580	580	579	578	577	577	577	577	577	577	578	579	581	584	586	588	590	592	594	596	598	601	602	603	604	604	604	604	605	605	607	608	609	611	612	613	614	615	616	617	617	617	617	617	617	616	616	616	614	614	614	613	612	611	608	608	608	605	604	604	602	601	601	598	598	598	597	596	595	594	593	592	591	591	591	592	592	592	592	592	591	591	591	592	592	593	594	594	594	594	595	595	595	598	599	602	604	605	607	608	609	611	613	613	614	613	612	610	608	607	605	604	603	601	599	597	594	594	593	589	588	586	581	578	575	572	568	564	560	557	554	550	546	544	541	538	536	533	531	529	526	525	524	521	520	519	518	517	517	516	516	516	516	516	516	516	516	516	517	517	517	518	518	519	520	520	520	521	521	521	521	521	521	520	520	520	519	519	518	518	518	518	518	518	519	519	519	520	522	523	525	528	530	533	533	534	537	540	542	547	550	552	556	559	562	565	572	577	585	592	598	607	612	616	620	625	628	631	634	636	635	634	633	633	632	631	631	631	631	631	631	631	630	630	630	630	630	631	633	632	631	631	631	631	628	628	627	624	623	622	619	618	617	614	613	611	610	610	610	608	608	608	610	610	611	613	615	619	621	623	628	632	634	638	644	647	651	654	656	658	661	662	660	658	656	653	652	651	650	649	648	645	644	643	643	642	641	641	639	638	638	638	638	640	642	643	646	648	650	651	652	653	657	657	658	660	659	658	653	652	650	646	646	646	645	645	645	643	642	640	638	638	638	1580	1728	1688	1642	1623	1601	1601	1118	0	1221	1536	1523	1523	1523	1523	1537	1546	1561	1599	1622	1654	1678	1693	1712	1737	1750	1760	1769	1775	1785	1777	1773	1773	1765	1758	1748	1732	1722	1712	1698	1686	1666	1659	1653	1644	1632	1621	1612	1606	1601	1591	1586	1581	1581	1581	1581	1581	1581	1581	1591	1601	1612	1622	1627	1633	1643	1644	1644	1644	1639	1633	1614	1604	1591	1582	1573	1561	1544	1541	1541	1526	1517	1504	1489
576	576	576	577	577	577	578	580	581	583	586	587	589	593	595	597	600	602	605	608	611	614	616	617	617	620	623	627	629	630	631	633	635	635	636	636	636	636	636	633	631	630	630	629	628	627	627	627	625	625	625	625	626	627	627	627	627	627	627	628	628	629	630	630	630	631	633	633	633	635	635	636	636	637	638	640	640	640	641	642	643	643	643	643	641	641	640	638	638	638	637	636	636	636	636	635	634	633	633	632	631	631	630	630	628	628	628	628	628	628	628	628	628	628	627	627	627	627	627	627	627	627	625	624	624	622	621	620	619	618	616	614	614	613	611	610	608	607	606	604	602	601	599	597	597	597	595	595	594	594	594	594	594	594	594	594	594	595	597	597	598	599	600	601	602	603	605	607	607	608	610	611	611	612	613	614	615	616	617	617	617	619	619	619	620	620	620	622	622	622	624	624	624	625	626	627	630	631	631	633	633	633	635	636	636	638	638	638	638	638	638	640	640	641	641	642	643	643	642	641	641	641	641	640	640	640	638	637	636	635	634	633	630	629	627	625	623	620	617	615	613	611	609	608	607	607	607	607	607	607	607	607	608	608	608	610	611	611	611	612	613	613	613	613	613	613	613	613	613	613	611	611	611	608	608	608	608	607	607	605	604	604	602	600	599	598	597	597	595	594	592	591	590	589	588	588	587	585	585	584	584	584	583	581	581	581	581	581	581	583	584	585	588	589	591	593	595	597	598	599	601	602	602	602	602	602	602	604	605	607	608	609	611	612	613	614	616	617	619	619	619	619	619	619	617	616	616	616	615	614	614	612	611	610	609	608	607	606	605	604	603	602	601	600	599	598	597	597	595	594	592	592	592	592	592	592	592	592	592	591	591	591	592	592	593	594	594	594	594	595	595	595	598	599	602	604	604	605	607	608	610	611	612	613	611	609	608	606	605	604	602	601	599	596	594	592	592	591	588	586	584	581	578	576	573	570	567	563	560	558	554	550	548	544	542	540	535	533	531	529	527	526	524	522	521	520	519	519	519	519	519	518	518	518	518	518	519	519	519	520	521	521	522	522	523	524	524	524	524	524	524	524	524	523	522	521	521	521	521	521	521	521	520	519	519	519	520	522	523	525	528	530	533	537	539	543	547	550	554	559	562	567	571	574	578	584	588	597	603	608	614	620	624	628	632	635	638	639	640	640	639	638	638	637	636	636	636	636	636	636	635	635	635	635	635	635	636	636	636	636	636	636	635	633	632	630	628	628	627	623	621	619	617	616	614	613	612	611	611	611	611	613	613	613	615	617	620	624	626	630	634	636	641	646	649	653	656	657	658	659	660	658	656	654	651	650	650	648	647	646	643	642	641	640	639	638	638	637	636	636	636	636	638	640	641	645	647	648	650	650	651	655	656	658	658	658	657	653	652	650	646	646	646	645	645	645	643	642	641	638	638	638	96	581	1712	1664	1647	1633	1633	1627	1612	1580	1565	1551	1543	1541	1541	1556	1566	1581	1611	1629	1654	1678	1693	1712	1737	1750	1760	1769	1775	1785	1785	1783	1773	1765	1758	1748	1740	1731	1700	1693	1686	1666	1659	1652	1633	1627	1621	1612	1606	1601	1591	1586	1581	1571	1566	1561	1561	1566	1571	1581	1586	1591	1601	1606	1612	1621	1622	1622	1613	1607	1601	1583	1573	1561	1543	1538	1532	1516	1507	1495	1495	1486	1468	1441
575	576	576	577	577	577	578	580	581	583	586	587	589	593	595	598	600	602	605	608	611	614	616	617	617	620	623	626	628	629	631	633	635	636	636	637	637	636	636	634	633	631	630	630	629	628	628	628	626	626	626	627	628	628	628	629	629	629	630	630	631	632	632	633	633	633	634	634	634	635	636	637	637	638	639	640	640	640	640	641	642	642	642	642	641	640	639	638	638	638	637	636	636	636	635	634	633	633	633	632	632	631	630	630	629	629	629	629	629	629	629	629	629	630	629	629	629	629	629	629	629	628	628	627	626	624	623	622	620	619	618	616	615	614	613	611	610	609	607	606	603	602	600	598	598	598	596	595	594	594	594	594	594	594	594	594	595	596	597	597	598	599	600	601	602	603	604	606	607	608	610	611	611	612	613	614	615	616	617	618	618	619	619	619	620	621	621	622	623	623	624	624	625	626	627	629	630	631	632	634	634	635	636	637	638	640	640	640	640	640	640	641	642	643	643	644	644	644	644	643	643	643	642	641	640	640	639	638	637	636	635	633	631	629	628	625	623	621	617	616	614	611	609	608	608	608	608	607	607	607	607	608	608	609	609	610	611	611	612	613	613	614	614	614	614	614	614	614	614	614	614	613	612	610	610	610	610	608	607	606	606	605	604	602	600	600	599	598	596	595	594	593	592	590	590	589	588	587	586	586	586	585	585	583	582	582	582	583	583	585	586	587	590	591	592	595	596	598	598	599	601	602	602	602	602	602	602	604	604	606	607	609	611	612	613	614	616	617	619	619	620	620	619	619	617	617	616	616	615	614	614	613	612	610	610	609	608	607	606	604	604	603	602	601	600	598	598	598	596	595	593	593	593	592	592	592	592	592	592	591	591	591	592	593	594	594	594	594	594	595	595	595	598	599	602	604	604	605	607	608	610	611	611	612	610	609	608	606	605	603	602	600	598	596	594	592	592	591	588	586	584	581	579	577	574	571	569	564	561	559	555	552	549	546	543	541	536	534	532	530	528	527	525	524	522	521	520	520	520	520	520	520	520	520	520	520	520	520	521	522	523	523	524	524	524	525	525	525	525	525	525	525	525	524	524	521	521	521	521	521	521	521	521	520	520	521	522	524	525	527	530	532	535	539	542	546	550	553	558	564	567	572	577	580	584	590	594	602	608	612	618	623	627	632	634	637	640	641	642	642	641	640	640	639	638	638	638	638	638	638	638	637	636	636	636	637	638	638	638	638	638	637	636	635	634	632	630	629	628	624	622	620	619	617	616	615	614	612	612	612	612	613	614	614	617	619	622	625	627	630	634	637	642	647	650	653	656	657	658	659	660	658	656	654	651	650	649	646	645	644	642	640	638	638	637	637	637	636	636	636	636	636	637	638	640	644	645	646	649	650	650	654	655	656	658	658	657	653	652	650	646	646	646	645	645	645	643	642	641	639	639	639	96	291	856	1528	1657	1638	1634	1627	1612	1587	1578	1571	1556	1551	1551	1562	1571	1586	1612	1629	1654	1674	1687	1706	1735	1751	1766	1771	1775	1785	1781	1778	1773	1765	1758	1748	1736	1726	1700	1693	1686	1666	1659	1652	1633	1624	1616	1606	1601	1595	1581	1576	1571	1566	1561	1556	1556	1558	1561	1571	1576	1581	1595	1598	1602	1606	1606	1606	1597	1592	1586	1568	1558	1546	1529	1522	1514	1501	1493	1482	1482	1473	1456	1425
574	576	576	577	577	577	578	580	581	583	586	587	589	593	595	598	601	603	605	608	611	614	616	617	617	620	622	625	627	628	631	633	635	636	637	638	638	637	636	635	634	633	631	630	630	630	629	628	628	628	628	630	630	630	630	630	631	631	632	633	635	635	635	636	636	635	635	635	636	636	637	638	638	639	640	640	640	640	640	640	641	641	641	641	641	640	638	638	638	638	637	636	635	635	635	633	633	633	633	633	633	631	630	630	630	630	630	630	630	630	630	630	630	631	631	631	631	631	631	631	630	630	630	629	628	627	626	625	622	621	620	617	617	616	614	613	611	610	609	607	604	603	602	599	599	598	597	596	595	595	595	594	594	594	595	595	596	597	597	597	598	599	600	601	602	603	604	606	607	608	609	610	611	612	613	614	615	616	617	618	619	619	619	619	620	621	622	622	623	624	624	625	625	627	629	630	631	632	633	635	636	636	638	639	640	641	642	643	643	643	643	643	644	645	646	646	646	646	646	645	645	644	643	641	641	641	640	639	638	636	635	633	631	630	628	626	624	622	618	616	614	611	609	608	608	608	608	607	607	607	608	608	608	609	610	611	611	611	613	613	613	614	614	614	614	615	616	616	616	616	616	615	614	613	612	611	611	609	608	607	607	607	605	603	602	601	600	599	597	596	595	594	593	592	591	590	589	588	588	587	587	587	587	584	584	584	584	584	585	587	588	589	592	593	594	596	597	598	599	600	601	602	602	602	602	602	602	604	604	605	607	609	611	612	613	614	616	617	619	620	620	620	619	619	617	617	617	616	615	614	614	613	613	611	610	610	608	607	607	605	604	604	602	601	601	599	598	598	597	596	594	594	593	592	592	592	592	592	592	591	591	591	592	594	594	595	595	595	595	595	595	595	598	599	602	604	604	605	607	608	610	611	611	611	609	608	607	605	604	602	601	600	598	596	594	591	591	590	588	585	583	581	579	577	574	572	570	565	562	560	556	553	551	547	544	542	538	536	534	531	529	528	526	525	524	522	521	521	521	521	521	521	521	521	521	521	521	522	523	524	525	525	525	526	526	526	526	526	526	526	526	526	526	526	525	522	521	521	521	521	521	521	521	522	522	523	524	526	527	529	532	534	537	541	544	550	553	557	563	568	572	577	582	586	591	595	599	607	613	617	622	626	629	635	637	638	643	643	643	645	644	643	643	642	641	641	640	640	640	640	640	638	638	638	638	639	640	640	640	640	640	639	638	636	636	635	631	631	630	626	624	622	620	619	617	616	615	614	613	613	613	614	615	616	618	620	624	626	628	631	635	638	643	648	651	653	656	657	658	659	659	657	656	654	651	649	648	645	644	643	640	638	636	636	636	636	636	635	635	635	635	635	636	637	638	643	644	645	648	649	650	653	654	655	658	658	657	653	652	650	646	646	646	645	645	645	643	642	641	640	640	640	97	0	0	1392	1666	1644	1635	1627	1612	1595	1591	1591	1568	1561	1561	1569	1576	1591	1614	1629	1654	1670	1682	1700	1734	1753	1773	1773	1775	1785	1777	1773	1773	1765	1758	1748	1732	1720	1700	1693	1686	1666	1659	1652	1633	1621	1611	1601	1596	1590	1571	1566	1561	1561	1556	1551	1551	1551	1551	1561	1566	1571	1590	1591	1591	1591	1591	1591	1582	1577	1571	1553	1543	1532	1515	1506	1495	1487	1480	1468	1468	1460	1443	1409
574	576	576	576	577	578	580	581	582	584	586	588	591	593	595	598	601	603	605	608	611	614	616	618	622	622	622	625	627	628	631	632	633	636	636	636	638	638	638	635	635	635	633	632	631	631	631	631	631	631	631	631	632	633	635	635	635	635	636	638	638	639	640	640	639	638	638	638	638	638	639	640	640	640	640	640	640	640	640	640	641	640	639	638	638	637	636	636	636	636	635	635	635	634	633	633	633	633	633	632	631	631	630	630	630	630	630	630	631	631	631	632	633	633	633	633	635	635	635	635	635	635	633	632	631	630	629	628	627	626	624	620	619	617	616	615	613	611	610	608	605	605	604	601	600	599	597	596	595	595	595	594	594	594	595	595	595	595	597	597	598	599	600	601	601	602	604	605	605	607	609	611	613	613	613	614	616	617	619	619	619	620	621	622	624	624	624	625	625	625	627	627	627	630	631	631	633	635	636	638	639	640	640	642	643	645	646	646	646	647	648	648	648	648	648	648	648	648	648	648	646	646	645	643	643	643	641	641	640	638	637	635	632	631	630	628	625	622	620	618	616	614	612	610	610	610	610	608	608	608	609	610	610	611	611	611	612	613	613	614	614	616	616	616	616	617	617	617	617	617	617	616	616	614	613	613	613	612	611	610	609	608	607	606	605	604	603	602	601	600	598	597	596	595	594	593	592	591	590	589	589	589	588	588	588	588	588	588	589	589	590	592	594	595	597	598	598	599	601	601	602	602	602	602	602	603	604	604	604	605	607	609	613	613	614	616	617	618	620	620	620	620	619	619	617	617	617	616	615	614	614	613	613	611	610	610	608	608	608	605	605	605	604	603	602	601	600	599	597	596	595	594	593	592	592	592	592	592	592	592	592	593	594	595	596	597	598	598	598	598	598	599	602	603	605	607	607	608	608	609	610	611	611	611	609	608	607	605	604	602	600	599	597	595	593	591	588	587	587	585	583	581	579	577	574	572	570	567	565	562	558	556	554	549	546	544	541	538	536	534	532	530	528	527	526	525	525	525	524	524	524	524	524	525	525	525	525	526	526	527	527	527	528	529	529	529	526	526	526	526	526	526	526	526	525	525	525	525	525	525	525	525	525	526	527	527	527	529	531	534	536	538	543	547	550	556	562	565	571	577	581	587	592	595	599	606	611	616	620	623	630	634	636	640	642	643	646	647	648	646	645	645	645	645	645	643	642	641	641	641	640	640	640	640	640	640	641	641	641	641	640	640	640	640	639	638	635	634	633	629	627	625	624	623	620	619	618	617	617	617	617	617	618	619	621	623	625	629	631	635	639	641	645	649	652	655	656	658	660	659	658	657	654	653	650	647	646	643	642	641	638	636	635	635	634	633	633	632	631	631	632	633	635	636	636	640	642	643	645	646	648	651	653	655	655	656	657	653	652	650	646	646	646	646	646	645	643	642	641	640	640	640	97	0	0	1421	1704	1688	1679	1667	1644	1619	1612	1612	1580	1571	1571	1579	1583	1591	1614	1629	1654	1670	1682	1700	1734	1753	1773	1781	1785	1785	1777	1773	1773	1765	1757	1735	1728	1719	1688	1675	1664	1644	1638	1631	1612	1606	1600	1591	1580	1571	1561	1556	1551	1541	1541	1541	1541	1541	1541	1541	1550	1561	1571	1566	1561	1561	1561	1561	1552	1547	1541	1525	1512	1495	1479	1474	1468	1461	1454	1443	1443	1435	1418	1386
573	574	575	576	577	578	580	582	582	584	587	588	592	594	595	598	602	604	606	609	611	615	617	619	622	622	622	625	627	628	630	631	632	634	635	636	637	637	636	635	634	634	633	632	631	631	631	631	631	631	632	632	633	634	635	636	636	636	638	639	639	640	640	640	640	639	639	639	639	639	639	640	640	640	640	639	639	639	639	639	640	639	638	637	637	636	636	635	634	634	633	633	633	632	632	632	632	632	632	631	630	630	630	629	629	629	629	630	631	631	631	632	633	633	634	634	636	636	636	636	636	636	636	634	633	632	630	630	628	627	626	622	620	618	617	616	614	612	611	609	606	605	604	602	601	599	598	597	596	595	595	594	594	595	595	595	595	595	597	597	598	599	600	601	601	602	604	605	605	607	609	611	613	613	613	614	616	617	619	619	620	621	622	622	624	624	625	626	626	627	628	628	629	632	632	633	634	636	638	640	641	642	642	644	645	648	648	648	648	649	650	650	650	650	650	649	649	649	649	649	647	647	646	644	644	643	641	641	640	638	637	635	632	630	629	627	625	622	620	618	616	614	613	612	611	610	610	609	609	609	610	610	610	611	611	612	613	614	614	614	614	616	616	616	616	617	618	618	618	618	618	618	617	616	615	614	614	613	612	610	610	609	608	607	606	604	604	603	602	601	600	598	597	596	595	594	593	592	591	590	590	590	590	589	588	588	589	590	590	590	591	593	595	596	598	598	599	600	601	602	602	603	603	603	603	603	604	604	605	606	608	610	613	613	614	616	617	618	620	621	621	620	619	619	618	617	617	616	615	614	614	613	613	611	611	610	609	608	608	606	605	605	604	604	603	602	601	600	598	597	596	595	594	594	593	593	593	593	593	593	593	594	596	596	597	598	599	600	600	600	600	600	603	604	606	607	608	608	609	609	610	611	611	611	609	607	606	604	604	602	600	599	597	595	593	590	587	586	586	585	583	581	579	577	574	572	571	568	565	563	559	557	555	550	547	545	542	539	537	534	533	531	528	528	527	526	526	526	525	525	525	525	526	526	526	526	526	527	527	527	527	527	528	529	529	529	528	528	528	528	527	527	527	527	526	526	526	526	526	526	526	526	527	528	528	529	529	531	533	536	539	541	546	550	554	560	565	569	576	581	585	592	597	600	604	610	614	620	624	627	632	636	638	642	643	645	647	648	649	647	646	646	646	646	645	644	643	642	641	641	640	640	640	640	640	640	640	641	641	641	641	640	640	640	640	638	636	635	634	630	628	626	626	624	622	621	620	618	618	618	618	618	619	620	623	625	628	631	632	636	639	642	646	649	652	656	657	658	660	659	658	656	654	652	649	647	645	642	641	640	636	635	634	634	633	633	632	631	630	630	631	632	633	634	635	638	640	642	644	645	647	650	652	653	655	655	656	653	652	650	647	647	646	646	646	646	644	643	641	640	640	640	97	0	0	711	1132	1718	1708	1698	1678	1647	1634	1622	1602	1596	1596	1600	1603	1606	1630	1643	1660	1672	1679	1688	1721	1739	1754	1758	1761	1766	1763	1760	1754	1746	1739	1724	1712	1702	1677	1664	1653	1633	1624	1616	1602	1593	1585	1571	1563	1556	1546	1541	1537	1532	1529	1527	1522	1522	1522	1522	1532	1542	1551	1547	1542	1537	1537	1537	1532	1536	1541	1525	1512	1495	1479	1474	1468	1461	1454	1443	1443	1435	1418	1386
572	573	574	576	577	578	580	582	583	584	587	589	592	594	596	599	602	605	607	610	612	616	618	619	622	622	622	625	626	627	630	631	631	633	634	635	636	635	635	635	634	633	633	632	631	631	631	631	631	632	633	633	634	635	636	637	638	638	639	640	640	640	641	641	641	640	640	640	640	640	640	640	640	640	640	638	638	638	638	638	638	638	637	636	635	635	635	633	633	633	632	631	631	631	631	630	630	630	630	630	630	630	629	628	628	628	628	630	631	631	631	632	633	633	634	635	636	637	638	638	638	638	638	637	636	633	632	631	628	628	627	624	622	620	617	617	616	613	612	610	607	606	605	602	601	599	598	598	597	595	595	595	595	595	595	595	595	595	597	597	598	599	600	601	601	602	604	605	605	607	609	611	613	613	613	614	616	617	619	620	620	622	622	622	624	625	625	627	628	628	628	629	630	633	634	635	636	638	640	641	642	643	645	646	646	650	650	650	650	650	651	651	651	651	651	651	650	650	650	650	648	648	648	645	644	643	641	641	640	638	637	635	632	630	628	626	624	622	620	618	617	615	614	613	611	611	611	610	610	610	611	611	611	611	611	613	614	614	614	614	614	616	617	617	617	618	619	620	620	620	620	619	619	617	616	616	616	614	613	611	610	610	610	609	608	605	604	604	602	602	601	599	598	597	595	595	594	592	592	591	591	591	591	589	589	589	591	591	591	592	593	594	597	597	598	599	600	601	602	602	602	604	604	604	604	604	604	605	605	607	609	611	613	614	614	616	618	619	620	621	622	620	619	619	619	618	617	616	615	614	614	613	613	611	611	611	610	609	608	607	606	605	605	604	604	602	601	601	598	598	597	595	595	595	594	594	594	594	594	594	594	595	597	598	598	599	601	601	601	601	601	602	605	606	607	608	608	608	610	610	610	611	611	611	609	607	605	604	604	602	600	599	597	595	593	589	586	585	585	584	583	581	579	577	574	573	571	568	566	564	560	558	556	551	549	547	543	540	538	535	534	533	529	528	528	527	527	527	526	526	526	527	527	527	527	527	528	529	528	527	527	527	528	529	529	529	529	529	529	529	529	528	528	528	528	527	527	527	527	527	527	528	528	529	530	530	531	533	535	538	542	544	549	553	557	563	569	573	580	585	590	597	602	605	610	614	617	624	628	631	635	638	640	643	645	646	648	649	650	648	647	646	646	646	646	645	644	643	641	641	640	640	640	640	640	640	640	641	641	641	641	641	641	641	640	638	636	636	635	632	630	628	627	626	624	622	621	620	620	620	620	620	620	620	624	626	630	632	634	636	640	642	646	650	652	657	658	658	660	659	657	655	654	652	648	646	644	641	640	639	635	634	633	633	633	633	631	630	630	630	631	631	631	632	633	636	638	640	643	644	646	650	650	651	655	655	655	653	652	650	648	647	646	646	646	646	645	643	641	640	640	640	97	0	0	0	561	1748	1737	1728	1712	1676	1657	1633	1624	1622	1622	1622	1622	1622	1646	1657	1666	1674	1677	1677	1709	1725	1735	1735	1737	1748	1748	1746	1735	1727	1722	1712	1697	1686	1666	1653	1642	1622	1610	1600	1591	1580	1570	1551	1546	1541	1532	1527	1523	1523	1518	1513	1504	1504	1504	1504	1513	1523	1532	1528	1523	1514	1513	1513	1513	1525	1541	1525	1512	1495	1479	1474	1468	1461	1454	1443	1443	1435	1418	1386
572	573	574	576	578	579	581	583	583	585	587	589	592	596	597	599	602	605	608	610	612	616	618	619	622	622	622	625	626	627	628	629	630	631	631	631	633	633	633	633	632	631	631	631	631	631	631	631	631	632	633	635	635	635	636	637	638	640	640	640	641	642	643	643	643	643	641	641	641	641	641	640	640	639	638	636	636	635	635	635	635	635	634	633	631	631	630	630	630	628	628	628	628	627	627	625	625	625	627	626	625	625	625	625	625	625	625	627	628	628	630	631	631	633	634	635	638	639	640	640	641	641	640	639	638	636	635	635	633	631	628	625	625	624	620	619	617	614	614	613	610	609	607	604	603	601	599	599	598	597	597	597	597	597	597	597	597	597	598	598	599	599	600	601	602	603	604	605	605	607	609	610	611	612	613	614	615	617	619	620	620	622	623	624	625	626	627	628	629	630	630	632	633	635	636	636	640	641	641	645	646	646	646	648	650	651	652	653	653	653	653	655	655	655	653	653	653	653	652	651	651	651	650	648	647	645	643	642	640	638	637	635	632	630	628	626	624	622	620	618	617	615	614	613	613	612	611	611	611	613	613	613	613	614	614	614	615	616	616	616	616	617	618	619	619	620	620	622	622	622	622	622	622	622	621	620	620	618	617	616	614	613	613	612	611	608	607	607	605	604	602	601	600	598	597	596	595	594	593	592	591	591	591	591	591	591	591	591	592	594	595	597	598	598	599	601	601	602	602	603	604	604	604	604	604	604	604	605	606	608	609	611	613	615	616	617	618	619	620	621	622	620	619	619	619	618	617	617	616	616	614	613	613	613	612	611	610	610	610	608	607	607	605	605	605	604	603	602	599	599	598	597	597	597	597	596	595	595	596	597	597	598	599	601	602	604	604	604	604	605	605	605	608	609	610	611	611	611	611	611	611	611	611	610	608	607	604	602	602	601	599	597	595	593	591	589	586	585	585	584	583	581	579	578	576	574	572	569	567	565	563	560	558	554	552	550	545	543	541	537	536	535	531	530	530	529	529	529	528	528	527	527	527	527	527	527	528	529	529	529	530	530	531	533	533	533	533	532	531	531	531	531	530	530	530	530	530	530	530	530	530	531	531	531	533	534	535	537	538	542	546	549	554	558	562	568	575	580	587	594	598	605	609	612	617	621	625	628	631	634	638	640	641	643	645	646	648	648	648	646	645	645	645	645	645	643	642	641	640	639	638	638	638	638	638	639	640	640	640	640	641	641	641	640	640	640	638	637	636	633	632	630	627	627	627	625	624	624	622	622	622	624	624	625	627	629	633	635	637	641	644	646	650	652	654	657	659	660	660	658	656	653	651	649	646	645	644	641	639	638	635	634	633	631	631	631	631	629	628	628	629	630	630	631	631	635	637	638	641	643	645	646	648	650	653	654	655	653	652	650	648	647	646	646	646	646	645	644	643	641	641	641	97	0	0	0	565	1760	1750	1740	1723	1687	1668	1644	1635	1630	1622	1622	1625	1633	1648	1657	1666	1674	1677	1677	1709	1725	1735	1735	1721	1654	1654	1652	1644	1630	1622	1622	1616	1610	1591	1585	1579	1561	1561	1559	1541	1531	1523	1523	1518	1513	1513	1508	1504	1495	1490	1486	1486	1486	1486	1486	1503	1523	1532	1528	1523	1514	1493	1468	1461	1456	1451	1437	1435	1435	162	0	0	0	0	0	0	0	0	0
572	573	574	576	578	579	581	583	584	585	588	590	593	596	598	600	603	605	608	610	612	616	618	619	621	622	623	624	625	626	628	628	629	630	630	631	632	632	632	632	631	630	630	630	630	630	631	631	631	632	633	635	635	636	637	638	639	640	641	642	643	643	644	644	644	643	642	642	641	641	641	640	639	638	637	636	635	634	634	634	634	633	633	632	630	629	629	629	628	628	628	628	628	626	626	625	625	625	626	625	624	624	624	624	624	624	625	626	626	627	628	629	630	632	633	634	636	638	640	640	641	641	642	640	639	638	637	636	634	632	630	627	626	624	621	620	618	615	614	614	611	609	608	606	604	602	600	599	598	598	598	598	598	598	598	598	598	598	598	599	599	600	600	602	602	603	604	605	605	607	609	610	611	613	614	614	615	617	619	620	620	622	623	624	625	626	627	629	630	630	630	632	633	636	636	637	640	641	642	646	646	647	648	650	652	653	654	654	655	655	655	656	656	656	655	655	654	654	653	652	651	651	650	647	646	644	642	641	639	637	636	634	631	630	628	626	624	622	620	619	617	615	615	614	614	613	612	612	613	614	614	614	614	615	615	616	616	616	616	616	617	618	619	619	620	620	620	623	623	623	624	624	624	624	623	622	622	620	618	618	616	615	614	613	612	610	608	608	605	604	602	601	600	598	598	596	595	594	593	592	592	592	592	592	592	592	592	592	593	594	595	597	598	599	600	601	602	603	603	603	604	604	604	604	604	604	604	605	606	608	609	611	613	615	616	617	618	619	621	622	622	621	620	620	620	619	618	617	617	616	615	614	613	613	612	612	610	610	610	609	608	607	606	606	606	604	604	603	600	600	600	598	598	598	598	597	596	596	597	598	598	599	602	603	604	606	606	606	606	607	608	608	609	610	612	612	612	611	611	611	611	611	611	610	608	607	604	602	602	600	599	597	595	593	591	588	586	585	584	583	583	581	579	578	576	574	572	569	567	566	564	561	559	555	552	550	546	544	542	538	537	536	531	530	530	529	529	529	528	528	528	528	528	528	528	529	529	530	530	531	532	532	533	534	535	535	535	534	534	533	533	533	532	532	532	532	532	532	532	532	532	532	532	532	534	535	536	538	540	544	548	551	556	561	564	570	578	583	590	596	601	608	611	614	620	623	626	630	632	634	638	640	641	643	644	646	647	647	647	646	645	644	644	643	643	642	641	640	639	638	637	637	637	637	637	637	638	639	639	639	639	640	640	640	640	640	638	637	636	634	633	630	629	628	628	626	625	624	624	624	624	625	626	626	628	630	633	635	637	640	643	645	648	650	651	655	657	659	658	657	655	652	650	649	646	645	644	640	638	637	635	634	633	631	631	630	630	629	628	628	629	629	630	630	631	634	636	637	640	642	644	646	648	650	653	653	654	653	652	650	648	647	646	646	646	646	646	645	643	641	641	641	97	0	0	0	282	880	875	870	862	843	834	822	1462	1648	1644	1644	1645	1650	1674	1491	833	837	838	838	855	863	868	868	993	1608	1608	1606	1598	1590	1586	1582	1576	1570	1557	1554	1550	1532	1532	1532	1522	1515	1509	1509	1504	1500	1500	1495	1490	1486	1484	1482	1477	1477	1477	1477	1140	762	766	764	762	757	1065	1468	1449	1446	1443	1428	1423	1418	782	436	0	0	0	0	0	0	0	0
572	574	575	576	578	579	581	583	584	585	588	590	594	596	598	601	603	605	608	610	612	616	618	619	620	623	624	624	625	625	627	628	628	628	629	630	630	630	630	630	630	630	630	630	630	630	631	631	631	632	633	635	635	636	638	639	640	641	642	643	645	645	645	645	644	643	643	642	641	641	641	640	638	637	636	635	634	633	633	633	633	631	631	630	628	628	628	627	627	627	627	627	627	626	625	625	624	624	624	624	624	622	622	622	622	623	624	624	625	625	627	628	628	631	632	633	635	638	640	641	641	641	643	642	641	640	639	638	635	633	631	628	627	625	622	621	619	616	615	614	611	610	608	607	605	602	601	600	599	598	598	598	598	598	598	598	598	598	599	599	599	601	601	602	602	603	604	605	605	607	609	610	611	613	614	614	615	617	619	620	620	622	623	624	625	626	627	630	630	630	631	632	633	636	637	638	641	642	643	646	647	648	651	652	653	655	655	655	657	657	657	658	658	658	657	656	655	655	654	653	651	651	650	646	645	643	641	640	638	636	635	633	630	629	628	626	624	622	620	619	617	616	615	614	614	614	614	614	614	614	614	614	616	616	616	617	617	617	617	617	617	619	619	619	620	620	621	624	624	624	625	625	625	625	624	624	624	622	620	619	618	617	614	613	613	611	609	608	605	604	602	601	600	598	598	597	595	594	593	592	592	592	592	592	592	592	592	593	594	595	596	597	598	599	601	602	603	604	604	604	604	605	605	604	604	604	604	605	606	608	609	611	613	615	616	617	618	620	622	622	622	622	621	620	620	619	619	617	617	617	616	615	614	613	613	613	611	610	610	610	609	608	608	607	607	605	604	604	602	602	601	599	599	599	599	599	598	598	598	599	599	601	604	605	606	607	608	608	608	610	610	610	611	612	613	613	612	611	611	611	611	611	611	610	608	606	604	602	601	599	598	597	595	593	591	588	586	585	583	583	583	581	579	578	576	574	572	569	568	568	564	562	560	556	553	551	548	545	543	540	538	537	531	530	530	529	529	529	528	528	528	529	529	529	530	530	530	531	532	533	534	534	535	536	536	537	536	536	536	535	535	535	534	534	534	533	533	533	533	533	534	534	534	534	535	536	537	540	542	545	549	553	558	563	567	573	581	586	592	599	603	610	614	617	622	625	628	631	633	635	638	640	641	643	644	645	646	646	646	645	644	643	643	642	641	641	640	640	638	637	636	636	636	636	636	636	636	638	638	638	638	639	640	640	640	640	638	637	636	635	634	631	630	629	628	627	626	625	625	626	627	627	627	628	630	631	633	635	637	640	642	644	646	647	649	653	656	657	657	656	654	651	649	648	646	644	643	640	638	636	635	634	633	631	630	630	630	629	628	628	628	628	630	630	630	633	635	636	640	641	643	646	648	650	653	653	653	653	652	650	648	647	646	646	646	646	646	645	643	641	641	641	97	0	0	0	0	0	0	0	0	0	0	0	1289	1666	1666	1666	1666	1666	1700	1324	0	0	0	0	0	0	0	0	265	1561	1561	1559	1551	1551	1550	1541	1535	1531	1523	1523	1521	1504	1504	1504	1504	1499	1495	1495	1490	1486	1486	1481	1477	1477	1477	1477	1468	1468	1468	1468	776	0	0	0	0	0	637	1468	1437	1435	1435	1420	1412	1402	1402	873	0	0	0	0	0	0	0	0
571	573	574	576	578	579	583	584	585	587	588	590	594	596	598	601	603	605	607	610	612	614	616	617	620	621	622	622	623	624	625	626	627	627	627	627	628	628	628	627	627	627	627	628	628	628	629	630	630	631	633	633	634	635	638	639	640	641	642	643	643	644	645	645	645	645	643	642	641	641	640	638	636	636	635	633	632	631	630	630	630	628	628	627	625	625	625	624	624	624	624	624	624	624	624	622	622	622	622	621	620	620	620	620	620	620	620	620	621	622	624	625	625	627	629	630	633	635	636	638	640	641	641	641	641	641	639	638	636	635	633	631	630	628	625	624	622	619	618	616	613	612	610	608	607	605	604	603	602	601	601	601	599	599	599	599	600	601	601	601	601	602	602	602	604	604	605	607	607	608	609	610	611	613	614	614	615	617	619	620	620	622	623	624	625	626	627	630	631	631	633	634	635	638	640	641	643	645	646	648	649	650	651	653	655	655	656	657	657	657	657	657	657	658	658	658	657	655	654	653	651	650	648	645	643	641	638	637	635	633	632	631	628	626	625	624	623	620	620	619	617	616	616	616	616	616	616	617	617	617	617	617	617	618	619	619	619	619	619	619	619	620	620	620	622	622	622	624	625	625	625	626	627	627	627	627	627	625	624	622	621	620	619	618	617	614	612	611	608	607	605	602	602	601	599	597	595	594	594	594	594	594	594	594	594	594	595	595	595	598	598	599	601	602	604	605	605	605	605	605	605	605	605	605	605	605	605	607	607	608	610	612	614	615	616	617	618	620	622	623	624	622	622	622	620	619	619	619	618	617	617	616	616	614	614	614	613	612	611	611	610	610	610	609	608	607	606	605	604	603	602	602	602	602	602	602	602	602	602	602	604	605	607	608	609	611	613	613	614	614	614	614	616	616	617	616	615	614	613	613	613	611	611	611	608	606	604	602	601	599	598	597	595	593	591	588	586	585	583	583	583	581	579	578	576	574	573	571	569	568	565	562	560	556	553	551	548	545	543	540	538	537	535	534	534	533	533	533	531	531	531	531	532	533	533	533	534	535	535	536	537	537	538	541	541	541	541	541	541	540	539	538	538	537	536	536	536	536	536	536	536	536	536	537	538	539	541	543	545	549	553	556	561	568	572	578	585	590	598	604	608	613	617	620	624	627	628	631	633	635	636	638	640	641	642	643	643	643	643	643	642	641	640	639	638	638	637	636	635	635	635	635	635	635	635	635	635	636	636	636	638	638	638	640	640	640	638	637	636	635	634	633	631	631	630	628	628	628	627	627	627	627	627	627	628	629	630	632	634	636	637	639	641	644	645	646	649	651	651	651	651	650	647	646	645	644	643	640	638	636	633	633	633	631	630	630	630	629	628	628	628	628	628	629	630	633	635	636	640	641	643	646	648	650	651	652	653	653	652	650	648	647	646	646	646	646	646	645	643	643	643	643	97	0	0	0	0	0	0	0	0	0	0	0	0	0	0	1283	1700	1700	1709	1324	0	0	0	0	0	0	0	0	265	1561	1561	1559	1551	1509	1486	1486	1480	1476	1468	1468	1468	1468	1468	1469	1477	1472	1468	1468	1468	1468	1477	1472	1468	1468	1464	1460	1451	1451	1451	1451	1455	1460	55	0	0	0	0	0	1304	1410	1410	1403	1402	1402	1402	873	0	0	0	0	0	0	0	0
571	573	574	576	578	579	583	584	585	587	588	590	594	596	598	600	602	604	607	609	611	614	615	617	618	620	621	622	623	623	624	625	626	626	626	626	626	627	627	627	627	627	627	627	628	628	629	629	630	631	632	633	634	635	637	638	640	640	642	643	643	644	645	645	645	645	643	642	641	641	640	638	636	635	634	632	632	630	629	629	628	627	626	626	625	624	624	624	624	623	623	623	623	623	623	621	621	621	620	620	620	620	619	618	618	618	618	618	620	621	623	623	624	626	627	629	632	633	635	636	638	640	640	641	641	642	641	640	637	636	634	632	631	629	626	625	623	621	619	618	615	613	612	609	608	606	606	605	604	603	602	602	602	601	600	600	601	602	602	602	602	603	603	603	604	605	605	607	607	609	610	610	612	613	614	614	615	617	619	620	620	622	623	624	625	626	627	630	631	631	633	635	636	639	641	642	644	645	646	649	650	651	652	654	655	656	657	657	657	657	657	657	657	658	658	657	656	654	653	652	650	648	646	643	642	640	637	635	633	632	631	630	627	625	624	622	621	618	618	618	616	616	616	616	616	616	616	617	617	618	618	618	618	619	620	620	620	620	620	620	621	621	621	621	622	622	622	624	625	625	625	626	627	627	627	627	627	626	625	624	622	621	620	619	618	615	613	612	608	607	605	603	602	601	599	598	596	594	594	594	594	594	594	594	594	594	595	595	596	598	599	600	602	603	604	606	606	606	606	606	606	606	606	606	606	606	606	608	609	610	611	613	616	617	618	618	619	620	622	623	624	623	623	623	621	621	620	620	619	618	618	617	616	615	615	615	614	613	612	612	612	611	610	610	609	608	607	606	606	605	604	604	604	604	604	604	604	604	604	604	606	607	609	610	611	612	614	615	616	616	616	616	618	618	618	617	616	615	614	613	613	612	612	611	608	607	604	602	601	599	598	597	595	593	591	588	586	585	583	583	583	581	579	578	576	574	573	571	569	568	565	562	560	556	554	552	548	546	544	542	540	539	538	536	535	535	535	534	534	534	534	534	534	534	534	535	536	536	537	538	539	539	540	542	542	542	542	542	542	542	541	540	540	539	538	538	538	538	538	538	538	538	538	539	539	540	542	546	548	552	556	559	564	571	575	581	588	593	600	606	610	615	619	621	624	627	628	631	633	635	636	638	639	640	641	642	642	642	642	642	641	640	639	638	637	637	636	636	634	634	634	634	634	634	634	634	635	635	636	636	638	638	638	640	640	640	639	639	638	637	636	634	632	631	630	629	629	628	628	627	627	626	626	626	628	628	629	631	632	634	635	636	638	641	643	644	648	650	650	650	649	649	647	645	644	643	642	640	638	636	633	633	633	631	631	630	630	629	628	628	628	628	628	629	630	633	635	636	640	641	642	646	648	650	651	652	653	653	652	650	648	647	646	646	646	646	646	645	643	643	643	643	97	0	0	0	0	0	0	0	0	0	0	0	0	0	0	642	850	850	854	662	0	0	0	0	0	0	0	517	892	1528	1528	1527	1518	1498	1486	1486	1480	1476	1468	1468	1468	1468	1468	1468	1472	1470	1468	1468	1468	1468	1472	1470	1468	1468	1464	1460	1451	1451	1451	1451	1453	1456	745	715	713	713	404	0	1300	1406	1406	1399	1396	1394	1391	1124	686	686	684	682	682	450	0	554
571	573	574	576	578	579	583	585	585	587	588	590	594	596	597	599	601	603	607	609	611	613	615	616	617	619	620	622	622	622	622	623	624	625	625	625	625	626	627	627	627	627	627	627	627	628	628	628	630	630	631	633	634	635	636	638	640	640	641	643	643	644	645	645	645	645	643	642	641	640	639	638	635	634	633	631	631	630	628	628	627	625	625	625	624	624	624	624	624	622	622	622	622	622	622	620	620	620	619	619	619	619	618	617	617	617	617	617	618	619	622	622	622	624	626	627	630	632	633	635	637	638	640	641	641	643	642	641	638	637	635	633	632	630	627	626	624	622	621	619	616	615	613	610	609	608	607	606	605	604	604	604	604	603	602	602	602	602	602	603	604	604	604	604	605	605	605	607	608	610	610	611	613	614	614	614	615	617	619	620	620	622	623	624	625	626	627	630	631	631	633	635	636	640	642	643	645	646	646	650	651	651	653	654	655	657	657	657	657	657	657	657	657	658	657	656	655	653	652	651	648	647	645	641	640	638	635	633	631	630	629	628	625	624	622	620	619	617	617	617	616	616	616	616	616	616	616	617	617	619	619	619	620	620	620	620	620	620	620	621	622	622	622	622	622	622	622	625	625	625	625	626	627	627	628	628	627	627	627	625	623	622	620	619	619	616	614	613	608	607	605	604	603	601	599	598	597	594	594	594	594	594	594	594	594	594	595	596	597	598	599	601	604	604	605	607	607	608	607	607	607	608	608	608	608	608	608	610	610	611	612	614	617	618	619	619	620	620	622	623	624	624	624	624	622	622	622	620	619	619	619	618	617	616	616	616	614	613	613	613	613	613	611	611	611	610	608	607	607	606	605	605	605	605	605	605	605	605	606	607	608	609	611	613	613	614	616	616	617	619	619	619	620	620	619	617	617	616	614	614	613	613	612	611	609	607	604	602	601	599	598	597	595	593	591	589	586	585	583	583	583	581	579	578	576	574	573	571	569	568	565	562	560	556	554	553	549	547	545	543	542	542	540	538	537	537	536	536	536	536	536	536	536	536	536	536	537	538	539	540	541	541	542	544	544	544	544	544	544	543	543	542	542	542	541	540	540	540	540	540	540	540	540	541	541	542	544	548	550	554	558	562	568	574	578	584	591	596	602	608	612	617	620	622	624	627	628	631	633	635	636	637	638	640	641	641	641	641	641	640	640	640	638	637	636	636	635	635	633	633	633	633	633	633	633	634	635	635	635	636	638	638	638	641	641	641	640	640	640	638	637	636	633	632	631	630	629	628	628	628	627	625	625	625	627	628	628	630	631	633	633	634	636	639	641	643	646	648	648	648	648	648	646	645	643	642	641	640	638	636	633	633	633	631	631	631	631	629	628	628	628	628	628	629	630	633	635	636	640	640	641	646	648	650	651	652	653	653	652	651	648	647	646	646	646	646	646	645	643	643	643	643	97	0	0	0	0	0	0	0	0	0	0	0	0	0	0	0	0	0	0	0	0	0	0	0	0	0	0	1034	1518	1495	1495	1494	1486	1486	1486	1486	1480	1476	1468	1468	1468	1468	1468	1468	1468	1468	1468	1468	1468	1468	1468	1468	1468	1468	1464	1460	1451	1451	1451	1451	1451	1451	1436	1431	1426	1426	807	0	1296	1402	1402	1395	1391	1386	1380	1376	1371	1371	1368	1364	1364	901	0	1107
572	573	574	577	578	579	583	585	585	587	588	590	592	594	596	598	600	602	605	607	609	611	613	614	616	618	619	620	620	620	622	623	624	624	625	625	625	625	625	625	625	625	627	627	627	628	628	628	630	630	631	633	634	635	636	638	640	640	641	643	643	644	645	645	645	645	643	642	641	640	639	636	635	634	631	630	629	628	627	626	625	625	624	622	622	622	622	620	620	620	620	620	620	620	620	619	619	619	617	616	616	616	615	614	614	614	614	614	614	614	617	618	619	622	623	624	628	629	630	633	635	636	640	641	641	641	641	641	640	638	636	635	634	633	630	629	627	624	623	622	619	618	616	614	613	611	610	609	608	607	607	607	607	607	607	607	607	607	607	607	607	607	607	607	608	608	608	610	610	611	611	611	613	614	614	616	616	617	619	620	620	622	623	624	625	626	627	630	631	631	633	635	636	640	642	643	646	647	648	650	651	651	653	654	655	658	658	658	658	658	658	658	658	658	657	656	655	651	651	650	648	647	645	641	639	636	633	632	630	628	627	625	622	621	620	618	617	616	616	616	616	616	616	616	616	616	617	619	619	620	620	620	622	622	622	624	624	624	624	624	624	624	624	624	624	625	625	625	625	625	627	627	627	628	628	628	628	628	628	627	626	625	624	622	620	619	616	614	611	609	607	605	604	602	599	599	598	597	596	595	595	595	595	597	597	597	598	598	599	601	602	604	605	606	608	610	610	610	610	610	610	611	611	611	610	610	610	611	611	613	614	615	617	619	620	620	621	622	624	625	625	625	625	625	625	624	624	622	622	622	620	619	619	619	618	617	617	616	616	614	614	614	614	613	613	611	611	611	610	609	608	608	608	608	608	608	608	610	610	611	613	613	614	616	617	619	620	620	620	622	622	622	622	622	622	620	618	617	616	615	614	613	612	611	609	607	604	602	601	599	598	597	595	593	591	589	586	585	583	583	583	581	579	578	576	575	574	571	569	568	565	563	561	559	557	555	551	549	548	547	545	544	542	541	541	541	541	541	540	540	540	540	540	541	541	541	541	542	542	543	545	546	547	548	548	548	548	548	548	547	546	545	545	544	543	543	543	542	542	542	543	543	543	543	544	545	548	552	554	558	563	567	572	578	582	589	595	599	605	610	614	619	621	622	625	627	628	631	632	633	635	636	636	638	639	640	641	640	640	640	639	638	636	636	636	636	634	633	631	631	631	631	631	631	633	633	633	635	635	636	638	639	640	641	641	641	641	641	641	640	639	638	636	635	633	631	631	630	628	628	627	625	625	625	627	627	628	628	628	630	632	633	633	637	639	641	644	645	645	646	646	645	644	643	643	642	641	640	638	636	633	633	633	633	632	631	631	630	630	628	628	628	628	629	630	633	635	636	640	640	641	646	648	650	651	653	655	653	652	651	650	648	646	646	646	646	646	645	643	643	643	643	97	0	0	0	0	0	0	0	0	0	0	0	0	482	1825	1825	1377	0	0	0	0	0	0	0	1132	1610	1561	1535	1518	1495	1495	1494	1486	1486	1485	1477	1471	1468	1468	1468	1468	1468	1468	1468	1468	1468	1468	1468	1468	1468	1468	1468	1468	1468	1464	1460	1451	1451	1451	1451	1451	1451	1436	1431	1426	1418	1415	1410	1403	1402	1402	1395	1391	1386	1380	1376	1371	1371	1368	1364	1364	1359	1349	1337
572	573	574	577	579	580	583	584	585	586	588	589	592	594	595	598	599	601	604	606	607	610	611	613	615	617	618	620	620	620	621	623	624	624	625	625	625	625	625	625	625	625	627	627	627	628	629	629	630	631	632	634	635	636	637	638	640	640	642	643	643	644	645	645	645	644	643	642	641	639	638	636	634	633	631	629	629	628	626	626	624	624	623	621	621	621	620	620	620	620	619	618	618	619	619	618	618	617	616	615	615	615	614	614	614	614	614	614	614	614	616	617	618	620	621	622	626	627	629	632	633	635	638	639	640	640	641	641	640	639	637	636	635	634	631	630	628	626	624	623	620	619	618	615	614	612	612	611	610	609	609	608	608	608	608	608	608	608	608	608	608	608	608	608	609	610	610	610	611	612	612	613	614	615	615	616	616	616	618	619	620	621	622	623	624	626	627	629	630	631	632	634	636	638	640	642	644	646	647	648	649	651	652	653	653	658	658	658	658	658	658	658	658	658	658	656	655	651	651	650	647	646	644	641	639	636	632	631	629	627	626	624	622	620	618	617	616	615	615	615	616	616	616	616	616	617	617	619	619	620	621	621	623	623	623	624	624	624	624	624	624	624	624	624	624	625	626	626	626	626	627	627	628	628	629	629	629	628	628	628	627	626	626	624	622	620	618	616	612	611	608	606	605	604	601	600	600	598	597	596	596	596	596	598	598	598	598	599	600	602	603	604	606	607	609	610	611	612	612	612	612	612	612	612	612	612	612	612	613	614	615	616	618	620	621	622	623	623	624	626	626	626	626	626	625	625	624	623	623	623	621	620	620	620	619	618	618	617	616	616	616	615	615	615	614	612	612	612	612	611	610	610	610	610	610	610	610	612	612	612	614	615	616	618	619	620	621	621	622	623	623	623	623	623	622	620	619	618	617	616	615	614	613	612	610	608	604	602	601	599	598	597	595	593	591	589	586	585	584	584	583	581	580	579	576	575	574	572	570	568	565	563	562	559	557	555	552	551	549	548	547	546	544	544	544	543	543	543	542	542	542	542	543	543	543	543	543	543	544	546	547	547	548	549	549	549	549	549	549	548	547	546	546	545	544	544	544	544	544	544	544	544	544	545	546	547	550	553	556	560	566	569	574	580	584	592	597	601	606	611	614	619	621	622	625	627	628	631	632	633	635	636	636	638	639	640	640	640	640	639	638	637	636	636	635	634	634	633	631	631	631	631	631	631	633	633	633	635	635	636	638	639	640	641	641	642	642	642	642	641	640	640	638	637	634	633	632	630	629	629	628	626	625	625	627	627	628	628	628	629	631	632	633	636	638	640	644	645	645	645	645	645	644	643	643	642	641	639	637	636	634	634	634	633	632	632	632	631	630	629	629	629	629	630	631	633	635	636	640	641	642	646	648	650	651	653	655	654	653	651	650	648	646	646	646	646	646	645	643	643	643	643	97	0	0	0	0	0	0	0	0	0	0	0	727	1174	1825	1825	1601	912	903	895	880	863	854	844	1387	1610	1561	1541	1527	1504	1501	1498	1490	1490	1489	1477	1471	1468	1468	1468	1468	1468	1468	1468	1468	1468	1468	1468	1468	1468	1472	1472	1472	1472	1468	1464	1460	1458	1456	1456	1453	1451	1439	1433	1426	1418	1415	1410	1406	1404	1402	1398	1395	1390	1383	1380	1375	1372	1368	1364	1364	1359	1349	1343
572	574	575	577	579	581	583	584	584	585	587	589	591	593	595	597	598	600	602	604	606	608	610	611	614	615	616	619	620	620	620	622	624	624	625	625	625	625	625	625	625	625	627	627	627	628	629	630	630	631	633	635	635	636	638	639	640	641	642	643	643	644	645	645	644	643	643	642	641	638	637	636	633	632	631	629	628	627	625	625	624	622	621	620	620	620	619	619	619	619	618	617	617	618	619	617	616	616	616	615	614	614	613	613	613	613	613	613	613	613	614	615	616	617	619	620	624	626	627	631	632	633	636	638	640	640	641	641	640	639	638	636	636	635	631	631	630	627	626	624	620	620	619	616	615	613	613	612	611	611	611	610	610	610	610	610	610	610	610	610	610	610	610	610	611	611	611	611	611	613	614	614	614	615	616	616	616	616	617	619	620	620	621	622	624	626	627	628	629	630	631	633	635	636	638	640	643	644	645	646	648	650	651	651	651	657	657	657	657	657	657	658	658	658	658	657	655	651	651	650	646	645	643	640	638	635	631	630	628	625	625	624	621	619	617	616	615	614	614	615	616	616	616	616	617	617	617	619	619	620	621	622	624	624	624	625	625	625	625	625	625	625	625	625	625	626	627	627	627	627	627	628	628	628	629	630	630	629	628	628	627	627	627	625	624	620	619	619	614	612	610	607	606	605	602	602	601	599	599	598	598	598	598	599	599	599	599	600	601	604	604	605	608	609	610	611	612	613	613	613	613	613	613	613	613	613	613	614	614	616	617	618	620	621	622	624	624	624	625	626	627	627	627	627	625	625	625	624	624	624	622	621	620	620	620	620	619	618	617	617	617	617	616	616	616	614	613	613	613	613	613	613	613	613	613	613	613	614	614	614	616	616	617	620	620	620	622	623	624	624	624	624	624	623	622	620	620	619	617	617	616	614	614	613	611	609	605	602	601	599	598	597	595	593	591	589	586	585	584	584	583	581	580	580	577	575	574	572	570	569	565	564	563	559	557	556	554	552	550	549	548	548	547	547	547	545	545	545	545	545	545	545	545	545	545	545	545	545	546	548	549	549	549	550	550	550	550	550	550	549	549	548	547	546	545	545	545	545	545	545	545	545	546	547	548	549	551	555	558	563	569	572	577	583	587	594	599	602	608	612	615	619	621	622	625	627	628	631	632	633	635	636	636	638	639	640	640	640	640	638	637	636	635	635	635	633	633	633	631	631	631	631	631	631	633	633	633	635	635	636	638	639	640	641	642	643	643	643	643	641	641	641	640	639	636	635	634	631	630	629	628	626	625	625	627	627	627	627	627	628	630	631	633	635	637	640	643	645	645	645	645	645	644	643	643	642	641	638	637	636	635	635	635	633	633	633	633	631	630	630	630	630	630	631	631	633	635	636	640	641	643	646	648	650	651	653	655	655	653	651	650	648	646	646	646	646	646	645	643	643	643	643	97	0	0	0	0	0	0	0	0	0	0	0	1454	1865	1825	1825	1825	1825	1805	1789	1760	1726	1707	1688	1642	1610	1561	1547	1536	1513	1507	1503	1495	1495	1493	1477	1471	1468	1468	1468	1468	1468	1468	1468	1468	1468	1468	1468	1468	1468	1477	1477	1477	1477	1472	1468	1468	1464	1460	1460	1456	1451	1443	1435	1426	1418	1415	1410	1410	1407	1402	1402	1399	1394	1387	1383	1379	1372	1368	1364	1364	1359	1349	1349
572	573	574	577	578	579	581	583	584	585	586	587	589	591	593	595	596	597	599	602	605	607	609	610	613	614	614	617	618	619	619	621	622	624	625	625	625	625	625	625	625	625	627	627	627	628	629	630	631	632	633	635	635	636	640	640	640	641	642	643	643	644	645	643	643	643	641	641	640	638	637	635	633	632	630	628	626	625	624	623	622	620	620	620	619	619	619	617	617	617	617	617	617	617	617	616	616	616	616	615	614	613	612	611	611	611	611	611	611	611	613	613	613	614	615	616	619	621	622	625	627	628	631	633	635	636	636	636	640	638	636	636	635	633	631	631	630	628	627	625	622	621	620	617	617	616	614	614	614	613	613	613	613	613	613	613	613	613	613	613	613	613	613	613	613	613	613	613	613	614	614	614	616	616	616	616	616	616	617	617	617	619	620	620	622	624	625	627	628	628	630	631	631	635	637	638	641	642	643	645	646	646	650	651	651	653	654	655	655	655	655	657	657	657	657	656	655	650	649	648	646	644	641	638	637	635	631	629	627	624	623	622	619	618	617	615	614	614	614	614	614	614	615	616	616	616	617	619	620	622	623	624	625	625	625	625	625	625	627	627	627	627	627	627	627	627	627	627	628	628	628	629	630	630	630	630	631	631	631	631	630	630	630	628	627	625	623	622	619	618	616	611	611	610	607	606	605	604	603	602	602	602	602	602	602	602	602	603	604	607	607	608	611	612	613	614	614	614	616	616	616	616	616	616	616	616	617	617	617	619	620	620	622	623	624	625	626	627	627	628	628	628	627	627	627	627	627	627	626	625	624	624	624	622	621	620	620	620	620	619	619	619	619	618	617	617	616	616	616	616	616	616	616	616	616	616	617	617	617	617	619	619	620	622	623	624	624	624	624	624	624	624	624	624	624	622	621	619	617	617	616	614	613	613	609	607	605	603	601	599	598	598	597	593	591	589	588	587	585	584	584	583	582	581	578	577	575	572	570	569	567	565	564	560	559	558	555	554	554	551	551	551	551	550	550	550	550	550	550	550	550	550	550	550	550	550	550	550	550	551	553	553	553	554	554	554	553	553	553	551	551	550	549	549	549	548	548	548	548	548	548	549	549	549	551	552	555	559	562	567	572	576	581	586	590	597	602	605	610	614	617	620	623	624	627	628	628	631	632	633	635	636	636	638	639	640	640	640	640	638	637	636	635	635	635	633	633	633	631	631	631	631	631	631	633	634	635	636	637	638	640	640	641	643	644	645	646	646	646	645	645	645	643	642	640	637	636	635	632	630	628	627	627	627	627	627	627	627	627	628	630	631	633	635	637	640	643	645	645	645	645	645	644	643	643	642	641	638	637	636	635	635	635	633	633	633	633	632	631	630	630	630	630	631	631	635	637	638	641	643	645	646	648	651	653	654	655	655	653	651	650	648	646	646	646	646	646	645	643	643	643	643	97	0	0	0	0	0	0	0	0	0	0	0	1454	1873	1852	1841	1835	1825	1805	1789	1760	1726	1707	1688	1657	1636	1601	1581	1566	1541	1529	1521	1513	1501	1494	1486	1486	1485	1477	1477	1477	1477	1477	1477	1477	1477	1477	1477	1482	1486	1486	1491	1495	1504	1504	1504	1486	1482	1477	1477	1473	1468	1452	1447	1443	1435	1428	1418	1418	1418	1418	1411	1407	1402	1395	1391	1386	1386	1383	1379	1372	1369	1364	1364
572	573	574	577	578	579	581	583	584	584	586	587	588	591	592	594	595	596	598	601	603	604	607	609	612	613	614	616	617	618	618	620	621	623	624	625	625	625	625	625	625	625	627	627	627	628	629	630	631	632	633	635	636	637	640	640	640	641	642	643	643	643	644	643	643	642	641	640	639	637	636	635	632	631	630	628	626	625	624	623	622	620	620	620	619	619	619	617	617	617	617	616	616	616	616	616	616	616	615	614	613	612	611	611	611	611	610	610	610	610	612	612	612	612	614	615	616	618	620	622	624	626	629	631	633	634	635	636	638	637	636	636	635	633	631	631	630	628	627	625	622	621	620	617	617	616	614	614	614	614	614	614	614	614	614	614	614	614	614	614	614	614	614	614	614	614	614	614	614	614	614	614	616	616	616	616	616	617	617	617	617	619	619	620	621	623	624	626	626	627	629	630	631	633	635	637	640	641	642	643	644	646	648	649	651	652	653	654	654	654	654	655	655	656	656	655	653	649	649	648	646	644	641	637	636	634	630	628	626	623	622	621	618	617	616	614	614	614	614	614	614	614	615	616	616	616	617	619	620	622	623	624	625	625	625	625	626	626	627	627	627	627	627	627	627	627	627	627	627	628	628	629	629	630	630	630	631	632	632	631	631	630	630	629	628	626	625	624	622	620	618	614	613	612	609	608	608	606	605	604	604	604	604	604	604	604	604	605	606	608	609	610	612	613	614	615	615	616	616	617	618	618	618	618	618	618	618	618	619	620	621	621	623	624	625	626	627	628	628	629	629	628	628	628	628	628	627	627	626	625	624	624	624	622	621	621	621	621	621	620	620	620	620	619	618	618	618	618	618	618	618	618	618	618	618	618	618	618	618	618	620	621	622	623	623	624	624	624	624	624	624	624	624	624	624	622	621	619	617	617	616	614	613	612	609	607	605	603	601	599	598	598	597	594	592	590	588	587	585	584	584	584	582	581	579	577	576	572	571	570	568	566	564	562	560	558	556	556	555	553	553	553	553	553	552	552	552	552	552	552	552	552	552	552	552	552	552	552	552	552	554	554	554	554	554	554	554	554	554	553	552	552	550	550	550	549	549	549	549	549	550	550	550	551	553	554	557	561	564	570	574	578	583	588	592	598	603	606	612	615	617	621	623	624	627	628	629	631	632	633	635	636	636	638	639	640	640	640	640	638	637	637	636	635	635	633	633	633	632	632	632	632	632	632	634	635	636	637	638	639	641	642	643	644	645	646	647	647	647	647	646	646	645	643	642	639	637	636	633	631	629	628	627	627	627	627	627	627	627	628	630	631	633	635	637	640	643	645	645	645	645	645	644	644	643	642	642	639	638	637	636	636	635	634	634	634	634	632	631	630	630	630	630	631	632	635	637	638	642	643	645	647	649	652	654	655	656	655	654	652	650	649	647	646	646	646	646	645	643	643	643	643	97	0	0	0	0	0	0	295	977	977	975	970	1691	1894	1873	1862	1856	1846	1825	1809	1779	1744	1725	1706	1670	1647	1612	1601	1590	1556	1543	1535	1522	1514	1507	1495	1495	1494	1490	1490	1490	1486	1486	1486	1490	1490	1491	1495	1497	1500	1504	1507	1509	1514	1514	1514	1495	1488	1482	1477	1475	1472	1460	1454	1447	1439	1434	1426	1422	1422	1422	1415	1411	1406	1399	1395	1390	1390	1387	1382	1379	1376	1372	1372
572	573	574	577	578	579	581	583	583	584	585	586	588	590	591	592	594	596	598	600	601	602	605	607	610	612	613	614	616	617	617	619	620	622	623	624	625	625	625	625	625	625	627	627	627	628	629	630	631	632	633	636	637	638	640	640	641	641	642	643	643	643	643	643	642	641	640	639	638	636	636	635	632	631	630	628	626	625	624	623	622	620	620	619	619	619	619	617	617	617	616	616	616	616	616	616	616	616	614	613	613	611	611	611	611	610	610	608	608	608	610	610	610	611	612	613	614	616	617	620	622	624	627	629	630	631	633	635	636	636	636	636	635	633	631	631	630	628	627	625	622	621	620	617	617	616	614	614	614	614	614	614	614	614	614	614	614	614	616	615	614	614	614	614	614	614	614	614	614	614	614	614	616	616	616	616	617	617	617	617	617	619	619	619	620	621	622	624	625	625	628	629	630	631	633	635	638	640	641	641	643	645	646	648	650	651	652	653	653	653	653	653	654	655	655	653	651	648	648	648	645	643	641	636	635	633	629	627	625	622	621	620	617	617	616	614	614	613	613	613	613	614	615	616	616	616	617	619	620	622	623	624	625	625	625	625	626	627	627	627	627	627	627	627	627	627	627	627	627	627	628	628	628	630	630	630	631	632	633	631	631	631	631	630	630	628	627	627	624	622	620	617	616	614	611	611	610	608	608	607	607	606	605	605	606	607	607	607	608	610	610	611	614	615	616	616	616	617	617	618	619	619	619	619	619	619	619	620	620	622	622	622	624	625	625	627	628	628	628	629	630	628	628	628	628	628	628	627	626	625	625	624	624	622	622	622	622	622	622	620	620	620	620	619	619	619	619	619	619	619	619	619	619	619	619	619	619	620	620	620	622	623	624	624	624	624	624	624	624	624	624	624	624	624	624	622	621	619	617	617	616	614	612	611	609	607	605	603	601	599	598	598	597	595	593	591	589	587	585	584	584	584	582	581	580	578	576	573	572	571	568	566	565	563	561	559	558	557	556	555	555	555	555	555	555	555	555	555	555	555	555	555	555	554	554	554	554	554	554	554	555	555	555	555	555	555	555	555	554	554	554	553	551	551	551	550	550	550	550	550	551	551	552	553	555	556	559	564	567	572	576	580	585	590	593	599	603	607	613	616	618	622	623	624	627	629	630	631	632	633	635	636	636	638	639	640	640	640	640	638	638	638	636	635	635	633	633	633	633	633	633	633	633	633	635	636	638	638	639	640	643	644	645	646	647	648	648	648	648	648	648	648	646	645	643	641	639	636	634	632	630	628	628	627	627	627	627	627	627	628	630	631	633	635	637	640	643	645	645	645	645	645	645	645	643	643	643	640	639	638	636	636	636	636	635	635	635	633	631	631	631	631	631	632	633	635	637	638	643	644	645	648	650	653	655	656	658	655	654	653	650	649	648	646	646	646	646	645	643	643	643	643	97	0	0	0	0	0	0	590	1954	1954	1950	1939	1927	1916	1894	1883	1877	1866	1845	1829	1798	1762	1743	1723	1683	1658	1622	1622	1613	1571	1558	1548	1532	1526	1520	1504	1504	1504	1504	1504	1503	1495	1495	1496	1504	1504	1505	1513	1513	1513	1523	1523	1523	1523	1523	1523	1504	1495	1486	1477	1477	1477	1468	1460	1451	1443	1440	1435	1427	1426	1426	1419	1415	1410	1403	1399	1394	1394	1391	1386	1386	1384	1379	1379
572	574	575	577	578	579	581	583	583	584	585	586	588	589	590	592	593	595	597	598	599	601	603	604	607	609	610	613	615	616	617	618	619	620	621	622	624	625	625	625	625	625	627	627	627	628	629	630	631	632	633	636	637	638	640	640	641	641	641	641	643	643	643	641	641	640	638	637	636	635	634	633	630	629	628	627	626	625	624	623	622	620	620	619	619	618	617	617	617	617	616	616	616	616	616	616	616	616	614	613	613	611	610	610	610	609	608	607	607	607	607	608	608	608	608	608	610	611	611	614	616	617	620	622	624	625	627	628	631	631	631	631	631	631	630	629	628	628	627	625	622	621	620	619	618	617	617	617	616	616	616	616	616	616	616	616	616	616	616	616	616	616	616	616	616	616	616	616	616	616	616	616	616	616	616	616	616	616	616	617	617	617	618	619	619	621	622	624	625	625	627	628	628	630	632	633	636	638	640	641	642	643	645	647	648	650	650	650	650	650	650	650	650	651	651	650	648	646	646	645	643	642	640	635	633	631	627	626	625	622	621	620	617	617	616	614	614	613	613	613	613	614	615	616	616	616	617	619	620	622	623	624	624	625	625	625	626	627	627	627	627	627	627	627	627	627	627	627	627	627	628	628	628	630	630	630	631	632	633	633	634	635	633	633	633	631	630	630	627	626	624	620	620	619	614	614	613	611	611	610	608	608	608	610	610	610	610	610	610	613	613	614	616	616	617	619	619	619	619	619	620	620	620	620	620	621	622	622	622	624	625	625	627	627	627	628	628	628	630	630	630	630	630	630	630	629	628	627	627	627	625	624	624	624	624	624	622	622	622	622	622	622	622	621	620	620	620	620	620	620	620	620	620	620	620	621	622	624	624	624	625	625	625	624	624	624	624	624	624	624	624	624	624	624	624	622	621	619	617	617	616	614	612	611	609	607	605	603	602	601	599	598	597	595	593	591	589	588	587	586	585	585	584	583	581	579	577	574	573	572	569	568	567	564	562	561	560	559	559	559	559	559	559	559	559	560	560	560	560	560	559	559	559	558	558	558	558	558	558	558	558	558	558	558	557	556	556	556	555	555	555	554	553	553	553	553	553	553	553	553	554	555	555	556	559	561	564	568	571	576	581	584	589	593	596	602	606	609	614	617	620	622	624	625	627	629	630	631	633	635	636	637	638	638	639	640	641	640	640	640	639	638	638	637	636	636	636	636	635	635	635	635	635	636	638	639	640	641	642	643	646	647	648	650	650	651	651	652	653	653	652	651	650	649	646	644	641	638	636	634	631	629	628	627	627	627	627	627	627	628	630	631	633	637	639	641	644	645	646	646	646	646	646	646	645	645	644	641	639	638	638	638	638	636	636	636	636	634	633	633	633	633	633	634	635	638	639	640	643	644	646	650	652	655	657	657	658	657	655	653	650	649	648	646	646	645	645	644	643	643	643	643	97	0	0	0	0	0	1598	1965	1954	1954	1950	1939	1927	1916	1894	1894	1891	1880	1849	1832	1811	1784	1765	1735	1702	1680	1644	1637	1628	1601	1588	1578	1561	1561	1558	1541	1535	1532	1532	1532	1532	1532	1532	1533	1541	1541	1542	1551	1551	1551	1561	1561	1561	1561	1556	1551	1523	1514	1504	1495	1491	1486	1469	1464	1460	1452	1448	1443	1436	1431	1426	1426	1423	1418	1411	1410	1410	1396	1394	1394	1394	1391	1386	1386
572	574	576	577	578	579	581	583	583	584	585	586	588	589	590	592	593	594	596	597	598	600	602	603	606	608	609	612	614	615	617	618	618	620	621	622	624	625	625	625	625	625	627	627	627	628	629	630	632	632	633	635	637	638	639	640	640	640	641	641	642	642	642	641	640	639	638	637	636	635	634	632	630	629	628	627	626	625	624	623	622	620	620	619	619	618	617	617	617	617	617	616	616	616	616	616	616	616	614	613	613	611	610	610	609	608	607	607	606	606	606	606	606	606	606	607	608	608	609	612	614	615	617	619	620	621	623	625	628	628	629	629	629	629	628	627	626	626	625	624	621	620	620	618	617	616	616	615	615	615	615	614	614	615	615	616	616	616	616	616	616	616	616	616	616	616	616	616	616	615	615	615	615	615	615	615	616	616	616	616	617	617	618	619	619	621	622	624	624	625	626	627	628	629	631	633	636	638	639	640	641	642	644	645	647	648	648	648	646	646	646	647	648	648	648	648	647	645	644	643	642	640	638	634	633	630	627	626	624	621	620	620	617	617	616	614	614	614	614	614	614	614	615	616	616	617	617	619	620	621	622	623	623	623	624	624	625	626	626	626	626	626	626	626	626	627	627	627	627	627	628	628	628	629	630	630	631	632	633	633	634	635	634	634	634	633	632	632	628	627	626	622	621	620	617	616	614	613	612	612	611	610	610	611	612	612	612	612	612	613	614	616	617	618	618	620	620	620	620	621	621	621	621	621	621	621	622	623	623	624	626	626	628	628	628	629	629	630	630	630	630	630	630	630	630	629	628	627	627	627	625	624	624	624	624	624	623	623	623	623	623	623	622	621	621	621	621	621	621	621	621	622	622	622	622	622	623	624	624	624	625	625	625	625	625	624	624	624	624	624	624	624	624	624	624	622	621	620	618	617	616	614	613	612	609	607	605	603	602	601	599	598	597	595	594	592	589	588	588	586	586	586	585	584	582	580	579	576	574	572	570	569	568	566	564	562	562	561	561	561	561	561	561	561	562	562	562	562	562	562	562	561	560	560	560	560	560	559	559	559	559	558	558	558	557	556	556	555	555	555	555	554	554	554	554	554	554	554	554	555	556	557	557	558	561	563	566	570	573	578	582	585	590	595	598	604	608	611	615	618	620	623	625	626	628	629	631	632	634	635	637	638	639	639	640	641	642	642	641	640	640	639	639	638	638	637	637	637	636	636	636	637	638	638	640	641	642	643	644	646	648	649	650	651	652	653	653	653	654	655	654	653	652	650	648	645	643	640	636	634	632	630	629	628	628	628	628	628	628	629	630	632	634	637	639	642	644	646	646	646	646	647	646	646	645	645	644	641	640	639	638	638	638	637	636	636	636	635	634	634	633	633	633	634	636	638	639	640	644	645	646	650	653	656	657	658	659	657	655	653	650	649	648	646	646	645	645	644	643	642	642	642	97	0	0	0	316	985	1784	1968	1962	1962	1955	1939	1933	1924	1902	1896	1891	1880	1854	1837	1811	1788	1772	1748	1718	1698	1666	1659	1649	1622	1609	1598	1581	1581	1578	1561	1555	1552	1552	1552	1552	1552	1552	1552	1561	1564	1566	1571	1574	1576	1581	1581	1581	1581	1573	1566	1537	1528	1518	1504	1500	1495	1478	1473	1468	1456	1454	1452	1444	1441	1438	1435	1431	1426	1419	1416	1414	1404	1401	1398	1398	1397	1394	1394
573	575	576	577	578	579	581	583	583	584	585	585	587	588	589	591	592	593	595	596	597	599	601	602	605	607	608	611	613	614	617	617	617	619	621	622	624	625	625	625	625	625	627	627	627	628	629	630	633	633	633	635	636	638	638	639	640	640	640	641	641	641	641	640	639	638	638	637	636	635	634	631	630	629	627	627	626	625	624	623	622	620	620	619	619	618	617	617	617	617	617	617	617	616	616	616	616	616	614	613	613	611	610	610	608	607	607	607	606	605	605	605	605	605	605	605	605	606	607	610	612	613	614	615	616	617	620	622	625	626	627	627	627	627	625	625	625	625	624	622	620	620	619	616	616	616	614	614	614	614	614	613	613	613	614	616	616	616	616	616	616	616	616	616	616	616	616	616	616	614	614	614	614	614	614	614	615	616	616	616	616	617	618	619	619	621	622	624	624	624	625	626	627	628	631	633	636	637	638	640	641	641	643	644	645	645	645	645	643	643	643	645	645	646	646	646	646	643	642	641	640	638	636	633	632	630	627	626	624	621	620	619	617	617	616	614	614	614	614	614	614	614	615	616	617	617	617	619	620	620	621	622	622	622	622	624	624	624	624	624	624	625	625	625	625	626	627	627	627	627	628	628	628	628	629	630	631	632	633	633	634	635	635	635	635	635	634	633	630	629	627	624	623	622	619	618	616	614	614	614	613	613	613	613	613	613	614	614	614	614	615	617	619	619	620	622	622	622	622	622	622	622	622	622	622	622	622	624	624	625	626	627	628	628	628	630	631	631	631	631	631	630	630	630	630	629	628	627	627	627	625	624	624	624	624	624	624	624	624	624	624	624	622	622	622	622	622	622	622	622	622	624	624	624	624	624	624	624	624	624	625	625	625	627	626	625	625	625	625	625	625	625	625	625	625	623	621	620	619	618	616	614	614	613	609	607	605	603	602	601	600	599	597	596	594	592	590	589	588	587	587	587	586	585	583	581	580	577	575	573	572	570	569	567	565	564	564	563	563	563	563	563	563	564	564	565	565	565	564	564	564	563	562	561	561	561	561	560	560	560	559	559	558	558	557	556	555	555	555	555	555	555	554	554	554	554	554	555	556	557	558	559	559	560	563	565	568	572	575	580	584	587	592	596	599	605	609	612	616	619	621	624	626	627	628	630	631	633	634	635	638	639	640	640	641	641	643	643	643	641	641	641	640	640	640	638	638	638	638	638	638	640	640	641	643	643	643	646	647	648	650	650	651	653	654	655	655	655	655	657	656	655	653	652	650	646	644	641	637	635	633	631	630	628	628	628	628	628	628	630	631	632	635	637	639	643	645	646	646	646	646	648	647	646	645	645	644	641	640	640	638	638	638	638	637	636	636	635	635	635	634	633	633	635	636	638	640	641	645	645	646	651	654	657	658	659	660	657	655	653	650	649	648	646	646	645	645	644	643	641	641	641	97	0	0	0	632	1970	1970	1970	1970	1970	1961	1939	1939	1931	1909	1898	1891	1880	1859	1843	1811	1792	1780	1760	1734	1716	1688	1681	1671	1644	1629	1619	1601	1601	1598	1581	1575	1571	1571	1571	1571	1571	1571	1572	1581	1587	1591	1591	1596	1601	1601	1601	1601	1601	1591	1581	1551	1542	1532	1513	1509	1504	1487	1482	1477	1461	1460	1460	1452	1451	1451	1444	1440	1435	1427	1423	1418	1411	1407	1402	1402	1402	1402	1402
574	576	576	577	578	579	581	583	583	584	585	585	587	588	589	591	592	593	595	596	597	599	600	602	605	606	607	610	612	613	616	617	617	617	619	620	622	623	624	625	625	625	627	628	628	628	629	630	631	632	633	635	635	636	638	639	640	640	640	640	641	641	640	640	639	638	636	636	636	635	634	631	630	629	627	627	626	625	624	623	622	620	620	619	619	618	617	617	617	617	617	617	617	617	617	616	616	616	614	613	613	611	610	610	608	607	607	605	604	604	604	604	604	604	603	602	602	603	604	604	606	607	607	608	608	610	612	613	616	616	617	619	619	619	619	619	619	620	619	617	616	615	614	613	612	611	611	611	611	611	611	611	611	611	611	613	613	614	614	614	614	614	614	614	614	614	614	614	614	614	614	614	614	614	614	614	614	614	614	614	615	617	617	617	619	620	620	622	622	622	624	625	625	627	629	631	635	636	636	638	639	640	641	641	641	643	642	641	641	641	641	641	642	643	643	643	643	640	640	640	638	637	635	631	629	627	625	624	622	619	618	617	616	615	614	613	613	613	613	613	614	614	615	616	617	617	617	617	617	619	620	620	620	620	620	622	622	622	622	622	622	622	622	622	624	625	625	627	627	627	627	628	628	628	629	630	631	632	633	633	634	635	635	635	635	635	635	635	631	631	630	628	627	625	624	622	620	619	618	616	616	616	616	616	616	616	616	616	616	617	618	619	620	621	622	624	624	624	624	624	624	624	624	624	624	624	624	625	625	627	627	627	628	629	630	631	631	631	631	631	631	630	630	630	630	629	628	627	626	625	625	624	624	624	624	624	624	624	624	624	624	624	624	624	624	622	622	622	622	622	622	624	624	624	624	624	625	625	625	625	627	627	627	627	627	627	627	627	627	625	625	625	625	625	625	624	623	620	619	618	616	614	614	613	611	609	605	603	602	601	600	599	597	596	595	594	592	591	589	589	589	589	588	587	584	583	583	580	578	576	573	572	572	569	568	568	567	567	567	567	567	567	568	569	569	571	571	571	569	569	568	568	567	565	565	564	563	563	562	561	560	560	559	558	557	556	555	555	555	555	555	555	555	555	555	556	556	556	558	558	559	561	562	564	566	568	572	576	578	583	587	590	595	599	602	607	611	614	617	620	623	625	626	627	630	632	633	636	637	638	640	641	641	643	644	645	645	645	645	645	645	645	645	644	643	643	643	643	643	643	643	643	644	646	646	647	648	651	651	651	655	656	657	657	657	658	658	659	660	658	658	658	655	654	651	647	645	643	641	638	635	633	632	631	630	630	630	630	630	631	634	636	638	640	642	646	647	648	648	649	650	651	649	648	648	647	646	643	642	641	640	640	640	638	638	638	638	637	636	635	635	635	635	636	636	641	642	643	646	647	648	653	655	658	660	660	660	658	656	653	650	649	648	646	646	645	645	643	641	641	641	641	97	0	0	0	632	1970	1970	1970	1970	1970	1961	1939	1927	1920	1909	1898	1891	1880	1870	1860	1838	1819	1806	1785	1768	1755	1735	1719	1708	1688	1673	1664	1654	1648	1643	1633	1626	1621	1612	1612	1611	1601	1601	1602	1612	1618	1623	1633	1633	1633	1633	1627	1622	1612	1612	1612	1581	1561	1541	1523	1518	1513	1504	1496	1486	1478	1473	1468	1461	1456	1451	1451	1448	1443	1436	1432	1426	1419	1418	1418	1411	1410	1410	1403
574	576	576	577	579	580	581	583	583	584	585	585	587	588	589	591	592	593	595	596	597	598	600	602	604	606	607	609	611	612	615	616	616	616	618	620	621	622	623	624	624	625	626	627	628	628	629	629	630	631	632	634	635	636	637	637	638	639	639	639	640	640	640	639	639	638	636	636	636	634	633	631	630	629	628	627	626	625	624	623	622	620	620	619	619	618	617	617	617	617	617	617	617	617	617	616	616	616	614	613	613	612	611	610	608	607	607	605	604	604	604	604	604	603	602	602	602	603	603	604	605	606	606	607	608	609	610	612	614	614	615	616	616	616	616	616	616	617	616	615	614	613	612	612	611	610	610	610	610	610	610	610	610	610	610	612	612	612	613	613	612	612	613	614	614	614	614	614	614	614	614	614	614	614	614	614	614	614	614	614	614	616	617	617	618	619	620	621	622	622	623	624	625	626	629	631	634	635	636	637	638	639	641	641	641	642	641	640	640	640	640	640	641	642	642	642	642	638	638	638	637	635	633	630	628	626	624	622	620	618	617	616	615	614	614	613	613	613	613	613	614	614	615	616	616	616	616	616	617	618	618	618	618	618	619	620	620	620	620	620	620	620	620	621	622	623	624	626	626	626	627	628	628	628	629	630	631	632	632	633	634	635	635	635	635	635	635	635	633	632	632	629	628	626	625	623	622	621	619	618	617	616	616	616	617	618	618	618	618	618	619	620	622	623	624	624	624	624	624	624	624	624	624	624	624	624	624	625	625	627	627	628	628	629	630	631	631	631	631	631	631	630	630	630	630	629	628	627	626	625	625	625	624	624	624	624	624	624	624	624	624	624	624	624	624	622	622	622	623	623	623	624	624	624	624	625	625	625	625	625	627	627	627	627	627	627	627	627	627	625	625	625	625	625	625	624	623	620	619	618	616	614	614	613	611	609	605	603	603	602	600	599	598	596	596	594	593	592	590	590	590	589	588	588	586	585	584	582	579	578	575	574	573	571	570	570	569	569	569	569	569	569	570	571	571	572	572	572	571	571	570	570	568	567	567	565	564	564	563	562	561	560	560	558	558	557	556	555	555	555	555	555	555	555	556	557	557	557	559	559	560	562	563	566	567	569	573	577	580	584	589	592	596	601	604	608	612	614	618	621	623	625	627	628	630	633	634	636	638	639	640	641	642	644	645	646	646	646	646	646	646	646	646	646	646	646	646	646	646	646	646	646	647	648	648	650	652	653	653	654	656	657	658	659	660	660	660	660	661	660	660	659	656	655	652	648	646	644	641	639	636	635	634	633	633	632	632	632	633	634	636	638	640	643	644	648	649	650	650	651	652	652	650	650	650	649	648	644	643	642	640	640	640	638	637	637	637	636	635	635	634	634	634	636	637	641	643	644	646	648	650	654	656	658	660	660	661	658	656	653	650	649	648	646	645	644	644	643	641	641	641	641	97	0	0	0	632	1970	1970	1968	1962	1962	1958	1946	1929	1920	1909	1898	1891	1880	1870	1860	1838	1824	1812	1792	1774	1763	1748	1736	1727	1712	1697	1688	1683	1676	1670	1660	1654	1649	1644	1641	1638	1634	1634	1634	1639	1642	1644	1650	1650	1650	1650	1643	1638	1622	1620	1617	1586	1569	1551	1537	1530	1522	1514	1505	1495	1487	1480	1472	1465	1460	1456	1451	1449	1447	1440	1436	1430	1427	1426	1426	1419	1418	1418	1415
574	576	576	577	579	580	581	583	583	584	585	585	587	588	589	591	592	593	595	596	597	598	600	601	604	606	607	608	610	611	614	615	616	616	618	619	620	621	622	624	624	624	625	626	627	628	628	628	630	630	631	633	634	635	636	636	636	638	638	638	640	640	640	638	638	638	636	636	635	633	632	631	630	629	628	627	626	625	624	623	622	620	620	619	619	618	617	617	617	617	617	617	617	617	617	616	616	616	614	613	613	613	611	610	608	607	607	605	604	604	604	604	604	602	602	602	602	602	602	604	604	604	605	606	607	608	609	610	611	612	613	613	613	613	613	613	613	614	614	613	611	611	610	610	609	608	608	609	610	608	608	608	608	609	610	611	611	611	613	612	611	611	612	613	613	613	613	613	613	613	613	613	613	613	613	613	614	614	614	614	614	616	617	617	617	618	619	620	621	622	622	624	625	625	628	630	633	634	635	636	637	638	641	641	641	641	640	640	640	640	640	640	640	640	640	640	640	636	636	636	636	634	631	628	627	625	622	621	619	617	617	616	614	614	613	613	613	613	613	613	613	614	615	616	616	616	616	616	616	617	617	617	617	617	617	617	617	617	617	618	619	619	619	619	620	621	622	624	625	625	627	628	628	628	629	630	631	631	631	633	634	635	635	635	635	635	635	635	635	634	633	630	629	627	625	625	624	622	621	619	617	617	617	617	618	619	619	619	619	620	620	620	623	624	625	625	625	625	625	625	625	625	625	625	625	625	625	625	625	627	628	628	628	629	630	631	631	631	631	631	631	630	630	630	630	629	628	627	626	625	625	625	625	624	624	624	624	624	624	624	624	624	624	624	624	622	622	622	624	624	624	624	624	624	625	625	625	625	625	625	627	627	627	627	627	627	627	627	627	625	625	625	625	625	625	624	623	620	619	618	616	614	614	613	611	609	605	604	604	602	601	600	598	597	597	595	594	594	592	591	591	589	589	589	587	586	585	583	581	580	577	575	574	573	572	572	571	571	571	571	571	571	572	573	573	573	573	573	573	573	572	571	570	569	568	567	565	565	564	563	561	561	560	558	558	558	556	556	555	555	555	555	555	555	556	558	558	558	560	560	561	563	565	567	569	570	574	579	581	585	590	593	597	602	605	608	612	615	619	621	623	625	627	628	631	634	635	636	638	640	641	642	643	645	646	646	648	648	648	648	648	648	648	648	648	648	648	648	648	648	648	650	650	651	651	653	655	655	656	657	658	659	660	662	662	662	662	662	662	662	661	660	657	656	653	649	647	645	642	640	638	636	635	635	635	635	635	635	635	636	639	641	643	645	647	650	651	651	651	652	653	653	652	651	651	650	649	646	644	643	641	640	640	638	637	636	636	635	635	635	634	633	633	636	638	641	643	645	646	648	651	655	656	658	660	661	662	658	656	653	650	649	648	646	645	643	643	642	641	641	641	641	97	0	0	0	632	1970	1970	1965	1954	1954	1954	1954	1931	1920	1909	1898	1891	1880	1870	1860	1838	1829	1819	1798	1781	1771	1760	1752	1746	1735	1720	1712	1712	1704	1698	1688	1681	1677	1677	1670	1666	1666	1666	1666	1666	1666	1666	1666	1666	1666	1666	1660	1654	1633	1627	1622	1591	1576	1561	1551	1542	1532	1523	1514	1504	1496	1487	1477	1469	1465	1460	1452	1451	1451	1444	1440	1435	1435	1435	1435	1427	1426	1426	1426
574	576	577	578	578	579	581	583	583	584	585	585	587	588	589	591	592	593	595	596	597	598	600	601	602	604	605	607	609	610	613	614	614	614	616	617	619	620	620	622	622	622	624	625	625	627	628	628	628	629	630	631	632	633	635	635	636	636	637	638	638	638	638	638	637	636	636	636	635	633	632	631	630	629	628	627	626	625	624	624	624	622	621	620	620	620	619	619	619	619	619	619	619	619	619	617	617	617	616	614	613	613	612	611	608	607	607	605	604	604	604	604	604	602	602	602	602	602	602	604	604	604	605	606	607	607	608	608	610	609	608	608	608	607	607	607	608	608	608	608	607	606	605	605	605	605	605	606	607	607	607	607	607	607	607	608	608	608	610	610	610	610	610	610	610	610	611	610	610	610	611	611	611	611	611	613	614	614	614	614	614	616	617	617	617	618	619	620	621	622	622	623	624	625	628	630	633	634	635	636	637	638	638	639	640	640	639	638	638	638	638	638	638	638	636	636	636	635	635	635	633	632	630	628	626	624	622	621	619	616	615	614	614	614	613	611	611	611	611	611	611	613	613	614	614	614	614	616	616	616	616	616	614	614	614	613	613	613	613	614	614	614	614	614	616	617	617	619	620	620	624	625	625	628	628	628	630	631	631	633	633	633	635	635	635	635	635	635	635	634	633	631	630	628	627	626	625	624	623	622	620	620	620	620	620	620	620	621	622	622	623	624	625	626	627	627	627	627	627	627	627	627	627	627	625	625	625	625	625	627	627	627	628	629	630	630	631	631	631	631	631	631	631	631	630	630	630	628	627	627	625	625	625	624	624	624	624	624	624	624	624	624	624	624	624	624	624	624	624	624	624	625	625	625	625	626	627	627	627	627	627	627	628	627	627	627	627	627	627	625	625	625	627	626	625	624	623	622	620	618	616	614	614	613	611	609	607	605	604	604	603	601	599	599	599	597	596	595	594	594	594	592	592	592	589	588	588	585	584	583	581	579	578	577	576	576	574	574	574	574	574	574	576	577	577	577	577	577	576	575	574	573	573	572	571	570	569	567	566	564	563	562	560	559	559	558	556	556	556	555	555	555	556	556	556	558	558	559	561	562	563	565	566	568	571	573	576	581	584	587	592	595	599	603	605	610	613	615	619	621	623	625	627	628	631	634	635	636	638	640	643	644	645	646	647	648	650	650	650	651	651	651	651	651	651	651	651	651	653	653	653	653	654	655	657	657	658	660	660	660	662	663	664	664	664	664	664	663	662	660	659	658	655	654	651	649	647	645	642	640	638	638	638	638	638	638	638	640	640	641	644	646	648	650	652	655	656	657	657	657	657	657	654	653	653	651	649	646	644	643	641	640	640	636	636	636	635	634	633	633	633	633	633	636	638	641	643	645	648	649	651	655	656	658	662	662	662	658	656	653	650	648	646	646	645	643	641	641	641	640	640	640	97	0	0	0	627	1954	1954	1954	1954	1942	1939	1939	1927	1920	1909	1898	1891	1880	1859	1849	1838	1829	1822	1811	1802	1796	1785	1785	1783	1773	1764	1760	1760	1752	1748	1748	1740	1734	1723	1723	1722	1712	1712	1712	1712	1705	1700	1700	1700	1700	1688	1682	1677	1666	1655	1644	1622	1602	1581	1571	1566	1561	1542	1537	1532	1514	1509	1504	1487	1482	1477	1477	1473	1468	1461	1457	1451	1451	1451	1451	1451	1451	1451	1451
575	577	577	578	578	579	581	583	583	584	585	585	587	588	589	591	592	593	595	596	597	598	600	601	602	604	605	607	608	609	612	613	614	614	615	616	618	619	620	621	621	621	623	624	625	626	627	628	628	628	629	630	631	632	634	635	636	636	636	637	638	638	638	638	637	636	636	636	635	633	632	631	630	629	628	628	627	626	625	624	624	622	622	621	620	620	620	619	619	619	619	619	619	619	619	618	617	617	616	614	613	613	612	611	609	608	607	605	605	604	604	604	604	603	602	602	602	602	602	604	604	605	606	607	607	607	608	608	609	609	608	608	607	606	606	606	606	606	606	606	606	605	604	604	604	604	604	605	606	606	606	606	606	606	607	607	608	608	608	608	608	609	609	609	609	609	610	609	609	609	610	610	610	611	611	613	614	614	615	615	615	616	617	617	617	618	619	620	621	622	622	623	624	626	628	630	633	634	635	636	637	638	638	639	639	638	637	637	636	636	636	636	636	636	634	634	634	633	633	633	632	631	629	627	625	623	621	620	618	616	615	614	614	613	612	611	611	610	610	611	611	613	613	614	614	614	614	615	615	615	615	614	614	614	613	612	612	612	612	612	612	612	612	613	614	615	615	618	619	620	622	624	625	626	627	628	630	631	631	633	633	633	635	635	635	635	635	635	635	634	633	631	630	629	628	627	626	625	624	623	621	621	621	621	621	621	621	622	623	623	623	624	626	626	627	627	627	627	627	627	627	627	627	626	625	625	625	625	625	627	627	627	628	629	629	630	630	631	631	631	631	631	631	631	630	630	630	628	627	627	625	625	625	624	624	624	624	624	624	624	624	624	624	624	624	624	624	624	624	624	624	625	625	625	626	626	627	627	627	628	628	628	628	627	627	627	627	627	627	626	626	626	627	626	625	624	623	622	620	618	616	614	614	613	611	609	607	605	604	604	603	602	600	599	599	598	597	596	596	595	594	593	593	593	590	590	589	586	585	584	582	581	580	579	578	578	577	576	576	576	576	576	578	578	579	579	579	578	577	576	576	575	574	573	572	571	570	568	566	564	563	562	560	560	559	558	557	557	556	556	556	556	557	557	558	559	559	560	562	563	564	566	567	570	572	574	577	582	585	588	593	596	599	603	606	610	613	615	619	621	623	625	627	628	631	634	635	636	638	640	643	644	645	646	647	648	650	650	650	651	651	651	652	653	653	653	653	653	655	655	655	655	656	656	658	659	660	662	662	662	663	664	664	664	664	664	663	662	661	659	658	658	655	653	650	648	647	645	643	641	640	640	640	640	640	640	640	641	642	644	647	649	652	653	655	658	658	659	660	660	659	658	657	655	655	653	651	647	645	644	642	641	640	636	636	635	634	633	632	632	632	632	632	634	637	640	643	645	648	650	652	655	656	658	662	662	662	658	656	653	650	648	646	646	645	643	641	641	641	640	640	640	97	0	0	0	624	1946	1946	1946	1946	1935	1932	1932	1920	1913	1902	1891	1884	1873	1858	1847	1832	1827	1822	1811	1802	1796	1785	1785	1783	1773	1769	1766	1766	1763	1760	1754	1746	1741	1736	1736	1734	1724	1720	1718	1718	1714	1711	1706	1703	1700	1688	1682	1677	1660	1652	1644	1617	1602	1586	1576	1574	1571	1557	1549	1542	1524	1516	1508	1496	1493	1490	1486	1482	1477	1473	1470	1464	1464	1464	1464	1468	1468	1468	1472
576	577	577	578	578	579	581	583	583	584	585	585	587	588	589	591	592	593	595	596	597	598	600	601	602	603	604	607	608	608	610	612	613	614	614	614	617	618	619	620	620	620	622	623	624	625	626	627	627	627	628	630	630	631	633	634	635	635	635	636	638	638	638	638	637	636	636	636	635	633	632	631	630	629	628	628	628	627	625	625	624	622	622	622	620	620	620	619	619	619	619	619	619	620	620	619	618	617	616	615	614	613	612	611	610	608	607	605	605	605	604	604	604	604	603	602	602	602	602	604	605	605	607	607	607	607	608	608	608	608	608	607	606	605	605	605	605	605	605	604	604	604	604	604	604	604	604	604	605	605	605	605	605	606	607	607	607	607	607	607	607	608	608	608	608	608	608	608	608	608	609	610	610	611	611	613	614	614	616	616	616	616	617	617	617	618	619	620	621	622	622	623	624	627	629	630	633	634	635	636	637	638	638	638	638	636	636	636	635	635	635	635	635	635	631	631	631	631	631	631	631	630	628	625	624	622	620	619	617	616	615	614	613	612	611	611	611	610	610	610	611	613	613	614	614	614	614	614	614	614	613	613	613	613	613	611	611	611	611	611	611	611	611	611	613	613	613	616	618	619	620	622	624	625	627	628	630	631	631	633	633	633	635	635	635	635	635	635	635	634	633	631	631	630	628	628	627	625	625	624	622	622	622	622	622	622	622	623	624	624	624	624	627	627	627	627	627	627	627	627	627	627	626	625	625	625	625	625	625	627	627	627	627	628	628	630	630	630	631	631	631	631	631	631	631	630	630	628	627	627	625	625	625	625	625	625	625	624	624	624	624	624	624	624	624	624	624	624	624	624	624	625	625	625	627	627	627	627	627	628	628	628	628	627	627	627	627	627	627	627	627	627	627	626	625	624	623	622	620	618	616	614	614	613	611	609	607	605	605	604	603	602	601	600	599	598	598	598	597	596	595	594	594	594	592	591	591	588	586	585	584	583	583	581	580	580	580	579	578	578	578	578	580	580	580	581	580	580	578	578	577	576	575	574	573	572	571	568	567	565	563	562	561	560	560	559	558	557	556	556	556	556	558	558	559	560	560	561	563	564	565	567	569	571	573	575	578	583	585	589	593	596	599	603	606	610	613	615	619	621	623	625	627	628	631	634	635	636	638	640	643	644	645	646	647	648	650	650	650	651	651	651	653	654	655	655	655	655	657	657	657	657	657	658	660	661	662	664	664	664	664	664	665	665	665	664	662	661	660	658	658	657	655	653	650	648	647	645	643	642	641	641	641	641	641	641	641	643	644	646	650	652	655	656	658	660	660	660	662	662	662	660	659	658	657	654	652	648	646	645	643	642	641	636	635	635	633	631	630	630	630	630	630	633	635	640	643	645	648	650	653	655	656	658	662	662	662	658	656	653	650	648	646	646	645	643	641	641	641	640	640	640	97	0	0	0	622	1939	1939	1939	1939	1927	1924	1924	1912	1905	1894	1883	1877	1866	1856	1846	1825	1825	1822	1811	1802	1796	1785	1785	1783	1773	1773	1773	1773	1773	1771	1760	1753	1748	1748	1748	1747	1735	1728	1723	1723	1723	1722	1712	1705	1700	1688	1682	1677	1654	1649	1644	1612	1602	1591	1581	1581	1581	1571	1562	1551	1533	1524	1513	1505	1504	1504	1496	1491	1486	1486	1483	1477	1477	1477	1477	1485	1486	1486	1493
576	577	577	578	578	579	581	583	583	584	585	586	588	589	590	592	593	594	595	596	597	599	600	601	602	603	604	605	606	607	608	609	610	611	611	611	614	615	616	617	618	619	620	621	622	624	624	624	625	626	627	628	629	630	631	632	633	635	635	635	636	636	636	636	636	636	636	636	635	633	632	631	630	630	630	628	628	628	627	626	625	624	623	622	622	622	622	622	622	622	622	622	620	620	620	620	619	619	617	616	615	613	613	613	610	609	608	605	605	605	604	604	604	604	604	604	604	604	604	605	606	607	607	607	607	607	608	608	608	608	608	607	606	605	605	605	605	605	605	604	604	603	602	602	603	604	604	604	604	604	604	604	605	605	605	607	607	607	607	607	607	607	607	607	607	607	607	607	607	607	608	608	608	609	611	613	614	614	616	617	617	617	618	619	620	621	622	624	626	627	627	628	628	630	632	633	635	636	636	638	638	638	638	637	636	636	634	633	631	631	630	630	630	630	628	628	628	628	628	627	627	626	625	624	622	620	617	617	616	614	614	613	611	611	610	608	608	608	610	610	610	611	612	613	613	613	614	614	614	613	612	611	610	610	610	608	608	608	608	607	607	607	607	607	608	609	610	611	614	616	617	619	620	624	626	627	628	630	631	633	633	633	633	634	635	635	635	635	635	634	633	631	631	631	630	629	628	627	626	625	624	624	624	624	624	624	624	624	625	625	626	627	628	628	628	628	628	628	627	627	627	627	626	625	625	625	624	624	624	625	625	625	627	628	628	630	630	630	631	631	631	631	631	631	631	630	630	628	627	627	627	626	625	625	625	625	625	624	624	624	624	624	624	624	624	624	624	624	624	624	625	625	625	625	627	627	627	627	627	627	628	628	628	627	627	627	627	627	627	627	627	627	627	626	625	623	622	622	620	618	617	616	615	613	611	610	608	607	607	605	605	604	602	602	602	601	600	599	599	598	598	597	597	597	595	594	594	592	590	589	588	587	587	585	584	584	584	583	583	583	583	583	583	583	583	583	582	581	581	580	578	577	577	576	573	573	572	569	568	567	564	564	563	561	561	560	559	559	559	559	559	559	559	559	560	562	563	564	566	567	568	570	572	573	576	578	581	586	588	591	595	598	602	606	608	611	614	617	619	621	623	625	627	628	630	632	633	636	637	638	641	642	643	645	646	646	646	647	648	650	650	650	651	652	653	655	656	657	658	659	660	660	661	662	664	664	664	665	665	665	665	665	665	664	663	662	660	659	658	657	656	655	652	650	648	646	645	643	643	642	641	641	642	643	643	644	645	647	648	650	654	655	657	659	661	664	664	664	665	665	665	664	663	662	660	657	654	651	648	646	643	642	641	636	634	633	630	628	627	627	627	627	628	631	633	638	640	641	646	648	650	653	655	658	662	662	662	658	656	653	650	648	646	645	644	643	641	641	641	640	640	640	97	0	0	0	622	1939	1927	1919	1909	1909	1909	1909	1897	1887	1866	1855	1849	1838	1828	1822	1811	1802	1795	1785	1768	1760	1760	1769	1773	1773	1764	1760	1760	1760	1760	1760	1753	1748	1748	1740	1734	1723	1723	1722	1712	1712	1712	1712	1687	1665	1644	1632	1622	1612	1601	1591	1571	1561	1551	1551	1556	1561	1551	1546	1541	1533	1524	1513	1505	1504	1504	1496	1495	1495	1487	1486	1486	1494	1498	1504	1512	1516	1523	1538
576	577	577	578	579	580	581	583	583	584	585	586	588	589	590	592	594	595	596	597	598	599	600	601	602	603	604	604	605	606	606	608	609	610	611	611	612	614	615	616	617	618	620	620	621	623	624	624	625	625	626	627	629	630	631	631	632	634	634	635	636	636	636	636	636	636	636	636	635	633	632	631	631	630	630	629	629	628	627	626	625	625	624	623	623	623	623	623	623	623	622	622	621	621	621	620	619	619	617	617	616	614	613	613	610	609	608	606	605	605	604	604	604	604	604	604	604	604	604	606	607	607	608	608	608	608	608	609	609	609	608	608	606	605	605	605	605	605	605	604	604	603	602	602	603	604	604	604	604	604	604	604	605	605	605	607	607	606	606	606	606	606	606	606	607	607	607	607	607	607	608	608	608	609	611	613	614	614	616	617	618	618	620	621	622	624	625	626	627	628	628	630	631	632	633	635	636	637	638	638	638	638	638	637	635	634	633	632	630	629	628	628	628	628	626	626	626	626	625	624	624	624	624	622	621	618	617	616	614	614	613	612	610	609	609	608	608	608	609	609	610	610	611	612	612	612	614	613	612	612	611	610	609	609	609	608	607	606	606	606	606	606	606	606	606	608	609	610	612	614	616	618	620	623	625	626	628	629	631	632	633	633	633	634	635	635	634	634	634	634	633	632	632	631	630	630	629	628	626	625	625	624	624	624	625	626	626	626	626	626	627	628	628	628	629	629	629	628	628	627	627	627	626	625	625	625	624	624	624	625	625	625	627	628	628	630	630	630	631	631	631	631	631	631	631	630	630	629	628	627	627	626	626	626	625	625	625	625	624	624	624	624	624	624	624	624	624	624	624	625	625	625	625	625	627	627	627	627	627	627	628	628	628	627	627	627	627	627	627	627	627	627	627	626	625	623	622	622	620	619	617	616	615	614	612	610	609	608	607	606	605	605	604	603	603	602	601	600	600	600	599	598	598	597	596	596	595	594	592	591	590	589	589	587	586	586	586	585	585	585	585	585	585	585	585	584	583	582	582	581	580	578	577	576	575	574	572	571	569	568	566	565	564	563	562	562	560	560	560	560	560	560	561	561	562	564	564	566	568	568	570	571	573	574	578	580	582	587	589	592	596	599	602	606	608	611	614	617	619	621	623	625	627	628	630	632	633	636	636	637	640	641	642	643	644	645	646	646	647	648	649	649	650	651	652	653	655	656	658	658	659	659	660	661	664	664	664	664	664	664	664	664	664	663	662	661	659	658	656	655	654	653	651	649	647	646	645	643	643	642	641	641	642	643	644	645	646	648	650	652	655	657	658	660	662	664	664	665	665	666	666	664	664	663	661	658	655	651	648	646	643	641	639	634	633	631	628	627	626	626	626	626	626	629	632	636	639	640	646	648	650	653	655	658	662	662	662	658	656	653	649	648	646	645	644	643	641	641	641	640	640	640	97	0	0	0	620	1932	1919	1912	1902	1902	1902	1902	1890	1880	1859	1848	1842	1832	1817	1808	1798	1789	1782	1766	1753	1748	1748	1756	1759	1754	1750	1747	1742	1742	1741	1736	1732	1729	1724	1716	1710	1700	1697	1694	1689	1702	1664	856	1299	1665	1644	1632	1622	1612	1591	1571	1552	1542	1532	1532	1534	1537	1537	1532	1527	1514	1507	1500	1495	1493	1490	1486	1486	1486	1482	1482	1482	1485	1491	1500	1507	1516	1532	1548
576	577	577	578	580	580	581	583	583	584	585	586	588	589	590	592	594	595	597	598	598	599	600	601	602	603	604	604	605	605	605	607	608	610	611	611	611	612	613	614	615	616	619	620	620	622	623	624	625	625	625	627	628	630	631	631	631	633	634	635	636	636	636	636	636	636	636	636	635	633	632	631	631	631	630	630	629	628	627	626	625	625	625	624	624	624	624	624	624	624	623	622	622	622	622	620	619	619	617	617	616	614	613	613	610	609	608	607	606	605	605	605	605	605	604	604	604	604	604	607	607	607	608	608	608	608	609	610	610	609	608	608	607	605	605	605	605	605	605	604	604	603	602	602	603	604	604	604	604	604	604	604	605	605	605	607	606	605	605	605	605	605	605	605	607	607	607	607	607	607	608	608	608	609	611	613	614	614	616	618	619	619	621	622	624	626	627	628	628	628	630	632	633	633	635	636	638	639	640	638	638	638	638	636	635	633	632	631	628	628	627	627	626	625	624	624	624	624	623	622	622	622	622	620	619	617	616	615	613	613	612	611	608	608	608	607	607	607	608	609	610	610	610	611	611	612	613	611	611	611	610	610	608	608	608	607	606	605	605	604	604	604	604	604	605	606	607	610	611	612	616	618	619	622	624	625	628	629	630	631	632	633	633	634	635	635	634	633	633	633	633	633	632	631	630	630	630	628	627	625	625	625	625	625	626	627	627	627	627	627	627	628	628	629	630	630	629	628	628	628	627	627	626	625	625	625	624	624	624	625	625	625	627	628	628	630	630	630	631	631	631	631	631	631	631	630	630	630	629	628	627	627	627	627	626	625	625	625	625	624	624	624	624	624	624	624	625	625	625	625	625	625	625	625	627	627	627	627	627	627	628	628	628	627	627	627	627	627	627	627	627	627	627	626	625	623	622	622	620	619	617	616	615	614	612	611	610	608	608	607	606	605	605	604	604	602	602	602	601	601	601	599	598	598	598	597	597	595	594	594	592	591	591	589	588	588	588	587	587	587	587	587	587	587	587	585	584	584	583	582	581	578	578	577	576	575	573	572	571	569	567	566	565	564	564	563	561	561	561	561	561	561	563	563	564	565	566	567	569	570	571	573	574	576	579	581	584	588	590	594	597	599	602	606	608	611	614	617	619	621	623	625	626	627	630	632	633	635	636	636	640	641	641	641	642	643	645	645	645	646	647	648	650	651	651	651	653	655	657	657	658	658	659	660	664	664	664	664	664	664	664	664	664	662	661	660	657	656	655	653	652	651	650	649	646	645	644	643	643	642	641	641	642	643	645	646	648	650	651	653	656	658	660	661	663	665	665	665	665	666	667	665	664	664	662	659	656	651	648	646	643	640	638	633	631	630	627	625	624	624	624	624	625	628	630	635	638	640	645	647	650	653	655	657	662	662	662	658	656	653	648	647	646	645	644	643	641	641	641	640	640	640	97	0	0	0	617	1924	1912	1904	1894	1894	1894	1894	1883	1873	1852	1841	1835	1825	1805	1795	1785	1776	1768	1748	1739	1735	1735	1744	1746	1735	1735	1733	1723	1723	1722	1712	1712	1711	1700	1693	1687	1677	1671	1666	1666	1692	1615	0	912	1665	1644	1632	1622	1612	1581	1551	1532	1523	1513	1513	1513	1513	1523	1518	1513	1496	1491	1486	1486	1482	1477	1477	1477	1477	1477	1477	1477	1477	1483	1495	1503	1517	1541	1558
