0	0	0	0	0	0	0	0	0	0	0	0	0	0	0	0	0	0	0	0	2736	2736	2736	2736	2736	2736	2736	2736	2736	2736	2744	2744	2744	2744	2744	2744	2744	2744	2744	2744	0	0	0	0	0	0	0	0	0	0	0	0	0	0	0	0	0	0	0	0	0	0	0	0	0	0	0	0	0	0	0	0	0	0	0	0	0	0	0	0	0	0	0	0	0	0	0	0	0	0	0	0	0	10744	10744	10704	10704	10704	10744	10776	10816	10896	10936	11016	11056	11144	11224	11224	11312	11352	11264	11224	11144	11056	10936	10816	10744	10664	10552	10512	10480	10480	10480	10440	10440	10480	0	0	0	0	0	0	0	0	0	0	0	0	0	0	0	0	0	0	0	0	0	0	0	0	0	0	0	0	0	0	0	0	0	0	0	0	0	0	0	0	0	0	0	0	0	0	0	0	0	0	0	0	0	0	0	0	0	0	0	0	0	1848	1848	1848	1848	1848	1848	1848	1848	1848	0	0	0	0	1824	1824	1816	1816	1816	1816	1816	1816	1808	1808	1808	1808	1800	1800	1800	1800	0	0	0	0	0	0	0	0	0	0	0	0	0	0	0	0	0	0	0	0	0	0	0	0	0	0	0	0	0	0	0	0	0	0	0	0	0	0	0	0	0	0	0	0	0	0	0	0	0	0	0	0	0	0	0	0	0	0	0	0	0	0	0	0	0	0	0	0	0	0	0	0	0	0	0	0	0	0	0	0	0	0	0	0	0	0	11568	11568	11568	11616	11704	11800	11896	11984	12080	12232	12280	12384	12432	12488	12536	12536	12648	12864	13200	13560	13872	14200	14616	14984	15288	15288	15216	15136	14984	14832	14688	14408	14136	13936	13808	13624	13560	13440	13376	13320	13264	13264	13264	13264	13200	13200	13200	13200	13264	13264	13264	13264	13264	13320	13320	13320	13376	13376	13376	13376	13440	13440	13440	13496	13496	13560	13560	13560	13624	13624	13624	13688	13688	13688	13688	13688	13688	13688	13744	13808	13936	14072	14272	14408	14544	14616	14760	14912	14984	15056	15056	15056	15056	15136	15136	15216	15136	15136	15136	15136	15136	15056	15056	14984	14912	14912	14760	14760	14688	14688	14616	14544	14480	14480	14408	14336	14272	14272	14272	14272	14272	14272	14336	14408	14616	14760	14912	15136	15288	15288	15288	15288	15288	15136	15056	14912	14760	14688	14688	14616	14616	14616	14688	14688	14760	14760	14832	14912	14912	15056	15136	15216	15288	15448	15528	15608	15776	15856	16024	0	0	0	16200	16112	15856	15856	15856	15856	15688	15528	15448	15288	15136	15056	14912	14832	14760	14688	14688	14616	14616	14544	14480	14480	14408	14336	14272	14272	14200	14200	14136	14136	14136	14136	14136	14136	14136	14072	14072	14136	14136	14072	14000	14000	14000	14000	14000	14000	14072	14072	14136	14200	14272	14336	14336	14408	14408	14408	14480	14480	14480	14480	14480	14408	14336	14336	14272	14136	14136	14000	14000	13936	13936	13872	13872	13808	13744	13688	13624	13560	13560	13496	13496	13496	13496	13560	13560	13624	13688	13688	13744	13808	13872	13872	13872	13808	13808	13744	13688	13560	13560	13440	13440	13440	13376	13376	13440	13560	13624	13688	13744	13808	13872	13936	13936	13936	14000	14072	14000	13936	13872	13744	13624	13560	13376	13144	12976	12976	12808	12648	12536	12384	12336	12280	12280	12280	12336	12336	12336	12336	12432	12488	12648	12808	12976	13088	13264	13376	13560	13688	13808	13808	13808	13808	13872	14000	14072	14072	14072	14072	14072	14000	14000	13744	13624	13560	13496	13440	13440	13440	13376	13320	13320	13320	13320	13376	13320	13320	13200	13200	13200	13200	13200	13144	13088	13088	13088	13088	13088	13088	13088	13144	13200	13320	13440	13560	13624	13744	13808	13872	14000	14136	14200	14336	14408	14544	14544	14688	14832	15056	15136	15136	15136	15136	15136	15056	15056	14912	14832	14832	14760	14688	14616	14408	14336	14272	14200	14136	14072
0	0	0	0	0	0	0	0	0	0	0	0	0	0	0	0	0	0	2728	2728	2736	2736	2736	2736	2736	2736	2736	2736	2736	2736	2736	2736	2736	2744	2744	2744	2744	2744	2744	2744	0	0	0	0	0	0	0	0	0	0	0	0	0	0	0	0	0	0	0	0	0	0	0	0	0	0	0	0	0	0	0	0	0	0	0	0	0	0	0	0	0	0	0	0	0	0	0	0	0	0	0	0	0	0	10896	10896	10896	10896	10936	10976	11056	11144	11184	11264	11312	11352	11392	11392	11392	11352	11264	11184	11096	11016	10896	10816	10744	10664	10552	10512	10480	10480	10480	10480	10480	10552	10592	0	0	0	0	0	0	0	0	0	0	0	0	0	0	0	0	0	0	0	0	0	0	0	0	0	0	0	0	0	0	0	0	0	0	0	0	0	0	0	0	0	0	0	0	0	0	0	0	0	0	0	0	0	0	0	0	0	0	0	0	1848	1848	1848	1848	1848	1848	1840	1840	1840	0	0	0	0	1824	1824	1816	1816	1816	1816	1816	1808	1808	1808	1808	1800	1800	1800	1792	1792	1792	0	0	0	0	0	0	0	0	0	0	0	0	0	0	0	0	0	0	0	0	0	0	0	0	0	0	0	0	0	0	0	0	0	0	0	0	0	0	0	0	0	0	0	0	0	0	0	0	0	0	0	0	0	0	0	0	0	0	0	0	0	0	0	0	0	0	0	0	0	0	0	0	0	0	0	0	0	0	0	0	0	0	0	0	11312	11312	11352	11440	11440	11568	11664	11752	11896	12032	12136	12280	12336	12384	12432	12488	12488	12592	12752	13088	13376	13624	13936	14336	14688	14984	15056	15056	14984	14912	14832	14688	14408	14136	14000	13872	13688	13624	13440	13376	13320	13264	13264	13264	13200	13200	13144	13144	13144	13200	13200	13200	13200	13200	13264	13320	13320	13376	13376	13440	13496	13496	13496	13560	13560	13624	13624	13688	13688	13688	13744	13744	13744	13808	13744	13744	13744	13744	13808	13808	13936	14000	14072	14272	14408	14544	14688	14832	14984	15056	15136	15136	15136	15136	15216	15216	15216	15136	15136	15136	15056	15056	14984	14984	14912	14832	14760	14760	14688	14616	14616	14616	14544	14480	14480	14408	14408	14336	14336	14336	14408	14480	14544	14616	14760	14832	15056	15216	15448	15528	15608	15608	15528	15528	15368	15288	15136	14984	14832	14832	14760	14688	14688	14688	14760	14760	14832	14832	14912	14984	15056	15136	15216	15288	15368	15528	15608	15688	15856	16024	16112	16112	16112	16112	15944	15856	15776	15688	15608	15528	15448	15368	15216	15136	15056	14912	14832	14760	14760	14688	14688	14616	14616	14544	14544	14480	14408	14336	14272	14200	14200	14136	14136	14136	14136	14072	14072	14072	14072	14072	14136	14072	14000	14000	14000	14000	14000	14000	14000	14072	14072	14136	14200	14336	14336	14408	14480	14480	14480	14544	14544	14544	14544	14544	14544	14480	14408	14336	14200	14200	14072	14072	14000	14000	13936	13872	13808	13744	13688	13624	13560	13560	13496	13496	13496	13496	13560	13560	13624	13624	13688	13744	13808	13808	13808	13808	13808	13808	13744	13688	13624	13560	13496	13496	13496	13560	13560	13624	13688	13808	13872	13936	14000	14072	14072	14072	14072	14072	14072	14000	13936	13872	13744	13624	13376	13200	13032	12920	12920	12752	12592	12432	12336	12280	12280	12280	12280	12280	12280	12280	12336	12384	12488	12648	12808	12976	13088	13264	13376	13560	13688	13744	13744	13808	13808	13872	13936	14000	14136	14136	14136	14136	14072	14000	13872	13688	13624	13624	13624	13560	13560	13560	13496	13496	13496	13560	13560	13560	13496	13376	13376	13376	13320	13320	13264	13200	13200	13200	13200	13200	13200	13200	13264	13320	13440	13560	13624	13744	13808	13936	14000	14072	14200	14272	14408	14544	14688	14688	14912	14984	15216	15368	15368	15368	15368	15368	15368	15288	15288	15216	15136	15136	15056	14912	14688	14544	14480	14336	14200	14136
0	0	0	0	0	0	0	0	0	0	0	0	0	0	0	0	0	0	2728	2728	2736	2736	2736	2736	2736	2736	2736	2736	2736	2736	2736	2736	2736	2744	2744	2744	2744	2744	2744	0	0	0	0	0	0	0	0	0	0	0	0	0	0	0	0	0	0	0	0	0	0	0	0	0	0	0	0	0	0	0	0	0	0	0	0	0	0	0	0	0	0	0	0	0	0	0	0	0	0	0	0	0	0	0	11056	11056	11056	11096	11144	11224	11312	11392	11440	11528	11568	11568	11528	11480	11480	11392	11264	11184	11096	10976	10896	10816	10744	10664	10592	10512	10512	10512	10480	10480	10512	10552	10592	10664	0	0	0	0	0	10776	10776	10776	10776	0	0	0	0	0	0	0	0	0	0	0	0	0	0	0	0	0	0	0	0	0	0	0	0	0	0	0	0	0	0	0	0	0	0	0	0	0	0	0	0	0	0	0	0	0	0	0	0	0	0	1848	1848	1848	1848	1848	1840	1840	1832	1832	1824	1824	1816	1816	1816	1816	1816	1816	1816	1808	1808	1808	1808	1808	1808	1800	1800	1792	1792	1792	1792	1784	1784	0	0	0	0	0	0	0	0	0	0	0	0	0	0	0	0	0	0	0	0	0	0	0	0	0	0	0	0	0	0	0	0	0	0	0	0	0	0	0	0	0	0	0	0	0	0	0	0	0	0	0	0	0	0	0	0	0	0	0	0	0	0	0	0	0	0	0	0	0	0	0	0	0	0	0	0	0	0	0	0	0	0	11184	11184	11224	11264	11312	11392	11528	11664	11800	11936	12136	12280	12336	12384	12432	12488	12488	12592	12752	13032	13264	13496	13744	14200	14544	14760	14832	14912	14912	14912	14760	14688	14480	14272	14072	13936	13808	13624	13496	13440	13320	13320	13264	13264	13200	13144	13088	13088	13088	13088	13144	13144	13144	13200	13264	13264	13320	13376	13440	13496	13560	13624	13624	13688	13744	13744	13744	13744	13808	13808	13808	13872	13872	13872	13872	13808	13808	13872	13872	13936	13936	14072	14200	14408	14544	14688	14760	14912	15056	15136	15136	15216	15216	15216	15216	15216	15216	15136	15056	14984	14984	14912	14912	14760	14688	14688	14616	14480	14480	14480	14408	14408	14480	14544	14544	14544	14480	14480	14480	14544	14616	14688	14832	14912	15056	15216	15368	15528	15688	15856	15944	15944	15856	15776	15688	15528	15288	15136	14984	14984	14832	14832	14760	14760	14832	14832	14832	14912	14912	14984	14984	15056	15216	15288	15368	15448	15608	15688	15856	16024	16024	16024	16024	15944	15856	15776	15608	15608	15528	15448	15368	15288	15136	15056	14984	14912	14832	14832	14760	14760	14688	14688	14616	14616	14544	14480	14408	14336	14272	14200	14200	14136	14136	14136	14072	14072	14072	14072	14072	14072	14136	14072	14000	14000	14000	14000	14000	14000	14072	14072	14072	14200	14272	14408	14480	14544	14616	14616	14688	14688	14688	14688	14688	14688	14616	14544	14480	14408	14272	14200	14136	14072	14000	14000	13936	13872	13808	13744	13688	13624	13560	13560	13496	13496	13496	13560	13560	13624	13624	13624	13688	13688	13744	13808	13744	13744	13744	13744	13744	13688	13624	13560	13560	13560	13624	13688	13744	13808	13936	14000	14072	14136	14136	14136	14136	14136	14136	14136	14072	14000	13936	13808	13624	13496	13264	13144	12976	12808	12648	12648	12488	12384	12336	12232	12232	12232	12232	12232	12232	12280	12336	12384	12488	12648	12808	12976	13144	13264	13376	13560	13688	13744	13744	13808	13808	13872	13936	14000	14072	14072	14072	14072	14072	14000	13872	13744	13744	13688	13688	13688	13688	13688	13688	13688	13744	13744	13744	13688	13624	13560	13496	13496	13440	13376	13376	13320	13320	13320	13264	13264	13264	13320	13376	13440	13560	13624	13744	13808	13872	14000	14136	14136	14272	14336	14480	14616	14760	14760	14984	15136	15288	15368	15448	15448	15448	15528	15528	15608	15528	15528	15528	15368	15288	15136	14912	14760	14616	14480	14272	14136
0	0	0	0	0	0	0	0	0	0	0	0	0	0	0	0	0	0	2728	2728	2736	2736	2736	2736	2736	2744	2744	2744	2744	2744	2744	2736	2736	2736	2736	2736	2744	2744	0	0	0	0	0	0	0	0	0	0	0	0	0	0	0	0	0	0	0	0	0	0	0	0	0	0	0	0	0	0	0	0	0	0	0	0	0	0	0	0	0	0	0	0	0	0	0	0	0	0	0	0	0	0	0	0	0	11480	11312	11312	11440	11480	11568	11664	11664	11704	11752	11752	11664	11568	11528	11440	11312	11184	11096	10976	10856	10776	10744	10664	10624	10592	10592	10552	10552	10552	10552	10624	10624	10664	10744	10744	0	10776	10776	10776	10776	10776	10776	10816	10816	10856	10856	10856	10896	0	0	0	0	0	0	0	0	0	0	0	0	0	0	0	0	0	0	0	0	0	0	0	0	0	0	0	0	0	0	0	0	0	0	0	0	0	0	0	0	0	0	0	0	0	0	0	1848	1848	1840	1840	1832	1824	1824	1816	1816	1816	1816	1816	1816	1808	1808	1808	1808	1808	1808	1800	1800	1800	1800	1792	1792	1792	1784	1784	1784	1784	0	0	0	0	0	0	0	0	0	0	0	0	0	0	0	0	0	0	0	0	0	0	0	0	0	0	0	0	0	0	0	0	0	0	0	0	0	0	0	0	0	0	0	0	0	0	0	0	0	0	0	0	0	0	0	0	0	0	0	0	0	0	0	0	0	0	0	0	0	0	0	0	0	0	0	0	0	0	0	10936	10936	10936	10936	10976	11016	11096	11264	11352	11528	11704	11896	12080	12280	12336	12384	12432	12488	12648	12648	12752	12976	13200	13440	13744	14072	14408	14616	14688	14832	14912	14912	14760	14616	14480	14336	14200	14000	13808	13744	13624	13496	13376	13376	13320	13264	13200	13144	13088	13088	13088	13088	13144	13144	13144	13200	13200	13264	13376	13440	13496	13560	13624	13688	13744	13808	13808	13808	13872	13872	13872	13936	13936	13936	14000	14000	14000	13936	13936	14000	14000	14072	14136	14136	14336	14480	14616	14760	14912	15056	15136	15216	15288	15288	15288	15288	15288	15216	15136	15056	14984	14912	14832	14688	14544	14480	14408	14336	14336	14272	14200	14200	14200	14272	14336	14336	14336	14408	14408	14544	14688	14760	14832	14984	15056	15216	15368	15448	15688	15776	15944	16112	16200	16200	16112	16024	15856	15776	15528	15368	15216	15056	14984	14984	14912	14912	14912	14912	14912	14912	14912	14912	14984	15056	15056	15216	15288	15448	15528	15688	15856	16024	16024	16024	15944	15856	15688	15608	15528	15448	15368	15288	15216	15136	15056	14984	14912	14912	14832	14760	14760	14760	14760	14760	14688	14688	14616	14544	14480	14336	14336	14200	14200	14200	14136	14136	14072	14072	14072	14072	14072	14072	14136	14072	14000	14000	14000	14000	14000	14000	14136	14136	14136	14272	14336	14480	14616	14688	14760	14760	14832	14832	14832	14832	14832	14760	14688	14688	14544	14480	14408	14272	14200	14136	14136	14072	14000	13936	13872	13808	13688	13688	13624	13560	13560	13496	13496	13560	13560	13624	13624	13624	13688	13688	13744	13744	13744	13744	13744	13744	13744	13688	13688	13624	13624	13624	13688	13808	13872	14000	14072	14136	14272	14272	14272	14136	14136	14136	14136	14136	14072	14000	13872	13744	13560	13376	13200	13032	12864	12696	12592	12592	12432	12336	12280	12232	12232	12232	12232	12232	12232	12280	12336	12384	12536	12696	12864	12976	13144	13320	13496	13624	13744	13808	13808	13808	13808	13808	13872	14000	14072	14072	14072	14072	14072	14000	13872	13872	13808	13808	13808	13808	13808	13872	13872	13872	13872	13872	13872	13808	13808	13688	13624	13624	13560	13496	13440	13440	13440	13376	13376	13376	13376	13440	13440	13560	13624	13744	13872	13936	14000	14072	14200	14272	14408	14480	14616	14760	14912	14912	15056	15216	15288	15448	15528	15528	15608	15688	15688	15688	15688	15688	15688	15608	15448	15288	15136	14912	14760	14688	14480	14272
0	0	0	0	0	0	0	0	0	0	0	0	0	0	0	0	0	2728	2728	2736	2736	2736	2736	2736	2736	2744	2744	2744	2744	2744	2744	2736	2736	2736	2736	2736	2744	2744	0	0	0	0	0	0	0	0	0	0	0	0	0	0	0	0	0	0	0	0	0	0	0	0	0	0	0	0	0	0	0	0	0	0	0	0	0	0	0	0	0	0	0	0	0	0	0	0	0	0	0	0	0	0	0	0	0	11480	11480	11480	11616	11704	11752	11848	11848	11848	11848	11848	11752	11664	11616	11480	11392	11224	11096	11016	10856	10776	10744	10664	10624	10624	10624	10592	10592	10592	10664	10664	10664	10744	10744	10744	10776	10776	10776	10776	10816	10816	10816	10816	10816	10856	10856	10856	10896	10896	0	0	0	0	0	0	0	0	0	0	0	0	0	0	0	0	0	0	0	0	0	0	0	0	0	0	0	0	0	0	0	0	0	0	0	0	0	0	0	0	0	0	0	0	0	0	0	0	0	0	1824	1816	1816	1816	1816	1808	1808	1816	1808	1808	1808	1808	1808	1800	1800	1800	1800	1800	1792	1792	1792	1784	1784	1784	1784	1776	1776	0	0	0	0	0	0	0	0	0	0	0	0	0	0	0	0	0	0	0	0	0	0	0	0	0	0	0	0	0	0	0	0	0	0	0	0	0	0	0	0	0	0	0	0	0	0	0	0	0	0	0	0	0	0	0	0	0	0	0	0	0	0	0	0	0	0	0	0	0	0	0	0	0	0	0	0	0	0	10936	10936	10936	10856	10856	10936	10976	11096	11264	11440	11616	11848	12032	12232	12336	12384	12432	12536	12592	12592	12696	12920	13144	13440	13936	13936	14272	14616	14688	14832	0	0	14760	14616	14480	14336	14200	14072	13936	13744	13688	13560	13496	13440	13376	13320	13200	13144	13144	13144	13144	13144	13144	13144	13144	13200	13200	13320	13376	13440	13560	13624	13744	13808	13808	13872	13936	13936	13936	13936	13936	14000	14000	14000	14072	14072	14072	14072	14072	14072	14072	14136	14200	14272	14480	14616	14760	14912	15056	15136	15288	15288	15288	15288	15368	15288	15288	15136	15056	14912	14760	14688	14544	14408	14272	14072	14072	14072	14000	13936	13936	13936	14000	14000	14000	14336	14336	14408	14408	0	0	15056	15056	15136	15288	15448	15608	15688	15856	16024	16376	16464	16464	16464	16376	16288	16200	16024	15856	15608	15448	15288	15136	15056	14984	14984	14912	14912	14912	14832	14832	14832	14912	14984	15056	15136	15216	15368	15528	15608	15688	15776	15776	15776	15688	15688	15608	15448	15368	15288	15216	15216	15136	15056	14984	14912	14832	14832	14832	14760	14760	14760	14760	14760	14760	14760	14688	14616	14544	14408	14336	14272	14200	14200	14136	14136	14136	14136	14072	14072	14072	14072	14072	14072	14000	14000	14072	14072	14136	14136	14200	14272	14336	14408	14544	14688	14760	14832	14912	14984	14984	14984	14984	14912	14912	14912	14760	14688	14688	14544	14480	14336	14272	14200	14136	14136	14000	13936	13872	13808	13744	13688	13624	13624	13560	13560	13560	13560	13560	13624	13624	13624	13688	13688	13688	13688	13688	13624	13624	13688	13688	13688	13688	13688	13688	13688	13808	13872	14000	14072	14136	14136	14272	14272	14272	14272	14200	14200	14200	14200	14072	13872	13744	13624	13496	13320	13088	12920	12808	12648	12488	12488	12384	12280	12232	12232	12232	12184	12184	12232	12232	12336	12384	12488	12592	12752	12920	13088	13264	13440	13560	13688	13808	13808	13808	13872	13808	13808	13872	13936	14000	14072	14072	14072	14072	14000	14000	13936	13936	13872	13872	13936	13936	14000	14000	14000	13936	13936	14000	13872	13808	13808	13744	13688	13688	13624	13560	13560	13560	13496	13496	13496	13560	13560	13624	13688	13744	13872	14000	14000	14136	14200	14336	14408	14544	14616	14760	14912	15056	15136	15136	15216	15368	15448	15528	15608	15688	15688	15688	15688	15688	15776	15776	15688	15528	15368	15216	15056	14912	14760	14544	14336
0	0	0	0	0	0	0	0	0	0	0	0	0	0	0	0	0	2728	2728	2736	2736	2736	2736	2736	2744	2744	2744	2744	2744	2744	2744	2736	2736	2736	2736	2736	2736	0	0	0	0	0	0	0	0	0	0	0	0	0	0	0	0	0	0	0	0	0	0	0	0	0	0	0	0	0	0	0	0	0	0	0	0	0	0	0	0	0	0	0	0	0	0	0	0	0	0	0	0	0	0	0	0	0	0	0	11664	11664	11800	11848	11896	11936	11984	11984	11984	11936	11848	11752	11664	11528	11440	11264	11144	11016	10896	10816	10744	10704	10664	10664	10624	10624	10624	10664	10704	10704	10744	10776	10776	10776	10776	10776	10776	10776	10776	10816	10816	10816	10776	10776	10816	10816	10896	10896	0	0	0	0	0	0	0	0	0	0	0	0	0	0	0	0	0	0	0	0	0	0	0	0	0	0	0	0	0	0	0	0	0	0	0	0	0	0	0	0	0	0	0	0	0	0	0	0	0	0	1824	1816	1816	1816	1816	1808	1808	1808	1808	1808	1808	1808	1800	1800	1800	1800	1792	1792	1792	1792	1784	1784	1784	1784	1784	1776	1776	0	0	0	0	0	0	0	0	0	0	0	0	0	0	0	0	0	0	0	0	0	0	0	0	0	0	0	0	0	0	0	0	0	0	0	0	0	0	0	0	0	0	0	0	0	0	0	0	0	0	0	0	0	0	0	0	0	0	0	0	0	0	0	0	0	0	0	0	0	0	0	0	0	0	0	0	0	0	10856	10816	10744	10744	10776	10816	10896	11016	11184	11312	11528	11752	11984	12184	12336	12384	12432	12488	12592	12592	12696	12920	13144	13440	13624	13872	14136	14544	14544	14688	0	0	14760	14616	14544	14408	14272	14136	14000	13872	13744	13624	13560	13496	13440	13376	13320	13200	13144	13144	13144	13144	13144	13144	13144	13200	13264	13376	13440	13496	13624	13688	13808	13872	14000	14000	14072	14072	14072	14072	14072	14072	14136	14136	14136	14136	14136	14136	14136	14136	14200	14272	14336	14408	14544	14688	14832	14984	15136	15216	15288	15368	15368	15368	15288	15288	15216	15056	14912	14688	14544	14480	14272	14200	14000	13808	13808	13808	13688	13688	13688	13688	13688	13744	14000	0	0	0	0	0	0	0	0	15448	15448	15688	15856	16112	16288	16464	16744	16928	16928	16928	16744	16648	16464	16376	16112	15856	15608	15448	15288	15136	15056	14984	14912	14832	14832	14832	14832	14832	14832	14912	14984	15056	15136	15216	15288	15368	15448	15528	15528	15528	15448	15368	15288	15216	15136	15056	15056	14984	14912	14912	14832	14760	14688	14688	14688	14760	14760	14760	14760	14760	14760	14760	14688	14616	14544	14480	14408	14272	14272	14200	14200	14136	14136	14136	14072	14072	14072	14072	14072	14072	14000	14000	14072	14136	14200	14200	14272	14336	14480	14544	14688	14832	14832	14984	14984	15056	15056	15056	15056	15056	14984	14912	14832	14760	14688	14616	14544	14408	14336	14272	14200	14136	14072	14000	13936	13872	13744	13744	13688	13624	13624	13624	13624	13624	13624	13624	13624	13624	13624	13624	13688	13624	13624	13624	13624	13688	13688	13688	13688	13688	13744	13808	13872	13872	14000	14072	14136	14272	14272	14336	14336	14336	14200	14200	14200	14200	14072	13872	13744	13560	13376	13200	13032	12864	12696	12536	12432	12384	12384	12280	12232	12184	12184	12184	12184	12184	12232	12336	12384	12536	12696	12864	12976	13144	13376	13560	13688	13744	13808	13808	13808	13808	13808	13808	13872	13936	13936	13936	14000	14000	14000	14000	14000	14000	14000	14000	14000	14072	14072	14072	14072	14072	14072	14072	14072	14000	13936	13872	13808	13744	13688	13624	13624	13624	13560	13560	13624	13624	13624	13624	13744	13808	13872	14000	14072	14136	14200	14408	14480	14544	14688	14760	14912	14984	15136	15216	15216	15288	15368	15528	15528	15608	15608	15608	15688	15688	15688	15688	15688	15688	15528	15368	15216	15056	14912	14760	14616	14408
0	0	0	0	0	0	0	0	0	0	0	0	0	0	0	0	0	0	0	0	2744	2744	2744	2744	2744	2744	2744	2744	2744	2744	2744	2744	2744	2744	2744	2736	2736	0	0	0	0	0	0	0	0	0	0	0	0	0	0	0	0	0	0	0	0	0	0	0	0	0	0	0	0	0	0	0	0	0	0	0	0	0	0	0	0	0	0	0	0	0	0	0	0	0	0	0	0	0	0	0	0	0	0	0	11848	11848	11936	11984	11984	12032	12080	12080	12032	12032	11936	11800	11704	11568	11440	11312	11184	11016	10896	10816	10776	10744	10744	10704	10704	10744	10744	10744	10816	10816	10816	10816	10816	10816	10816	10816	10816	10776	10776	10816	10816	10816	10776	10776	10816	10816	10816	0	0	0	0	0	0	0	0	0	0	0	0	0	0	0	0	0	0	0	0	0	0	0	0	0	0	0	0	0	0	0	0	0	0	0	0	0	0	0	0	0	0	0	0	0	0	0	0	0	0	0	1824	1816	1816	1816	1808	1808	1808	1808	1808	1808	1808	1800	1800	1800	1800	1792	1792	1792	1792	1792	1784	1784	1784	1784	1776	1776	1776	0	0	0	0	0	0	0	0	0	0	0	0	0	0	0	0	0	0	0	0	0	0	0	0	0	0	0	0	0	0	0	0	0	0	0	0	0	0	0	0	0	0	0	0	0	0	0	0	0	0	0	0	0	0	0	0	0	0	0	0	0	0	0	0	0	0	0	0	0	0	0	0	0	0	0	0	0	0	10856	10704	10704	10664	10664	10664	10744	10856	10976	11144	11528	11752	11984	12136	12280	12384	12488	12488	12592	12752	12752	12976	13144	13440	13624	13872	14072	14272	14408	14544	14688	14688	14688	14616	14544	14408	14336	14200	14072	13936	13808	13744	13624	13560	13560	13440	13376	13320	13264	13200	13200	13200	13200	13200	13200	13264	13320	13440	13496	13624	13744	13808	13936	14000	14072	14136	14200	14200	14200	14200	14200	14200	14200	14200	14200	14200	14136	14136	14200	14200	14200	14272	14336	14480	14544	14616	14832	14984	15056	15216	15288	15368	15288	15288	15288	15216	15136	14912	14760	14544	14408	14200	14072	13936	13688	13496	13496	13440	13440	13440	13440	13440	13496	13496	13624	13808	13808	0	0	0	0	14832	14832	15056	15368	15688	16024	16200	16464	16744	17024	17128	17224	17128	17024	16928	16744	16560	16376	16112	15856	15688	15448	15216	15056	14984	14912	14832	14832	14760	14760	14760	14832	14912	14912	14912	15056	15056	15136	15216	15288	15288	15288	15216	15216	15136	15056	14984	14912	14832	14832	14832	14760	14760	14688	14616	14616	14616	14688	14688	14688	14760	14760	14760	14760	14688	14688	14616	14544	14480	14336	14272	14272	14200	14200	14136	14136	14136	14072	14072	14072	14072	14072	14072	14072	14072	14136	14200	14272	14272	14336	14480	14544	14688	14832	14984	14984	15056	15056	15136	15136	15136	15056	15056	14984	14912	14832	14760	14688	14616	14544	14480	14408	14272	14200	14200	14072	14000	13936	13872	13808	13744	13688	13688	13688	13688	13624	13624	13688	13688	13688	13688	13624	13624	13688	13624	13624	13624	13624	13688	13688	13688	13688	13688	13744	13808	13936	14000	14072	14200	14272	14336	14408	14408	14408	14408	14408	14408	14336	14200	14000	13808	13688	13496	13320	13144	12920	12752	12592	12488	12384	12336	12336	12232	12184	12184	12136	12136	12136	12184	12232	12336	12432	12592	12752	12920	13088	13200	13440	13624	13688	13744	13744	13744	13688	13688	13744	13744	13744	13808	13808	13808	13808	13872	13936	13936	13936	14000	14000	14072	14072	14136	14136	14136	14136	14136	14136	14072	14072	14000	13872	13808	13808	13808	13744	13688	13688	13688	13688	13624	13624	13688	13688	13744	13808	13872	13936	14072	14136	14272	14336	14480	14544	14616	14760	14832	14984	15056	15136	15216	15216	15288	15448	15448	15448	15528	15528	15528	15608	15608	15608	15608	15608	15608	15528	15288	15136	14984	14912	14832	14616	14408
0	0	0	0	0	0	0	0	0	0	0	0	0	0	0	0	0	0	0	2744	2744	2744	2744	2744	2744	2752	2752	2752	2752	2752	2752	2744	2744	2744	2744	2744	2744	0	0	0	0	0	0	0	0	0	0	0	0	0	0	0	0	0	0	0	0	0	0	0	0	0	0	0	0	0	0	0	0	0	0	0	0	0	0	0	0	0	0	0	0	0	0	0	0	0	0	0	0	0	0	0	0	0	0	0	12136	12136	12136	12184	12184	12184	12184	12184	12184	12136	12032	11936	11800	11664	11528	11392	11224	11096	10976	10856	10816	10776	10776	10776	10776	10776	10816	10816	10896	10856	10856	10856	10856	10816	10816	10856	10816	10776	10776	10816	10816	10816	10776	10776	10816	10816	10816	10816	0	0	0	0	0	0	0	0	0	0	0	0	0	0	0	0	0	0	0	0	0	0	0	0	0	0	0	0	0	0	0	0	0	0	0	0	0	0	0	0	0	0	0	0	0	0	0	0	0	0	0	1816	1808	1808	1808	1808	1808	1808	1808	1808	1808	1800	1800	1800	1792	1792	1792	1792	1784	1784	1784	1784	1784	1784	1776	1776	1776	0	0	0	0	0	0	0	0	0	0	0	0	0	0	0	0	0	0	0	0	0	0	0	0	0	0	0	0	0	0	0	0	0	0	0	0	0	0	0	0	0	0	0	0	0	0	0	0	0	0	0	0	0	0	0	0	0	0	0	0	0	0	0	0	0	0	0	0	0	0	0	0	0	0	0	0	0	0	0	10664	10592	10552	10552	10552	10624	10704	10856	11144	0	0	12136	12136	12280	12432	12488	12592	12696	12864	12864	13088	13264	13440	13688	13936	14072	14200	14336	14480	14544	14616	14616	14480	14408	14336	14272	14136	14000	13872	13808	13688	13688	13624	13560	13496	13440	13376	13320	13264	13264	13264	13264	13320	13320	13376	13440	13496	13624	13688	13808	13936	14000	14136	14200	14272	14336	14408	14408	14408	14336	14336	14336	14336	14272	14200	14200	14200	14136	14136	14200	14200	14200	14336	14480	14544	14616	14832	14912	15056	15216	15216	15216	15216	15136	15056	14912	14760	14544	14336	14136	14000	13872	13688	13496	13376	13264	13264	13264	13264	13320	13320	13320	13376	13496	13624	13744	13808	13936	14136	14136	14408	14760	15056	15368	15688	16024	16376	16560	16832	17128	17320	17320	17424	17320	17128	17024	16832	16560	16288	16024	15776	15528	15368	15136	14984	14832	14832	14760	14760	14760	14760	14760	14832	14832	14832	14912	14912	14984	14984	14984	14984	14984	14984	14912	14832	14832	14760	14688	14688	14616	14616	14616	14616	14544	14544	14544	14544	14544	14616	14616	14688	14760	14760	14760	14688	14688	14616	14544	14480	14336	14336	14272	14272	14200	14200	14136	14136	14072	14072	14072	14072	14072	14072	14072	14072	14200	14272	14336	14480	14480	14616	14688	14832	14984	15056	15056	15136	15136	15136	15136	15056	15056	14984	14912	14832	14760	14688	14688	14544	14544	14480	14408	14336	14272	14200	14136	14072	14000	13936	13872	13872	13808	13744	13744	13744	13744	13744	13744	13744	13688	13688	13688	13688	13688	13624	13624	13624	13624	13688	13688	13688	13744	13744	13808	13872	14000	14136	14200	14272	14336	14408	14480	14480	14544	14480	14408	14408	14336	14200	13936	13744	13560	13440	13200	13032	12808	12648	12536	12384	12336	12280	12280	12184	12136	12136	12136	12136	12136	12184	12232	12384	12432	12648	12808	12976	13144	13320	13440	13624	13688	13688	13688	13624	13624	13624	13624	13624	13688	13688	13744	13744	13744	13744	13808	13872	13872	13872	13936	13936	14000	14072	14072	14072	14072	14072	14000	14000	14000	13872	13872	13808	13744	13744	13744	13688	13688	13744	13744	13688	13688	13688	13744	13744	13808	13936	14000	14072	14200	14272	14336	14480	14544	14616	14760	14912	14984	15056	15136	15216	15288	15288	15368	15448	15368	15368	15448	15448	15448	15448	15448	15448	15448	15448	15368	15288	15136	14984	14912	14832	14688	14480
0	0	0	0	0	0	0	0	0	0	0	0	0	0	0	0	0	0	0	2744	2744	2744	2752	2752	2752	2752	2760	2760	2760	2760	2760	2760	0	0	0	0	0	0	0	0	0	0	0	0	0	0	0	0	0	0	0	0	0	0	0	0	0	0	0	0	0	0	0	0	0	0	0	0	0	0	0	0	0	0	0	0	0	0	0	0	0	0	0	0	0	0	0	0	0	0	0	0	0	0	0	0	12184	12184	12280	12280	12280	12280	12280	12280	12280	12184	12080	11984	11896	11800	11664	11528	11392	11224	11056	10976	10936	10896	10896	10856	10856	10856	10896	10896	10896	10896	10896	10856	10856	10856	10856	10856	0	10816	10816	10816	10816	10816	10816	10816	10776	10776	10816	10816	0	0	0	0	0	0	0	0	0	0	0	0	0	0	0	0	0	0	0	0	0	0	0	0	0	0	0	0	0	0	0	0	0	0	0	0	0	0	0	0	0	0	0	0	0	0	0	0	0	0	0	0	1808	1808	1808	0	0	1808	1808	1808	1800	1800	1800	1792	1792	1792	1792	1792	1784	1784	1784	1784	1784	1784	1776	1776	1776	0	0	0	0	0	0	0	0	0	0	0	0	0	0	0	0	0	0	0	0	0	0	0	0	0	0	0	0	0	0	0	0	0	0	0	0	0	0	0	0	0	0	0	0	0	0	0	0	0	0	0	0	0	0	0	0	0	0	0	0	0	0	0	0	0	0	0	0	0	0	0	0	0	0	0	0	0	0	0	10664	10408	10408	10552	10552	10624	10704	10856	0	0	0	0	0	12536	12536	12648	12808	12976	13088	13088	13320	13496	13624	13744	13936	14072	14200	14336	14336	14544	14616	14616	14480	14408	14336	14072	13936	13872	13744	13688	13624	13624	13560	13560	13496	13440	13440	13440	13376	13376	13440	13440	13440	13440	13496	13560	13624	13744	13808	13936	14072	14136	14272	14336	14408	14480	14480	14544	14544	14480	14480	14480	14408	14272	14200	14136	14072	14072	14000	14000	14072	14136	14200	14272	14336	14480	14616	14760	14912	14984	15056	15056	15056	15056	14912	14760	14544	14336	14136	13936	13808	13688	13560	13320	13144	13144	13144	13144	13144	13200	13200	13264	13264	13440	13560	13624	13808	13872	14072	14072	14336	14616	14984	15368	15776	16024	16376	16560	16832	17128	17320	17528	17528	17424	17320	17128	16928	16648	16464	16200	15944	15608	15368	15216	14984	14832	14832	14760	14688	14688	14688	14688	14760	14760	14760	14760	14832	14832	14832	14832	14760	14760	14760	14688	14688	14616	14616	14544	14544	14480	14480	14480	14480	14480	14480	14480	14480	14480	14616	14616	14616	14688	14688	14688	14616	14616	14616	14544	14480	14408	14336	14272	14272	14200	14200	14136	14136	14072	14072	14072	14072	14072	14072	14136	14136	14200	14336	14480	14616	14616	14760	14832	14984	15056	15136	15216	15216	15136	15136	15056	14984	14984	14912	14832	14832	14688	14688	14616	14544	14544	14480	14408	14336	14272	14200	14200	14072	14072	14000	13936	13936	13872	13872	13808	13808	13808	13808	13808	13808	13744	13744	13688	13688	13688	13624	13624	13624	13688	13688	13744	13744	13808	13808	13872	14000	14072	14136	14272	14336	14408	14480	14480	14544	14544	14544	14480	14408	14272	14136	13872	13688	13496	13320	13088	12976	12752	12592	12432	12336	12280	12232	12232	12136	12136	12136	12136	12136	12136	12184	12280	12384	12488	12696	12864	13032	13144	13320	13496	13688	13688	13624	13624	13560	13560	13560	13560	13560	13560	13560	13624	13624	13624	13688	13688	13744	13808	13808	13808	13872	13936	13936	13936	13936	13936	13936	13936	13872	13872	13808	13744	13688	13688	13624	13624	13624	13624	13688	13688	13744	13744	13744	13744	13808	13872	13936	14000	14072	14136	14200	14336	14408	14544	14616	14760	14832	14984	14984	15136	15216	15216	15216	15288	15288	15288	15288	15288	15288	15288	15288	15288	15288	15288	15288	15136	15136	14984	14912	14912	14832	14688	14480
0	0	0	0	0	0	0	0	0	0	0	0	0	0	0	0	0	0	2752	2752	2752	2752	2752	2752	2760	2760	2760	2760	2760	2760	2760	0	0	0	0	0	0	0	0	0	0	0	0	0	0	0	0	0	0	0	0	0	0	0	0	0	0	0	0	0	0	0	0	0	0	0	0	0	0	0	0	0	0	0	0	0	0	0	0	0	0	0	0	0	0	0	0	0	0	0	0	0	0	0	0	0	12336	12336	12384	12384	12384	12336	12336	12336	12280	12232	12184	12080	11984	11896	11752	11616	11568	11480	11440	11440	11440	11480	11568	11568	11568	11480	11440	11352	11224	11016	10896	10896	10896	11312	0	0	0	0	10816	10816	10816	10816	10816	10776	10776	10776	10776	10776	0	0	0	0	0	0	0	0	0	0	0	0	0	0	0	0	0	0	0	0	0	0	0	0	0	0	0	0	0	0	0	0	0	0	0	0	0	0	0	0	0	0	0	0	0	0	0	0	0	0	0	0	0	0	0	0	0	0	1808	1808	1800	1800	1800	1792	1792	1792	1792	1784	1784	1784	1784	1784	1784	1784	1776	1776	1776	0	0	0	0	0	0	0	0	0	0	0	0	0	0	0	0	0	0	0	0	0	0	0	0	0	0	0	0	0	0	0	0	0	0	0	0	0	0	0	0	0	0	0	0	0	0	0	0	0	0	0	0	0	0	0	0	0	0	0	0	0	0	0	0	0	0	0	0	0	0	0	0	0	0	0	0	0	0	0	0	10408	10408	0	0	0	0	0	0	0	0	0	0	0	0	0	0	13320	13320	13496	13496	13624	13744	13808	13936	14072	14136	14200	14272	14272	14336	14336	0	0	0	13872	13744	13688	13624	13496	13496	13440	13440	13496	13496	13440	13440	13440	13440	13440	13496	13496	13496	13560	13624	13688	13744	13872	13936	14000	14136	14272	14336	14408	14480	14544	14544	14616	14616	14544	14544	14408	14336	14200	14136	14000	13936	13936	13872	13872	13936	13936	13936	14136	14200	14336	14480	14616	14760	14912	14984	14912	14912	14832	14760	14616	14480	14200	14000	13744	13624	13496	13376	13144	13032	12976	12976	13032	13032	13088	13088	13144	13264	13376	13560	13624	13744	13872	14072	14072	14336	14616	14912	15368	15688	16024	16288	16560	16832	17024	17224	17320	17424	17424	17320	17224	17024	16832	16560	16288	16024	15776	15448	15216	14984	14832	14760	14688	14688	14616	14616	14688	14688	14688	14688	14616	14616	14616	14688	14616	14616	14616	14544	14544	14480	14480	14408	14336	14336	14336	14336	14336	14336	14336	14408	14408	14480	14480	14544	14616	14616	14688	14688	14688	14616	14616	14544	14544	14480	14408	14336	14336	14272	14272	14200	14136	14136	14072	14072	14072	14072	14072	14072	14136	14200	14336	14480	14544	14688	14688	14832	14984	15056	15136	15216	15136	15136	15056	15056	14984	14912	14912	14832	14760	14760	14688	14616	14616	14544	14480	14480	14408	14336	14336	14272	14200	14200	14136	14072	14072	14000	14000	14000	13936	13936	13936	13808	13808	13808	13744	13744	13688	13688	13624	13624	13624	13624	13624	13688	13744	13744	13872	13872	13872	14000	14136	14200	14272	14336	14408	14408	14544	14544	14544	14544	14408	14336	14200	14072	13808	13560	13440	13200	13032	12864	12648	12536	12384	12336	12232	12184	12136	12136	12080	12080	12136	12136	12136	12184	12280	12432	12536	12752	12920	13032	13264	13376	13496	13624	13624	13560	13496	13496	13496	13496	13496	13496	13496	13496	13496	13560	13560	13560	13624	13688	13688	13688	13744	13744	13808	13808	13808	13808	13872	13808	13808	13744	13744	13688	13624	13624	13560	13560	13560	13560	13560	13560	13560	13688	13688	13688	13744	13744	13808	13936	13936	14000	14072	14200	14272	14408	14544	14616	14760	14832	14984	14984	15136	15216	15216	15216	15216	15136	15136	15056	15056	15136	15056	15056	15056	15056	15056	15056	14984	14912	14912	14832	14760	14760	14688	14544
0	0	0	0	0	0	0	0	0	0	0	0	0	0	0	0	0	0	2752	2752	2760	2760	2760	2760	2760	2768	2768	2768	2768	2768	2768	0	0	0	0	0	0	0	0	0	0	0	0	0	0	0	0	0	0	0	0	0	0	0	0	0	0	0	0	0	0	0	0	0	0	0	0	0	0	0	0	0	0	0	0	0	0	0	0	0	0	0	0	0	0	0	0	0	0	0	0	0	0	0	0	0	12384	12384	12432	12384	12384	12336	12336	12336	12336	12280	12232	12136	12080	11984	11896	11848	11848	11896	11896	11936	12032	12232	12488	12648	12752	12696	12488	12280	12080	11984	11664	11392	11312	11312	0	0	0	0	10816	10816	10816	10816	10816	10776	10776	10776	10776	10776	0	0	0	0	0	0	0	0	0	0	0	0	0	0	0	0	0	0	0	0	0	0	0	0	0	0	0	0	0	0	0	0	0	0	0	0	0	0	0	0	0	0	0	0	0	0	0	0	0	0	0	0	0	0	0	0	0	0	0	0	0	0	0	0	1792	1792	1792	1784	1784	1784	1784	1784	1784	1784	0	0	0	0	0	0	0	0	0	0	0	0	0	968	968	0	0	0	0	0	0	0	0	0	0	0	0	0	0	0	0	0	0	0	0	0	0	0	0	0	0	0	0	0	0	0	0	0	0	0	0	0	0	0	0	0	0	0	0	0	0	0	0	0	0	0	0	0	0	0	0	0	0	0	0	0	0	0	0	0	0	0	0	0	0	0	0	0	0	0	0	0	0	0	0	0	0	0	13560	13496	13496	13624	13624	13744	13808	13872	14000	14072	14136	14136	14136	14200	14136	14072	13936	13808	13744	13560	13496	13496	13440	13320	13320	13320	13376	13376	13440	13440	13440	13496	13496	13560	13624	13624	13624	13688	13744	13808	13872	14000	14000	14136	14272	14336	14408	14480	14544	14544	14616	14616	14616	14544	14480	14336	14272	14136	14000	13936	13808	13808	13744	13744	13808	13872	13936	14000	14136	14200	14408	14544	14616	14760	14832	14832	14832	14760	14688	14544	14336	14136	13872	13688	13496	13376	13264	13032	12920	12864	12864	12920	12920	12976	13032	13088	13200	13320	13496	13624	13744	13936	14072	14072	14336	14544	14912	15288	15608	15944	16288	16464	16648	16928	17024	17128	17224	17224	17128	17024	16928	16744	16560	16376	16024	15688	15448	15216	14984	14832	14760	14688	14616	14616	14616	14544	14544	14616	14544	14544	14544	14544	14480	14480	14480	14408	14408	14336	14336	14272	14272	14272	14200	14200	14272	14272	14272	14272	14336	14408	14480	14480	14544	14616	14616	14616	14616	14616	14616	14544	14544	14544	14480	14480	14408	14336	14336	14272	14200	14200	14136	14072	14072	14072	14072	14072	14136	14200	14272	14408	14544	14688	14760	14912	14912	14984	15056	15136	15136	15056	15056	14984	14912	14912	14832	14760	14760	14688	14616	14616	14616	14544	14544	14480	14480	14408	14408	14336	14336	14272	14272	14200	14200	14136	14136	14000	14000	13936	13936	13936	13936	13936	13872	13808	13744	13688	13688	13624	13624	13624	13624	13624	13688	13688	13744	13872	13872	13936	14072	14136	14200	14336	14336	14408	14408	14544	14544	14544	14480	14408	14336	14136	13936	13688	13496	13320	13144	12976	12808	12592	12488	12384	12280	12232	12184	12136	12136	12080	12080	12080	12136	12184	12232	12336	12488	12648	12808	12976	13144	13264	13440	13496	13496	13496	13496	13440	13440	13440	13440	13440	13440	13440	13440	13496	13496	13496	13496	13560	13624	13624	13624	13688	13688	13688	13744	13688	13688	13688	13688	13688	13624	13624	13496	13496	13496	13440	13440	13496	13496	13496	13496	13560	13624	13624	13688	13688	13688	13744	13872	13872	13936	14072	14136	14200	14408	14544	14616	14760	14912	14984	14984	15056	15136	15136	15136	15056	14984	14984	14912	14912	14832	14832	14760	14760	14760	14760	14760	14760	14760	14760	14688	14688	14688	14616	14544
0	0	0	0	0	0	0	0	0	0	0	0	0	0	0	0	0	0	0	2760	2760	2760	2760	2768	2768	2768	2768	2776	2776	2776	2776	2776	0	0	0	0	0	0	0	0	0	0	0	0	0	0	0	0	0	0	0	0	0	0	0	0	0	0	0	0	0	0	0	0	0	0	0	0	0	0	0	0	0	0	0	0	0	0	0	0	0	0	0	0	0	0	0	0	0	0	0	0	0	0	0	0	12488	12432	12432	12432	12384	12384	12336	12336	12280	12280	12232	12184	12136	12032	12032	12032	12080	12232	12384	12592	13032	0	0	0	0	0	0	0	0	0	0	0	0	0	0	0	0	0	0	0	0	0	0	0	0	0	0	0	0	0	0	0	0	0	0	0	0	0	0	0	0	0	0	0	0	0	0	0	0	0	0	0	0	0	0	0	0	0	0	0	0	0	0	0	0	0	0	0	0	0	0	0	0	0	0	0	0	0	0	0	0	0	0	0	0	0	0	0	0	0	0	0	0	0	1784	1784	1784	1784	1784	1784	1784	0	0	0	0	0	0	0	0	0	0	0	0	968	968	968	968	968	0	0	0	0	0	0	0	0	0	0	0	0	0	0	0	0	0	0	0	0	0	0	0	0	0	0	0	0	0	0	0	0	0	0	0	0	0	0	0	0	0	0	0	0	0	0	0	0	0	0	0	0	0	0	0	0	0	0	0	0	0	0	0	0	0	0	0	0	0	0	0	0	0	0	0	0	0	0	0	0	0	13688	13560	13560	13624	13808	13808	13872	13936	14000	14072	14136	14136	14136	14072	14000	13936	13872	13808	13624	13560	13376	13320	13320	13264	13200	13200	13200	13200	13320	13320	13376	13440	13496	13560	13624	13688	13744	13744	13808	13872	13936	14000	14072	14136	14200	14272	14408	14480	14480	14544	14544	14616	14544	14480	14480	14336	14272	14136	14072	13936	13808	13808	13744	13744	13744	13744	13808	13808	13936	14072	14200	14336	14480	14544	14616	14760	14760	14760	14688	14616	14480	14336	14072	13872	13688	13496	13320	13144	12976	12864	12808	12808	12808	12864	12864	12976	13032	13144	13320	13440	13624	13744	13872	14072	14272	14272	14544	14912	15288	15608	15856	16200	16376	16560	16744	16832	16928	16928	16928	16928	16832	16648	16560	16376	16200	15944	15688	15448	15136	14912	14832	14760	14688	14616	14544	14544	14480	14480	14408	14408	14408	14336	14336	14272	14272	14272	14200	14200	14136	14136	14072	14072	14072	14072	14072	14136	14136	14200	14200	14272	14336	14408	14480	14544	14544	14616	14616	14616	14616	14544	14544	14544	14480	14480	14480	14408	14408	14336	14336	14272	14200	14136	14072	14072	14072	14072	14136	14136	14200	14336	14408	14616	14688	14760	14832	14832	14912	14984	14984	14984	14984	14912	14832	14760	14760	14688	14688	14616	14616	14544	14544	14544	14480	14480	14480	14480	14480	14408	14408	14408	14336	14272	14200	14200	14136	14136	14072	14072	14072	14072	14000	14000	13936	13872	13872	13744	13688	13624	13624	13624	13560	13560	13624	13624	13688	13744	13872	13872	13936	14072	14136	14200	14200	14272	14272	14408	14480	14480	14480	14480	14336	14200	14000	13872	13560	13376	13200	13032	12864	12696	12536	12432	12336	12232	12184	12184	12136	12136	12080	12080	12080	12136	12184	12280	12384	12592	12696	12920	13088	13200	13320	13376	13440	13376	13376	13376	13376	13376	13376	13376	13376	13320	13320	13376	13376	13376	13376	13440	13496	13560	13560	13560	13560	13560	13560	13560	13560	13560	13496	13496	13440	13440	13496	13376	13320	13320	13376	13376	13376	13440	13440	13496	13560	13560	13624	13688	13688	13688	13744	13808	13872	13936	14000	14072	14136	14336	14480	14544	14688	14832	14984	14984	15056	15056	15056	15056	15056	14912	14832	14832	14760	14760	14760	14688	14688	14688	14688	14688	14688	14616	14616	14616	14616	14544	14544	14480
0	0	0	0	0	0	0	0	0	0	0	0	0	0	0	0	0	0	0	0	2760	2760	2768	2768	2768	2768	2776	2776	2776	2776	2776	2776	0	0	0	0	0	0	0	0	0	0	0	0	0	0	0	0	0	0	0	0	0	0	0	0	0	0	0	0	0	0	0	0	0	0	0	0	0	0	0	0	0	0	0	0	0	0	0	0	0	0	0	0	0	0	0	0	0	0	0	0	0	0	0	12536	12488	12432	12432	12432	12384	12336	12336	12336	12280	12232	12184	12136	12080	12032	12032	12032	12080	12232	12488	12648	13032	13624	14136	14544	14688	14616	14616	0	0	0	0	0	0	0	0	0	0	0	0	0	0	0	0	0	0	0	0	0	0	0	0	0	0	0	0	0	0	0	0	0	0	0	0	0	0	0	0	0	0	0	0	0	0	0	0	0	0	0	0	0	0	0	0	0	0	0	0	0	0	0	0	0	0	0	0	0	0	0	0	0	0	0	0	0	0	0	0	0	0	0	0	0	0	0	1784	1784	1784	1784	1784	1784	1784	0	0	0	0	0	0	0	0	0	0	0	968	968	968	968	968	968	0	0	0	0	0	0	0	0	0	0	0	0	0	0	0	0	0	0	0	0	0	0	0	0	0	0	0	0	0	0	0	0	0	0	0	0	0	0	0	0	0	0	0	0	0	0	0	0	0	0	0	0	0	0	0	0	0	0	0	0	0	0	0	0	0	0	0	0	0	0	0	0	0	0	0	0	0	0	0	0	0	13688	13688	13744	13808	13936	14000	14000	14000	14072	14072	14136	14136	14136	14000	13936	13872	13808	13688	13560	13440	13320	13264	13200	13144	13144	13144	13144	13144	13264	13320	13320	13440	13496	13624	13688	13744	13808	13872	13872	14000	14000	14072	14136	14200	14272	14336	14336	14408	14408	14480	14480	14480	14408	14336	14336	14272	14136	14072	13936	13872	13744	13688	13688	13688	13688	13688	13744	13808	13936	14072	14136	14272	14408	14480	14544	14688	14688	14688	14688	14616	14480	14336	14072	13936	13688	13496	13320	13144	12976	12864	12752	12752	12752	12808	12864	12920	12976	13088	13200	13440	13560	13744	13808	13936	14200	14200	14544	14912	15216	15528	15776	16024	16200	16376	16464	16560	16560	16560	16560	16464	16376	16288	16200	16024	15944	15688	15528	15288	15056	14832	14760	14760	14688	14616	14544	14544	14480	14408	14336	14336	14200	14136	14136	14072	14000	14000	14000	13936	13936	13936	13936	13936	13936	13936	14000	14072	14072	14136	14136	14272	14272	14408	14480	14544	14544	14616	14616	14616	14616	14544	14544	14544	14480	14480	14544	14480	14480	14408	14408	14336	14272	14200	14136	14136	14136	14136	14136	14200	14272	14408	14480	14616	14688	14688	14760	14760	14760	14832	14832	14832	14760	14760	14688	14688	14616	14616	14544	14544	14544	14544	14480	14480	14480	14480	14480	14480	14480	14408	14408	14408	14336	14272	14272	14272	14200	14200	14200	14136	14136	14136	14136	14072	14000	13936	13872	13744	13688	13624	13624	13624	13560	13560	13560	13624	13688	13744	13872	13872	13936	14000	14136	14136	14200	14200	14272	14336	14408	14336	14336	14336	14200	14072	13872	13688	13440	13264	13088	12920	12752	12592	12488	12384	12280	12232	12184	12136	12136	12136	12080	12080	12136	12136	12232	12336	12488	12648	12808	12920	13088	13144	13200	13200	13200	13144	13144	13200	13200	13264	13264	13264	13200	13200	13264	13264	13264	13264	13264	13320	13376	13440	13440	13440	13440	13440	13440	13440	13376	13376	13376	13376	13320	13320	13320	13264	13264	13264	13264	13320	13376	13440	13440	13440	13496	13560	13624	13688	13688	13744	13744	13808	13872	13936	14000	14000	14072	14272	14408	14544	14616	14832	14912	14912	14984	14984	14984	14984	14984	14912	14832	14760	14688	14688	14688	14688	14616	14616	14616	14616	14544	14544	14544	14544	14544	14544	14480	14408
0	0	27752	27752	28008	28008	28272	0	0	0	0	0	0	0	0	0	0	0	0	0	0	2768	2768	2768	2768	2768	2776	2776	2776	2776	2776	0	0	0	0	0	0	0	0	0	0	0	0	0	0	0	0	0	0	0	0	0	0	0	0	0	0	0	0	0	0	0	0	0	0	0	0	0	0	0	0	0	0	0	0	0	0	0	0	0	0	0	0	0	0	0	0	0	0	0	0	0	0	0	0	12536	12536	12488	12432	12432	12384	12336	12336	12336	12280	12232	12184	12136	12080	12032	12032	12032	12080	12280	12488	12808	13624	13624	14136	14544	14688	14616	14616	0	0	0	0	0	0	0	0	0	0	0	0	0	0	0	0	0	0	0	0	0	0	0	0	0	0	0	0	0	0	0	0	0	0	0	0	0	0	0	0	0	0	0	0	0	0	0	0	0	0	0	0	0	0	0	0	0	0	0	0	0	0	0	0	0	0	0	0	0	0	0	0	0	0	0	0	0	0	0	0	0	0	0	0	0	0	0	0	0	0	0	0	0	0	0	0	0	0	0	0	0	0	0	0	976	968	968	968	968	968	968	0	0	0	0	0	0	0	0	0	0	0	0	0	0	0	0	0	0	0	0	0	0	0	0	0	0	0	0	0	0	0	0	0	0	0	0	0	0	0	0	0	0	0	0	0	0	0	0	0	0	0	0	0	0	0	0	0	0	0	0	0	0	0	0	0	0	0	0	0	0	0	0	0	0	0	0	0	0	0	0	0	0	14072	14072	14072	14136	14136	14136	14136	14136	14200	14200	14136	14136	14000	13936	13872	13808	13688	13560	13376	13264	13144	13144	13088	13088	13088	13088	13088	13200	13264	13320	13440	13496	13624	13744	13808	13872	13936	13936	14000	14072	14136	14136	14200	14272	14272	14336	14336	14336	14336	14336	14336	14272	14200	14200	14136	14072	14000	13936	13808	13744	13688	13688	13688	13688	13688	13744	13808	13936	14072	14136	14272	14336	14480	14544	14616	14688	14688	14616	14616	14480	14336	14200	13936	13744	13560	13376	13144	12976	12864	12752	12752	12752	12808	12864	12864	12976	13032	13200	13320	13560	13688	13808	13936	14200	14200	14544	14832	15216	15368	15608	15776	15944	16024	16112	16112	16112	16112	16112	16024	15944	15856	15688	15608	15528	15368	15216	15136	14984	14832	14760	14760	14688	14616	14616	14544	14480	14336	14336	14200	14136	14072	14000	14000	13936	13936	13936	13872	13872	13872	13872	13808	13808	13872	13936	13936	14000	14072	14072	14200	14272	14408	14480	14544	14544	14616	14616	14616	14616	14616	14544	14544	14544	14544	14544	14544	14544	14480	14480	14336	14336	14272	14200	14136	14136	14136	14200	14272	14336	14408	14480	14616	14616	14616	14616	14616	14616	14688	14616	14616	14616	14616	14544	14544	14544	14480	14480	14480	14480	14480	14480	14480	14480	14480	14480	14480	14480	14408	14408	14408	14408	14336	14336	14336	14272	14272	14200	14200	14200	14136	14136	14072	14000	13936	13872	13744	13688	13624	13624	13624	13560	13560	13560	13688	13688	13808	13872	13872	14000	14000	14136	14136	14136	14200	14200	14272	14336	14336	14272	14200	14072	13936	13808	13560	13320	13144	12976	12864	12648	12536	12432	12336	12280	12232	12184	12136	12136	12136	12136	12136	12136	12232	12336	12432	12592	12752	12864	12976	13088	13144	13200	13144	13144	13088	13088	13144	13200	13200	13200	13144	13144	13144	13144	13144	13144	13200	13200	13264	13264	13320	13320	13264	13264	13264	13264	13264	13200	13200	13200	13200	13200	13200	13200	13200	13200	13264	13264	13320	13376	13376	13376	13440	13496	13560	13624	13688	13688	13744	13744	13808	13872	13936	13936	14000	14072	14200	14336	14408	14544	14760	14760	14832	14832	14912	14912	14912	14912	14832	14760	14760	14688	14616	14616	14616	14480	14480	14480	14408	14408	14408	14336	14336	14408	14408	14336	14336
0	0	26520	26520	26760	26760	28272	0	0	0	0	0	0	0	0	0	0	0	0	0	0	0	2768	2768	2768	2776	2776	2776	2776	0	0	0	0	0	0	0	0	0	0	0	0	0	0	0	0	0	0	0	0	0	0	0	0	0	0	0	0	0	0	0	0	0	0	0	0	0	0	0	0	0	0	0	0	0	0	0	0	0	0	0	0	0	0	0	0	0	0	0	0	0	0	0	0	0	0	12648	12592	12536	12488	12488	12432	12384	12336	12336	12280	12232	12232	12136	12080	12080	12080	12136	12232	12432	12696	13440	13688	14200	14832	15448	15776	16024	0	0	0	0	0	0	0	0	0	0	0	0	0	0	0	0	0	0	0	0	0	0	0	0	0	0	0	0	0	0	0	0	0	0	0	0	0	0	0	0	0	0	0	0	0	0	0	0	0	0	0	0	0	0	0	0	0	0	0	0	0	0	0	0	0	0	0	0	0	0	0	0	0	0	0	0	0	0	0	0	0	0	0	0	0	0	0	0	0	0	0	0	0	0	0	0	0	0	0	0	0	0	0	976	976	976	968	968	968	968	968	968	968	968	968	0	0	0	0	0	0	0	0	0	0	0	0	0	0	0	0	0	0	0	0	0	0	0	0	0	0	0	0	0	0	0	0	0	0	0	0	0	0	0	0	0	0	0	0	0	0	0	0	0	0	0	0	0	0	0	0	0	0	0	0	0	0	0	0	0	0	0	0	0	0	0	0	0	0	0	0	0	0	0	0	0	14272	14272	14336	14272	14272	14272	14272	14272	14200	14136	14072	14000	13936	13808	13688	13560	13376	13264	13144	13088	13088	13088	13088	13088	13088	13200	13200	13320	13376	13496	13624	13688	13808	13872	13936	13936	14000	14072	14072	14136	14136	14200	14200	14272	14272	14272	14272	14200	14200	14136	14136	14000	14000	13872	13872	13744	13744	13688	13688	13624	13624	13688	13688	13744	13808	13936	14072	14200	14272	14336	14480	14544	14616	14688	14688	14616	14616	14544	14408	14272	14072	13936	13744	13560	13264	13088	12976	12864	12864	12808	12808	12864	12864	12976	13032	13200	13320	13496	13624	13808	13936	14200	14480	14480	14760	14984	15288	15368	15528	15608	15776	15776	15776	15776	15776	15688	15688	15608	15448	15368	15288	15216	15136	14984	14984	14912	14832	14832	14760	14760	14688	14616	14544	14480	14336	14336	14200	14136	14072	14000	14000	13936	13936	13872	13872	13808	13808	13808	13808	13808	13808	13936	13936	14000	14072	14072	14200	14336	14408	14480	14544	14544	14616	14616	14616	14616	14616	14616	14616	14544	14544	14616	14616	14616	14544	14480	14480	14408	14336	14200	14200	14200	14272	14272	14336	14408	14480	14480	14616	14616	14544	14544	14544	14544	14480	14480	14480	14408	14408	14480	14480	14480	14480	14480	14480	14480	14480	14480	14480	14480	14480	14480	14480	14480	14480	14480	14408	14408	14408	14336	14336	14336	14272	14272	14272	14200	14200	14136	14072	14000	13936	13808	13744	13688	13624	13624	13624	13624	13624	13624	13688	13744	13808	13872	13936	14000	14000	14136	14136	14136	14136	14136	14200	14272	14200	14200	14072	13936	13744	13560	13376	13200	13032	12864	12696	12592	12488	12384	12336	12280	12232	12184	12136	12136	12136	12184	12184	12184	12336	12432	12592	12696	12864	12976	13088	13144	13144	13088	13088	13032	13032	13032	13088	13144	13144	13144	13144	13088	13088	13088	13088	13088	13088	13144	13144	13200	13144	13144	13088	13088	13088	13088	13088	13088	13088	13088	13088	13144	13144	13144	13144	13144	13200	13200	13264	13320	13376	13376	13440	13496	13560	13688	13688	13744	13744	13808	13808	13872	13872	13872	13872	13872	14000	14136	14200	14336	14480	14616	14616	14688	14832	14832	14760	14760	14688	14688	14688	14616	14544	14544	14480	14408	14408	14336	14272	14272	14200	14200	14136	14136	14136	14200	14200
0	0	26288	26288	26760	26760	0	0	0	0	0	0	0	0	0	0	0	0	0	0	0	0	0	0	0	0	0	0	0	0	0	0	0	0	0	0	0	0	0	0	0	0	0	0	0	0	0	0	0	0	0	0	0	0	0	0	0	0	0	0	0	0	0	0	0	0	0	0	0	0	0	0	0	0	0	0	0	0	0	0	0	0	0	0	0	0	0	0	0	0	0	0	0	0	0	12752	12696	12648	12648	12536	12488	12432	12384	12336	12280	12232	12232	12184	12136	12136	12136	12232	12280	12536	12864	13440	14072	14832	15776	16744	17424	0	0	0	0	0	0	0	0	0	0	0	0	0	0	0	0	0	0	0	0	0	0	0	0	0	0	0	0	0	0	0	0	0	0	0	0	0	0	0	0	0	0	0	0	0	0	0	0	0	0	0	0	0	0	0	0	0	0	0	0	0	0	0	0	0	0	0	0	0	0	0	0	0	0	0	0	0	0	0	0	0	0	0	0	0	0	0	0	0	0	0	0	0	0	0	0	0	0	0	0	0	0	0	976	976	976	976	968	968	968	968	968	968	968	968	968	968	0	0	0	0	0	0	0	0	0	0	0	0	0	0	0	0	0	0	0	0	0	0	0	0	0	0	0	0	0	0	0	0	0	0	0	0	0	0	0	0	0	0	0	0	0	0	0	0	0	0	0	0	0	0	0	0	0	0	0	0	0	0	0	0	0	0	0	0	0	0	0	0	0	0	0	0	0	0	0	0	0	0	0	14408	14408	14408	14336	14336	14272	14200	14072	14000	13936	13808	13688	13560	13376	13264	13144	13088	13088	13032	13032	13088	13088	13200	13200	13320	13376	13496	13624	13688	13744	13808	13872	13936	14000	14000	14000	14072	14136	14136	14200	14200	14200	14200	14136	14072	14072	14000	13936	13872	13872	13808	13744	13688	13688	13688	13688	13624	13624	13688	13688	13744	13872	13936	14072	14200	14336	14408	14480	14616	14688	14760	14760	14760	14688	14688	14544	14480	14336	14136	13936	13744	13496	13264	13144	12976	12976	12920	12920	12920	12920	12976	13088	13200	13320	13496	13624	13808	13936	14200	14480	14480	14688	14912	15056	15216	15288	15368	15448	15528	15528	15448	15448	15368	15368	15216	15216	15056	14984	14984	14912	14832	14832	14832	14832	14760	14760	14760	14688	14616	14544	14544	14480	14336	14272	14136	14072	14000	14000	13936	13936	13872	13872	13808	13808	13808	13808	13808	13808	13936	13936	13936	14000	14072	14200	14336	14408	14480	14544	14616	14616	14688	14688	14616	14616	14616	14616	14616	14688	14688	14688	14616	14616	14616	14544	14480	14408	14336	14272	14272	14336	14408	14480	14480	14544	14544	14616	14544	14408	14408	14408	14336	14336	14336	14272	14272	14408	14480	14480	14480	14408	14408	14408	14480	14480	14480	14480	14480	14480	14480	14480	14480	14480	14480	14480	14408	14408	14408	14336	14336	14336	14272	14272	14272	14200	14136	14136	14000	13936	13808	13744	13688	13624	13624	13688	13624	13624	13688	13744	13808	13872	13936	14000	14000	14072	14072	14072	14072	14072	14072	14136	14136	14136	14000	13872	13744	13624	13440	13264	13088	12920	12752	12592	12488	12432	12336	12280	12232	12232	12184	12136	12136	12136	12232	12232	12280	12384	12536	12696	12864	12976	13088	13144	13144	13088	13032	12976	12976	12976	12976	12976	13088	13088	13144	13088	13088	13032	13032	13088	13088	13088	13144	13144	13144	13088	13088	13032	12976	12976	12976	12976	12976	13032	13032	13032	13088	13088	13144	13144	13144	13144	13200	13264	13320	13376	13440	13440	13496	13624	13688	13744	13744	13808	13808	13872	13872	13872	13872	13872	13872	14000	14136	14200	14336	14408	14480	14616	14688	14760	14760	14688	14688	14688	14688	14688	14616	14544	14480	14408	14336	14272	14136	14136	14072	14072	14000	13936	13936	13936	14000	14000
0	0	26288	26288	0	0	0	0	0	0	0	0	0	0	0	0	0	0	0	0	0	0	0	0	0	0	0	0	0	0	0	0	0	0	0	0	0	0	0	0	0	0	0	0	0	0	0	0	0	0	0	0	0	0	0	0	0	0	0	0	0	0	0	0	0	0	0	0	0	0	0	0	0	0	0	0	0	0	0	0	0	0	0	0	0	0	0	0	0	0	0	0	0	0	0	12864	12752	12696	12648	12592	12536	12432	12384	12336	12280	12280	12232	12184	12136	12136	12184	12336	12432	12696	13032	0	0	0	0	0	0	0	0	0	0	0	0	0	0	0	0	0	0	0	0	0	0	0	0	0	0	0	0	0	0	0	0	0	0	0	0	0	0	0	0	0	0	0	0	0	0	0	0	0	0	0	0	0	0	0	0	0	0	0	0	0	0	0	0	0	0	0	0	0	0	0	0	0	0	0	0	0	0	0	0	0	0	0	0	0	0	0	0	0	0	0	0	0	0	0	0	0	0	0	0	0	0	0	0	0	0	0	0	0	976	976	976	976	968	968	968	968	968	968	968	968	968	968	0	0	0	0	0	0	0	0	0	0	0	0	0	0	0	0	0	0	0	0	0	0	0	0	0	0	0	0	0	0	0	0	0	0	0	0	0	0	0	0	0	0	0	0	0	0	0	0	0	0	0	0	0	0	0	0	0	0	0	0	0	0	0	0	0	0	0	0	0	0	0	0	0	0	0	0	0	0	0	0	0	0	0	0	14480	14480	14408	14408	14336	14272	14136	14072	13936	13872	13744	13560	13376	13264	13200	13144	13088	13032	13032	13088	13144	13200	13264	13320	13376	13496	13560	13624	13688	13808	13808	13872	13936	13936	14000	14072	14072	14072	14136	14136	14136	14136	14072	14000	13936	13872	13808	13744	13744	13744	13688	13688	13688	13688	13688	13688	13688	13688	13744	13872	13936	14072	14200	14336	14480	14544	14616	14688	14760	14832	14832	14832	14832	14760	14688	14616	14480	14336	14272	14000	13808	13624	13440	13320	13200	13088	13088	13088	13088	13088	13144	13264	13320	13560	13624	13808	13936	14200	14480	14480	14688	14912	14984	15136	15136	15288	15368	15368	15368	15288	15216	15136	15136	15056	14984	14912	14832	14832	14832	14832	14760	14760	14760	14760	14760	14760	14688	14688	14616	14544	14480	14408	14272	14200	14136	14072	14000	14000	13936	13936	13872	13872	13872	13808	13808	13808	13808	13872	13936	13936	14000	14072	14200	14336	14408	14480	14544	14616	14688	14688	14688	14688	14688	14688	14688	14688	14688	14760	14760	14760	14760	14760	14688	14616	14544	14480	14408	14408	14480	14544	14616	14616	14616	14616	14544	14408	14336	14200	14200	14336	14336	14336	14272	14272	14336	14336	14336	14336	14336	14336	14408	14408	14480	14480	14480	14480	14480	14544	14544	14544	14480	14480	14480	14480	14408	14408	14408	14336	14336	14336	14272	14272	14200	14200	14072	14000	13936	13872	13744	13688	13688	13688	13688	13744	13744	13808	13808	13872	13936	14000	14000	14072	14072	14072	14072	14072	14000	14000	14000	14000	13936	13808	13688	13560	13440	13264	13088	12920	12752	12592	12488	12432	12384	12336	12280	12232	12232	12184	12184	12184	12184	12280	12384	12384	12488	12648	12808	12920	13088	13144	13144	13088	13032	12976	12920	12920	12920	12920	12976	12976	13088	13088	13032	13032	13032	13032	13088	13088	13088	13088	13088	13088	13088	12976	12976	12920	12920	12920	12976	12976	12976	12976	12976	13088	13088	13088	13144	13144	13144	13200	13320	13440	13496	13496	13560	13624	13688	13808	13872	13872	13872	13872	13936	14000	13936	13936	13936	13936	14072	14200	14272	14336	14408	14480	14616	14688	14760	14760	14688	14688	14688	14688	14688	14616	14480	14408	14272	14136	14072	14000	13936	13872	13808	13688	13688	13624	13624	13688	13744
0	0	0	0	0	0	0	0	0	0	0	0	0	0	0	0	0	0	0	0	0	0	0	0	0	0	0	0	0	0	0	0	0	0	0	0	0	0	0	0	0	0	0	0	0	0	0	0	0	0	0	0	0	0	0	0	0	0	0	0	0	0	0	0	0	0	0	0	0	0	0	0	0	0	0	0	0	0	0	0	0	0	0	0	0	0	0	0	0	0	0	0	0	0	13264	13032	12920	12864	12752	12696	12592	12536	12488	12432	12336	12280	12280	12232	12232	12232	12336	12536	12696	13032	13440	14544	0	0	18056	18056	0	0	0	0	0	0	0	0	0	0	0	0	0	0	0	0	0	0	0	0	0	0	0	0	0	0	0	0	0	0	0	0	0	0	0	0	0	0	0	0	0	0	0	0	0	0	0	0	0	0	0	0	0	0	0	0	0	0	0	0	0	0	0	0	0	0	0	0	0	0	0	0	0	0	0	0	0	0	0	0	0	0	0	0	0	0	0	0	0	0	0	0	0	0	0	0	0	0	0	0	0	0	0	0	976	976	976	976	968	968	968	968	968	968	968	968	968	968	0	0	0	0	0	0	0	0	0	0	0	0	0	0	0	0	0	0	0	0	0	0	0	0	0	0	0	0	0	0	0	0	0	0	0	0	0	0	0	0	0	0	0	0	0	0	0	0	0	0	0	0	0	0	0	0	0	0	0	0	0	0	0	0	0	0	0	0	0	0	0	0	0	0	0	0	0	0	0	0	0	0	0	0	0	14544	14480	14480	14408	14336	14200	14136	14000	13872	13744	13560	13376	13264	13200	13144	13088	13088	13088	13088	13144	13200	13264	13320	13376	13496	13560	13624	13688	13744	13808	13808	13872	13936	13936	14000	14000	14072	14136	14136	14136	14072	14000	13936	13872	13808	13744	13688	13688	13688	13688	13688	13688	13688	13688	13688	13744	13744	13808	13936	14000	14136	14336	14480	14616	14688	14760	14832	14832	14984	14984	14984	14984	14984	14912	14832	14760	14616	14480	14408	14136	14000	13808	13688	13496	13376	13376	13320	13200	13200	13264	13376	13440	13624	13744	13872	14000	14272	14480	14688	14688	14832	14912	14984	15056	15136	15216	15216	15136	15136	15056	15056	14912	14832	14832	14760	14688	14688	14688	14688	14688	14688	14760	14760	14760	14832	14760	14760	14760	14688	14616	14480	14408	14336	14272	14200	14072	14000	14000	13936	13936	13872	13872	13872	13808	13808	13808	13872	13936	14000	14072	14136	14200	14336	14408	14480	14544	14616	14688	14688	14688	14688	14688	14760	14760	14760	14832	14832	14912	14912	14912	14912	14912	14832	14760	14688	14688	14688	14760	14832	14760	14760	14688	14616	14544	14408	14336	14200	14200	14200	14136	14136	14136	14136	14200	14200	14200	14272	14272	14336	14336	14408	14480	14480	14480	14480	14544	14544	14544	14544	14544	14480	14480	14480	14480	14408	14408	14336	14336	14336	14272	14272	14200	14136	14072	14000	13936	13872	13808	13808	13808	13808	13808	13808	13872	13872	13936	14000	14000	14072	14072	14136	14072	14072	14000	14000	13936	13872	13872	13872	13808	13744	13560	13440	13264	13088	12976	12808	12648	12488	12432	12384	12336	12280	12232	12232	12184	12184	12184	12184	12280	12336	12432	12432	12592	12808	12920	13032	13144	13200	13144	13088	13032	12920	12920	12920	12920	12920	12920	12976	13032	13032	13032	13032	13032	13032	13088	13088	13088	13032	13032	13032	13032	12920	12864	12864	12864	12864	12864	12920	12920	12920	12976	13032	13088	13088	13144	13144	13200	13264	13376	13496	13496	13560	13624	13688	13744	13872	13872	13872	13936	13936	14072	14072	14072	14072	14072	14072	14136	14272	14336	14336	14408	14480	14616	14688	14760	14688	14688	14688	14688	14688	14688	14616	14480	14272	14136	14000	13936	13808	13744	13688	13560	13496	13440	13440	13440	13496	13560
0	0	0	0	0	0	0	0	0	0	0	0	0	0	0	0	0	0	0	0	0	0	0	0	0	0	0	0	0	0	0	0	0	0	0	0	0	0	0	0	0	0	0	0	0	0	0	0	0	0	0	0	0	0	0	0	0	0	0	0	0	0	0	0	0	0	0	0	0	0	0	0	0	0	0	0	0	0	0	0	0	0	0	0	0	0	0	0	0	0	0	0	0	0	13264	13200	13088	12976	12920	12808	12752	12648	12648	12592	12536	12536	12488	12488	12488	12592	12648	12864	13088	13376	13808	14544	0	0	18056	18056	0	0	0	0	0	0	0	0	0	0	0	0	0	0	0	0	0	0	0	0	0	0	0	0	0	0	0	0	0	0	0	0	0	0	0	0	0	0	0	0	0	0	0	0	0	0	0	0	0	0	0	0	0	0	0	0	0	0	0	0	0	0	0	0	0	0	0	0	0	0	0	0	0	0	0	0	0	0	0	0	0	0	0	0	0	0	0	0	0	0	0	0	0	0	0	0	0	0	0	0	0	0	0	0	976	976	976	976	0	0	0	0	0	0	0	960	960	968	0	0	0	0	0	0	0	0	0	0	0	0	0	0	0	0	0	0	0	0	0	0	0	0	0	0	0	0	0	0	0	0	0	0	0	0	0	0	0	0	0	0	0	0	0	0	0	0	0	0	0	0	0	0	0	0	0	0	0	0	0	0	0	0	0	0	0	0	0	0	0	0	0	0	0	0	0	0	0	0	0	0	0	0	0	0	14688	14616	14544	14480	14336	14200	14072	13936	13744	13560	13376	13320	13264	13144	13144	13144	13144	13200	13200	13200	13264	13376	13376	13440	13560	13560	13624	13688	13744	13744	13808	13872	13936	13936	14000	14072	14072	14072	14072	14072	14000	13872	13808	13808	13744	13688	13688	13688	13688	13688	13744	13744	13808	13808	13936	13936	14000	14072	14200	14336	14544	14616	14760	14832	14912	14912	14984	14984	15056	15056	15056	15136	15056	14984	14984	14832	14760	14616	14480	14272	14136	14000	13872	13744	13624	13560	13496	13376	13376	13440	13560	13688	13808	14000	14136	14272	14544	14688	14688	14760	14912	14912	14984	15056	15136	15136	15056	14984	14984	14832	14832	14688	14688	14616	14616	14616	14616	14616	14688	14688	14760	14760	14760	14832	14832	14832	14832	14832	14760	14688	14544	14480	14336	14272	14136	14072	14072	14000	13936	13936	13872	13872	13808	13808	13808	13808	13872	13936	14000	14072	14200	14336	14408	14480	14544	14616	14688	14760	14760	14760	14760	14832	14832	14832	14912	14912	14984	14984	15056	15056	15056	15056	15056	15056	14984	14984	14984	14984	14912	14832	14760	14616	14544	14408	14272	14200	14136	14136	14072	14072	14072	14072	14136	14136	14200	14272	14272	14336	14336	14408	14480	14480	14544	14544	14544	14616	14544	14544	14544	14544	14544	14480	14480	14480	14408	14408	14336	14336	14272	14272	14200	14136	14072	14000	13936	13872	13872	13872	13872	13872	13872	13936	13936	14000	14072	14072	14136	14136	14136	14136	14072	14072	14000	14000	13936	13872	13872	13872	13808	13688	13496	13376	13200	13032	12864	12696	12536	12432	12336	12336	12280	12280	12232	12232	12184	12184	12184	12232	12336	12488	12536	12536	12752	12920	13032	13144	13264	13200	13144	13088	13032	12920	12920	12864	12864	12864	12864	12920	12920	12976	12976	12976	12976	13032	13088	13088	13032	12976	12920	12920	12920	12808	12808	12808	12808	12808	12808	12920	12920	12920	12976	13032	13088	13088	13144	13144	13200	13320	13376	13496	13560	13624	13688	13744	13808	13936	13936	14000	14000	14072	14136	14200	14200	14200	14136	14136	14272	14408	14408	14480	14480	14544	14616	14688	14688	14688	14688	14688	14688	14688	14688	14616	14408	14272	14072	13872	13744	13624	13560	13496	13376	13264	13264	13264	13264	13264	13376
0	0	0	0	0	0	0	0	0	0	0	0	0	0	0	0	0	0	0	0	0	0	0	0	0	0	0	0	0	0	0	0	0	0	0	0	0	0	0	0	0	0	0	0	0	0	0	0	0	0	0	0	0	0	0	0	0	0	0	0	0	0	0	0	0	0	0	0	0	0	0	0	0	0	0	0	0	0	0	0	0	0	0	0	0	0	0	0	0	0	0	0	0	0	13440	13320	13200	13088	13032	12976	12864	12864	12864	12808	12808	12752	12752	12752	12808	12864	12976	13200	13376	13688	14832	15856	0	0	0	0	0	0	0	0	0	0	0	0	0	0	0	0	0	0	0	0	0	0	0	0	0	0	0	0	0	0	0	0	0	0	0	0	0	0	0	0	0	0	0	0	0	0	0	0	0	0	0	0	0	0	0	0	0	0	0	0	0	0	0	0	0	0	0	0	0	0	0	0	0	0	0	0	0	0	0	0	0	0	0	0	0	0	0	0	0	0	0	0	0	0	0	0	0	0	0	0	0	0	0	0	0	0	0	0	976	976	0	0	0	0	0	0	0	0	0	960	960	0	0	0	0	0	0	0	0	0	0	0	0	0	0	0	0	0	0	0	0	0	0	0	0	0	0	0	0	0	0	0	0	0	0	0	0	0	0	0	0	0	0	0	0	0	0	0	0	0	0	0	0	0	0	0	0	0	0	0	0	0	0	0	0	0	0	0	0	0	0	0	0	0	0	0	0	0	0	0	0	0	0	0	0	0	0	0	0	0	14616	14544	14408	14272	14136	13936	13808	13560	13440	13320	13264	13200	13200	13144	13144	13200	13200	13200	13264	13320	13376	13440	13496	13496	13560	13624	13688	13744	13808	13808	13872	13936	13936	14000	14072	14072	14072	14000	13936	13872	13808	13808	13744	13688	13688	13744	13744	13808	13808	13936	14000	14136	14200	14200	14272	14336	14544	14616	14688	14832	14912	14984	14984	15056	15056	15136	15136	15136	15136	15216	15216	15216	15216	15056	15056	14912	14832	14688	14480	14336	14200	14072	13936	13744	13688	13560	13560	13624	13688	13744	13936	14000	14136	14336	14544	14688	14688	14760	14912	14912	14984	15056	15056	15056	15056	14984	14912	14832	14760	14688	14616	14544	14544	14544	14544	14544	14616	14688	14760	14760	14832	14912	14912	14912	14912	14984	14912	14912	14760	14616	14480	14408	14272	14200	14136	14000	13936	13936	13936	13872	13808	13808	13808	13808	13872	13936	14000	14072	14200	14336	14408	14544	14544	14616	14688	14760	14760	14832	14832	14832	14912	14984	14984	15056	15056	15136	15136	15216	15288	15216	15216	15216	15216	15216	14984	14984	14912	14832	14760	14616	14544	14336	14200	14136	14072	14072	14072	14000	14000	14000	14000	14072	14136	14200	14272	14336	14336	14480	14480	14544	14544	14616	14616	14616	14616	14616	14616	14544	14544	14544	14480	14480	14408	14408	14408	14336	14336	14272	14272	14136	14072	14000	14000	14000	14000	14000	14000	14000	14000	14000	14072	14136	14200	14200	14200	14200	14200	14136	14136	14072	14000	14000	13936	13872	13808	13688	13624	13496	13376	13200	13032	12920	12752	12592	12432	12384	12280	12280	12232	12232	12232	12184	12184	12232	12232	12336	12432	12592	12696	12920	12920	13088	13200	13320	13320	13264	13200	13088	13032	12976	12920	12864	12864	12864	12864	12864	12920	12920	12920	12976	12976	12976	13032	13032	13032	12976	12920	12920	12864	12808	12752	12752	12752	12752	12808	12864	12920	12920	12976	13032	13088	13088	13144	13200	13200	13320	13440	13496	13624	13688	13744	13808	13872	13936	14000	14072	14072	14072	14200	14272	14272	14272	14336	14336	14408	14480	14544	14544	14544	14544	14544	14616	14616	14544	14544	14544	14544	14544	14544	14480	14408	14272	14072	13688	13496	13376	13320	13200	13144	13088	13032	13032	13088	13144	13264
0	0	0	0	0	0	0	0	0	0	0	0	0	0	0	0	0	0	0	0	0	0	0	0	0	0	0	0	0	0	0	0	0	0	0	0	0	0	0	0	0	0	0	0	0	0	0	0	0	0	0	0	0	0	0	0	0	0	0	0	0	0	0	17320	17320	17424	17528	0	0	0	0	0	0	0	0	0	0	0	0	0	0	0	0	0	0	0	0	0	0	0	0	0	0	0	13744	13560	13376	13320	13200	13144	13088	13088	13144	13088	13088	13088	13088	13144	13144	13320	13496	13808	14000	14336	14832	15856	18056	18848	19456	19848	19976	0	0	0	0	0	0	0	0	0	0	0	0	0	0	0	0	0	0	0	0	0	0	0	0	0	0	0	0	0	0	0	0	0	0	0	0	0	0	0	0	0	0	0	0	0	0	0	0	0	0	0	0	0	0	0	0	0	0	0	0	0	0	0	0	0	0	0	0	0	0	0	0	0	0	0	0	0	0	0	0	0	0	0	0	0	0	0	0	0	0	0	0	0	0	0	0	0	0	0	0	0	0	0	0	0	976	968	968	968	968	960	960	960	960	0	0	0	0	0	0	0	0	0	0	0	0	0	0	0	0	0	0	0	0	0	0	0	0	0	0	0	0	0	0	0	0	0	0	0	0	0	0	0	0	0	0	0	0	0	0	0	0	0	0	0	0	0	0	0	0	0	0	0	0	0	0	0	0	0	0	0	0	0	0	0	0	0	0	0	0	0	0	0	0	0	0	0	0	0	0	0	0	0	0	0	14832	14616	14544	14336	14200	14000	13808	13624	13496	13376	13320	13264	13200	13200	13200	13264	13264	13264	13264	13320	13376	13440	13440	13496	13560	13560	13624	13688	13744	13808	13872	13872	13936	14000	14072	14072	14072	14000	13936	13872	13808	13808	13744	13744	13744	13808	13808	13936	14000	14136	14200	14336	14480	14480	14544	14616	14760	14832	14984	14984	15056	15136	15136	15136	15136	15136	15136	15136	15216	15216	15288	15288	15288	15216	15136	15136	15056	14912	14760	14616	14480	14336	14136	14000	13808	13744	13744	13744	13872	13936	14000	14136	14272	14408	14616	14688	14760	14760	14912	14912	14984	14984	15056	15056	15056	14984	14912	14832	14760	14688	14544	14544	14480	14480	14544	14544	14616	14688	14760	14832	14912	14984	14984	15136	15136	15136	15136	15056	14912	14760	14688	14544	14408	14272	14200	14072	14000	14000	13872	13872	13808	13808	13808	13808	13872	13936	14000	14072	14200	14336	14408	14544	14616	14688	14760	14832	14832	14912	14912	14912	14984	15056	15056	15136	15136	15216	15216	15288	15288	15368	15216	15216	15216	15216	15136	15056	14912	14832	14760	14616	14480	14336	14200	14136	14072	14072	14000	14000	14000	14000	14000	14072	14136	14200	14272	14336	14408	14480	14544	14544	14616	14616	14616	14616	14616	14616	14616	14616	14544	14544	14480	14480	14480	14480	14408	14408	14336	14272	14272	14136	14072	14072	14000	14000	14000	14072	14072	14072	14072	14136	14200	14272	14272	14272	14272	14200	14200	14200	14136	14136	14000	13936	13872	13808	13688	13624	13496	13376	13200	13088	12920	12808	12648	12536	12384	12336	12280	12280	12232	12232	12232	12184	12184	12232	12280	12432	12592	12752	12920	13088	13088	13264	13320	13376	13440	13320	13200	13144	13032	12976	12920	12920	12864	12864	12808	12808	12864	12864	12920	12920	12920	12976	13032	13032	13032	12920	12864	12864	12808	12752	12696	12696	12696	12752	12808	12808	12864	12920	12976	13032	13032	13032	13144	13144	13200	13264	13376	13440	13560	13624	13744	13808	13936	14000	14072	14072	14136	14200	14272	14336	14408	14408	14480	14480	14544	14544	14544	14544	14544	14544	14544	14616	14616	14544	14544	14544	14544	14480	14480	14480	14480	0	0	13496	13320	13200	13144	13032	12976	12920	12864	12864	12920	12976	13088
0	0	0	0	0	0	0	0	0	0	0	0	0	0	0	0	0	0	0	0	0	0	0	0	0	0	0	0	0	0	0	0	0	0	0	0	0	0	0	0	0	0	0	0	0	0	0	0	0	0	0	0	0	0	0	0	0	0	0	0	17224	17224	17224	17224	17224	17320	17528	0	18056	18056	18160	18384	18496	18728	18968	18968	19088	19208	19336	0	0	0	0	0	0	0	0	0	0	0	0	0	0	0	14072	13808	13624	13440	13440	13440	13376	13376	13376	13440	13440	13560	13624	13624	14072	14072	14408	14760	15136	15608	16200	17224	18056	18848	19456	19584	19336	19208	19208	0	0	0	0	0	0	0	0	0	0	0	0	0	0	0	0	0	0	0	0	0	0	0	0	0	0	0	0	0	0	0	0	0	0	0	0	0	0	0	0	0	0	0	0	0	0	0	0	0	0	0	0	0	0	0	0	0	0	0	0	0	0	0	0	0	0	0	0	0	0	0	0	0	0	0	0	0	0	0	0	0	0	0	0	0	0	0	0	0	0	0	0	0	0	0	0	0	0	0	0	0	0	0	976	968	968	968	960	960	960	960	960	0	0	0	0	0	0	0	0	0	0	0	0	0	0	0	0	0	0	0	0	0	0	0	0	0	0	0	0	0	0	0	0	0	0	0	0	0	0	0	0	0	0	0	0	0	0	0	0	0	0	0	0	0	0	0	0	0	0	0	0	0	0	0	0	0	0	0	0	0	0	0	0	0	0	0	0	0	0	0	0	0	0	0	0	0	0	0	0	0	15288	15136	14832	14760	14616	14408	14200	14000	13872	13688	13560	13440	13320	13320	13264	13264	13264	13264	13264	13264	13264	13320	13376	13376	13440	13496	13496	13560	13624	13688	13744	13808	13872	13872	13936	14000	14072	14072	14072	14072	14000	13936	13872	13872	13808	13808	13808	13872	13936	14000	14136	14272	14336	14480	14616	14616	14688	14760	14912	14984	15056	15056	15136	15056	15056	15136	15136	15136	15216	15216	15288	15288	15368	15368	15448	15368	15368	15368	15216	15136	14984	14912	14760	14616	14480	14272	14072	13936	13936	14000	14000	14136	14272	14336	14408	14544	14688	14760	14832	14832	14912	14912	14984	14984	15056	15056	15056	14984	14984	14832	14760	14688	14544	14544	14480	14480	14544	14544	14616	14760	14760	14832	14984	15056	15216	15288	15368	15368	15368	15288	15136	14984	14832	14688	14480	14408	14200	14136	14072	13936	13872	13808	13808	13808	13808	13808	13872	13936	14000	14136	14272	14336	14480	14544	14616	14688	14832	14832	14984	14984	14984	15056	15056	15136	15136	15136	15216	15216	15216	15288	15288	15368	15288	15288	15288	15216	15216	15136	14984	14832	14760	14616	14480	14336	14200	14136	14072	14000	14000	14000	14000	14000	14000	14072	14136	14200	14336	14408	14408	14480	14544	14616	14616	14688	14616	14616	14688	14616	14616	14616	14544	14544	14480	14480	14480	14480	14480	14408	14408	14336	14272	14200	14136	14072	14000	14000	14072	14072	14136	14136	14200	14272	14336	14336	14408	14336	14336	14272	14272	14200	14200	14136	14000	13936	13808	13688	13624	13496	13376	13264	13032	12920	12808	12696	12536	12432	12336	12280	12232	12232	12232	12232	12232	12232	12232	12280	12432	12536	12752	12976	13144	13264	13264	13440	13496	13560	13496	13440	13264	13200	13088	13032	12976	12920	12864	12864	12808	12808	12864	12864	12864	12864	12920	12976	12976	12976	12976	12920	12864	12808	12808	12696	12696	12648	12648	12696	12696	12808	12808	12864	12864	12864	12976	12976	12976	12976	13088	13144	13264	13440	13496	13560	13688	13744	13872	14000	14072	14136	14136	14272	14336	14408	14480	14480	14480	14544	14616	14616	14616	14616	14544	14544	14616	14616	14544	14544	14544	14544	14544	14480	14480	0	0	0	0	13376	13144	13088	12976	12920	12808	12752	12696	12696	12752	12864	12976
0	0	0	0	0	0	0	0	0	0	0	0	0	0	0	0	0	0	0	0	0	0	0	0	0	0	0	0	0	0	0	0	0	0	0	0	0	0	0	0	0	0	0	0	0	0	0	0	0	0	0	0	0	0	0	16928	16928	17024	0	0	17224	17224	17224	17224	17224	17320	17528	17632	17840	17944	18160	18272	18496	18616	18728	18848	18968	19088	19088	0	0	0	0	0	0	0	0	0	0	0	0	0	0	0	14408	14072	13808	13624	13624	13688	13688	13688	13688	13744	13872	13936	14000	14136	14408	14760	15216	15608	16024	16560	17320	18056	18728	19336	19584	19584	19336	19208	19208	0	0	0	0	0	0	0	0	0	0	0	0	0	0	0	0	0	0	0	0	0	0	0	0	0	0	0	0	0	0	0	0	0	0	0	0	0	0	0	0	0	0	0	0	0	0	0	0	0	0	0	0	0	0	0	0	0	0	0	0	0	0	0	0	0	0	0	0	0	0	0	0	0	0	0	0	0	0	0	0	0	0	0	0	0	0	0	0	0	0	0	0	0	0	0	0	0	0	0	0	0	0	0	0	0	0	968	960	960	0	0	0	0	0	0	0	0	0	0	0	0	0	0	0	0	0	0	0	0	0	0	0	0	0	0	0	0	0	0	0	0	0	0	0	0	0	0	0	0	0	0	0	0	0	0	0	0	0	0	0	0	0	0	0	0	0	0	0	0	0	0	0	0	0	0	0	0	0	0	0	0	0	0	0	0	0	0	0	0	0	0	0	0	0	0	0	0	0	0	0	0	15288	15136	14984	14984	0	0	0	0	0	13688	13496	13440	13376	13320	13264	13264	13264	13264	13264	13264	13320	13320	13376	13376	13440	13496	13496	13560	13624	13688	13744	13808	13872	13872	13936	14000	14072	14072	14136	14072	14000	13936	13936	13936	13872	13872	13936	14000	14000	14136	14272	14336	14480	14544	14616	14688	14760	14832	14912	14984	15056	15056	15056	15056	15056	15056	15056	15056	15136	15216	15288	15368	15448	15448	15528	15528	15528	15528	15448	15368	15288	15136	15056	14912	14688	14544	14336	14200	14200	14272	14336	14336	14480	14544	14616	14760	14760	14832	14912	14912	14912	14984	15056	15056	15136	15216	15216	15136	15056	14912	14832	14688	14616	14544	14544	14544	14544	14616	14688	14832	14912	14984	15136	15216	15368	15448	15528	15528	15608	15528	15368	15136	14984	14760	14688	14480	14272	14136	14072	13936	13872	13808	13808	13808	13808	13808	13936	13936	14072	14136	14272	14408	14544	14616	14688	14760	14832	14984	14984	15136	15136	15136	15136	15136	15136	15136	15216	15216	15216	15288	15368	15368	15368	15368	15288	15216	15216	15136	14984	14832	14688	14616	14480	14336	14200	14136	14072	14000	14000	14000	14000	14000	14000	14136	14136	14272	14336	14408	14480	14544	14616	14616	14688	14688	14688	14688	14688	14688	14688	14616	14616	14544	14544	14544	14544	14544	14544	14480	14408	14336	14272	14200	14136	14072	14072	14072	14072	14136	14200	14272	14272	14336	14480	14480	14480	14408	14336	14336	14336	14272	14200	14136	14000	13872	13744	13624	13496	13376	13264	13088	12920	12920	12696	12592	12488	12384	12336	12280	12232	12232	12232	12232	12232	12232	12232	12384	12536	12696	12920	13144	13264	13440	13440	13560	13624	13624	13624	13560	13376	13264	13144	13088	13032	12976	12920	12864	12808	12808	12808	12808	12864	12864	12920	13032	12976	12976	12976	12920	12808	12752	12752	12696	12592	12592	12592	12592	12696	12696	12752	12752	12752	12808	12864	12920	12920	12920	13032	13088	13144	13320	13440	13560	13624	13744	13872	14072	14136	14136	14200	14336	14408	14480	14544	14544	14544	14616	14688	14688	14688	14616	14616	14616	14616	14616	14544	14544	14544	14544	14480	14480	14480	0	0	0	0	13376	13144	13088	12976	12920	12808	12752	12696	12696	12752	12808	12920
0	0	0	0	0	0	0	0	0	0	0	0	0	0	0	0	0	0	0	0	0	0	0	0	0	0	0	0	0	0	0	0	0	0	0	0	0	0	0	0	0	0	0	0	0	0	0	0	0	0	0	0	0	16648	16648	16744	16832	16832	16928	17024	17128	17128	17224	17224	17224	17320	17424	17632	17736	17944	18056	18160	18384	18496	18728	18848	18848	18968	18968	18848	18728	18728	18616	18384	18160	17840	17632	17320	17128	16832	16288	15856	15448	15136	14544	14336	14000	13936	13872	13872	13936	14000	14000	14136	14336	14408	14616	14832	15136	15528	16024	16464	16928	17528	18160	18848	19456	19584	19584	19584	19584	0	0	0	0	0	0	0	0	0	0	0	0	0	0	0	0	0	0	0	0	0	0	0	0	0	0	0	0	0	0	0	0	0	0	0	0	0	0	0	0	0	0	0	0	0	0	0	0	0	0	0	0	0	0	0	0	0	0	0	0	0	0	0	0	0	0	0	0	0	0	0	0	0	0	0	0	0	0	0	0	0	0	0	0	0	0	0	0	0	0	0	0	0	0	0	0	0	0	0	0	0	0	0	0	0	0	0	0	0	0	0	0	0	0	0	0	0	0	0	0	0	0	0	0	0	0	0	0	0	0	0	0	0	0	0	0	0	0	0	0	0	0	0	0	0	0	0	0	0	0	0	0	0	0	0	0	0	0	0	0	0	0	0	0	0	0	0	0	0	0	0	0	0	0	0	0	0	0	0	0	0	0	0	0	0	0	0	0	0	0	0	0	0	0	0	0	0	0	0	0	0	0	0	0	0	0	0	0	0	0	0	13808	13688	13496	13440	13440	13376	13320	13320	13320	13320	13320	13320	13320	13376	13376	13440	13440	13496	13496	13560	13624	13688	13744	13808	13872	13936	14000	14072	14072	14136	14136	14072	14072	14000	14000	13936	13936	13936	14000	14072	14136	14200	14272	14408	14480	14616	14688	14760	14760	14912	14912	14984	14912	14912	14912	14912	14912	14984	14984	14984	15056	15056	15216	15288	15368	15448	15528	15528	15528	15608	15528	15528	15368	15288	15216	15056	14984	14760	14616	14480	14480	14480	14480	14544	14616	14760	14760	14832	14912	14912	14984	15056	15056	15136	15136	15216	15288	15288	15288	15288	15216	15136	14984	14912	14832	14688	14688	14688	14688	14760	14832	14912	14984	15056	15216	15288	15528	15608	15688	15688	15776	15688	15528	15368	15136	14984	14760	14544	14336	14200	14072	14000	13936	13872	13808	13808	13808	13872	14000	14072	14136	14272	14408	14480	14616	14760	14832	14912	14984	15056	15136	15136	15136	15136	15136	15216	15216	15216	15216	15216	15288	15288	15368	15368	15368	15368	15288	15216	15136	15056	14984	14760	14688	14616	14480	14336	14200	14136	14072	14000	14000	14000	14000	14000	14072	14136	14200	14272	14408	14480	14544	14616	14616	14688	14688	14688	14688	14616	14616	14616	14688	14616	14616	14616	14616	14616	14616	14616	14544	14544	14480	14336	14272	14200	14136	14072	14072	14072	14136	14200	14200	14336	14408	14480	14544	14544	14544	14480	14408	14336	14336	14272	14200	14072	13936	13808	13688	13560	13376	13320	13144	12976	12808	12648	12536	12488	12432	12336	12280	12232	12232	12232	12232	12232	12232	12232	0	0	12920	12920	13144	13320	13440	13624	13688	13688	13744	13688	13688	13624	13440	13320	13200	13088	13032	12976	12920	12864	12808	12808	12808	12808	12864	12864	12920	12976	13032	13032	12976	12864	12808	12752	12752	12648	12592	12592	12592	12592	12648	12696	12696	12696	12696	12696	12808	12808	12864	12864	12920	13032	13144	13264	13376	13496	13624	13808	13936	14072	14136	14200	14272	14336	14480	14544	14544	14616	14616	14688	14688	14688	14688	14688	14688	14616	14616	14616	14544	14544	14544	14408	14336	14336	14336	0	0	0	13440	13376	13200	13144	13032	12976	12864	12808	12752	12752	12752	12808	12920
0	0	0	0	0	0	0	0	0	0	0	0	0	0	0	0	0	0	0	0	0	0	0	0	0	0	0	0	0	0	0	0	0	0	0	0	0	0	0	0	0	0	0	0	0	0	0	0	0	0	0	0	16464	16464	16560	16648	16648	16648	16744	16832	17024	17024	17128	17128	17128	17320	17424	17528	17736	17944	18056	18160	18384	18496	18616	18728	18728	18848	18728	18616	18496	18272	18272	18160	17944	17632	17424	17128	16928	16648	16200	15856	15448	15136	14760	14544	14272	14136	14136	14136	14136	14272	14408	14544	14760	14912	15136	15448	15944	16376	16928	17320	17944	18160	18728	19208	19584	19712	19456	19336	18968	18848	18848	0	0	0	18160	18160	18384	0	0	0	0	0	0	0	0	0	0	0	0	0	0	0	0	0	0	0	0	0	0	0	0	0	0	0	0	0	0	0	0	0	0	0	0	0	0	0	0	0	0	0	0	0	0	0	0	0	0	0	0	0	0	0	0	0	0	0	0	0	0	0	0	0	0	0	0	0	0	0	0	0	0	0	0	0	0	0	0	0	0	0	0	0	0	0	0	0	0	0	0	0	0	0	0	0	0	0	0	0	0	0	0	0	0	0	0	0	0	0	0	0	0	0	0	0	0	0	0	0	0	0	0	0	0	0	0	0	0	0	0	0	0	0	0	0	0	0	0	0	0	0	0	0	0	0	0	0	0	0	0	0	0	0	0	0	0	0	0	0	0	0	0	0	0	0	0	0	0	0	0	0	0	0	0	0	0	0	0	0	0	0	0	0	0	0	0	0	0	0	0	0	0	0	0	0	0	0	0	0	0	0	13744	13688	13560	13496	13496	13440	13440	13376	13376	13376	13440	13440	13440	13440	13440	13496	13496	13560	13560	13624	13688	13744	13744	13808	13872	13936	14000	14072	14072	14136	14136	14072	14072	14000	14000	14000	14000	14000	14072	14136	14200	14272	14336	14408	14544	14616	14688	14688	14760	14760	14832	14832	14760	14760	14760	14688	14688	14760	14760	14760	14832	14912	15136	15136	15288	15368	15448	15448	15608	15608	15608	15608	15528	15448	15368	15216	15136	14984	14832	14688	14688	14688	14688	14760	14832	14912	14984	14984	15056	15056	15136	15136	15136	15136	15216	15216	15288	15368	15368	15368	15288	15216	15136	14984	14912	14912	14832	14832	14832	14912	14912	14984	15056	15136	15288	15448	15608	15688	15776	15776	15856	15776	15608	15448	15216	14984	14832	14616	14408	14272	14136	14072	13936	13936	13872	13872	13936	14000	14072	14200	14272	14408	14480	14688	14760	14912	14912	14984	14984	15056	15136	15216	15288	15288	15288	15216	15216	15216	15216	15216	15216	15288	15288	15368	15368	15368	15288	15216	15136	14984	14912	14760	14688	14544	14480	14336	14272	14200	14136	14072	14072	14072	14072	14072	14072	14136	14272	14336	14408	14544	14616	14616	14688	14688	14688	14688	14688	14616	14616	14616	14688	14688	14616	14616	14616	14616	14616	14616	14616	14616	14480	14408	14272	14200	14136	14136	14072	14072	14136	14200	14272	14408	14480	14544	14544	14616	14544	14544	14480	14408	14336	14272	14200	14072	13936	13808	13624	13496	13320	13144	12976	12808	12696	12592	12488	12432	12384	12336	12280	12232	12232	12232	12184	12184	0	0	0	0	13496	13496	13624	13624	13688	13808	13872	13872	13872	13808	13744	13688	13560	13440	13320	13200	13144	13032	12976	12864	12808	12808	12808	12864	12864	12920	12976	12976	13032	12976	12920	12808	12808	12696	12648	12592	12536	12488	12488	12488	12488	12536	12536	12592	12592	12592	12696	12696	12752	12808	12864	12976	13088	13200	13376	13440	13624	13744	14000	14136	14272	14336	14336	14408	14544	14544	14616	14688	14688	14832	14832	14912	14832	14832	14760	14688	14688	14616	14544	14544	14408	14272	14136	14136	13936	13808	13688	13496	13440	13320	13264	13200	13144	13032	12976	12920	12864	12808	12808	12920	12920
0	0	0	0	0	0	0	0	0	0	0	0	0	0	0	0	0	0	0	0	0	0	0	0	0	0	0	0	0	0	0	0	0	0	0	0	0	0	0	0	0	0	0	0	0	0	0	0	0	0	0	16288	16288	16376	16464	16560	16560	16560	16648	16744	16832	16928	16928	16928	17024	17224	17320	17528	17632	17736	17944	18056	18160	18496	18616	18728	18616	18616	18496	18384	18384	18160	18160	17840	17736	17424	17128	16928	16744	16464	16112	15776	15368	15368	14760	14544	14272	14200	14200	14200	14336	14480	14616	14832	15136	15368	15856	16288	16744	17320	17840	18056	18616	18968	19336	19584	19848	19712	19456	19208	18848	18616	18496	18272	18160	18056	18056	18160	18384	18616	0	0	0	0	0	0	0	0	0	0	0	0	0	0	0	0	0	0	0	0	0	0	0	0	0	0	0	0	0	0	0	0	0	0	0	0	0	0	0	0	0	0	0	0	0	0	0	0	0	0	0	0	0	0	0	0	0	0	0	0	0	0	0	0	0	0	0	0	0	0	0	0	0	0	0	0	0	0	0	0	0	0	0	0	0	0	0	0	0	0	0	0	0	0	0	0	0	0	0	0	0	0	0	0	0	0	0	0	0	0	0	0	0	0	0	0	0	0	0	0	0	0	0	0	0	0	0	0	0	0	0	0	0	0	0	0	0	0	0	0	0	0	0	0	0	0	0	0	0	0	0	0	0	0	0	0	0	0	0	0	0	0	0	0	0	0	0	0	0	0	0	0	0	0	15368	15368	15448	15528	15608	0	0	0	0	0	16112	16112	16200	16288	16464	16560	16560	0	0	0	0	0	0	0	0	0	0	0	13744	13688	13624	13496	13496	13496	13496	13496	13496	13496	13496	13496	13496	13496	13496	13560	13560	13624	13624	13624	13688	13744	13808	13808	13872	13936	14000	14072	14072	14136	14136	14136	14072	14072	14072	14072	14072	14072	14136	14136	14200	14336	14408	14408	14544	14544	14616	14616	14616	14688	14688	14616	14544	14544	14544	14544	14544	14544	14616	14616	14688	14832	14984	15056	15216	15288	15288	15368	15528	15528	15608	15608	15528	15448	15368	15288	15216	15056	14984	14832	14832	14832	14832	14912	14984	15056	15136	15136	15216	15216	15216	15216	15216	15288	15288	15368	15368	15448	15448	15448	15368	15288	15216	15136	15056	14984	14912	14912	14984	14984	15056	15136	15216	15288	15448	15528	15688	15776	15856	15944	15944	15856	15776	15528	15368	15136	14984	14688	14544	14336	14200	14136	14000	14000	14000	14000	14000	14072	14200	14336	14408	14544	14688	14760	14760	14912	14912	14984	15136	15216	15288	15368	15368	15368	15368	15288	15288	15216	15216	15216	15216	15216	15288	15288	15288	15288	15216	15136	15056	14984	14832	14760	14688	14544	14480	14408	14272	14272	14200	14200	14200	14200	14136	14136	14136	14272	14336	14480	14544	14616	14688	14688	14688	14688	14688	14616	14616	14616	14616	14616	14688	14688	14688	14688	14688	14688	14688	14688	14688	14616	14544	14408	14336	14272	14200	14200	14136	14136	14200	14272	14408	14480	14544	14616	14616	14688	14616	14544	14480	14408	14408	14336	14272	14136	13936	13744	13560	13440	13264	13088	12920	12752	12592	12536	12432	12432	12384	12336	12280	12232	12232	12232	12184	12184	12696	12696	13088	13440	13496	13496	13688	13808	13936	14072	14072	14072	14000	13936	13872	13808	13688	13560	13440	13320	13264	13144	13088	12976	12920	12920	12920	12976	12976	12976	13032	12976	12976	12920	12920	12808	12752	12696	12592	12592	12488	12488	12432	12432	12432	12488	12488	12488	12488	12536	12648	12648	12696	12752	12808	12920	13032	13144	13264	13440	13560	13744	14000	14136	14272	14336	14408	14480	14544	14616	14688	14760	14760	14832	14832	14912	14832	14832	14832	14688	14688	14616	14544	14408	14408	14272	13936	13744	13744	13624	13560	13496	13440	13320	13320	13264	13264	13200	13144	13088	13032	13032	13032	13032	13032
0	0	0	0	0	0	0	0	0	0	0	0	0	0	0	0	0	0	0	0	0	0	0	0	0	0	0	0	0	0	0	0	0	0	0	0	0	0	0	0	0	0	0	0	0	0	0	0	0	0	16200	16200	16288	16376	16464	16464	16464	16464	16464	16648	16648	16744	16744	16832	16832	17024	17224	17320	17424	17632	17736	17840	17944	18056	18272	18272	18384	18384	18384	18272	18160	17944	17840	17840	17424	17224	16928	16744	16560	16288	16024	15688	15368	14984	14688	14480	14272	14200	14200	14200	14336	14408	14544	14760	15056	15288	15776	16200	16648	17224	17736	18272	18728	19208	19456	19712	19848	19584	19336	19088	18728	18496	18272	17944	17840	17840	17944	18056	18272	18384	0	0	0	0	0	0	0	0	0	0	0	0	0	0	0	0	0	0	0	0	0	0	0	0	0	0	0	0	0	0	0	0	0	0	0	0	0	0	0	0	0	0	0	0	0	0	0	0	0	0	0	0	0	0	0	0	0	0	0	0	0	0	0	0	0	0	0	0	0	0	0	0	0	0	0	0	0	0	0	0	0	0	0	0	0	0	0	0	0	0	0	0	0	0	0	0	0	0	0	0	0	0	0	0	0	0	0	0	0	0	0	0	0	0	0	0	0	0	0	0	0	0	0	0	0	0	0	0	0	0	0	0	0	0	0	0	0	0	0	0	0	0	0	0	0	0	0	0	0	0	0	0	0	0	0	0	0	0	0	0	0	0	0	0	0	0	0	0	0	0	0	0	0	0	15288	15288	15368	15448	15608	15688	15776	15856	15944	16024	16112	16112	16200	16288	16464	16560	16560	16464	16376	16288	16112	16112	15856	15856	0	0	14408	14200	14200	13744	13744	13688	13688	13688	13624	13624	13624	13624	13624	13624	13624	13624	13624	13624	13624	13688	13688	13744	13744	13808	13808	13872	13872	13936	14000	14072	14072	14072	14136	14136	14072	14072	14072	14072	14072	14136	14136	14200	14272	14336	14408	14408	14480	14480	14480	14480	14480	14480	14480	14480	14336	14336	14336	14408	14408	14408	14408	14480	14616	14688	14984	15056	15056	15136	15216	15368	15448	15448	15528	15528	15528	15448	15368	15288	15216	15056	14984	14912	14912	14912	14912	15056	15136	15136	15216	15288	15216	15216	15288	15288	15288	15288	15288	15288	15368	15368	15448	15448	15448	15368	15288	15216	15136	14984	14984	15056	15056	15136	15216	15288	15368	15368	15528	15688	15856	15944	16024	16112	16024	16024	15856	15688	15528	15288	15056	14832	14616	14480	14272	14200	14136	14136	14072	14072	14136	14200	14336	14408	14408	14544	14688	14832	14984	14984	15136	15136	15288	15368	15448	15448	15448	15448	15448	15368	15288	15216	15216	15136	15136	15216	15216	15216	15216	15136	15136	15056	14984	14912	14832	14760	14616	14616	14480	14480	14408	14408	14272	14272	14272	14272	14272	14336	14336	14408	14480	14544	14616	14688	14688	14688	14688	14616	14616	14616	14544	14544	14544	14616	14616	14688	14688	14688	14760	14760	14760	14832	14760	14688	14616	14480	14336	14272	14200	14200	14200	14200	14272	14336	14480	14544	14616	14688	14760	14760	14688	14616	14544	14480	14480	14336	14272	14136	13936	13744	13496	13376	13200	13032	12864	12648	12536	12432	12384	12384	12336	12336	12280	12232	12232	12232	12232	0	12696	12696	13088	13440	13744	13872	14000	14072	14136	14200	14200	14136	14072	14072	14000	13936	13808	13688	13560	13496	13440	13320	13264	13144	13088	13032	13032	13088	13032	13032	12976	12976	12920	12920	12864	12808	12752	12648	12592	12536	12488	12432	12432	12432	12432	12432	12488	12488	12488	12536	12536	12648	12696	12696	12752	12864	13032	13144	13264	13320	13496	13688	13936	14200	14336	14408	14408	14480	14544	14616	14688	14760	14760	14760	14760	14832	14832	14760	14760	14688	14688	14544	14480	14408	14408	0	13936	13744	13744	13624	13560	13496	13376	13376	13376	13376	13376	13376	13320	13320	13264	13264	13200	13200	13264
0	0	0	0	0	0	0	0	0	0	0	0	0	0	0	0	0	0	0	0	0	0	0	0	0	0	0	0	0	0	0	0	0	0	0	0	0	0	0	0	0	0	0	0	0	0	0	0	0	0	16200	16112	16112	16200	16288	16288	16288	16288	16288	16376	16464	16560	16560	16648	16648	16744	17024	17128	17224	17320	17528	17528	17632	17840	17840	17944	18056	18056	18056	17944	17840	17736	17528	17224	17224	17024	16744	16560	16376	16112	15856	15608	15288	14984	14688	14480	14272	14136	14136	14200	14200	14272	14272	14480	14688	14832	15288	15608	16024	16560	17128	17736	18496	19088	19584	19976	19848	19584	19336	19088	18728	18384	18272	17944	17840	17840	17944	18056	18272	18384	18496	0	0	0	0	0	0	0	0	0	0	0	0	0	0	0	0	0	0	0	0	0	0	0	0	0	0	0	0	0	0	0	0	0	0	0	0	0	0	0	0	0	0	0	0	0	0	0	0	0	0	0	0	0	0	0	0	0	0	0	0	0	0	0	0	0	0	0	0	0	0	0	0	0	0	0	0	0	0	0	0	0	0	0	0	0	0	0	0	0	0	0	0	0	0	0	0	0	0	0	0	0	0	0	0	0	0	0	0	0	0	0	0	0	0	0	0	0	0	0	0	0	0	0	0	0	0	0	0	0	0	0	0	0	0	0	0	0	0	0	0	0	0	0	0	0	0	0	0	0	0	0	0	0	0	0	0	0	0	0	0	0	0	0	0	0	0	0	0	0	0	0	14984	14984	15136	15216	15368	15448	15608	15688	15776	15856	15944	16024	16112	16200	16288	16376	16464	16560	16560	16464	16376	16288	16112	16112	15856	15528	15136	14832	14408	14200	14200	13936	13872	13808	13808	13744	13744	13744	13744	13744	13744	13744	13744	13744	13744	13744	13744	13808	13808	13808	13808	13808	13872	13872	13936	13936	13936	14000	14072	14072	14072	14072	14136	14136	14136	14136	14136	14136	14200	14200	14272	14272	14336	14336	14336	14408	14408	14408	14408	14336	14336	14336	14272	14272	14200	14200	14200	14272	14272	14336	14480	14616	14760	14832	14912	14984	15136	15216	15216	15288	15368	15368	15368	15368	15288	15216	15136	15056	14984	14912	14912	14984	15056	15056	15136	15288	15288	15288	15288	15288	15288	15216	15216	15216	15216	15216	15288	15288	15288	15288	15368	15368	15288	15288	15216	15136	15136	15136	15216	15216	15288	15368	15528	15528	15688	15776	15944	16024	16112	16112	16200	16112	16024	15776	15608	15448	15216	14984	14760	14544	14408	14336	14272	14272	14072	14072	14136	14200	14336	14480	14544	14688	14832	14912	15056	15216	15288	15368	15368	15448	15528	15528	15528	15448	15448	15368	15288	15216	15216	15136	15136	15136	15136	15136	15136	15056	14984	14912	14912	14832	14760	14688	14616	14544	14544	14544	14544	14480	14480	14480	14480	14480	14480	14480	14480	14616	14616	14688	14688	14760	14688	14688	14616	14616	14544	14544	14544	14544	14544	14544	14616	14616	14688	14688	14760	14832	14832	14832	14832	14760	14688	14544	14408	14336	14272	14272	14272	14272	14336	14480	14616	14688	14760	14832	14832	14832	14832	14760	14616	14544	14480	14408	14272	14136	13936	13744	13496	13320	13200	12976	12752	12592	12432	12384	12336	12336	12336	12280	12280	12280	0	0	0	0	0	0	0	14480	14272	14272	14272	14272	14336	14272	14272	14272	14200	14136	14072	14072	13936	13872	13744	13688	13624	13496	13440	13320	13264	13200	13144	13144	13144	13088	12976	12976	12920	12864	12808	12808	12752	12592	12592	12488	12488	12432	12432	12432	12432	12432	12432	12432	12488	12488	12536	12592	12648	12696	12752	12864	12976	13144	13264	13320	13496	13688	13936	14200	14408	14408	14408	14480	14544	14616	14616	14688	14688	14688	14688	14688	14688	14760	14688	14616	14616	14480	14480	14408	14408	0	0	0	0	0	13496	13496	13376	13376	13440	13496	13496	13560	13496	13496	13496	13440	13440	13376	13376
0	0	0	0	0	0	0	0	0	0	0	0	0	0	0	0	0	0	0	0	0	0	0	0	0	0	0	0	0	0	0	0	0	0	0	0	0	0	0	0	0	0	0	0	0	0	0	0	0	0	0	16112	16024	16024	16112	16112	16112	16112	16112	16200	16288	16288	16376	16464	16464	16560	16832	16928	17024	17320	17528	17320	17320	17840	17736	17736	17736	17736	17736	17632	17632	17424	17224	16928	16928	16648	16560	16376	16112	15944	15688	15368	15056	14760	14544	14336	14136	14136	14000	14000	14000	14072	14072	14136	14336	14480	14616	14912	15288	15688	16112	16928	17632	18272	18848	19456	0	0	0	0	18616	18384	18272	18056	18056	18056	18056	18056	18272	18384	18496	0	0	0	0	0	0	0	0	0	0	0	0	0	0	0	0	0	0	0	0	0	0	0	0	0	0	0	0	0	0	0	0	0	0	0	0	0	0	0	0	0	0	0	0	0	0	0	0	0	0	0	0	0	0	0	0	0	0	0	0	0	0	0	0	0	0	0	0	0	0	0	0	0	0	0	0	0	0	0	0	0	0	0	0	0	0	0	0	0	0	0	0	0	0	0	0	0	0	0	0	0	0	0	0	0	0	0	0	0	0	0	0	0	0	0	0	0	0	0	0	0	0	0	0	0	0	0	0	0	0	0	0	0	0	0	0	0	0	0	0	0	0	0	0	0	0	0	0	0	0	0	0	0	0	0	0	0	0	0	0	0	0	0	0	0	0	0	0	14832	14832	14832	14912	14912	15056	15216	15288	15448	15528	15608	15776	15856	16024	16024	16112	16200	16288	16376	16464	16560	16560	16464	16376	16288	16112	16112	15856	15528	15136	14832	14544	14336	14200	14072	14072	13936	13936	13872	13872	13936	13936	13936	13936	13936	13936	13936	13872	13872	13872	13872	13872	13872	13872	13872	13872	13936	13936	13936	13936	13936	14000	14000	14000	14072	14072	14072	14072	14072	14072	14072	14072	14136	14136	14136	14136	14200	14200	14200	14272	14200	14200	14200	14136	14072	14000	14000	14000	14000	14000	14000	14072	14136	14272	14408	14616	14616	14688	14832	14912	15056	15136	15136	15288	15288	15288	15216	15216	15136	15136	15056	15056	15056	15056	15056	15136	15216	15288	15368	15368	15368	15368	15288	15216	15136	15136	15136	15136	15136	15136	15136	15136	15136	15216	15288	15288	15288	15216	15216	15216	15216	15288	15368	15448	15528	15608	15688	15856	15944	16112	16112	16200	16200	16200	16112	16024	15856	15688	15528	15288	15056	14912	14688	14408	14336	14272	14272	14272	14272	14336	14408	14480	14688	14760	14912	15056	15136	15288	15368	15448	15448	15528	15608	15608	15608	15608	15528	15448	15368	15288	15216	15136	15136	15056	15056	15056	14984	14984	14912	14912	14832	14760	14760	14688	14616	14616	14544	14544	14544	14544	14544	14544	14544	14544	14544	14616	14616	14616	14688	14760	14760	14760	14688	14688	14616	14616	14544	14480	14480	14480	14480	14480	14544	14616	14616	14616	14688	14760	14832	14912	14912	14832	14760	14688	14544	14408	14336	14336	14336	14336	14336	14408	14544	14688	14832	14984	14984	14984	14984	14912	14760	14688	14544	14480	14408	14272	14136	13936	13744	13496	13320	13200	12976	12752	12592	12432	12384	12336	12336	12336	12280	12280	0	0	0	0	0	0	0	0	14480	14480	14408	14408	14408	14336	14336	14272	14272	14200	14200	14136	14136	14072	13936	13872	13808	13744	13688	13624	13496	13440	13376	13376	13320	13264	13144	13032	12976	12864	12864	12752	12696	12648	12592	12488	12488	12432	12384	12384	12384	12384	12384	12384	12432	12432	12488	12536	12592	12648	12696	12752	12864	12976	13088	13264	13376	13496	13688	13936	14136	14272	14336	14408	14408	14480	14480	14544	14544	14544	14544	14544	14616	14616	14616	14616	14544	14544	14480	14480	14480	0	0	0	13560	13560	13560	13496	13496	13496	13496	13496	13560	13560	13624	13624	13624	13624	13624	13496	13496	13496
0	0	0	0	0	0	0	0	0	0	0	0	0	0	0	0	0	0	0	0	0	0	0	0	0	0	0	0	0	0	0	0	0	0	0	0	0	0	0	0	0	0	0	0	0	0	0	0	0	0	0	0	15856	15856	15944	15944	15944	15944	15944	16024	16112	16200	16200	16288	16376	16376	16464	16648	16744	16832	16928	17024	17024	17128	17224	17320	17424	17424	17320	17320	17224	17128	16832	16744	16560	16560	16376	16200	16024	15776	15528	15216	14912	14688	14408	14200	14072	14000	13936	13872	13808	13744	13744	13808	13936	14000	14072	14272	14480	14832	15288	15944	16648	17320	18160	19088	19584	0	18848	18728	18496	18272	18272	18056	18056	18056	18056	18056	18272	18384	18496	0	0	0	0	0	0	0	0	0	0	0	0	0	0	0	0	0	0	0	0	0	0	0	0	0	0	0	0	0	0	0	0	0	0	0	0	0	0	0	0	0	0	0	0	0	0	0	0	0	0	0	0	0	0	0	0	0	0	0	0	0	0	0	0	0	0	0	0	0	0	0	0	0	0	0	0	0	0	0	0	0	0	0	0	0	0	0	0	0	0	0	0	0	0	0	0	0	0	0	0	0	0	0	0	0	0	0	0	0	0	0	0	0	0	0	0	0	0	0	0	0	0	0	0	0	0	0	0	0	0	0	0	0	0	0	0	0	0	0	0	0	0	0	0	0	0	0	0	0	0	0	0	0	0	0	0	0	0	0	0	0	0	0	0	0	0	0	14832	14832	14760	14760	14832	14912	15056	15136	15288	15368	15448	15608	15776	15856	16024	16112	16200	16288	16376	16376	16464	16560	16560	16464	16376	16288	16112	15856	15856	15528	15288	14912	14688	14480	14272	14200	14200	14072	14072	14072	14072	14072	14136	14136	14136	14136	14072	14072	14000	14000	14000	13936	13936	13936	13936	13936	13872	13872	13872	13872	13872	13872	13872	13936	13936	14000	14000	14000	14000	14000	14000	14000	14000	14000	14000	14000	14072	14000	14000	14000	13936	13936	13936	13872	13872	13744	13744	13744	13808	13808	13808	13808	13872	14000	14136	14272	14408	14480	14480	14616	14688	14832	14912	14984	15056	15136	15136	15056	15056	14984	14984	15056	15056	15056	15136	15136	15216	15216	15368	15368	15368	15368	15288	15216	15136	15056	14984	14984	14984	14984	14984	14984	14984	15056	15136	15136	15288	15288	15288	15288	15288	15368	15448	15528	15608	15688	15776	15856	15944	16024	16024	16024	16024	16112	16024	16024	16024	15944	15776	15608	15288	15056	14912	14688	14616	14544	14480	14480	14480	14480	14544	14616	14760	14912	14984	15136	15216	15368	15448	15528	15608	15608	15688	15688	15688	15688	15608	15528	15448	15368	15288	15216	15136	15056	15056	15056	15056	14984	14984	14912	14832	14832	14760	14760	14688	14616	14616	14616	14616	14616	14616	14616	14616	14616	14688	14688	14688	14616	14616	14760	14760	14760	14760	14688	14616	14616	14616	14480	14408	14408	14408	14408	14480	14544	14544	14616	14616	14688	14760	14832	14912	14912	14832	14760	14688	14544	14480	14408	14336	14336	14408	14408	14544	14688	14832	14912	15056	15136	15136	15056	14984	14912	14760	14688	14544	14480	14336	14200	14000	13808	13560	13376	13264	13032	12808	12648	12488	12488	12432	12432	12488	12488	0	0	0	0	0	0	0	0	0	14688	14480	14408	14408	14408	14408	14336	14272	14272	14200	14200	14136	14136	14136	14072	14000	13936	13872	13872	13872	13744	13624	13624	13496	13440	13376	13200	13088	12976	12864	12752	12648	12592	12536	12432	12432	12384	12336	12336	12336	12336	12336	12384	12384	12384	12432	12432	12488	12536	12648	12696	12808	12864	12976	13088	13200	13320	13440	13624	13808	13936	14136	14200	14200	14272	14336	14408	14408	14408	14408	14408	14480	14544	14544	14544	14544	14544	14544	14480	14480	0	0	13808	13808	13560	13560	13560	13496	13496	13560	13560	13624	13624	13688	13688	13744	13744	13744	13688	13688	13624	13496
