0	0	0	0	0	0	0	0	0	0	0	0	0	0	0	0	0	0	0	0	0	0	0	0	0	0	0	0	0	0	0	0	0	0	0	0	0	0	0	0	0	0	0	0	0	0	0	0	0	0	0	0	0	0	0	0	0	0	0	0	0	0	0	0	0	0	0	0	0	0	0	0	0	0	0	0	0	0	0	0	0	0	0	0	0	0	0	0	0	0	0	0	0	0	0	0	0	0	0	0	0	0	0	0	0	0	0	0	0	0	0	0	0	0	0	0	0	0	0	0	0	0	0	0	0	0	0	0	0	0	0	0	0	0	0	0	0	0	0	0	0	0	0	0	0	0	0	0	0	0	0	0	0	0	0	0	0	0	0	0	0	0	0	0	0	0	0	0	0	0	0	0	0	0	0	0	0	0	0	0	0	0	0	0	0	0	0	0	0	0	0	0	0	0	0	0	0	0	0	0	0	0	0	0	0	0	0	0	0	0	0	0	0	0	0	0	0	0	0	0	0	0	0	0	0	0	0	0	0	0	0	0	0	0	0	0	0	0	0	0	0	0	0	0	0	0	0	0	0	0	0	0	0	0	0	0	0	0	0	0	0	0	0	0	0	0	0	0	0	0	0	0	0	0	0	0	0	0	0	0	0	0	0	0	0	0	0	0	0	0	0	0	0	0	0	0	0	0	0	0	0	0	0	0	0	0	0	0	0	0	0	0	0	0	0	0	0	0	0	0	0	0	0	0	0	0	0	0	0	0	0	0	0	0	0	0	0	0	0	0	0	0	0	0	0	0	0	0	0	0	0	0	0	0	0	0	0	0	0	0	0	0	0	0	0	0	0	0	0	0	0	0	0	0	0	0	0	0	0	0	0	0	0	0	0	0	0	0	0	0	0	0	0	0	0	0	0	0	0	0	0	0	0	0	0	0	0	0	0	0	0	0	0	0	0	0	0	0	0	0	0	0	0	0	0	0	0	0	0	0	0	0	0	0	0	0	0	0	0	0	0	0	0	0	0	0	0	0	0	0	0	0	0	0	0	0	0	0	0	0	0	0	0	0	0	0	0	0	0	0	0	0	0	0	0	0	0	0	0	0	0	0	0	0	0	0	0	0	0	0	0	0	0	0	0	0	0	0	0	0	0	0	0	0	0	0	0	0	0	0	0	0	0	0	0	0	0	0	0	0	0	0	0	0	0	0	0	0	0	0	0	0	0	0	0	0	0	0	0	0	0	0	0	0	0	0	0	0	0	0	0	0	0	0	0	0	0	0	0	0	0	0	0	0	0	0	0	0	0	0	0	0	0	0	0	0	0	0	0	0	0	0	0	0	0	0	0	0	0	0	0	0	0	0	0	0	0	0	0	0	0	0	0	0	0	0	0	0	0	0	0	0	0	0	0	0	0	0	0	0	0	0	0	0	0	0	0	0	0	0	0	0	0	0	0	0	0	0	0	0	0	0	0	0	0	0	0	0	0	0	0	0	0	0	0	0	0	0
0	0	0	0	0	0	0	0	0	0	0	0	0	0	0	0	0	0	0	0	0	0	0	0	0	0	0	0	0	0	0	0	0	0	0	0	0	0	0	0	0	0	0	0	0	0	0	0	0	0	0	0	0	0	0	0	0	0	0	0	0	0	0	0	0	0	0	0	0	0	0	0	0	0	0	0	0	0	0	0	0	0	0	0	0	0	0	0	0	0	0	0	0	0	0	0	0	0	0	0	0	0	0	0	0	0	0	0	0	0	0	0	0	0	0	0	0	0	0	0	0	0	0	0	0	0	0	0	0	0	0	0	0	0	0	0	0	0	0	0	0	0	0	0	0	0	0	0	0	0	0	0	0	0	0	0	0	0	0	0	0	0	0	0	0	0	0	0	0	0	0	0	0	0	0	0	0	0	0	0	0	0	0	0	0	0	0	0	0	0	0	0	0	0	0	0	0	0	0	0	0	0	0	0	0	0	0	0	0	0	0	0	0	0	0	0	0	0	0	0	0	0	0	0	0	0	0	0	0	0	0	0	0	0	0	0	0	0	0	0	0	0	0	0	0	0	0	0	0	0	0	0	0	0	0	0	0	0	0	0	0	0	0	0	0	0	0	0	0	0	0	0	0	0	0	0	0	0	0	0	0	0	0	0	0	0	0	0	0	0	0	0	0	0	0	0	0	0	0	0	0	0	0	0	0	0	0	0	0	0	0	0	0	0	0	0	0	0	0	0	0	0	0	0	0	0	0	0	0	0	0	0	0	0	0	0	0	0	0	0	0	0	0	0	0	0	0	0	0	0	0	0	0	0	0	0	0	0	0	0	0	0	0	0	0	0	0	0	0	0	0	0	0	0	0	0	0	0	0	0	0	0	0	0	0	0	0	0	0	0	0	0	0	0	0	0	0	0	0	0	0	0	0	0	0	0	0	0	0	0	0	0	0	0	0	0	0	0	0	0	0	0	0	0	0	0	0	0	0	0	0	0	0	0	0	0	0	0	0	0	0	0	0	0	0	0	0	0	0	0	0	0	0	0	0	0	0	0	0	0	0	0	0	0	0	0	0	0	0	0	0	0	0	0	0	0	0	0	0	0	0	0	0	0	0	0	0	0	0	0	0	0	0	0	0	0	0	0	0	0	0	0	0	0	0	0	0	0	0	0	0	0	0	0	0	0	0	0	0	0	0	0	0	0	0	0	0	0	0	0	0	0	0	0	0	0	0	0	0	0	0	0	0	0	0	0	0	0	0	0	0	0	0	0	0	0	0	0	0	0	0	0	0	0	0	0	0	0	0	0	0	0	0	0	0	0	0	0	0	0	0	0	0	0	0	0	0	0	0	0	0	0	0	0	0	0	0	0	0	0	0	0	0	0	0	0	0	0	0	0	0	0	0	0	0	0	0	0	0	0	0	0	0	0	0	0	0	0	0	0	0	0	0	0	0	0	0	0	0	0	0	0	0	0	0	0	0	0	0	0	0	0	0	0	0	0	0	0
0	0	0	0	0	0	0	0	0	0	0	0	0	0	0	0	0	0	0	0	0	0	0	0	0	0	0	0	0	0	0	0	0	0	0	0	0	0	0	0	0	0	0	0	0	0	0	0	0	0	0	0	0	0	0	0	0	0	0	0	0	0	0	0	0	0	0	0	0	0	0	0	0	0	0	0	0	0	0	0	0	0	0	0	0	0	0	0	0	0	0	0	0	0	0	0	0	0	0	0	0	0	0	0	0	0	0	0	0	0	0	0	0	0	0	0	0	0	0	0	0	0	0	0	0	0	0	0	0	0	0	0	0	0	0	0	0	0	0	0	0	0	0	0	0	0	0	0	0	0	0	0	0	0	0	0	0	0	0	0	0	0	0	0	0	0	0	0	0	0	0	0	0	0	0	0	0	0	0	0	0	0	0	0	0	0	0	0	0	0	0	0	0	0	0	0	0	0	0	0	0	0	0	0	0	0	0	0	0	0	0	0	0	0	0	0	0	0	0	0	0	0	0	0	0	0	0	0	0	0	0	0	0	0	0	0	0	0	0	0	0	0	0	0	0	0	0	0	0	0	0	0	0	0	0	0	0	0	0	0	0	0	0	0	0	0	0	0	0	0	0	0	0	0	0	0	0	0	0	0	0	0	0	0	0	0	0	0	0	0	0	0	0	0	0	0	0	0	0	0	0	0	0	0	0	0	0	0	0	0	0	0	0	0	0	0	0	0	0	0	0	0	0	0	0	0	0	0	0	0	0	0	0	0	0	0	0	0	0	0	0	0	0	0	0	0	0	0	0	0	0	0	0	0	0	0	0	0	0	0	0	0	0	0	0	0	0	0	0	0	0	0	0	0	0	0	0	0	0	0	0	0	0	0	0	0	0	0	0	0	0	0	0	0	0	0	0	0	0	0	0	0	0	0	0	0	0	0	0	0	0	0	0	0	0	0	0	0	0	0	0	0	0	0	0	0	0	0	0	0	0	0	0	0	0	0	0	0	0	0	0	0	0	0	0	0	0	0	0	0	0	0	0	0	0	0	0	0	0	0	0	0	0	0	0	0	0	0	0	0	0	0	0	0	0	0	0	0	0	0	0	0	0	0	0	0	0	0	0	0	0	0	0	0	0	0	0	0	0	0	0	0	0	0	0	0	0	0	0	0	0	0	0	0	0	0	0	0	0	0	0	0	0	0	0	0	0	0	0	0	0	0	0	0	0	0	0	0	0	0	0	0	0	0	0	0	0	0	0	0	0	0	0	0	0	0	0	0	0	0	0	0	0	0	0	0	0	0	0	0	0	0	0	0	0	0	0	0	0	0	0	0	0	0	0	0	0	0	0	0	0	0	0	0	0	0	0	0	0	0	0	0	0	0	0	0	0	0	0	0	0	0	0	0	0	0	0	0	0	0	0	0	0	0	0	0	0	0	0	0	0	0	0	0	0	0	0	0	0	0	0	0	0	0	0	0	0	0	0	0	0	0	0	0	0	0	0	0
0	0	0	0	0	0	0	0	0	0	0	0	0	0	0	0	0	0	0	0	0	0	0	0	0	0	0	0	0	0	0	0	0	0	0	0	0	0	0	0	0	0	0	0	0	0	0	0	0	0	0	0	0	0	0	0	0	0	0	0	0	0	0	0	0	0	0	0	0	0	0	0	0	0	0	0	0	0	0	0	0	0	0	0	0	0	0	0	0	0	0	0	0	0	0	0	0	0	0	0	0	0	0	0	0	0	0	0	0	0	0	0	0	0	0	0	0	0	0	0	0	0	0	0	0	0	0	0	0	0	0	0	0	0	0	0	0	0	0	0	0	0	0	0	0	0	0	0	0	0	0	0	0	0	0	0	0	0	0	0	0	0	0	0	0	0	0	0	0	0	0	0	0	0	0	0	0	0	0	0	0	0	0	0	0	0	0	0	0	0	0	0	0	0	0	0	0	0	0	0	0	0	0	0	0	0	0	0	0	0	0	0	0	0	0	0	0	0	0	0	0	0	0	0	0	0	0	0	0	0	0	0	0	0	0	0	0	0	0	0	0	0	0	0	0	0	0	0	0	0	0	0	0	0	0	0	0	0	0	0	0	0	0	0	0	0	0	0	0	0	0	0	0	0	0	0	0	0	0	0	0	0	0	0	0	0	0	0	0	0	0	0	0	0	0	0	0	0	0	0	0	0	0	0	0	0	0	0	0	0	0	0	0	0	0	0	0	0	0	0	0	0	0	0	0	0	0	0	0	0	0	0	0	0	0	0	0	0	0	0	0	0	0	0	0	0	0	0	0	0	0	0	0	0	0	0	0	0	0	0	0	0	0	0	0	0	0	0	0	0	0	0	0	0	0	0	0	0	0	0	0	0	0	0	0	0	0	0	0	0	0	0	0	0	0	0	0	0	0	0	0	0	0	0	0	0	0	0	0	0	0	0	0	0	0	0	0	0	0	0	0	0	0	0	0	0	0	0	0	0	0	0	0	0	0	0	0	0	0	0	0	0	0	0	0	0	0	0	0	0	0	0	0	0	0	0	0	0	0	0	0	0	0	0	0	0	0	0	0	0	0	0	0	0	0	0	0	0	0	0	0	0	0	0	0	0	0	0	0	0	0	0	0	0	0	0	0	0	0	0	0	0	0	0	0	0	0	0	0	0	0	0	0	0	0	0	0	0	0	0	0	0	0	0	0	0	0	0	0	0	0	0	0	0	0	0	0	0	0	0	0	0	0	0	5628	5628	5644	5661	5726	5810	0	5915	6005	6154	6312	6414	0	6674	6812	0	0	7371	0	0	8063	8231	8336	8371	8407	8407	8407	8407	8407	8371	8371	8371	8371	8336	8371	8371	8371	8371	8371	8371	8371	8371	8407	8407	8407	8407	8407	8407	8407	8407	8407	8407	8407	8407	8371	8407	8407	8407	0	0	0	0	0	0	0	0	0	0	0	0	0	0	0	0	0	0	0	0	0	3612	3612	3605	3598	3598	3598	3605	3618	3625	3625	3638	3645	3652	3665	3672	3686	3693	3693	3693	3700	3706	3713	3720	3734	3742	3756	3770	3785	3792	3806	3799	3806	3806	3799	3792
0	0	0	0	0	0	0	0	0	0	0	0	0	0	0	0	0	0	0	0	0	0	0	0	0	0	0	0	0	0	0	0	0	0	0	0	0	0	0	0	0	0	0	0	0	0	0	0	0	0	0	0	0	0	0	0	0	0	0	0	0	0	0	0	0	0	0	0	0	0	0	0	0	0	0	0	0	0	0	0	0	0	0	0	0	0	0	0	0	0	0	0	0	0	0	0	0	0	0	0	0	0	0	0	0	0	0	0	0	0	0	0	0	0	0	0	0	0	0	0	0	0	0	0	0	0	0	0	0	0	0	0	0	0	0	0	0	0	0	0	0	0	0	0	0	0	0	0	0	0	0	0	0	0	0	0	0	0	0	0	0	0	0	0	0	0	0	0	0	0	0	0	0	0	0	0	0	0	0	0	0	0	0	0	0	0	0	0	0	0	0	0	0	0	0	0	0	0	0	0	0	0	0	0	0	0	0	0	0	0	0	0	0	0	0	0	0	0	0	0	0	0	0	0	0	0	0	0	0	0	0	0	0	0	0	0	0	0	0	0	0	0	0	0	0	0	0	0	0	0	0	0	0	0	0	0	0	0	0	0	0	0	0	0	0	0	0	0	0	0	0	0	0	0	0	0	0	0	0	0	0	0	0	0	0	0	0	0	0	0	0	0	0	0	0	0	0	0	0	0	0	0	0	0	0	0	0	0	0	0	0	0	0	0	0	0	0	0	0	0	0	0	0	0	0	0	0	0	0	0	0	0	0	0	0	0	0	0	0	0	0	0	0	0	0	0	0	0	0	0	0	0	0	0	0	0	0	0	0	0	0	0	0	0	0	0	0	0	0	0	0	0	0	0	0	0	0	0	0	0	0	0	0	0	0	0	4939	4939	4939	4939	4914	4902	4902	4890	4890	4878	4866	4866	4854	4854	4842	4842	4830	4830	4842	4842	4854	4866	4878	4890	4902	4914	4927	4939	4939	4939	4951	4951	4951	4951	4964	4964	4964	4976	4976	4989	4976	4976	4976	4976	4989	4976	4964	4951	4951	4939	4939	4914	4878	4878	4866	4878	4878	4890	4890	4914	4939	4951	4951	4976	4976	5001	5014	5040	5066	5066	5079	5105	5118	5131	5158	5185	5199	5226	5240	5268	5311	5339	5354	5368	5383	5383	5398	5398	5412	5442	5457	0	5518	5581	5644	5710	5793	5862	5933	6005	6060	6135	6154	6154	6135	6097	6079	6023	6005	5987	5968	5950	5933	5950	5950	5968	5968	5968	5968	5968	5987	5987	6005	6005	6005	6023	6005	6023	6041	6079	6116	6154	6174	6174	6174	6193	6212	6154	6097	6023	5950	5880	5810	5760	5677	5628	5596	5581	5581	5581	5581	5596	5596	5612	5596	5596	5596	5612	5596	5612	5628	5644	5710	5776	0	5880	5987	6135	6292	6393	6520	6652	6789	0	0	0	0	0	7998	8197	8336	8407	8443	8443	8443	8407	8407	8407	8371	8371	8371	8336	8336	8336	8336	8301	8301	8301	8336	8336	8336	8371	8371	8371	8371	8407	8407	8407	8371	8371	8407	8407	8407	8407	8407	8443	8443	8479	8515	8552	8552	0	0	0	0	0	0	0	0	0	0	0	0	0	0	3625	3625	3618	3618	3598	3592	3592	3592	3598	3605	3612	3618	3632	3638	3645	3652	3665	3672	3679	3686	3686	3693	3700	3706	3713	3720	3727	3742	3756	3763	3777	3785	3792	3785	3792	3785	3777
0	0	0	0	0	0	0	0	0	0	0	0	0	0	0	0	0	0	0	0	0	0	0	0	0	0	0	0	0	0	0	0	0	0	0	0	0	0	0	0	0	0	0	0	0	0	0	0	0	0	0	0	0	0	0	0	0	0	0	0	0	0	0	0	0	0	0	0	0	0	0	0	0	0	0	0	0	0	0	0	0	0	0	0	0	0	0	0	0	0	0	0	0	0	0	0	0	0	0	0	0	0	0	0	0	0	0	0	0	0	0	0	0	0	0	0	0	0	0	0	0	0	0	0	0	0	0	0	0	0	0	0	0	0	0	0	0	0	0	0	0	0	0	0	0	0	0	0	0	0	0	0	0	0	0	0	0	0	0	0	0	0	0	0	0	0	0	0	0	0	0	0	0	0	0	0	0	0	0	0	0	0	0	0	0	0	0	0	0	0	0	0	0	0	0	0	0	0	0	0	0	0	0	0	0	0	0	0	0	0	0	0	0	0	0	0	0	0	0	0	0	0	0	0	0	0	0	0	0	3460	3466	3472	3478	3484	3497	3503	3515	3521	3534	3547	3566	3585	3605	3618	3632	3652	3665	3679	3693	3700	3713	3727	3734	3749	3756	3770	3777	3785	3785	3785	3785	3785	3777	3763	3756	3749	3749	3742	3734	3734	3734	3734	3734	3742	3742	3742	3749	3763	3770	3785	3799	3814	3829	3843	3851	3866	3874	3881	3889	3889	3889	3897	3897	3904	3904	3912	3912	3920	3920	3928	3920	3920	3912	3904	3897	3889	3881	3874	3866	3858	3851	3843	3843	3836	3851	3874	3889	3920	3943	3959	3975	3983	3991	3999	3991	3991	3983	3975	3983	3983	3983	3991	4007	4015	4032	4065	4090	4116	4142	4168	4194	4221	4239	4258	4258	4267	4276	4285	4304	4332	4361	4380	4420	4449	0	4480	4500	4510	4531	4541	4541	4552	4541	4541	4531	4521	4521	4510	4490	4480	4480	4480	4480	4480	4490	4510	4541	4605	4670	4738	0	4795	4842	4878	4902	4914	4927	4939	4939	4927	4914	4902	4890	4890	4878	4878	4866	4854	4854	4842	4842	4842	4830	4830	4830	4830	4842	4854	4866	4878	4890	4902	4914	4927	4927	4939	4939	4951	4951	4951	4939	4951	4951	4951	4964	4964	4951	4939	4927	4927	4939	4927	4927	4914	4902	4890	4890	4878	4854	4842	4842	4854	4854	4854	4866	4878	4902	4902	4914	4927	4939	4939	4951	4976	5001	5014	5027	5053	5079	5105	5145	5172	5199	5213	5240	5268	5311	5339	0	5368	5383	5398	5398	5398	5412	5442	5472	0	5503	5565	5628	5693	5760	5828	5915	5968	6041	6097	6116	6116	6116	6079	6041	6023	5987	5987	5968	5950	5933	5950	5968	5987	6005	5987	6005	6005	5987	5987	6005	6005	6023	6023	6023	6023	6041	6079	6135	6154	6174	6174	6193	6193	6193	6154	6097	6005	5933	5862	5810	5743	5693	5628	5596	5581	5565	5581	5581	5596	5596	5596	5596	5596	5612	5612	5612	5612	5628	5661	5710	5793	0	5880	5968	6116	6272	6393	6499	6607	6766	6981	0	7210	0	7657	7902	8097	8301	8371	8443	8443	8443	8443	8407	8371	8371	8336	8336	8301	8301	8336	8336	8301	8301	8301	8301	8336	8371	8371	8371	8371	8371	8407	8407	8407	8371	8407	8407	8407	8407	8443	8443	8443	8479	8515	8552	8552	8589	8589	0	0	0	0	0	0	0	0	0	0	0	0	0	3625	3618	3618	3612	3598	3592	3592	3598	3598	3605	3612	3618	3625	3632	3645	3652	3658	3665	3679	3686	3686	3693	3693	3700	3706	3713	3720	3727	3742	3749	3756	3763	3770	3770	3770	3763	3763
0	0	0	0	0	0	0	0	0	0	0	0	0	0	0	0	0	0	0	0	0	0	0	0	0	0	0	0	0	0	0	0	0	0	0	0	0	0	0	0	0	0	0	0	0	0	0	0	0	0	0	0	0	0	0	0	0	0	0	0	0	0	0	0	0	0	0	0	0	0	0	2826	2834	2847	2855	2863	2867	2876	2880	2884	2892	2901	2905	2914	2918	2931	2940	2953	2962	2962	2962	2962	2962	2962	2962	2962	2957	2953	2953	2949	2949	2949	2949	2957	2966	2975	2980	2989	2998	3002	3012	3012	3012	3012	3012	3012	3012	3012	3012	3007	3007	3007	3007	3002	3007	3007	3007	3012	3021	3039	3053	3072	3092	3106	3121	3136	3146	3156	3156	3156	3161	3161	3156	3156	3151	3146	3146	3151	3151	3151	3151	3151	3156	3156	3156	3161	3161	3166	3171	3176	3186	3192	0	3202	3207	3223	3239	3255	3265	3282	3298	3309	3315	3320	3320	3320	3320	3320	3320	3320	3320	3320	3315	3315	3315	3315	3315	0	0	0	0	0	0	0	0	0	0	0	0	0	0	0	0	0	0	0	3412	3424	3442	3454	3472	3490	3503	3515	3528	3528	3528	3521	3509	3503	3497	3484	3478	3472	3460	3448	3442	3442	3442	3448	3460	3466	3472	3478	3490	3503	3515	3521	3534	3547	0	0	0	0	3632	3645	3658	3672	3686	3693	3706	3713	3727	3742	3749	3756	3763	3770	3770	3777	3770	3770	3763	3756	3749	3749	3742	3734	3734	3734	3734	3734	3734	3734	3742	3742	3749	3763	3770	3785	3799	3814	3829	3843	3858	3866	3874	3881	3889	3889	3889	3897	3897	3904	3912	3912	3920	3920	3920	3928	3920	3920	3912	3912	3897	3889	3881	3874	3858	3858	3851	3851	3843	3851	3858	3881	3904	3928	3959	3975	3991	3999	4007	4015	4015	4007	3999	3999	3999	4007	4007	4015	4024	4032	4057	4073	4107	4133	4150	4177	4203	4221	4239	4248	4258	4258	4267	4276	4295	4323	4351	4380	4410	4439	4470	0	4500	4510	4531	4531	4541	4541	4541	4531	4531	4510	4500	4490	4480	4470	4470	4470	4470	4480	4480	4510	4541	4605	4659	4726	0	4795	4842	4878	4902	4927	4927	4939	4939	4927	4914	4902	4890	4890	4878	4878	4866	4854	4854	4842	4842	4830	4830	4830	4818	4830	4842	4854	4854	4866	4878	4902	4914	4927	4927	4927	4939	4939	4939	4939	4939	4939	4939	4939	4951	4939	4939	4914	4914	4914	4914	4914	4902	4890	4878	4890	4878	4866	4854	4842	4842	4842	4842	4854	4866	4878	4890	4902	4902	4914	4927	4927	4939	4964	4989	5001	5014	5040	5066	5092	5131	5172	5199	5226	5254	5282	0	5325	5354	0	0	5398	5412	5412	5427	5442	5472	0	5518	5581	5628	5677	5760	5810	5897	5950	6005	6060	6079	6097	6079	6060	6041	6005	5987	5987	5968	5968	5968	5968	6005	6005	6023	6041	6041	6023	6041	6023	6023	6041	6023	6023	6023	6023	6041	6079	6135	6174	6174	6193	6193	6193	6174	6135	6079	6005	5933	5862	5810	5760	5693	5644	5612	5596	5596	5596	5596	5596	5596	5596	5596	5596	5596	5596	5596	5612	5644	5661	5710	5776	0	5880	5968	6116	6272	6373	6477	6607	6720	6932	7132	0	7371	7569	7808	8031	8231	8336	8407	8443	8443	8407	8407	8371	8336	8336	8301	8266	8266	8301	8301	8301	8266	8301	8301	8301	8336	8336	8336	8371	8371	8371	8371	8371	8371	8407	8407	8407	8407	8443	8443	8443	8479	8515	8552	8552	8589	8589	8627	0	0	0	0	0	0	0	0	0	0	0	3632	3625	3618	3618	3612	3598	3585	3592	3592	3598	3598	3605	3612	3618	3625	3638	3645	3652	3665	3672	3679	3686	3686	3693	3700	3706	3713	3713	3720	3727	3734	3742	3749	3749	3749	3749	3749	3749
0	0	0	0	0	0	0	0	0	0	0	0	0	0	2775	2771	2759	2751	2740	2721	2703	2699	2706	2736	2775	0	0	0	2871	2905	2949	2949	2949	2944	2931	2905	2888	2871	2851	2834	2814	2798	2786	2775	2767	2755	2755	2755	2759	2763	2767	2771	2771	2775	2779	2782	2786	2786	2786	2790	2790	2790	2790	2790	2794	2794	2794	2798	2802	2810	2818	2826	2834	2843	2851	2859	2867	2876	2880	2884	2888	2897	2901	2905	2914	2922	2935	2944	2953	2953	2953	2957	2957	2957	2953	2949	2949	2944	2944	2940	2940	2944	2949	2957	2966	2975	2989	2998	3007	3012	3016	3021	3021	3016	3016	3016	3016	3016	3016	3016	3016	3016	3012	3012	3012	3021	3021	3025	3035	3053	3068	3092	3106	3116	3126	3141	3156	3161	3166	3166	3166	3166	3166	3161	3161	3156	3156	3161	3161	3156	3161	3161	3161	3161	3161	3161	3161	3161	3171	3176	3181	3186	3197	0	3207	3223	3233	3249	3260	3276	3287	3304	3309	3315	3315	3315	3315	3315	3315	3315	3315	3315	3315	3315	3315	3309	3315	0	0	0	0	0	0	0	0	0	0	0	0	0	0	0	0	0	0	3389	3406	3418	3436	3448	3466	3484	3497	3509	3521	3521	3521	3515	3509	3497	3484	3478	3466	3460	3454	3442	3442	3442	3442	3448	3454	3460	3466	3478	3490	3503	3509	3528	3540	3547	3566	3579	3598	3612	3625	3645	3652	3665	3679	3686	3700	3706	3720	3727	3742	3749	3756	3763	3763	3770	3770	3763	3763	3756	3749	3749	3742	3734	3734	3734	3734	3734	3742	3742	3742	3749	3756	3770	3777	3792	3806	3821	3836	3851	3866	3874	3881	3889	3897	3897	3897	3904	3904	3912	3920	3920	3928	3928	3928	3928	3928	3928	3928	3920	3904	3904	3897	3889	3881	3874	3866	3858	3866	3866	3874	3889	3912	3943	3967	3983	3999	4015	4032	4032	4032	4032	4032	4032	4032	4032	4040	4048	4048	4057	4082	4099	4116	4142	4168	4185	4203	4221	4239	4248	4248	4248	4258	4276	4285	4313	4342	4371	4410	4439	4470	0	4500	4521	4531	4541	4541	4541	4541	4531	4531	4510	4510	4490	4480	4470	4470	4470	4470	4480	4490	4510	4552	4605	4670	4726	0	4795	4830	4866	4902	4927	4927	4939	4939	4927	4914	4902	4890	4890	4878	4878	4866	4854	4842	4842	4842	4830	4830	4818	4818	4830	4842	4842	4854	4866	4878	4890	4902	4914	4914	4927	4927	4927	4927	4939	4939	4939	4939	4951	4951	4951	4951	4939	4939	4939	4951	4951	4939	4939	4939	4927	4939	4902	4890	4878	4878	4866	4866	4854	4866	4890	4890	4902	4902	4914	4927	4927	4939	4964	4989	5001	5014	5040	5066	5105	5131	5172	5199	5240	5268	5296	0	5325	5368	5383	5398	5398	5412	5412	5427	5442	5472	0	5518	5581	5628	5677	5726	5810	5862	5933	5987	6041	6060	6060	6060	6041	6023	6005	5987	5987	5968	5968	5968	5987	6005	6041	6060	6060	6060	6060	6060	6041	6060	6060	6060	6041	6023	6023	6041	6097	6135	6174	6174	6174	6174	6193	6174	6135	6079	6005	5915	5862	5810	5743	5693	5644	5612	5596	5596	5596	5596	5596	5596	5596	5596	5581	5596	5581	5596	5612	5628	5661	5710	5776	0	5862	5968	6116	6272	6373	6477	6585	6697	6883	7106	0	7290	0	7717	7934	8163	8301	8371	8407	8407	8407	8371	8371	8336	8301	8266	8266	8266	8231	8266	8266	8266	8266	8266	8301	8336	8336	8336	8336	8371	8371	8371	8371	8371	8407	8407	8407	8443	8443	8443	8479	8515	8515	8552	8589	8627	8627	8627	8665	0	0	0	0	0	0	0	0	0	0	3625	3618	3612	3612	3605	3592	3579	3579	3585	3585	3592	3598	3598	3612	3618	3625	3638	3645	3658	3665	3672	3679	3686	3686	3693	3700	3700	3706	3713	3713	3720	3727	3734	3727	3734	3734	3734	3727
2494	0	0	0	0	0	0	0	0	0	0	0	2786	2779	2779	2775	2771	2759	2751	2736	0	0	0	2771	2806	0	0	0	2888	2918	2957	2957	2953	2944	2935	2905	2888	2867	2843	2830	2810	2798	2782	2771	2763	2755	2751	2755	2759	2759	2763	2763	2771	2775	2775	2779	2782	2782	2782	2786	2786	2786	2790	2790	2790	2794	2794	2806	2810	2818	2822	2830	2838	2847	2855	2863	2867	2876	2880	2884	2888	2897	2901	2905	2914	2922	2927	2935	2944	2949	2944	2949	2949	2953	2949	2944	2944	2940	2940	2940	2940	2949	2953	2962	2971	2984	2993	3007	3016	3021	3030	3030	3030	3030	3030	3025	3025	3025	3025	3025	3025	3025	3021	3021	3021	3025	3025	3030	3044	3063	3077	3101	3116	3126	3136	3151	3166	3171	3176	3176	3176	3181	3176	3176	3171	3171	3171	3171	3176	3171	3171	3166	3166	3166	3166	3166	3166	3171	3171	3176	3181	3186	3197	0	3207	3218	3233	3249	3260	3276	3287	3298	3309	3309	3315	3315	3315	3315	3315	3315	3315	3315	3315	3315	3315	3315	3309	0	0	0	0	0	0	0	0	0	0	0	0	0	0	0	0	0	0	3383	3394	3412	3430	3442	3460	3472	3490	3509	3515	3521	3515	3509	3503	3497	3484	3478	3472	3466	3454	3448	3448	3448	3448	3454	3460	3466	3472	3478	3490	3503	3509	3528	3534	3547	3566	3579	3598	3612	3625	3638	3652	3658	3679	3686	3693	3700	3713	3720	3727	3734	3749	3749	3756	3756	3756	3756	3749	3749	3749	3742	3742	3734	3734	3734	3734	3742	3742	3742	3749	3749	3756	3770	3785	3799	3806	3829	3843	3858	3874	3881	3889	3897	3897	3897	3904	3904	3912	3912	3920	3928	3928	3928	3935	3935	3935	3935	3928	3920	3912	3912	3904	3897	3889	3881	3881	3874	3881	3874	3889	3897	3920	3951	3975	3999	4015	4032	4048	4057	4057	4057	4057	4057	4057	4065	4065	4073	4073	4082	4099	4116	4133	4159	4168	4185	4203	4221	4230	4239	4239	4239	4248	4267	4285	4304	4342	4371	4410	4449	0	4480	4500	4521	4531	4541	4552	4552	4552	4541	4531	4521	4510	4500	4480	4480	4470	4470	4470	4480	4500	4521	4552	4605	4670	4726	0	4795	4830	4866	4902	4914	4927	4927	4927	4927	4914	4902	4890	4890	4878	4878	4866	4854	4842	4842	4830	4830	4830	4818	4818	4830	4830	4842	4854	4866	4878	4890	4902	4902	4914	4914	4914	4927	4927	4927	4939	4939	4939	4951	4964	4964	4976	4976	4976	4976	4989	5001	4989	5001	4989	5001	4989	4964	4951	4914	4902	4890	4890	4878	4866	4890	4890	4902	4902	4914	4927	4927	4939	4964	5001	5014	5027	5053	5079	5118	5145	5185	5213	5240	5268	5296	0	5339	5368	5383	5398	5398	5412	5427	5427	5442	0	5472	5518	5565	5612	5661	5726	5776	5845	5915	5968	6005	6041	6041	6041	6023	6005	5987	5968	5968	5968	5968	5987	6005	6023	6041	6060	6079	6079	6079	6079	6060	6060	6060	6060	6041	6041	6041	6041	6097	6135	6174	6174	6174	6174	6174	6154	6116	6060	5987	5915	5862	5810	5743	5693	5644	5612	5612	5596	5596	5581	5581	5581	5565	5565	5565	5565	5565	5565	5565	5596	5628	5677	5760	5828	0	5950	6097	6232	6352	6435	6542	6652	6836	7030	0	7210	7427	7628	7871	8097	8266	8371	8407	8407	8407	8371	8336	8301	8266	8231	8231	8197	8197	8231	8231	8231	8231	8231	8266	8301	8301	8301	8336	8336	8371	8371	8371	8371	8407	8407	8443	8443	8443	8479	8479	8552	8589	8589	8627	8665	8665	8627	8627	8627	0	0	0	0	0	0	0	0	3645	3625	3612	3612	3605	3598	3585	3579	3579	3579	3579	3585	3585	3592	3605	3612	3618	3625	3638	3652	3658	3665	3672	3679	3686	3686	3686	3693	3693	3693	3700	3706	3706	3713	3713	3713	3713	3713	3713
2501	2498	0	0	0	0	0	0	0	0	0	0	2782	2779	2779	2775	2771	2763	2759	2755	2744	2751	2775	2798	2830	0	0	0	2905	2931	2962	2957	2953	2949	2935	2905	2884	2859	2843	2822	2806	2790	2779	2767	2751	2751	2751	2755	2759	2759	2763	2771	2771	2775	2779	2782	2786	2786	2786	2786	2790	2790	2790	2794	2794	2798	2802	2806	2810	2818	2826	2834	2843	2847	2855	2863	2867	2876	2880	2884	2888	2892	2897	2901	2909	2918	2922	2931	2935	2935	2940	2940	2940	2940	2940	2935	2935	2931	2931	2931	2935	2944	2949	2962	2975	2984	3002	3012	3021	3030	3035	3039	3039	3035	3035	3035	3035	3030	3035	3035	3030	3030	3025	3025	3025	3030	3035	3035	3049	3068	3087	3106	3121	3136	3146	3161	3171	3181	3181	3186	3186	3186	3186	3186	3181	3181	3181	3181	3181	3176	3176	3171	3171	3171	3166	3166	3166	3166	3176	3176	3181	3186	3192	3202	3207	3218	3233	3244	3260	3271	3282	3293	3304	3309	3309	3315	3315	3315	3315	3315	3315	3315	3315	3315	3315	3315	3315	3315	3315	0	0	0	0	0	0	0	0	0	0	0	0	0	0	3360	3365	3377	3394	3412	3424	3436	3454	3472	3478	3490	3503	3509	3509	3503	3503	3497	3484	3478	3472	3466	3460	3454	3454	3454	3454	3454	3460	3466	3472	3484	3490	3503	3515	3521	3534	3553	3566	3585	3598	3612	3618	3632	3645	3652	3672	3679	3686	3693	3700	3713	3720	3727	3734	3734	3742	3749	3749	3749	3749	3742	3742	3742	3734	3734	3734	3734	3742	3742	3742	3742	3749	3756	3756	3770	3785	3799	3814	3829	3851	3858	3874	3881	3889	3897	3897	3904	3904	3912	3912	3920	3920	3928	3928	3928	3935	3935	3935	3935	3935	3928	3920	3920	3912	3912	3904	3897	3897	3889	3897	3897	3904	3912	3935	3959	3991	4015	4032	4048	4065	4073	4082	4082	4082	4082	4090	4090	4090	4099	4099	4107	4116	4133	4150	4168	4177	4194	4212	4212	4230	4230	4230	4239	4248	4258	4276	4304	4332	4371	4410	4439	4470	0	4510	4531	4541	4552	4552	4552	4552	4541	4531	4521	4510	4500	4490	4480	4470	4480	4470	4480	4500	4521	4552	4605	4670	4738	0	4783	4830	4866	4890	4914	4914	4927	4927	4927	4914	4902	4902	4890	4878	4878	4866	4854	4842	4830	4830	4818	4818	4818	4818	4818	4830	4842	4842	4854	4866	4878	4890	4890	4902	4902	4902	4914	4914	4927	4927	4939	4939	4951	4976	4976	5001	5001	5001	5001	5014	5027	5027	5027	5027	5027	5014	4989	4976	4964	4914	4902	4890	4866	4854	4854	4854	4854	4878	4878	4878	4878	4902	4927	4964	4976	5001	5027	5066	5118	5158	5185	5226	5254	5282	0	5311	5354	5383	5383	5398	5398	5398	5412	5412	5427	5457	0	5503	5534	5581	5644	5693	5760	5828	5880	5933	5987	6005	6023	6005	5987	5968	5968	5968	5968	5968	5968	5987	6023	6041	6060	6079	6097	6097	6079	6097	6079	6079	6097	6097	6097	6060	6060	6079	6116	6154	6174	6174	6174	6174	6154	6154	6097	6060	5987	5915	5862	5810	5743	5693	5661	5628	5612	5596	5596	5581	5565	5549	5549	5549	5534	5534	5534	5534	5534	5565	5596	5644	5693	5776	0	5897	6023	6193	6292	6393	6499	6629	6789	7005	0	7184	7344	7569	7808	8063	8266	8336	8371	8407	8371	8371	8336	8266	8231	8197	8163	8163	8163	8163	8197	8197	8197	8197	8231	8231	8266	8266	8301	8301	8336	8336	8336	8371	8371	8407	8407	8443	8479	8515	8552	8589	8627	8665	8665	8665	8665	8627	8589	8589	8552	0	0	0	0	0	0	0	3645	3625	3612	3605	3605	3598	3585	3572	3572	3572	3579	3579	3579	3585	3592	3598	3612	3618	3625	3638	3652	3658	3665	3672	3679	3679	3679	3679	3679	3679	3679	3679	3679	3686	3679	3679	3679	3686	3686
2504	2510	0	0	0	0	0	0	0	0	0	2779	2775	2775	2775	2771	2767	2763	2759	2751	2748	2759	2782	2806	2834	0	0	2884	2909	2927	2957	2953	2949	2944	2931	2897	2876	2851	2834	2814	2798	2782	2775	2763	2751	2751	2751	2751	2755	2759	2763	2767	2771	2775	2775	2775	2779	2779	2782	2782	2786	2786	2786	2790	2794	2794	2798	2806	2810	2818	2826	2834	2843	2847	2855	2863	2867	2871	2876	2880	2888	2892	2897	2897	2905	2909	2918	2922	2927	2927	2927	2927	2927	2927	2922	2922	2922	2922	2922	2927	2931	2940	2949	2962	2975	2989	3002	3016	3025	3030	3039	3044	3044	3044	3044	3039	3039	3039	3035	3035	3035	3035	3030	3030	3030	3035	3035	3039	3053	3072	3087	3106	3126	3136	3151	3161	3176	3186	3186	3192	3197	3197	3197	3192	3192	3186	3186	3186	3186	3181	3176	3171	3171	3171	3171	3166	3166	3166	3171	3176	3181	3186	3192	0	3207	3218	3233	3244	3260	3271	3282	3293	3304	3304	3309	3309	3309	3309	3315	3309	3315	3315	3315	3309	3315	3315	3315	3315	3315	3315	0	0	0	0	0	0	0	0	0	0	0	0	0	3354	3360	3371	3389	3400	3400	3418	3436	3448	3466	3478	3490	3497	3503	3497	3497	3490	3478	3472	3472	3460	3454	3454	3448	3454	3454	3454	3460	3466	3478	3484	3490	3497	3509	3515	3534	3547	3553	3566	3579	3598	3612	3618	3632	3645	3658	3665	3672	3679	3686	3693	3700	3706	3713	3720	3720	3727	3734	3734	3734	3734	3734	3734	3734	3734	3734	3742	3742	3749	3749	3749	3756	3763	3763	3777	3792	3806	3821	3836	3858	3866	3881	3897	3897	3904	3912	3912	3912	3920	3920	3920	3928	3928	3935	3935	3935	3935	3943	3943	3943	3943	3935	3928	3928	3928	3920	3928	3920	3920	3920	3928	3943	3959	3975	4007	4032	4057	4065	4090	4107	4116	4124	4124	4133	4133	4133	4133	4133	4142	4142	4150	4159	4168	4177	4185	4194	4203	4203	4212	4221	4221	4221	4221	4230	4248	4276	4304	4332	4371	4400	4439	0	4470	4490	4521	4531	4552	4562	4552	4552	4541	4531	4521	4510	4510	4500	4490	4490	4490	4490	4490	4510	4531	4573	4616	4681	4726	4772	0	4807	4854	4878	4902	4914	4914	4914	4914	4914	4902	4890	4890	4878	4866	4866	4854	4842	4830	4830	4818	4807	4807	4807	4807	4818	4830	4842	4854	4866	4878	4890	4890	4890	4890	4902	4902	4914	4914	4927	4927	4951	4964	4989	5001	5014	5027	5027	5027	5040	5040	5040	5040	5040	5040	5040	5014	5001	4976	4927	4902	4878	4854	4830	4830	4818	4807	4818	4830	4818	4842	4866	4890	4927	4951	4989	5040	5079	5118	5158	5199	5240	0	5268	5296	5325	5368	5383	5398	5398	5398	5398	5412	5412	5412	5442	0	5488	5518	5581	5628	5677	5743	5810	5862	5915	5950	5968	5987	5968	5968	5968	5950	5950	5950	5968	5968	5987	6023	6060	6060	6060	6079	6097	6097	6097	6097	6097	6097	6116	0	0	0	0	0	0	6174	6174	6174	6174	6154	6154	6097	6041	5987	5915	5862	5793	5743	5693	5661	5628	5612	5581	5581	5581	5549	5549	5534	5518	5518	5503	5503	5503	5503	5549	5581	5612	5677	5743	5845	0	5968	6116	6232	6332	6435	6563	6742	6932	7106	0	7317	7483	7747	7998	8231	8336	8371	8407	8371	8336	8301	8266	8231	8197	8163	8130	8130	8130	8130	8163	8163	8163	8197	8197	8231	8266	8266	8266	8301	8336	8336	8336	8371	8407	8443	8443	8515	8552	8589	8589	8665	8665	8703	8703	8703	8627	8589	8552	8515	0	0	0	0	0	0	0	3632	3618	3605	3598	3598	3592	3579	3572	3566	3566	3566	3572	3572	3579	3585	3592	3598	3612	3618	3632	3645	3652	3665	3672	3672	3679	3672	3672	3672	3672	3665	3665	3665	3665	3658	3658	3658	3658	3665
2513	2517	0	0	0	0	0	0	0	0	2767	2771	2771	2767	2771	2767	2767	2759	2759	2755	2748	2759	2779	2794	0	2851	0	2876	2897	2922	2949	2944	2944	2935	2905	2884	2867	2843	2822	2806	2790	2779	2767	2755	2744	2744	2744	2744	2751	2751	2755	2759	2763	2767	2771	2771	2775	2775	2775	2775	2779	2782	2786	2786	2790	2798	2802	2806	2814	2818	2830	2838	2843	2851	2855	2863	2867	2871	2876	2876	2880	2884	2888	2892	2897	2901	2905	2909	2914	2914	2914	2914	2914	2914	2909	2905	2909	2909	2909	2918	2927	2935	2949	2966	2980	2998	3016	3025	3039	3044	3053	3058	3058	3058	3058	3058	3053	3053	3049	3049	3049	3044	3039	3039	3039	3044	3049	3053	3072	3087	3106	3131	3146	3156	3171	3186	3197	3207	3207	3212	3218	3218	3218	3212	3212	3207	3202	3202	3197	3192	3186	3181	3176	3171	3171	3171	3166	3171	3176	3176	3181	3186	3192	3197	3207	3218	3228	3244	3255	3265	3276	3287	3298	3298	3304	3304	3304	3309	3309	3309	3309	3309	3315	3315	3315	3315	3315	3315	3315	3315	3315	3315	0	0	0	0	0	0	0	0	0	3331	3337	3348	3348	3354	3371	3377	3394	3406	3424	3436	3454	3466	3478	3484	3490	3490	3484	3484	3478	3472	3466	3460	3454	3454	3454	3454	3454	3460	3466	3472	3478	3490	3497	3503	3515	3528	3534	3547	3560	3572	3579	3592	3605	3612	3625	3632	3645	3652	3658	3665	3672	3679	3686	3686	3693	3693	3700	3706	3706	3713	3713	3720	3720	3727	3734	3734	3742	3749	3749	3756	3756	3763	3763	3770	3777	3792	3806	3814	3829	3851	3866	3874	3889	3904	3904	3912	3912	3920	3920	3920	3920	3928	3928	3928	3935	3935	3935	3943	3943	3951	3951	3959	3951	3951	3951	3951	3959	3951	3959	3959	3967	3983	3991	4015	4040	4057	4082	4099	0	4116	4124	4142	4150	4159	4168	4177	4177	4185	4185	4185	4185	4185	4194	4194	4203	4203	4203	4203	4194	4203	4203	4194	4194	4203	4212	4230	4258	4285	4313	4351	4390	4429	4459	0	4490	4521	4531	4541	4552	4552	4552	4541	4541	4531	4521	4510	4500	4500	4500	4500	4510	4521	4521	4552	4594	4637	4693	4726	4772	0	4818	4842	4878	4890	4902	4914	4902	4914	4902	4902	4890	4878	4866	4866	4854	4854	4842	4830	4818	4818	4807	4807	4795	4807	4807	4818	4830	4842	4854	4866	4878	4890	4890	4890	4890	4890	4902	4914	4927	4939	4964	4989	5001	5027	5040	5053	5053	5066	5079	5079	5066	5066	5066	5066	5066	5040	5040	5014	4989	4939	4914	0	0	0	0	0	0	0	0	0	0	0	0	0	0	5066	5118	5158	5185	5226	0	5268	5296	5311	5339	5383	5398	5398	5412	5412	5412	5412	5412	5427	5442	0	5488	5518	5565	5612	5677	5726	5776	5828	5880	5915	5933	5933	5950	5933	5933	5933	5933	5950	5950	5968	5987	6023	6041	6041	6060	6079	6097	6079	6097	6097	6097	6097	0	0	0	0	6060	6097	6135	6154	6193	6193	6174	6154	6135	6097	6041	5987	5915	5845	5793	5743	5693	5661	5628	5612	5596	5581	5549	5549	5518	5518	5503	5488	5488	5472	5488	5488	5534	5565	5581	5644	5693	5793	0	5915	6041	6135	6232	6352	6435	6607	6789	6956	7184	0	7399	7657	7902	8163	8301	8371	8443	8407	8407	8336	8301	8266	8231	8163	8163	8130	8097	8097	8130	8130	8130	8163	8163	8197	8197	8231	8266	8266	8301	8301	8336	8336	8371	8407	8443	8515	8552	8589	8589	8665	8665	8703	8703	8665	8552	8552	8515	8479	8443	8407	0	0	0	0	0	0	0	3605	3598	3592	3585	3572	3566	3566	3566	3566	3566	3566	3572	3579	3585	3598	3605	3618	3632	3638	3652	3665	3665	3672	3672	3672	3672	3665	3658	3658	3652	3652	3645	3645	3645	3645	3645	3645
2523	2530	2539	0	0	0	0	0	0	2748	2759	2763	2767	2771	2771	2771	2771	2767	2767	2763	2759	2767	2782	2802	2826	2851	0	2871	2897	2918	2940	2940	2940	2931	2892	2876	2855	2830	2814	2798	2782	2771	2759	2740	2736	2736	2732	2736	2740	2744	2748	2755	2759	2763	2767	2771	2771	2771	2771	2775	2775	2779	2782	2786	2790	2798	2802	2810	2814	2822	2830	2838	2847	2851	2859	2863	2867	2871	2876	2876	2880	2884	2884	2888	2892	2897	2897	2901	2901	2905	2901	2901	2897	2892	2892	2892	2892	2897	2901	2909	2922	2935	2949	2966	2984	3002	3016	3035	3044	3053	3058	3063	3068	3068	3068	3068	3063	3063	3058	3058	3053	3049	3044	3044	3044	3049	3053	3068	3082	3101	3121	3146	3161	3176	3186	3197	3202	3212	3218	3223	3223	3228	3228	3223	3218	3218	3212	3207	3202	3192	3186	3186	3181	3176	3176	3171	3171	3171	3176	3181	3186	3192	3197	3202	3207	3223	3228	3244	3255	3265	3276	3287	3293	3298	3298	3304	3304	3304	3304	3304	3309	3309	3309	3315	3315	3315	3315	3320	3320	3320	3320	3320	3320	3315	0	0	0	0	0	3315	3326	3331	3337	3337	3343	3348	3360	3371	3383	3394	3406	3424	3436	3454	3466	3472	3478	3478	3478	3478	3472	3472	3460	3460	3460	3454	3454	3460	3460	3460	3466	3472	3484	3490	3503	3509	3521	3528	3534	3547	3560	3572	3579	3585	3592	3605	3612	3618	3632	3638	3645	3652	3652	3658	3665	3672	3672	3679	3679	3686	3686	3693	3700	3706	3713	3720	3727	3734	3742	3749	3756	3763	3763	3770	3777	3785	3792	3799	3814	3829	3843	3858	3874	3881	3897	3904	3912	3912	3912	3920	3920	3920	3928	3928	3928	3928	3935	3935	3935	3943	3951	3951	3959	3959	3967	3967	3975	3983	3991	3991	3999	4007	4024	4032	4048	0	4065	4082	4107	4124	4133	4142	4159	4177	4185	4194	4203	4212	4212	4221	4230	4221	4221	4221	4221	4230	4230	4221	4212	4203	4194	4185	4177	4168	4159	4159	4168	4185	4221	4258	4285	4332	4371	4410	4449	4470	4480	4500	4521	4531	4541	4552	4541	4541	4541	4531	4521	4521	4521	4521	4531	4531	4541	4552	4562	4584	4616	4659	4704	4738	0	4783	4818	4842	4866	4890	4890	4902	4902	4890	4890	4890	4878	4878	4854	4854	4842	4842	4830	4818	4818	4807	4795	4795	4795	4807	4807	4818	4818	4830	4842	4854	4878	4878	4878	4878	4890	4890	4902	4914	4927	4939	4964	4989	5014	5040	5053	5066	5066	5079	5092	5092	5079	5079	5092	5092	5079	5079	5053	5027	5014	4989	4976	0	0	0	0	0	0	0	0	0	0	0	0	0	5040	5105	5145	5199	0	5226	5254	5296	5325	5339	5368	5398	5412	5412	5427	5427	5412	5412	5412	5427	5442	0	5472	5503	5549	5596	5661	5693	5760	5810	5845	5880	5915	5933	5915	5915	5933	5933	5933	5950	5950	5968	5987	6005	6023	6041	6041	6060	6079	6079	6079	6079	6079	6097	6079	6079	6060	6060	6060	6079	6116	6135	6174	6174	6174	6154	6135	6097	6041	5987	5915	5845	5793	5726	5693	5644	5612	5596	5565	5565	5549	5518	5503	5503	5488	5472	5472	5457	5457	5472	5503	5534	5565	5612	5661	5743	5845	0	5968	6060	6135	6232	6332	6456	6607	6789	7005	0	7210	7483	7778	8063	8231	8336	8443	8443	8407	8371	8301	8301	8231	8197	8163	8130	8130	8097	8097	8097	8097	8130	8130	8163	8163	8197	8197	8231	8266	8266	8301	8336	8336	8371	8407	8479	8515	8552	8589	8627	8665	8665	8665	8627	8552	8515	8515	8479	8443	8443	8443	8407	0	0	0	0	0	3605	3598	3592	3585	3579	3572	3566	3566	3566	3566	3566	3566	3579	3585	3592	3605	3612	3625	3638	3645	3658	3665	3665	3665	3665	3665	3658	3652	3652	3645	3645	3638	3638	3632	3638	3632	3638
2533	2539	2552	0	2572	0	0	2677	2706	2732	2748	2751	2759	2763	2763	2763	2763	2763	2763	2759	2759	2767	2782	2798	2818	2843	0	2863	2884	2905	2922	2922	2922	2897	2880	2859	2838	2818	2802	2786	2771	2759	2732	2729	2725	2725	2725	2729	2732	2740	2744	2751	2755	2759	2763	2763	2767	2767	2767	2767	2771	2775	2779	2786	2790	2798	2806	2814	2818	2830	2838	2843	2851	2855	2863	2867	2871	2876	2876	2876	2876	2880	2884	2884	2884	2888	2888	2888	2892	2888	2888	2884	2884	2880	2880	2880	2884	2888	2897	2905	2918	2935	2953	2971	2989	3002	3021	3039	3049	3058	3063	3072	3072	3072	3077	3072	3077	3072	3072	3063	3063	3058	3053	3053	3053	3053	3058	3068	3087	3106	3126	3146	3166	3181	3197	3202	3212	3218	3223	3228	3233	3233	3233	3228	3228	3223	3218	3212	3207	3197	3192	3186	3181	3181	3176	3176	3171	3176	3181	3186	3192	3192	3197	3207	3212	3223	3233	3244	3255	3265	3276	3282	3287	3293	3298	3298	3298	3304	3304	3304	3309	3315	3315	3320	3320	3326	3326	3326	3326	3326	3326	3326	3320	3320	3315	3315	3315	3309	3309	3315	3326	3326	3331	3337	3343	3348	3360	3365	3377	3383	3400	3412	3424	3436	3454	3460	3466	3472	3478	3472	3472	3466	3466	3460	3454	3454	3460	3460	3460	3466	3472	3478	3484	3490	3503	3509	3515	3528	3534	3547	3560	3566	3572	3579	3585	3592	3605	3612	3618	3625	3632	3632	3638	3645	3645	3645	3652	3658	3665	3665	3672	3679	3686	3693	3706	3713	3720	3734	3749	3749	3763	3770	3777	3785	3792	3799	3799	3814	3821	3836	3851	3866	3874	3889	3904	3904	3912	3912	3920	3920	3920	3920	3920	3920	3928	3928	3928	3935	3935	3943	3943	3951	3959	3967	3975	3983	3999	4007	4015	4024	4032	4040	4057	4073	4082	4099	4107	4124	4142	4150	4168	4168	4185	4203	4212	4221	4230	4239	4248	4258	4267	4267	4258	4258	4248	4248	4239	4230	4212	4194	4177	4159	4142	4124	4107	4107	4099	4116	4150	4185	4212	4185	4239	4295	4361	4420	4470	0	4500	4510	4521	4531	4531	4531	4531	4531	4531	4531	4531	4531	4552	4552	4562	4573	4594	4627	4648	4681	4726	4760	0	4783	4818	4842	4866	4878	4890	4890	4890	4890	4878	4878	4878	4866	4854	4830	4830	4830	4818	4807	4807	4795	4795	4795	4795	4795	4807	4807	4818	4818	4830	4854	4866	4866	4866	4878	4878	4890	4902	4914	4927	4939	4964	4989	5014	5040	5066	5079	5092	5092	5105	5105	5118	5118	5118	5105	5118	5092	5079	5066	5040	5014	4989	0	0	0	0	0	0	0	0	0	0	0	0	0	5066	5131	0	5185	5226	5254	5282	5325	5354	5368	5398	5412	5412	5427	5442	5427	5427	5427	5412	5427	5442	0	5472	5503	5534	5581	5644	5677	5743	5793	5828	5862	5880	5897	5897	5897	5915	5915	5933	5933	5950	5968	5987	5987	6005	6005	6023	6041	6041	6060	6060	6041	6041	6041	6060	6060	6023	6023	6041	6060	6079	6116	6135	6154	6154	6154	6135	6097	6041	5987	5915	5845	5793	5726	5677	5644	5612	5581	5549	5549	5518	5503	5488	5472	5472	5457	5457	5442	5442	5457	5488	5518	5534	5581	5628	5693	5793	0	5897	5987	6060	6116	6212	6352	6456	6629	6836	7056	0	7317	7628	7902	8130	8266	8371	8407	8407	8371	8336	8301	8266	8231	8197	8163	8130	8130	8097	8097	8097	8097	8130	8130	8130	8130	8163	8163	8197	8197	8231	8266	8301	8301	8371	8443	8479	8515	8552	8552	8627	8627	8627	8627	8515	8515	8479	8479	8443	8443	8407	8407	8407	0	0	0	0	0	3598	3598	3592	3585	3579	3572	3572	3566	3566	3566	3566	3572	3579	3592	3598	3612	3625	3632	3645	3658	3658	3665	3665	3665	3658	3652	3645	3645	3645	3638	3632	3632	3625	3625	3632	3632
2539	2546	2552	2566	2579	2610	2638	2670	2699	2717	2729	2744	2748	2755	2759	2759	2759	2755	2759	2759	2759	2767	2779	2798	2814	2830	2851	0	2871	2888	2901	2905	2888	2876	2855	2838	2822	2802	2771	2763	2751	2744	2729	2725	2721	2721	2721	2725	2729	2736	2740	2744	2751	2755	2759	2759	2759	2759	2763	2763	2767	2771	2779	2786	2790	2802	2810	2818	2826	2834	2847	2851	2855	2859	2863	2867	2871	2876	2876	2876	2876	2880	2880	2880	2880	2884	2880	2884	2880	2880	2876	2871	2871	2871	2871	2871	2880	2884	2888	2901	2918	2935	2953	2971	2989	3002	3021	3039	3049	3058	3063	3072	3077	3077	3082	3082	3082	3082	3077	3077	3068	3063	3058	3058	3058	3058	3068	3072	3087	3101	3126	3151	3166	3181	3197	3207	3218	3223	3233	3239	3239	3244	3239	3233	3233	3223	3223	3212	3207	3202	3192	3186	3186	3181	3181	3181	3176	3181	3186	3192	3192	3197	3202	3207	3218	3228	3239	3249	3255	3265	3276	3282	3287	3287	3293	3293	3298	3298	3304	3304	3309	3315	3320	3326	3326	3326	3331	3331	3331	3331	3331	3331	3331	3326	3326	3315	3320	3315	3315	3320	3320	3326	3331	3331	3337	3343	3348	3360	3365	3377	3389	3400	3412	3430	3436	3454	3460	3466	3472	3472	3472	3472	3466	3466	3460	3460	3460	3460	3466	3466	3472	3478	3484	3497	3503	3509	3515	3528	3534	3547	3553	3560	3566	3572	3579	3585	3592	3598	3605	3612	3618	3625	3625	3625	3625	3632	3638	3638	3645	3645	3652	3658	3672	3679	3693	3700	3713	3727	3742	3756	3770	3777	3785	3792	3806	3814	3814	3821	3836	3851	3866	3874	3881	3897	3904	3912	3912	3912	3912	3920	3920	3920	3920	3920	3920	3920	3920	3928	3928	3935	3943	3951	3959	3975	3983	3991	4007	4024	4040	4065	4073	4090	4107	4124	4142	4150	4159	4177	4185	4185	4194	4203	4221	4230	4239	4258	4267	4276	4285	4295	4295	4295	4285	4285	4276	4276	4258	4239	4212	4185	4159	4133	4107	4082	4065	4048	4040	4040	4007	4048	4090	4133	4194	4258	4323	4380	4439	4459	4480	4490	4490	4500	4510	4510	4521	4521	4521	4531	4541	4552	4562	4573	4584	4605	4627	4648	4681	4704	4738	0	4772	4783	4807	4830	4842	4866	4878	4878	4878	4866	4866	4866	4854	4842	4830	4818	4807	4807	4807	4795	4795	4783	4783	4783	4772	4783	4795	4795	4807	4807	4818	4842	4854	4866	4866	4866	4878	4890	4890	4914	4927	4939	4951	4989	5014	5040	5066	5079	5079	5092	5105	5105	5118	5118	5118	5118	5105	5092	5079	5053	5040	5014	4939	0	0	0	0	0	0	0	0	0	0	0	4951	5014	5079	5158	0	5213	5254	5296	5325	5354	5368	5383	5412	5412	5427	5442	5442	5442	5442	5427	5412	5427	5442	0	5472	5503	5534	5581	5628	5677	5726	5776	5810	5845	5862	5897	5897	5897	5897	5897	5915	5933	5933	5950	5950	5968	5968	5987	5987	5950	5968	6005	6005	6005	6023	6023	6023	6023	6005	6005	6023	6041	6041	6079	6097	6116	6135	6135	6116	6079	6041	5987	5915	5845	5793	5726	5677	5628	5596	5549	5534	5518	5503	5488	5472	5457	5442	5442	5442	5427	5442	5442	5457	5488	5518	5565	5596	5661	5743	5810	0	5915	5968	6023	6116	6212	6352	6499	6697	6908	7184	0	7483	7778	8063	8231	8371	8371	8407	8407	8371	8371	8336	8266	8231	8197	8163	8163	8130	8130	8130	8097	8097	8130	8130	8097	8130	8130	8130	8163	8163	8197	8231	8266	8336	8371	8407	8443	8479	8552	8552	8589	8589	8589	8479	8479	8479	8443	8443	8443	8407	8407	8407	0	0	0	0	3618	3612	3612	3612	3605	3592	3585	3579	3579	3572	3572	3572	3579	3585	3592	3598	3612	3618	3632	3638	3652	3658	3658	3658	3658	3658	3652	3652	3645	3645	3638	3638	3638	3632	3632	3632	3632
2552	2556	2566	2579	2593	2617	2641	2666	2688	2706	2717	2732	2740	2740	2744	2751	2751	2751	2751	2755	2759	2767	2779	2786	2802	2818	2834	2851	2863	2876	2880	2871	2863	2822	2806	2790	2779	2767	2755	2751	2744	2732	2729	2721	2721	2721	2721	2725	2725	2732	2736	2740	2748	2748	2751	2751	2751	2751	2751	2755	2759	2763	2771	2779	2790	2798	2810	2822	2830	2838	2851	2855	2859	2867	2867	2871	2876	2876	2876	2876	2876	2876	2880	2880	2876	2880	2876	2876	2871	2871	2867	2863	2863	2859	2863	2863	2871	2880	2884	2901	2918	2935	2957	2971	2989	3007	3021	3035	3044	3058	3063	3072	3077	3082	3087	3087	3092	3092	3087	3082	3077	3072	3068	3063	3068	3063	3068	3077	3087	3096	3116	3136	3156	3176	3192	3207	3212	3223	3228	3239	3244	3244	3239	3233	3233	3228	3223	3212	3207	3202	3197	3192	3186	3186	3181	3181	3181	3181	3192	3192	3197	3202	3207	3218	3223	3233	3244	3249	3260	3265	3271	3276	3282	3287	3287	3287	3293	3293	3298	3304	3309	3315	3326	3326	3331	3337	3343	3343	3343	3343	3343	3337	3343	3343	3337	3326	3326	3320	3320	3320	3326	3320	3331	3331	3337	3343	3343	3354	3360	3371	3377	3394	3406	3418	3430	3442	3448	3460	3466	3466	3472	3472	3472	3466	3466	3466	3472	3466	3466	3472	3478	3484	3490	3497	3503	3515	3521	3528	3534	3540	3547	3553	3560	3566	3572	3579	3585	3592	3598	3598	3598	3605	3612	3612	3612	3618	3618	3625	3625	3632	3638	3645	3658	3665	3679	3693	3706	3720	3742	3756	3770	3785	3792	3806	3814	3821	3829	3836	3843	3858	3866	3874	3889	3897	3904	3912	3912	3912	3912	3912	3912	3912	3912	3912	3912	3912	3920	3920	3928	3935	3935	3951	3959	3967	3983	3999	4024	4048	4065	4090	4116	4133	4159	4185	4194	4203	4212	4221	4221	4221	4221	4230	4239	4248	4258	4276	4285	4295	4304	4313	4313	4304	4304	4295	4295	4276	4258	4239	4212	4177	4142	4116	4082	4057	4007	3983	3967	3959	3975	4007	4048	4082	4150	4203	4267	4332	4390	4420	4429	4449	4459	4470	4490	4490	4500	4510	4521	4531	4552	4562	4584	4594	4616	4627	4648	4670	4704	4726	0	4749	4772	4783	4807	4818	4830	4842	4854	4854	4842	4842	4842	4842	4842	4818	4807	4807	4795	4795	4783	4783	4783	4772	4772	4772	4783	4783	4795	4795	4807	4818	4830	4842	4854	4866	4866	4878	4878	4890	4902	4927	4939	4939	4951	4976	5001	5027	5053	5066	5066	5066	5092	5092	5092	5092	5092	5092	5079	5066	5053	5040	5014	4976	4902	4854	0	0	0	0	0	0	0	0	0	4807	4878	4951	5040	5145	0	5213	5268	5325	5354	5368	5398	5412	5427	5427	5442	5442	5442	5442	5442	5427	5412	5427	5442	0	5472	5488	5518	5581	5628	5677	5726	5760	5793	5828	5862	5862	5880	5880	5880	5897	5897	5897	5897	5915	5915	5880	5880	5880	5880	5897	5915	5933	5950	5950	5968	5987	5987	5987	5987	5987	5987	6005	6023	6041	6060	6079	6097	6097	6079	6060	6023	5987	5915	5845	5776	5710	5661	5612	5581	5518	5518	5503	5488	5472	5457	5457	5442	5442	5442	5427	5427	5427	5457	5472	5503	5534	5581	5628	5693	5760	5845	5897	0	5968	6023	6116	6232	6373	6585	6789	7056	0	7344	7628	7934	8163	8336	8371	8407	8407	8407	8407	8407	8336	8301	8266	8231	8197	8197	8163	8130	8130	8097	8097	8097	8097	8097	8097	8130	8130	8130	8163	8163	8231	8266	8336	8407	8443	8479	8515	8552	8589	8589	8552	8479	8479	8443	8443	8443	8407	8407	8407	8407	0	0	0	0	3638	3625	3625	3618	3618	3605	3598	3592	3585	3585	3579	3579	3579	3585	3592	3598	3612	3618	3632	3638	3652	3658	3658	3658	3658	3658	3652	3652	3652	3645	3645	3645	3638	3638	3638	3638	3638
2566	2569	2576	2586	2599	2617	2638	2655	2677	2695	2706	2714	2721	2725	2732	2736	2740	2744	2744	2748	2751	2755	2767	2779	2786	2798	2814	0	2838	2806	2806	2806	2794	2790	2779	2771	2759	2751	2744	2744	2736	2729	2725	2725	2721	2725	2725	2725	2725	2729	2732	2736	2740	2744	2744	2744	2740	2744	2744	2748	2751	2759	2763	2775	2790	2798	2810	2822	2830	2843	2851	2859	2863	2867	2871	2876	2876	2880	2876	2876	2876	2880	2880	2880	2876	2876	2876	2871	2871	2867	2863	2859	2859	2855	2859	2863	2871	2876	2888	2905	2922	2940	2957	2975	2989	3002	3016	3035	3044	3053	3063	3077	3082	3087	3092	3096	3096	3096	3096	3092	3087	3082	3072	3068	3068	3068	3068	3072	3082	3092	3106	3131	3146	3161	3181	3197	3207	3218	3228	3233	3239	3239	3233	3233	3228	3223	3218	3207	3202	3197	3192	3192	3186	3181	3181	3186	3186	3186	3192	3197	3202	3207	3218	3223	3228	3239	3244	3255	3260	3265	3271	3276	3276	3276	3282	3282	3287	3287	3298	3304	3309	3315	3326	0	3337	3343	3348	3354	3365	3365	3360	3360	3348	3348	3337	3331	3331	3326	3326	3326	3326	3326	3331	3331	3337	3343	3343	3354	3360	3365	3377	3389	3400	3412	3424	3436	3448	3460	3466	3466	3472	3472	3472	3472	3472	3466	3472	3472	3472	3478	3478	3484	3490	3497	3509	3515	3521	3528	3534	3540	3547	3553	3560	3560	3566	3572	3572	3579	3585	3585	3592	3592	3592	3598	3598	3605	3605	3605	3612	3618	3625	3632	3638	3652	3665	3679	3700	3713	3734	3749	3770	3785	3799	3806	3821	3836	3836	3843	3858	3866	3874	3881	3881	3897	3897	3904	3904	3904	3904	3904	3904	3904	3904	3904	3904	3912	3912	3912	3920	3928	3935	3943	3951	3959	3983	4007	4040	4065	4090	4116	4142	4177	4203	4230	4239	4248	4248	4258	4258	4267	4258	4258	4267	4276	4285	4295	4304	4304	4313	4323	4323	4313	4304	4295	4295	4285	4258	4239	4203	4159	4124	4090	4048	4024	3991	3967	3943	3935	3959	3983	4024	4073	0	0	4239	4295	4342	4371	4380	4410	4429	4439	4459	4480	4490	4500	4521	4531	4552	4573	4594	4594	4627	4648	4670	4693	4715	0	4749	4760	4783	4807	4818	4830	4830	4830	4842	4830	4830	4830	4830	4818	4818	4807	4795	4795	4783	4783	4783	4772	4772	4772	4783	4783	4783	4807	4807	4818	4830	4830	4842	4854	4866	4878	4878	4890	4890	4902	4914	4927	4927	4939	4951	4964	4976	4989	5014	5014	5027	5014	5040	5040	5040	5053	5053	5040	5040	5027	5014	4976	4964	4890	4854	4818	4772	4726	0	0	0	0	0	4659	4704	4760	4818	4866	4976	5092	0	5185	5254	5325	5354	5383	5412	5427	5442	5442	5442	5442	5457	5442	5442	5442	5442	5427	5427	5442	5472	5488	5534	5581	5628	5661	5710	5760	5793	5828	5845	5862	5862	5862	5862	5862	5862	5828	5828	5828	5845	5845	5845	5845	5862	5880	5897	5897	5915	5915	5950	5950	5968	5968	5968	5968	5968	5968	5968	5987	6005	6023	6023	6023	6023	6023	5987	5950	5880	5828	5760	5710	5644	5612	5565	5518	5503	5503	5488	5472	5457	5457	5457	5442	5442	5427	5442	5442	5457	5472	5503	5534	5549	5596	5644	5710	5760	5828	5880	5933	0	6005	6097	6252	6435	6652	6883	7184	0	7483	7778	8031	8266	8336	8407	8443	8443	8479	8443	8443	8371	8336	8301	8266	8231	8197	8163	8130	8130	8097	8097	8063	8063	8063	8063	8097	8097	8097	8130	8163	8231	8301	8371	8407	8443	8479	8515	8552	8552	8479	8479	8479	8443	8443	8443	8443	8443	8407	8443	0	0	0	0	3665	3658	3652	3645	3638	3618	3612	3605	3598	3592	3585	3585	3585	3592	3592	3605	3618	3625	3638	3645	3652	3658	3665	3665	3665	3658	3658	3658	3658	3658	3652	3652	3652	3645	3645	3652	3652
2579	2582	2586	2593	2606	2620	2634	2648	2666	2681	2695	2703	2710	2714	2721	2721	2725	2729	2732	2736	2740	2744	2751	2759	2767	2744	2751	2759	2767	2771	2771	2771	2767	2763	2759	2751	2748	2744	2740	2736	2732	2732	2729	2725	2725	2721	2725	2725	2725	2725	2732	2732	2736	2736	2736	2736	2732	2736	2736	2740	2740	2751	2759	2771	2786	2798	2810	2822	2834	2847	2855	2863	2867	2871	2876	2880	2880	2880	2880	2880	2880	2880	2880	2880	2876	2876	2876	2871	2871	2867	2863	2859	2855	2859	2859	2863	2876	2880	2892	2909	2922	2940	2957	2971	2984	2998	3016	3030	3039	3049	3063	3072	3082	3087	3096	3101	3101	3106	3101	3101	3096	3087	3082	3077	3072	3072	3068	3072	3077	3082	3096	3111	3126	3146	3161	3181	3197	3202	3218	3223	3228	3228	3223	3223	3218	3212	3207	3197	3192	3186	3181	3181	3181	3181	3181	3186	3186	3192	3197	3202	3207	3218	3223	3228	3239	3244	3255	3255	3260	3265	3271	3271	3271	3271	3276	3282	3282	3287	3293	3304	3309	3315	3326	3331	3343	3354	3360	3365	3371	3371	3371	3365	3360	3354	3348	3343	3337	3331	3331	3331	3331	3331	3331	3337	3343	3343	3348	3354	3360	3365	3377	3389	3400	3412	3418	3430	3442	3454	3460	3466	3472	3472	3472	3466	3472	3466	3472	3472	3472	3478	3478	3484	3490	3503	3509	3515	3521	3521	3528	3534	3540	3547	3553	3553	3553	3560	3566	3566	3572	3579	3579	3585	3585	3585	3592	3592	3598	3598	3598	3605	3612	3618	3625	3638	3645	3658	3679	3700	3727	3749	3763	3777	3799	3821	3829	3843	3843	3851	3858	3866	3874	3881	3881	3889	3897	3897	3904	3904	3904	3897	3904	3904	3897	3897	3897	3904	3904	3904	3912	3920	3928	3935	3951	3959	3983	4007	4040	4073	4107	4142	4159	4194	4230	4258	4267	4276	4285	4295	4285	4285	4276	4276	4285	4285	4295	4295	4295	4304	4304	4313	4313	4304	4295	4295	4285	4285	4248	4239	4203	4150	4107	4073	4040	4015	3983	3951	3935	3935	3943	3975	4015	4065	4107	4168	4212	4276	4313	4342	4361	4380	4400	4420	4439	4459	4480	4490	4510	4531	4552	4573	4594	4605	4627	4659	4681	0	4704	4738	4749	4772	4795	4818	4830	4830	4830	4842	4830	4830	4818	4818	4818	4818	4818	4807	4795	4783	4783	4772	4772	4772	4772	4772	4783	4795	4795	4807	4818	4830	4830	4842	4854	4866	4866	4890	4890	4902	4902	4902	4914	4927	4927	4927	4927	4939	4951	4951	4964	4964	4951	4951	4964	4964	4976	4976	4976	4976	4976	4964	4951	4902	4866	4842	4807	4772	4738	4704	4659	4637	4616	4627	4627	4637	4670	4715	4749	4807	4914	5027	5131	0	5213	5296	5354	5383	5412	5427	5457	5442	5442	5457	5457	5442	5442	5442	5442	5427	5442	5442	5488	5503	5534	5581	5628	5677	5710	5760	5793	5810	5828	5845	5828	5828	5828	5810	5810	5810	5810	5810	5810	5810	5810	5810	5828	5828	5845	5862	5880	5897	5897	5915	5915	5933	5933	5933	5933	5915	5915	5933	5950	5950	5950	5950	5950	5968	5933	5897	5862	5793	5743	5677	5644	5596	5518	5503	5503	5488	5488	5472	5472	5457	5457	5457	5442	5442	5442	5457	5457	5488	5503	5518	5549	5581	5612	5661	5710	5743	5793	5845	5897	0	5987	6116	6272	6456	6697	6956	7236	0	7540	7871	8130	8301	8371	8443	8479	8515	8515	8515	8443	8407	8371	8336	8301	8266	8197	8163	8130	8130	8097	8063	8063	8031	8063	8063	8097	8097	8097	8130	8197	8266	8301	8371	8371	8407	8479	8479	8515	8479	8479	8479	8479	8443	8443	8443	8443	8443	8443	0	0	0	0	3700	3686	3679	3665	3652	3638	3625	3618	3612	3605	3598	3592	3592	3592	3598	3612	3618	3625	3638	3645	3652	3658	3658	3665	3665	3665	3665	3665	3665	3665	3665	3658	3658	3665	3665	3665	3665
2589	2593	2596	2603	2610	2620	2634	2645	2655	2670	2681	2688	2695	2703	2706	2714	2714	2717	2721	2721	2725	2717	2717	2721	2725	2729	2732	2736	2744	2751	2751	2751	2748	2744	2744	2740	2740	2740	2736	2736	2736	2736	2732	2732	2732	2732	2729	2729	2729	2729	2732	2732	2736	2732	2732	2732	2729	2732	2732	2736	2740	2748	2759	2771	2786	2798	2814	2826	2838	2851	2863	2871	2876	2876	2880	2880	2884	2884	2884	2880	2880	2880	2880	2880	2880	2876	2876	2876	2871	2867	2863	2863	2859	2859	2863	2871	2880	2888	2897	2914	2927	2940	2957	2971	2984	2998	3012	3025	3035	3044	3053	3068	3077	3087	3096	3101	3111	3111	3106	3106	3101	3096	3087	3082	3077	3072	3068	3068	3072	3077	3082	3092	3106	3121	3141	3151	3166	3186	3197	3207	3218	3218	3212	3212	3207	3197	3197	3186	3186	3176	3176	3176	3176	3181	3181	3186	3192	3197	3202	3212	3218	3223	3228	3239	3244	3249	3255	3265	3265	3265	3271	3271	3271	3271	3276	3276	3282	3287	3293	3304	3315	3326	3337	3343	3354	3360	3365	3377	3377	3377	3377	3377	3371	3365	3360	3348	3343	3337	3337	3337	3337	3343	3343	3343	3348	3348	3354	3360	3365	3371	3383	3394	3400	3412	3424	3436	3442	3454	3460	3466	3466	3466	3472	3466	3466	3466	3466	3472	3472	3472	3478	3484	3490	3497	3509	3515	3515	3521	3528	3534	3540	3540	3540	3547	3547	3547	3553	3553	3560	3566	3566	3579	3579	3585	3585	3585	3592	3592	3598	3598	3598	3605	3612	3625	3638	3645	3665	3686	3706	3734	3756	3770	3792	3806	3829	3836	3843	3851	3851	3858	3874	3874	3881	3881	3889	3889	3889	3889	3889	3889	3889	3889	3889	3889	3881	3897	3897	3897	3904	3904	3920	3935	3943	3959	3975	3999	4040	4073	4116	4150	4177	4212	4258	4285	4304	4304	4304	4313	4304	4295	4295	4295	4295	4295	4295	4295	4295	4295	4304	4304	4304	4295	4285	4276	4267	4267	4248	4230	4194	4150	4107	4073	4040	4015	3983	3959	3951	3951	3967	3991	4032	4065	4116	4159	4203	4258	4295	4323	4332	4351	4380	4400	4429	4449	4470	4490	4510	4531	4552	4573	4594	4616	4637	4659	4681	0	4704	4738	4760	4783	4795	4818	4818	4830	4830	4818	4818	4807	4818	4807	4807	4807	4807	4795	4783	4783	4772	4760	4760	4760	4772	4783	4795	4795	4807	4818	4830	4830	4854	4854	4866	4866	4890	4902	4902	4914	4914	4914	4914	4927	4927	4927	4927	4927	4927	4914	4914	4902	4902	4890	4902	4902	4902	4902	4914	4914	4914	4902	4878	4854	4830	4795	4772	4749	4715	4681	4648	4627	4616	4616	4616	4627	4648	4681	4715	4760	4842	4964	0	5158	0	5254	5325	5354	5398	5427	5457	5442	5457	5457	5457	5457	5457	5457	5457	5457	5472	5472	5503	5534	5549	5596	5644	5677	5726	5760	5793	5810	5828	5828	5810	5793	5810	5793	5793	5776	5776	5776	5776	5793	5793	5793	5793	5810	5828	5828	5828	5845	5862	5880	5880	5897	5880	5880	5862	5880	5862	5862	5880	5880	5880	5880	5880	5897	5880	5862	5810	5760	5710	5661	5628	5581	5534	5503	5503	5488	5488	5488	5472	5472	5472	5472	5472	5472	5472	5472	5488	5503	5503	5534	5549	5581	5596	5644	5661	5693	5726	5760	5810	5880	0	5987	6116	6272	6477	6697	7005	0	7317	7628	7966	8197	8371	8443	8515	8552	8589	8589	8515	8479	8443	8407	8336	8301	8231	8197	8163	8130	8097	8063	8063	8063	8031	8097	8097	8097	8097	8130	8197	8231	8301	8336	8371	8407	8443	8479	8515	8479	8479	8479	8515	8515	8479	8479	8479	8479	8515	0	0	0	0	3727	3713	3693	3686	3672	3658	3645	3632	3625	3612	3605	3598	3598	3598	3605	3612	3618	3632	3638	3645	3658	3658	3665	3665	3665	3665	3665	3665	3665	3665	3672	3672	3672	3672	3672	3672	3672
2596	2599	2603	2606	2610	2620	2627	2638	2648	2659	2666	2677	2684	2691	2695	2699	2706	2699	2703	2703	2706	2706	2710	2714	2714	2717	2721	2725	2729	2729	2736	2736	2736	2732	2732	2732	2732	2732	2736	2740	2740	2740	2740	2740	2740	2740	2736	2736	2736	2736	2736	2736	2736	2736	2732	2729	2729	2729	2732	2736	2740	2748	2759	2775	2786	2802	2818	2830	2843	2855	2863	2871	2876	2880	2884	2884	2884	2884	2888	2884	2884	2884	2884	2884	2880	2880	2880	2880	2876	2871	2867	2867	2867	2867	2871	2880	2884	2897	2905	2918	2931	2944	2957	2971	2980	2993	3002	3016	3030	3039	3053	3068	3072	3087	3101	3106	3111	3116	3116	3116	3111	3101	3096	3092	3082	3077	3072	3072	3068	3072	3072	3077	3087	3101	3111	3126	3141	3156	3171	3176	3192	3192	3192	3192	3186	3181	3181	3176	3176	3171	3171	3176	3176	3181	3186	3192	3197	3202	3207	3218	3223	3228	3239	3244	3255	3260	3260	3265	3271	3271	3271	3271	3271	3271	3271	3276	3282	3287	3298	3309	3320	3331	3337	3348	3360	3365	3371	3377	3383	3383	3389	3383	3377	3371	3365	3354	3348	3343	3343	3343	3343	3348	3348	3354	3354	3360	3365	3371	3377	3383	3389	3400	3406	3418	3424	3436	3442	3454	3460	3460	3466	3466	3466	3466	3466	3466	3466	3472	3472	3478	3478	3484	3497	3503	3509	3515	3521	3528	3534	3534	3540	3540	3540	3540	3547	3547	3547	3553	3553	3560	3566	3572	3579	3579	3585	3592	3592	3598	3592	3592	3598	3598	3605	3612	3625	3638	3652	3672	3693	3713	3734	3756	3777	3799	3821	3836	3843	3851	3851	3866	3866	3874	3874	3874	3874	3874	3881	3881	3881	3881	3881	3881	3874	3881	3874	3881	3881	3889	3897	3904	3912	3920	3935	3943	3959	3991	4032	4073	4116	4159	4194	4230	4267	4304	4313	4313	4313	4323	4313	4313	4313	4304	4295	4295	4295	4295	4285	4285	4267	4267	4276	4267	4267	4258	4258	4258	4239	4230	4194	4159	4124	4090	4057	4032	4007	3991	3975	3975	3991	4015	4048	4082	4116	4159	4203	4248	4285	4313	4323	4342	4371	4390	4420	4439	4459	4490	4510	4521	4552	4573	4594	4616	4637	4670	0	4693	4726	4749	4760	4783	4807	4807	4818	4818	4807	4807	4807	4807	4807	4795	4795	4795	4807	4795	4795	4783	4760	4760	4760	4760	4760	4772	4795	4807	4807	4818	4842	4854	4854	4878	4878	4890	4902	4902	4914	4927	4927	4927	4914	4914	4914	4914	4902	4902	4890	4890	4866	4854	4842	4842	4854	4854	4854	4854	4854	4854	4866	4842	4818	4807	4783	4760	4738	4704	4681	4659	4637	4616	4605	4616	4605	4616	4627	4648	4681	4738	4783	0	0	5118	0	5213	5296	5339	5383	5427	5457	5442	5457	5457	5472	5472	5472	5472	5472	5472	5488	5518	5534	5549	5581	5628	5661	5710	5743	5776	5793	5810	5828	5828	5810	5776	5793	5776	5776	5760	5743	5743	5760	5776	5760	5760	5776	5776	5793	5793	5810	5810	5828	5845	5845	5845	5845	5828	5828	5810	5793	5810	5810	5810	5810	5793	5810	5828	5828	5810	5776	5726	5693	5644	5612	5565	5503	5488	5488	5488	5488	5488	5488	5488	5488	5488	5488	5488	5488	5488	5503	5503	5518	5518	5534	5565	5596	5612	5644	5661	5677	5710	5743	5793	5862	5968	0	6097	6272	6456	6697	6981	0	7290	7628	7902	8097	8266	8407	8515	8589	8627	8589	8552	8515	8479	8407	8371	8301	8197	8163	8130	8097	8097	8063	8063	8063	8063	8063	8063	8097	8130	8163	8231	8266	8301	8336	8371	8443	8479	8515	8515	8515	8515	8515	8552	8552	8552	8515	8515	8515	0	0	0	0	0	3734	3720	3706	3693	3679	3665	3652	3638	3625	3618	3612	3605	3605	3605	3618	3625	3632	3645	3645	3658	3658	3665	3672	3672	3672	3665	3665	3672	3672	3679	3679	3672	3679	3679	3679	3679
2606	2606	2610	2610	2613	2620	2624	2631	2638	2648	2655	2666	2673	2662	2670	2673	2681	2681	2684	2684	2688	2688	2691	2695	2699	2703	2703	2706	2714	2714	2721	2721	2725	2725	2725	2725	2729	2732	2736	2740	2744	2748	2748	2748	2748	2744	2744	2744	2744	2744	2744	2744	2740	2740	2736	2732	2732	2732	2732	2736	2744	2751	2763	2779	2790	2806	2822	2834	2847	2859	2867	2876	2880	2880	2884	2884	2888	2888	2888	2888	2888	2888	2884	2884	2884	2884	2880	2880	2880	2876	2876	2871	2871	2876	2880	2888	2892	2901	2909	2922	2931	2944	2957	2966	2975	2989	2993	3012	3021	3039	3049	3063	3077	3087	3096	3106	3111	3121	3121	3121	3116	3111	3101	3096	3087	3082	3077	3072	3068	3068	3063	3068	3072	3077	3092	3101	3116	3126	3141	3151	3161	3166	3171	3171	3166	3166	3166	3166	3166	3161	3166	3171	3176	3181	3186	3192	3197	3207	3212	3218	3228	3239	3244	3249	3255	3260	3265	3271	3271	3271	3271	3265	3271	3271	3276	3282	3287	3293	3304	3315	3326	3331	3348	3354	3365	3377	3383	3389	3389	3389	3389	3389	3383	3377	3365	3365	3354	3354	3348	3348	3354	3354	3354	3360	3365	3371	3377	3383	3383	3389	3400	3406	3418	3424	3430	3436	3448	3454	3460	3460	3466	3466	3466	3466	3466	3466	3472	3472	3478	3478	3484	3484	3490	3497	3503	3509	3515	3521	3521	3528	3528	3534	3534	3540	3540	3547	3553	3553	3560	3566	3572	3579	3585	3592	3592	3598	3598	3598	3598	3598	3598	3598	3605	3605	3618	3625	3645	3658	3679	3700	3727	3749	3770	3792	3814	3829	3836	3843	3851	3858	3858	3858	3866	3866	3866	3866	3866	3866	3866	3866	3866	3866	3866	3866	3866	3866	3866	3874	3889	3897	3904	3912	0	3928	3943	3983	4032	4073	4116	4150	4194	4230	4276	4304	4323	4323	4323	4332	4323	4313	4313	4304	4295	4295	4285	4276	4267	4258	4258	4258	4258	4248	4248	4248	4239	4230	4239	4221	4194	4168	4133	4107	4082	4065	4048	4032	4015	4015	4032	4057	4073	4099	4124	4168	4203	4239	4276	4304	4313	4332	4361	4380	4410	4429	4459	4480	4500	4521	4552	4573	4594	4616	4648	4670	0	4693	4715	4749	4772	4783	4795	4807	4818	4818	4795	4795	4795	4795	4795	4795	4783	4795	4807	4795	4795	4772	4760	4749	4760	4760	4772	4772	4795	4807	4818	4842	4854	4866	4878	4890	4914	4914	4927	4927	4927	4927	4927	4927	4927	4927	4914	4902	4890	4878	4866	4854	4830	4818	4795	4795	4807	4818	4807	4807	4818	4818	4807	4795	4772	4749	4738	4715	4693	4670	4648	4627	4616	4616	4594	4605	4605	4605	4616	4637	4648	4693	4749	4878	4976	5079	5185	0	5268	5325	5368	5412	5442	5442	5457	5472	5472	5472	5488	5488	5488	5503	5518	5534	5565	5581	5612	5644	5677	5726	5776	5793	5810	5828	5828	5828	5810	5776	5776	5760	5760	5743	5726	5726	5743	5760	5743	5743	5760	5760	5776	5776	5776	5793	5776	5793	5793	5793	5793	5776	5760	5760	5743	5743	5760	5760	5743	5743	5760	5793	5793	5776	5743	5693	5644	5628	5596	5549	5503	5488	5488	5488	5488	5503	5488	5488	5488	5488	5503	5503	5488	5503	5503	5503	5518	5518	5534	5549	5581	5612	5628	5628	5644	5677	5693	5743	5776	5862	5968	0	6097	6252	6435	6652	6956	7263	0	7540	7808	7998	8163	8336	8443	8552	8552	8552	8552	8515	8443	8371	8301	8231	8197	8130	8097	8063	8063	8063	8063	8063	8063	8063	8097	8130	8163	8231	8266	8301	8336	8407	8443	8479	8515	8552	8552	8589	8589	8552	8589	8589	8552	8552	0	0	0	0	3799	3777	3770	3742	3727	3713	3700	3686	3665	3652	3638	3632	3618	3612	3612	3612	3625	3632	3638	3645	3652	3658	3665	3672	3679	3672	3672	3672	3672	3672	3679	3679	3679	3679	3679	3686	3686	3686
2613	2613	2613	2613	2613	2617	2620	2627	2631	2627	2634	2638	2645	2645	2652	2655	2659	2662	2662	2666	2670	2670	2673	2681	2684	2688	2691	2699	2703	2706	2710	2710	2710	2714	2717	2721	2721	2729	2736	2740	2748	2751	2751	2751	2751	2755	2751	2751	2751	2751	2748	2748	2744	2740	2736	2736	2736	2736	2736	2740	2748	2755	2767	2782	2798	2810	2826	2838	2851	2863	2871	2880	2884	2884	2888	2888	2892	2888	2888	2888	2888	2888	2888	2888	2888	2888	2888	2884	2884	2884	2880	2880	2880	2884	2888	2892	2901	2909	2918	2927	2935	2944	2957	2966	2971	2984	2993	3007	3016	3030	3044	3058	3072	3087	3096	3106	3116	3121	3126	3126	3121	3116	3111	3101	3092	3087	3082	3072	3068	3063	3063	3063	3063	3068	3072	3082	3092	3106	3116	3126	3141	3146	3151	3156	3156	3151	3156	3156	3161	3161	3161	3171	3176	3181	3192	3197	3202	3212	3218	3228	3233	3244	3249	3260	3265	3265	3271	3271	3276	3276	3276	3276	3276	3282	3282	3287	3293	3304	3309	3320	3331	3343	3354	3360	3371	3383	3389	3389	3394	3394	3394	3394	3389	3377	3377	3365	3360	3360	3354	3354	3360	3365	3365	3371	3377	3383	3383	3389	3394	3400	3406	3412	3424	3430	3442	3442	3448	3460	3460	3466	3466	3466	3466	3472	3472	3472	3472	3472	3478	3478	3484	3484	3490	3497	3503	3509	3509	3515	3515	3521	3528	3528	3534	3534	3540	3547	3553	3560	3560	3566	3579	3585	3592	3605	3605	3605	3612	3605	3605	3605	3598	3598	3605	3605	3612	3625	3638	3652	3672	3693	3713	3734	3756	3777	3799	3821	3829	3836	3836	3843	3851	3851	3851	3851	3851	3858	3851	3851	3851	3851	3851	3851	3851	3843	3851	3851	3858	3866	3866	3881	3889	3897	3904	3928	0	3967	4007	4057	4099	4142	4168	4212	4267	4304	4313	4313	4323	4323	4323	4323	4304	4285	4285	4276	4267	4258	4248	4248	4239	4239	4239	4239	4230	4230	4230	4230	4221	4221	4203	4177	4168	4142	4124	4116	4099	4099	4082	4082	4099	4124	4133	4159	4185	4203	4230	4258	4285	4313	4323	4342	4361	4380	4410	4429	4459	4480	4500	4521	4541	4562	4584	4605	4637	4659	0	4681	4715	4738	4749	4772	4795	4795	4807	4795	4783	4783	4795	4795	4783	4783	4783	4783	4795	4807	4795	4783	4772	4760	4772	4783	4783	4795	4807	4818	4842	4854	4878	4890	4914	4914	4927	4927	4951	4951	4939	4939	4951	4939	4927	4927	4914	4902	4890	4878	4854	4842	4830	4807	4795	4795	4795	4795	4783	4783	4795	4783	4783	4760	4738	4704	4693	4670	4659	4637	4616	4605	4605	4594	4584	4584	4594	4584	4594	4605	4627	4670	4726	4842	4951	5066	5172	0	5254	5311	5354	5412	5442	5442	5457	5472	5472	5488	5503	5503	5518	5518	5534	5565	5581	5612	5661	5710	5743	5760	5793	5810	5828	5845	5828	5828	5793	5776	5776	5760	5743	5710	5710	5710	5710	5743	5726	5726	5743	5743	5760	5760	5760	5743	5760	5760	5760	5760	5760	5726	5710	5693	5693	5693	5710	5710	5710	5710	5726	5760	5776	5760	5726	5661	5628	5612	5581	5549	5488	5488	5488	5503	5488	5503	5503	5503	5503	5503	5503	5518	5503	5503	5503	5518	5518	5518	5534	5534	5565	5581	5596	5612	5628	5644	5677	5693	5743	5793	5880	5968	0	6097	6232	6414	6652	6908	7184	0	7455	7687	7902	8130	8266	8443	8479	8552	8552	8515	8443	8371	8301	8231	8163	8130	8097	8063	8063	8063	8063	8063	8063	8097	8097	8130	8197	8231	8266	8336	8371	8443	8479	8552	8589	8589	8627	8665	8627	8627	8589	8589	8589	0	0	0	0	3851	3814	3799	3785	3770	3742	3727	3713	3693	3679	3665	3652	3638	3632	3625	3618	3625	3632	3638	3645	3658	3665	3672	3679	3679	3679	3679	3679	3679	3679	3679	3679	3679	3679	3679	3686	3686	3686	3686
2613	2613	2617	2613	2613	2617	2617	2617	2620	2620	2624	2627	2631	2631	2634	2638	2641	2645	2645	2648	2648	2652	2655	2666	2670	2673	2681	2684	2688	2695	2699	2703	2703	2703	2706	2714	2721	2725	2736	2740	2751	2755	2759	2759	2759	2759	2759	2759	2759	2755	2751	2751	2748	2744	2740	2736	2732	2736	2736	2740	2748	2755	2771	2786	2802	2814	2826	2843	2855	2863	2876	2880	2884	2888	2888	2892	2892	2892	2892	2892	2892	2892	2892	2892	2892	2892	2892	2888	2888	2888	2888	2888	2888	2892	2897	2901	2909	2914	2922	2931	2935	2944	2953	2962	2966	2980	2989	2998	3016	3025	3039	3049	3068	3082	3096	3106	3116	3121	3126	3126	3126	3121	3116	3106	3096	3092	3082	3077	3072	3063	3058	3058	3053	3058	3063	3072	3077	3087	3096	3111	3126	3131	3136	3146	3141	3146	3146	3151	3156	3156	3161	3166	3176	3181	3192	3192	3202	3212	3223	3233	3244	3249	3260	3265	3271	3276	3282	3282	3282	3282	3282	3282	3282	3287	3293	3298	3304	3315	3320	3337	3343	3354	3365	3371	3383	3389	3389	3394	3400	3400	3400	3400	3389	3383	3377	3371	3365	3365	3360	3365	3371	3371	3377	3383	3389	3394	3400	3400	3406	3406	3412	3424	3430	3436	3442	3448	3454	3460	3466	3466	3466	3472	3472	3472	3472	3472	3472	3478	3478	3478	3484	3490	3490	3497	3497	3503	3509	3509	3509	3515	3515	3521	3528	3534	3534	3540	3547	3553	3560	3566	3579	3592	3598	3605	3612	3612	3618	3618	3612	3612	3612	3612	3612	3612	3618	3625	3632	3645	3658	3679	3700	3713	3742	3763	3785	3799	3814	3821	3821	3829	3836	3836	3836	3836	3836	3836	3836	3836	3836	3829	3829	3829	3829	3829	3829	3836	3843	3851	3851	3858	3874	3881	3897	3904	0	3951	3991	4040	4082	4107	4150	4194	4239	4285	4295	4295	4267	4276	4285	4285	4285	4285	4276	4258	4258	4248	4239	4239	4239	4230	4230	4230	4230	4230	4221	4221	4230	4221	4212	4212	4203	4194	4185	4177	4177	4168	4168	4168	4185	4194	4203	4221	4239	4258	4276	4304	4313	4332	4342	4361	4380	4400	4429	4449	4470	4490	4500	4521	4541	4562	4584	4594	4616	4648	4659	0	4693	4726	4738	4749	4772	4783	4772	4772	4760	4760	4760	4772	4772	4772	4772	4783	4807	4807	4807	4807	4795	4783	4795	4795	4807	4807	4830	4842	4854	4878	4902	4914	4939	4951	4951	4964	4976	4976	4964	4964	4964	4951	4939	4927	4914	4902	4890	4878	4866	4854	4842	4830	4818	4807	4818	4807	4795	4783	4783	4772	4760	4738	4715	4681	4659	4648	4627	4616	4594	4584	4573	4584	4584	4584	4584	4594	4594	4616	4627	4670	4726	4854	4951	5066	5158	0	5240	5296	5354	5398	5427	5442	5457	5472	5488	5488	5503	5518	5534	5549	5565	5612	5644	5677	5693	5743	5760	5793	5810	5828	5845	5845	5828	5828	5810	5776	5776	5743	5726	5693	5693	5710	5710	5726	5726	5726	5726	5726	5726	5743	5743	5726	5726	5726	5726	5726	5710	5693	5661	5644	5628	5644	5661	5661	5677	5677	5710	5743	5743	5726	5693	5644	5628	5596	5565	5534	5488	5488	5488	5503	5503	5503	5503	5503	5503	5518	5518	5518	5503	5503	5518	5518	5518	5518	5518	5534	5549	5565	5581	5581	5596	5628	5661	5677	5710	5743	5810	5880	5968	0	6079	6193	6393	6629	0	0	7344	0	7569	7808	7998	8197	8336	8407	8443	8479	8443	8371	8301	8231	8197	8130	8097	8097	8063	8063	8063	8097	8097	8130	8130	8163	8197	8231	8301	8336	8407	8443	8515	8552	8589	8627	8665	8665	8665	8665	8665	8665	8627	8627	0	0	0	0	0	3806	3799	3777	3763	3734	3720	3706	3693	3672	3665	3652	3638	3632	3632	3632	3645	3652	3658	3665	3672	3672	3686	3686	3686	3679	3679	3679	3679	3679	3679	3679	3679	3679	3686	3686	3693	3693
2617	2617	2613	2613	2613	2617	2613	2613	2617	2617	2617	2620	2624	2624	2624	2624	2624	2631	2627	2631	2631	2638	2641	2648	2655	2659	2666	2673	2684	2691	2695	2699	2695	2703	2703	2710	2717	2725	2736	2744	2751	2755	2759	2763	2763	2767	2763	2763	2763	2763	2755	2755	2751	2748	2744	2740	2740	2736	2736	2744	2751	2763	2775	2786	2802	2818	2834	2847	2855	2867	2876	2880	2884	2888	2888	2892	2892	2892	2892	2892	2892	2892	2897	2897	2897	2892	2892	2892	2897	2892	2892	2892	2892	2897	2901	2905	2914	2918	2922	2931	2935	2944	2953	2962	2966	2975	2984	2998	3012	3025	3039	3049	3068	3082	3092	3106	3116	3121	3131	3131	3131	3126	3121	3111	3101	3092	3087	3077	3068	3063	3058	3053	3049	3053	3053	3058	3063	3072	3087	3096	3106	3116	3126	3131	3131	3136	3146	3146	3151	3156	3161	3166	3171	3181	3192	3197	3207	3218	3228	3239	3249	3260	3265	3271	3276	3282	3282	3282	3287	3287	3287	3287	3293	3298	3304	3309	3315	3326	3331	3348	3360	3371	3377	3383	3389	3394	3394	3400	3406	3400	3406	3406	3400	3389	3383	3377	3365	3371	3365	3371	3377	3383	3389	3389	3394	3406	3412	3412	3412	3418	3424	3430	3442	3442	3448	3454	3460	3460	3466	3466	3466	3472	3472	3472	3472	3478	3478	3478	3484	3484	3484	3490	3490	3490	3497	3503	3503	3503	3503	3509	3515	3515	3521	3528	3528	3540	3547	3553	3560	3572	3585	3598	3605	3612	3618	3625	3625	3625	3625	3618	3618	3618	3618	3612	3618	3618	3632	3632	3652	3665	3686	3693	3720	3742	3763	3777	3792	3799	3799	3806	3821	3821	3821	3821	3821	3821	3821	3821	3821	3806	3814	3806	3806	3806	3806	3814	3821	3836	3843	3851	3858	3866	3881	3897	3935	0	3975	4015	4048	4082	4116	4150	4150	4194	4203	4203	4212	4230	4248	4258	4258	4258	4258	4248	4248	4239	4239	4230	4230	4230	4230	4221	4221	4221	4221	4230	4230	4230	4230	4230	4230	4230	4230	4230	4221	4230	4221	4221	4239	4239	4248	4258	4276	4295	4304	4323	4342	4361	4371	4390	4410	4429	4439	4459	4480	4500	4510	4531	4541	4562	4584	4594	4616	4627	4659	4681	0	4715	4726	4738	4749	4760	4760	4749	4749	4749	4760	4760	4772	4772	4783	4795	4818	4830	4830	4830	4818	4807	4818	4818	4830	4830	4854	4866	4878	4902	4927	4939	4951	4964	4976	4989	4989	4989	4976	4976	4976	4964	4951	4939	4927	4914	4902	4902	4890	4878	4878	4866	4854	4842	4842	4842	4830	4807	4795	4795	4772	4738	4704	4670	4648	4627	4616	4594	4584	4573	4573	4584	4594	4605	4605	4616	4616	4637	4659	4704	4749	4866	4964	5053	5145	0	5226	5296	5339	5383	5427	5427	5442	5457	5488	5503	5518	5534	5549	5581	5612	5644	5677	5693	5726	5760	5776	5810	5828	5845	5845	5862	5845	5845	5828	5793	5776	5760	5743	5710	5710	5710	5710	5743	5726	5726	5726	5726	5743	5743	5710	5710	5693	5710	5693	5693	5661	5644	5628	5596	5596	5612	5644	5644	5661	5661	5693	5726	5743	5726	5677	5628	5596	5581	5549	5518	5488	5488	5488	5503	5503	5503	5503	5503	5503	5518	5518	5518	5503	5503	5503	5503	5503	5503	5518	5518	5534	5549	5549	5565	5581	5596	5628	5644	5677	5710	5760	5810	5862	5933	6041	0	6193	6373	6585	6789	6981	7236	0	7455	7687	7902	8031	8197	8266	8336	8336	8301	8231	8197	8163	8130	8097	8097	8097	8097	8097	8097	8097	8097	8097	8130	8163	8197	8231	8301	8371	8407	8443	8515	8589	8627	8665	8665	8665	8665	8665	8665	8703	0	0	0	0	0	0	0	3806	3785	3770	3742	3734	3713	3700	3686	3679	3665	3665	3658	3658	3658	3658	3658	3665	3672	3679	3679	3686	3686	3686	3686	3686	3679	3679	3679	3679	3679	3679	3686	3686	3686	3693	3693
2613	2613	2613	2613	2613	2613	2617	2613	2617	2617	2617	2617	2617	2617	2613	2613	2613	2613	2613	2617	2620	2624	2634	2641	2648	2655	0	2666	2673	2681	2688	2688	2691	2691	2703	2706	2714	2721	2732	2740	2751	2759	2763	2763	2767	2767	2767	2767	2767	2767	2759	2759	2755	2751	2748	2744	2740	2740	2744	2748	2759	2767	2782	2794	2806	2822	2834	2851	2859	2867	2876	2880	2884	2888	2888	2892	2892	2892	2892	2892	2897	2897	2897	2897	2897	2897	2897	2897	2897	2897	2897	2897	2901	2901	2905	2909	2918	2922	2927	2931	2940	2944	2953	2962	2966	2971	2984	2998	3012	3021	3039	3049	3063	3077	3092	3101	3111	3121	3126	3131	3126	3126	3121	3111	3106	3096	3087	3082	3072	3068	3063	3053	3053	3049	3049	3053	3058	3068	3077	3087	3096	3106	3116	3126	3126	3131	3141	3146	3156	3156	3161	3166	3171	3181	3192	3197	3207	3223	3228	3244	3255	3265	3271	3271	3276	3282	3282	3287	3293	3293	3293	3298	3298	3304	3315	3326	3331	3337	3348	3360	3371	3383	3389	3389	3394	3400	3400	3406	3406	3406	3406	3406	3400	3394	3389	3383	3371	3371	3371	3371	3383	3383	3389	3394	3406	3412	3418	3418	3418	3424	3430	3436	3442	3448	3454	3454	3460	3460	3466	3466	3472	3472	3472	3478	3478	3478	3484	3484	3484	3490	3490	3490	3490	3497	3497	3497	3503	3503	3503	3509	3509	3515	3521	3521	3528	3540	3547	3553	3560	3572	3585	3598	3605	3618	3618	3625	3625	3632	3625	3625	3625	3618	3612	3612	3612	3618	3618	3625	3632	3645	3658	3672	3693	3713	3734	3749	3763	3770	3770	3777	3792	3792	3799	3792	3799	3799	3806	3806	3792	3792	3792	3785	3792	3792	3792	3799	3806	3821	3829	3836	3851	3858	3874	3889	3920	0	3959	3999	4015	4040	4057	4082	4107	4133	4142	4150	4150	4177	4194	4212	4230	4230	4230	4230	4230	4230	4230	4230	4221	4221	4221	4221	4230	4230	4230	4230	4239	4239	4239	4248	4248	4248	4258	4258	4258	4258	4258	4258	4267	4276	4285	4295	4304	4323	4332	4351	4371	4380	4400	4420	4429	4439	4459	4480	4500	4510	4521	4531	4541	4552	4573	4573	4594	4616	4637	4659	4681	4704	4715	4726	4738	4738	4738	4726	4738	4726	4749	4760	4772	4783	4783	4807	4818	4842	4866	4866	4854	4842	4842	4854	4854	4866	4878	4902	4914	4927	4951	4964	4976	4989	5001	5014	5001	4989	4989	4989	4989	4964	4951	4939	4927	4927	4927	4927	4914	4914	4914	4902	4902	4890	4890	4890	4866	4842	4842	4818	4783	4760	4715	4681	4648	4637	4616	4605	4594	4594	4594	4605	4627	4637	4648	4659	4670	4693	4704	4749	4807	4902	4989	5079	5158	0	5226	5282	5325	5368	5412	5427	5442	5457	5488	5503	5518	5549	5565	5596	5628	5661	5693	5726	5760	5776	5810	5828	5862	5862	5880	5862	5862	5862	5845	5810	5793	5776	5760	5760	5726	5743	5743	5760	5776	5776	5760	5760	5743	5726	5726	5693	5693	5677	5677	5661	5644	5612	5581	5565	5565	5596	5628	5644	5661	5677	5710	5743	5743	5710	5677	5628	5581	5565	5534	5472	5472	5488	5488	5488	5488	5503	5503	5503	5503	5503	5503	5503	5503	5488	5503	5488	5503	5488	5503	5503	5518	5534	5549	5549	5565	5581	5596	5628	5661	5693	5726	5760	5810	5845	5915	6023	0	6174	6352	6520	6720	6908	7132	7371	0	7598	7778	7902	8063	8163	8231	8266	8231	8197	8163	8163	8163	8130	8130	8097	8097	8097	8097	8097	8097	8130	8163	8197	8231	8301	8371	8407	8479	8552	8589	8627	8665	8703	8703	8703	8703	8741	8703	0	0	0	0	0	3851	0	3814	3792	3777	3763	3734	3720	3720	3713	3700	3686	3679	3672	3665	3665	3665	3672	3672	3672	3679	3679	3686	3686	3686	3686	3686	3679	3679	3679	3679	3679	3679	3686	3686	3693	3693	3700
2613	2613	2613	2617	2617	2617	2617	2617	2617	2617	2617	2617	2613	2613	2610	2603	2603	2599	2599	2603	2606	2613	2617	2624	2634	2641	2652	2662	0	2670	2677	2681	2684	2688	2691	2703	0	2714	2725	2732	2744	2751	2759	2763	2767	2771	2771	2771	2767	2763	2763	2759	2755	2755	2751	2748	2744	2748	2744	2751	2759	2771	2779	2794	2806	2822	2834	2851	2859	2867	2876	2884	2884	2888	2892	2888	2892	2892	2892	2892	2897	2897	2897	2897	2897	2897	2901	2901	2901	2897	2901	2901	2901	2905	2905	2909	2918	2922	2927	2931	2940	2944	2953	2962	2971	2975	2989	2998	3016	3025	3035	3049	3063	3077	3087	3096	3111	3116	3121	3126	3126	3121	3121	3111	3106	3101	3092	3082	3072	3068	3063	3058	3053	3049	3053	3053	3058	3068	3072	3087	3096	3106	3111	3121	3126	3131	3141	3151	3156	3156	3161	3171	3176	3181	3192	3202	3207	3218	3228	3244	3255	3260	3271	3271	3276	3276	3282	3287	3293	3298	3304	3304	3309	3320	3326	3337	3343	3354	3365	3371	3383	3389	3394	3394	3394	3406	3406	3406	3406	3412	3412	3412	3406	3400	3394	3383	3377	3371	3377	3377	3377	3383	3389	3400	3406	3412	3418	3424	3424	3430	3430	3442	3448	3448	3454	3460	3460	3466	3466	3466	3472	3472	3472	3478	3478	3484	3484	3484	3484	3490	3490	3490	3490	3497	3497	3497	3503	3503	3503	3503	3509	3515	3515	3521	3528	3534	3547	3547	3560	3572	3585	3592	3605	3618	3618	3625	3632	3632	3625	3625	3625	3618	3618	3612	3612	3612	3618	3625	0	3638	3645	3652	3672	3686	3700	3713	3727	3734	3742	3742	3763	3763	3770	3770	3777	3785	3785	3785	3785	3785	3777	3770	3777	3777	3785	3792	3799	3806	3814	3829	3836	3851	3866	3881	3904	3943	0	3975	3999	4015	4032	4048	4065	4090	4090	4090	4090	4116	4142	4159	4185	4194	4203	4212	4212	4221	4221	4212	4212	4212	4221	4221	4230	4230	4230	4230	4239	4239	4248	4258	4267	4267	4267	4267	4276	4285	4276	4285	4295	4304	4313	4313	4323	4342	4351	4371	4390	4400	4420	4439	4449	4459	4470	4490	4490	4500	4510	4521	4531	4541	4552	4562	4573	4594	4616	4637	4648	4670	4681	4693	4704	4704	4704	4704	4704	4715	4738	4749	4760	4772	4783	4807	4830	4842	4866	4878	4866	4866	4866	4866	4866	4878	4902	4914	4927	4951	4964	4976	4989	5014	5014	5027	5014	5001	5001	5001	4989	4976	4964	4951	4939	4939	4939	4951	4951	4939	4951	4939	4939	4939	4927	4927	4902	4890	4878	4866	4830	4783	4738	4693	4659	4648	4627	4616	4616	4627	4627	4648	4670	4693	4704	4715	4738	4749	4772	4807	4866	4939	5014	5105	5158	0	5226	5268	5311	5354	5412	5427	5427	5457	5472	5503	5534	5549	5581	5612	5628	5677	5710	5726	5776	5793	5828	5845	5862	5880	5880	5880	5880	5880	5862	5828	5810	5793	5793	5776	5760	5760	5760	5776	5810	5793	5793	5776	5776	5743	5710	5710	5677	5661	5644	5628	5612	5581	5565	5549	5549	5581	5628	5644	5677	5693	5743	5760	5743	5726	5693	5628	5596	5549	5534	5457	5472	5472	5472	5472	5488	5488	5488	5488	5503	5503	5488	5488	5488	5472	5488	5472	5488	5488	5488	5488	5503	5518	5534	5549	5565	5581	5596	5612	5644	5661	5710	5726	5760	5793	5845	5933	6041	0	6174	6332	6477	6652	6836	7030	7263	7483	0	7628	7808	7934	8063	8163	8197	8197	8231	8231	8231	8197	8197	8163	8163	8163	8130	8097	8130	8130	8163	8197	8266	8336	8371	8407	8479	8515	8552	8589	8665	8703	8703	8741	8741	8780	8780	0	0	0	0	3951	0	3858	3821	3799	3792	3785	3763	3742	3727	3720	3706	3700	3693	3686	3679	3679	3679	3679	3679	3679	3679	3686	3686	3686	3686	3686	3679	3679	3679	3679	3686	3686	3686	3686	3693	3700	3700	3700
2613	2613	2617	2617	2617	2617	2617	2617	2617	2617	2617	2617	2613	2610	2603	2596	2593	2589	2589	2589	2586	2593	2599	2606	2617	2624	2634	2645	2652	2659	2666	2666	2673	2681	2688	2695	2703	0	2714	2725	2740	2748	2755	2763	2767	2771	2771	2771	2775	2771	2767	2763	2763	2755	2755	2751	2751	2748	2748	2755	2763	2775	2786	2798	2810	2826	2838	2851	2859	2867	2876	2880	2884	2888	2892	2888	2892	2892	2892	2892	2892	2892	2892	2892	2897	2897	2897	2897	2897	2901	2901	2901	2901	2905	2905	2914	2918	2922	2931	2935	2944	2949	2957	2966	2975	2980	2993	3002	3016	3030	3039	3049	3058	3068	3082	3092	3101	3106	3116	3116	3121	3116	3111	3111	3101	3096	3092	3087	3082	3072	3068	3063	3058	3058	3058	3063	3068	3072	3077	3087	3096	3106	3116	3121	3131	3136	3146	3151	3166	3166	3166	3176	3176	3186	3192	3202	3207	3218	3233	3244	3249	3265	3271	3276	3276	3282	3287	3293	3293	3298	3304	3309	3315	3326	3343	3348	3354	3365	3371	3383	3394	3394	3400	3400	3400	3400	3400	3406	3406	3412	3412	3412	3412	3406	3400	3389	3377	3377	3377	3377	3383	3383	3394	3400	3406	3418	3424	3424	3430	3430	3436	3442	3448	3454	3454	3454	3460	3460	3460	3466	3466	3472	3478	3478	3478	3484	3490	3490	3490	3490	3490	3490	3490	3497	3490	3497	3497	3497	3503	3503	3509	3515	3515	3521	3528	3540	3547	3553	3566	3579	3592	3598	3612	3618	3625	3632	3632	3632	3632	3632	3618	3618	3618	3612	3612	3612	3612	3618	3618	3632	3632	3638	3645	3658	3672	3679	3686	3693	3693	3706	3727	3734	3742	3749	3763	3770	3770	3777	3770	3770	3770	3770	3770	3770	3770	3777	3792	3799	3806	3821	3829	3843	3851	3874	3897	3935	0	3967	3983	3999	4015	4015	4024	4040	4040	4032	0	4048	4073	4099	4133	4150	4168	4177	4185	4194	4203	4203	4212	4212	4221	4221	4230	4230	4239	4239	4248	4248	4248	4258	4267	4267	4276	4285	4285	4295	4304	4304	4323	4332	4332	4342	4351	4361	4380	4400	4410	4420	4429	4449	4470	4480	4480	4490	4510	4510	4510	4521	4531	4541	4552	4562	4573	4584	4605	4627	4637	4648	4648	4659	4659	4659	4659	4659	4670	4681	4704	4726	4738	4760	4783	4807	4830	4854	4866	4878	4878	4878	4878	4878	4890	4902	4914	4927	4939	4964	4976	4989	5014	5014	5014	5027	5014	5014	5001	5001	5001	4976	4964	4951	4951	4951	4964	4964	4964	4976	4976	4976	4976	4976	4964	4964	4951	4927	4914	4902	4890	4818	4760	4715	4681	4670	4659	4659	4659	4670	4670	4704	4738	4772	4783	4795	4807	4830	4854	4878	4927	5001	5066	5131	5172	5185	5254	5282	5325	5368	5412	5427	5442	5457	5488	5518	5534	5549	5581	5612	5644	5677	5710	5743	5776	5810	5828	5845	5862	5880	5880	5880	5880	5880	5862	5845	5828	5810	5793	5793	5793	5793	5810	5810	5828	5828	5828	5810	5793	5760	5743	5710	5677	5661	5628	5612	5596	5565	5549	5549	5549	5581	5628	5661	5693	5726	5743	5776	5776	5726	5677	5628	5581	5549	5518	5457	5457	5457	5457	5457	5472	5472	5472	5472	5472	5472	5472	5472	5472	5457	5472	5457	5472	5472	5472	5488	5503	5518	5534	5549	5565	5581	5596	5612	5644	5661	5693	5710	5743	5760	5793	5845	5933	6041	0	6135	6272	6393	6563	6742	6981	7184	7399	0	7569	7778	7902	8063	8163	8197	8231	8266	8266	8266	8266	8231	8197	8163	8130	8130	8130	8130	8163	8197	8231	8301	8371	8407	8443	8479	8515	8589	8665	8703	8741	8741	8780	8819	0	0	0	0	0	0	3889	0	3851	3836	3814	3792	3770	3742	3734	3727	3713	3706	3700	3700	3693	3686	3679	3686	3686	3686	3686	3686	3686	3686	3686	3686	3686	3686	3686	3686	3686	3693	3693	3693	3700	3706	3706	3706
2617	2617	2620	2620	2620	2620	2620	2620	2620	2620	2620	2617	2613	2606	2596	2593	2586	2579	2576	2576	2576	2582	2582	2593	2603	2610	2620	2631	2645	2652	2655	2659	2666	2673	2681	2691	2699	2710	0	2721	2732	2744	2751	2759	2767	2771	2771	2775	2775	2775	2771	2767	2763	2759	2755	2755	2751	2748	2751	2759	2767	2779	2790	2802	2814	2826	2843	2855	2859	2867	2876	2880	2884	2888	2888	2888	2888	2888	2892	2892	2892	2892	2892	2892	2897	2897	2897	2897	2901	2901	2901	2901	2901	2905	2909	2914	2918	2922	2931	2935	2949	2953	2962	2971	2980	2989	2998	3007	3021	3030	3039	3049	3058	3068	3077	3087	3096	3101	3106	3106	3111	3106	3106	3106	3101	3096	3092	3087	3082	3082	3077	3072	3072	3068	3068	3072	3077	3077	3087	3092	3106	3116	3121	3126	3141	3151	3156	3166	3171	3171	3176	3181	3186	3192	3197	3202	3207	3218	3228	3244	3249	3260	3271	3271	3271	3276	3282	3287	3293	3304	3309	3315	3320	3331	3348	3354	3360	3371	3377	3383	3394	3394	3400	3394	3400	3400	3400	3406	3406	3412	3412	3412	3412	3412	3400	3389	3383	3383	3377	3377	3383	3389	3394	3400	3406	3418	3424	3418	3424	3430	3436	3436	3442	3442	3448	3454	3454	3454	3460	3460	3466	3466	3472	3472	3478	3484	3484	3484	3484	3490	3490	3490	3490	3490	3490	3490	3497	3497	3503	3503	3509	3515	3521	3528	3528	3540	3547	3560	3566	3572	3592	3605	3612	3618	3618	3625	3638	3632	3632	3625	3625	3618	3618	3618	3612	3605	3605	3605	3612	3605	3605	3605	3612	3605	3625	3625	3625	3632	3645	3658	3679	3686	3700	3727	3734	3756	3763	3770	3770	3763	3770	3763	3770	3763	3770	3777	3785	3792	3806	3814	3829	3836	3851	3874	3897	3935	0	3967	3975	3983	3991	3991	3999	3999	3983	3975	3991	4015	4040	4073	0	4099	4124	4142	4159	4177	4185	4194	4203	4212	4221	4221	4230	4239	4239	4248	4248	4258	4258	4267	4267	4276	4285	4295	4304	4313	4313	4332	4342	4361	4361	4371	4380	4400	4410	4429	4429	4449	4459	4470	4490	4490	4490	4500	4510	4521	4531	4531	4541	4541	4552	4562	4584	4594	4616	4627	4637	4637	4648	4648	4659	4648	4648	4648	4659	4670	4704	4726	4749	4760	4772	4807	4830	4854	4866	4878	4878	4890	4890	4890	4914	4927	4927	4951	4964	4976	4989	5001	5014	5014	5027	5027	5014	5014	5014	5001	5001	4989	4976	4964	4964	4951	4964	4976	4989	4976	4989	4989	5001	5001	4989	4989	4989	4964	4951	4939	4927	4854	4807	4749	4715	4704	4704	4704	4715	4738	4760	4795	4830	0	4866	4878	4902	4914	4927	4951	4989	5118	0	5158	5213	5240	5282	5296	5339	5368	5412	5427	5442	5472	5488	5518	5534	5565	5581	5612	5644	5677	5710	5726	5776	5793	5828	5845	5862	5880	5880	5897	5897	5880	5880	5862	5845	5828	5828	5828	5828	5828	5845	5845	5862	5880	5880	5862	5828	5810	5776	5743	5710	5661	5628	5612	5581	5549	5534	5549	5549	5596	5644	5677	5710	5743	5776	5810	5793	5760	5710	5644	5596	5549	5518	5457	5457	5457	5457	5457	5457	5457	5457	5457	5457	5457	5457	5457	5442	5457	5457	5457	5457	5457	5472	5488	5503	5518	5534	5549	5565	5581	5596	5628	5644	5661	5677	5693	5726	5760	5776	5828	5880	5950	6023	6116	0	6212	6332	6499	6720	6932	7158	7399	0	7628	7808	8031	8130	8197	8266	8301	8336	8336	8301	8266	8231	8197	8130	8097	8063	8097	8130	8163	8197	8231	8301	8371	8407	8479	8515	8589	8627	8703	8741	8703	8780	0	0	0	0	0	0	0	3928	3889	3866	3843	3821	3799	3777	3749	3734	3727	3720	3713	3706	3700	3693	3686	3686	3686	3686	3686	3679	3679	3686	3686	3686	3686	3686	3686	3686	3693	3693	3693	3693	3700	3706	3713	3713	3713
2620	2620	2624	2624	2624	2627	2624	2624	2624	2620	2620	2617	2610	2599	2593	2586	2576	2576	2569	2566	2566	2569	2569	2579	2586	2593	2606	2620	2631	2638	2648	2655	2662	2673	2677	2688	2695	2710	0	2721	2732	2740	2744	2755	2763	2763	2767	2767	2775	2771	2771	2767	2763	2759	2759	2755	2755	2751	2751	2759	2771	2782	2798	2806	2818	2830	2843	2855	2863	2867	2876	2880	2884	2888	2888	2888	2888	2888	2892	2892	2892	2888	2892	2892	2892	2897	2897	2897	2897	2897	2897	2897	2901	2905	2909	2914	2918	2927	2935	2944	2949	2957	2966	2975	2984	2993	3002	3012	3025	3035	3044	3053	3058	3068	3072	3082	3087	3087	3096	3096	3101	3096	3096	3096	3096	3092	3092	3087	3087	3087	3087	3082	3082	3082	3082	3087	3092	3096	3101	3111	3131	3141	3146	3151	3156	3161	3166	3171	3176	3181	3181	3192	3192	3197	3202	3207	3212	3223	3228	3239	3249	3255	3265	3265	3265	3271	3271	3276	3287	3298	3304	3315	3320	3331	3348	3354	3365	3371	3383	3383	3394	3394	3394	3394	3394	3400	3400	3400	3406	3406	3406	3412	3412	3406	3394	3389	3377	3371	3371	3371	3377	3383	3389	3394	3406	3412	3412	3418	3418	3418	3430	3430	3436	3436	3442	3442	3448	3448	3454	3460	3460	3466	3466	3472	3478	3484	3484	3484	3490	3490	3490	3497	3490	3490	3490	3490	3497	3497	3503	3503	3509	3515	3521	3521	3534	3540	3547	3560	3566	3579	3592	3598	3605	3618	3618	3632	3632	3632	3632	3632	3632	3625	3625	3618	3618	3618	3605	3605	3598	3598	3592	3585	3585	3579	3585	3585	3585	3592	3598	3605	3625	3645	3658	3686	3706	3734	3742	3756	3763	3763	3756	3763	3756	3763	3770	3777	3785	3799	3806	3821	3829	3836	3858	3874	3904	3935	0	3967	3975	3983	3983	3983	3983	3975	3951	3943	3959	3975	4007	4032	4065	0	4099	4107	4133	4150	4168	4185	4194	4212	4221	4230	4230	4230	4248	4248	4258	4258	4267	4267	4276	4276	4285	4304	4313	4323	4332	4351	0	4371	4380	4390	4410	4420	4429	4439	4449	4459	4470	0	4490	4500	4500	4510	4521	4521	4531	4531	4541	4552	4562	4562	4594	4594	4616	4627	4627	4627	4627	4648	4648	4637	4648	4648	4659	4681	4715	4738	4749	4760	4772	4807	4830	4842	4866	4878	4890	4890	4902	4914	4927	4951	4951	4976	4989	4989	5001	5014	5014	5014	5027	5027	5014	5014	5001	5001	5001	4989	4976	4976	4976	4964	4964	4976	4989	4989	5001	5001	5001	5001	5014	5014	5001	4989	4976	4964	4951	4927	4830	4795	4772	4760	4760	4772	4783	4807	4818	4866	4902	4927	4939	4951	4964	5053	5053	5079	0	5105	5158	5199	5240	5268	5282	5325	5354	5383	5412	5442	5442	5472	5488	5518	5549	5565	5581	5612	5628	5661	5710	5726	5760	5793	5810	5845	5862	5862	5880	5880	5880	5880	5880	5862	5862	5862	5845	5862	5862	5880	5880	5897	5915	5915	5915	5915	5915	5862	5845	5793	5743	5693	5661	5612	5581	5565	5549	5549	5549	5596	5644	5693	5726	5760	5793	5810	5793	5760	5710	5644	5596	5549	5518	5457	5457	5457	5457	5457	5457	5442	5442	5442	5442	5442	5442	5442	5427	5442	5442	5442	5457	5457	5472	5488	5503	5518	5549	5565	5581	5596	5612	5628	5644	5661	5677	5693	5710	5726	5743	5776	5810	5880	5933	5987	6079	0	6174	6312	6477	6720	6981	7236	7512	0	7717	7934	8097	8197	8301	8371	8407	8407	8407	8336	8301	8266	8197	8130	8097	8063	8063	8130	8130	8163	8231	8266	8336	8443	8479	8552	8552	8627	8665	0	0	0	0	0	4295	0	4150	0	3928	3904	3874	3851	3821	3799	3777	3749	3734	3727	3713	3706	3700	3700	3693	3686	3686	3679	3679	3679	3679	3679	3679	3679	3686	3686	3686	3686	3693	3693	3693	3700	3700	3706	3713	3713	3720	3727
2627	2627	2627	2631	2631	2631	2631	2627	2627	2627	2620	2617	2610	2593	2586	2582	2572	2566	2559	2559	2556	2559	2559	2566	2576	2586	2596	2610	2620	2631	2641	2655	2662	2670	2677	2688	2699	2710	0	2721	2729	2736	2740	2751	2759	2763	2763	2767	2767	2771	2771	2767	2763	2759	2759	2755	2755	2751	2755	2763	2771	2782	2794	2806	2814	2826	2838	2851	2859	2867	2871	2876	2884	2888	2888	2888	2888	2888	2888	2888	2888	2888	2888	2888	2888	2892	2892	2892	2892	2892	2897	2897	2901	2901	2909	2914	2918	2927	2935	2944	2953	2962	2971	2980	2989	2998	3007	3016	3030	3044	3049	3053	3058	3068	3072	3072	3077	3077	3082	3082	3087	3087	3087	3087	3087	3087	3087	3087	3092	3092	3092	3092	3092	3096	3101	3121	3126	3131	3136	3141	3151	3156	3161	3166	3166	3176	3181	3186	3186	3192	3192	3197	3197	3202	3207	3207	3212	3223	3233	3239	3244	3249	3255	3255	3260	3260	3265	3271	3282	3287	3298	3309	3320	3331	3348	3354	3360	3371	3377	3383	3389	3394	3394	3389	3389	3389	3389	3389	3394	3394	3400	3406	3406	3394	3389	3383	3377	3371	3371	3371	3371	3371	3383	3389	3400	3406	3406	3412	3412	3412	3418	3418	3424	3430	3436	3436	3442	3442	3448	3448	3454	3460	3466	3472	3478	3484	3490	3490	3490	3490	3490	3497	3490	3490	3490	3490	3490	3497	3497	3503	3509	3515	3515	3521	3528	3534	3540	3547	3560	3566	3579	3592	3598	3612	3612	3625	3625	3632	3625	3632	3625	3625	3625	3618	3612	3598	3598	3592	3585	3572	3566	3566	3560	3560	3560	3560	3560	3560	3566	3572	3592	3612	3625	3652	3679	3706	3734	3749	3756	3756	3763	3763	3770	3777	3777	3785	3792	3806	3821	3836	3843	3851	3866	3881	3904	3935	0	3959	3975	3975	3975	3975	3975	3967	3959	3943	3951	3975	3999	4032	4057	4090	0	4107	4124	4150	4168	4185	4194	4212	4221	4230	4239	4239	4248	4258	4267	4267	4267	4276	4276	4285	4295	4304	4323	0	4342	4351	4371	4390	4410	4410	4420	4429	4439	4449	4459	4470	4470	4480	4500	4510	4521	4521	4531	4531	4541	4541	4562	4562	4573	4584	4605	4605	4627	4627	4637	4627	4627	4637	4637	4637	4637	4637	4659	4681	4715	4738	4749	4760	4783	4807	4830	4842	4866	4890	4902	4927	4927	4951	4964	4976	4989	5001	5001	5001	5014	5014	5014	5014	5027	5027	5014	5014	5014	5014	5001	4989	4989	4976	4976	4976	4976	4989	4989	5001	5014	5014	5014	5027	5027	5040	5027	5014	5001	4989	4976	4964	4927	4854	4842	4854	4854	4866	4890	4902	4914	4951	4964	5027	5053	5066	5079	5092	5105	5105	5118	5145	5185	5226	5254	5296	5311	5339	5368	5383	5427	5442	5457	5472	5503	5518	5534	5549	5581	5612	5628	5661	5693	5710	5743	5760	5793	5810	5845	5845	5862	5862	5880	5880	5880	5880	5862	5862	5880	5880	5897	5897	5915	5933	5950	5950	5968	5968	5968	5933	5933	5845	5793	5726	5677	5644	5596	5565	5549	5549	5565	5596	5644	5693	5726	5760	5793	5810	5793	5743	5693	5644	5612	5565	5518	5457	5457	5457	5442	5442	5442	5442	5442	5442	5427	5427	5427	5427	5427	5427	5427	5442	5457	5457	5488	5488	5518	5534	5549	5565	5581	5596	5612	5628	5644	5644	5661	5677	5693	5710	5743	5760	5776	5828	5862	5897	5968	6060	6174	0	6352	6563	6812	7106	7399	0	7687	7902	8097	8231	8301	8407	8479	8515	8479	8443	8371	8301	8231	8163	8097	8031	8031	8097	8097	8163	8197	7966	8031	8031	8407	8479	0	0	0	0	0	0	0	0	0	0	4065	3999	3943	3912	3881	3851	3829	3799	3777	3742	3727	3713	3706	3700	3693	3693	3686	3679	3679	3679	3679	3679	3672	3672	3679	3679	3686	3686	3686	3686	3693	3700	3700	3706	3706	3713	3720	3727	3734	3734
2634	2634	2634	2634	2638	2634	2634	2631	2631	2631	2624	2620	2613	2596	2589	2582	2572	2566	2562	2559	2556	2552	2559	2562	2569	2579	2589	2599	2613	2627	2641	2655	2662	2673	2681	2691	2703	0	2714	2721	2729	2736	2740	2748	2755	2759	2763	2767	2767	2771	2767	2767	2763	2763	2759	2759	2759	2759	2759	2767	2775	2786	2794	2806	2814	2826	2838	2851	2859	2863	2871	2876	2884	2884	2888	2888	2888	2888	2888	2888	2888	2888	2888	2888	2884	2888	2888	2892	2892	2892	2892	2897	2897	2901	2905	2914	2918	2927	2935	2944	2957	2966	2975	2984	2993	3002	3016	3025	3039	3049	3053	3058	3063	3068	3068	3068	3068	3068	3068	3068	3072	3072	3077	3077	3077	3082	3087	3087	3092	3092	3101	3111	3116	3126	3131	3136	3141	3146	3156	3161	3171	3171	3176	3181	3186	3192	3192	3197	3202	3202	3202	3207	3207	3212	3212	3218	3218	3223	3228	3239	3239	3244	3249	3249	3255	3249	3255	3265	3271	3282	3287	3304	3309	3326	3343	3348	3360	3360	3371	3371	3377	3383	3383	3383	3383	3383	3377	3383	3383	3389	3389	3394	3394	3389	3383	3377	3377	3365	3365	3365	3365	3371	3371	3383	3389	3394	3400	3400	3400	3400	3406	3406	3412	3418	3418	3424	3430	3436	3442	3442	3448	3454	3460	3466	3472	3478	3484	3484	3484	3490	3490	3490	3490	3490	3490	3490	3490	3490	3497	3503	3509	3509	3515	3521	3521	3534	3534	3540	3547	3553	3566	3579	3579	3592	3598	3612	3618	3618	3618	3618	3618	3618	3612	3612	3598	3585	3585	3572	3566	3566	3553	3547	3540	3540	3540	3540	3534	3534	3540	3547	3566	3585	3605	3632	3652	3672	3700	3734	3763	3770	3777	3785	3785	3792	3792	3799	3814	3829	3843	3851	3866	3866	3881	3897	3912	0	3943	3975	3983	3983	3975	3975	3975	3975	3967	3959	3959	3975	4007	4032	4065	0	4090	4107	4133	4159	4177	4194	4212	4221	4230	4239	4248	4258	4258	4267	4267	4267	4276	4276	4285	4285	0	4304	4313	4332	4351	4371	4390	4410	4429	4439	4439	4449	4459	4470	4480	4480	4480	4490	4510	4521	4521	4521	4531	4541	4552	4562	4573	4573	4584	4605	4616	4637	4637	4637	4627	4627	4616	4627	4627	4627	4637	4637	4659	4693	4704	4749	4760	4772	4783	4807	4830	4842	4878	4890	4914	4939	4951	4964	4976	4989	5001	5001	5014	5014	5014	5014	5014	5027	5014	5027	5014	5014	5001	5001	5001	5001	4989	4989	4989	4976	4976	4989	5001	5001	5014	5014	5014	5027	5027	5040	5040	5027	5014	5014	5001	4976	4964	4927	4914	4902	4914	4927	4939	4951	4976	5053	5066	5079	5092	5105	5105	5105	5118	5105	5118	5145	5185	5226	5254	5296	5311	5354	5383	5398	5427	5457	5472	5488	5503	5518	5534	5549	5565	5596	5612	5644	5677	5693	5726	5743	5776	5793	5810	5828	5845	5845	5862	5862	5862	5880	5880	5880	5897	5915	5933	5950	5968	5987	5987	6005	6005	5987	6005	5987	5968	5897	5828	5760	5710	5644	5596	5581	5549	5565	5565	5596	5644	5677	5710	5743	5760	5760	5743	5726	5677	5628	5596	5565	5518	5503	5457	5457	5457	5457	5457	5442	5442	5442	5427	5427	5412	5412	5412	5412	5427	5442	5457	5472	5488	5503	5534	5549	5565	5581	5596	5612	5628	5644	5644	5661	5661	5677	5693	5710	5726	5743	5760	5793	5810	5862	5933	6005	6116	0	6292	6499	6742	7056	7371	0	7628	7902	8130	8266	8407	8479	8552	8589	8552	8515	8479	8371	8266	8163	8063	7998	7998	7998	7808	7717	7569	7540	0	0	0	0	0	0	0	0	0	0	0	0	0	0	4065	3999	3943	3912	3881	3858	3829	3799	3770	3734	3720	3706	3700	3693	3686	3686	3679	3672	3672	3672	3672	3672	3672	3672	3679	3679	3686	3686	3693	3693	3693	3700	3706	3713	3720	3720	3734	3734	3749	3749
2641	2641	2641	2641	2641	2641	2638	2638	2634	2634	2631	2624	2617	2606	2593	2582	2576	2569	2562	2559	2559	2556	2559	2566	2572	2582	2589	2603	2617	2631	2648	2659	2666	2677	2684	2699	0	2710	2717	2721	2729	2732	2740	2748	2751	2755	2755	2763	2767	2767	2767	2767	2763	2763	2763	2763	2763	2763	2763	2771	2779	2786	2794	2802	2814	2822	2834	2847	2855	2863	2867	2876	2880	2884	2888	2888	2888	2884	2888	2888	2884	2884	2884	2884	2884	2884	2888	2888	2888	2888	2892	2892	2897	2901	2905	2914	2922	2931	2944	2949	2962	2971	2980	2993	3002	3016	3025	3035	3044	3053	3063	3063	3068	3068	3068	3068	3063	3058	3058	3058	3063	3068	3068	3063	3063	3072	3082	3087	3096	3106	3111	3121	3131	3141	3146	3151	3156	3161	3171	3176	3181	3192	3192	3192	3197	3202	3207	3207	3212	3212	3212	3218	3218	3218	3218	3218	3218	3223	3228	3233	3233	3233	3239	3239	3239	3239	3249	3255	3260	3271	3282	3293	3304	3320	3337	3343	3348	3354	3360	3360	3371	3371	3371	3371	3371	3371	3371	3365	3371	3371	3377	3377	3377	3377	3371	3371	3365	3360	3360	3354	3354	3360	3365	3371	3377	3383	3389	3389	3389	3389	3389	3394	3400	3400	3406	3412	3418	3424	3430	3436	3442	3448	3454	3460	3472	3478	3478	3484	3484	3490	3490	3490	3490	3490	3490	3490	3497	3490	3497	3503	3509	3515	3521	3528	3528	3534	0	3540	3547	3553	3560	3566	0	0	0	3592	0	0	0	0	0	0	3598	3585	3579	3579	3566	3560	3553	3553	3547	3534	3534	3528	3528	3528	3528	3521	3521	3534	3540	3547	3566	3585	3618	3658	3700	3734	3763	3785	3792	3792	3814	3821	3829	3836	3843	3858	3866	3874	3889	3897	3897	3912	3928	0	3959	3983	3999	3999	3991	3991	3983	3991	3983	3975	3975	3991	4015	4040	4073	0	4099	4124	4142	4159	4185	4203	4212	4230	4239	4248	4258	4267	4267	4276	4276	4276	4276	4276	4276	4285	4295	0	4313	4342	4361	4380	4410	4429	4449	4449	4459	4470	4480	4480	4490	4490	4490	4500	4521	4531	4531	4531	4541	4552	4562	4573	0	4594	4605	0	4627	4637	4659	4648	4648	4627	4616	4627	4637	4627	4637	4648	4670	4693	4726	4749	4760	4772	4795	4807	4830	4842	4878	4902	4927	4951	0	4976	0	5001	5014	5027	5014	5027	5014	5014	5014	5014	5014	5014	5001	5001	5001	5001	5001	5001	4989	4989	4989	4989	4989	4989	4989	5001	5014	5001	5001	5014	5027	5040	5040	5027	5014	5014	5001	5001	4976	4951	4939	4927	4939	5001	5040	5066	5092	5105	5118	5118	5131	5118	5118	5118	5105	5105	5118	5145	5185	5240	5268	5311	5325	5368	5398	5412	5442	5457	5472	5488	5503	5518	5534	5549	5565	5581	5612	5628	5644	5677	5710	5726	5760	5776	5793	5810	5828	5845	5845	5862	5862	5880	5880	5897	5915	5950	5968	5987	6005	6023	6041	6041	6060	6041	6041	6023	6005	5968	5845	5776	5726	5661	5612	5581	5565	5565	5565	5596	5628	5661	5693	5710	5726	5743	5710	5693	5661	5628	5581	5565	5534	5503	5488	5472	5472	5472	5457	5457	5442	5442	5442	5427	5427	5412	5412	5412	5427	5442	5457	5472	5503	5518	5534	5565	5581	5596	5612	5628	5628	5644	5661	5661	5677	5677	5693	5693	5710	5726	5743	5760	5793	5862	5897	5987	6097	0	6272	6477	6742	7030	7344	0	7628	7902	8130	8301	8407	8552	8627	8665	8627	8589	8479	8407	8266	8163	8063	7934	7871	7808	7717	7569	7399	7344	0	0	0	0	0	0	0	0	0	0	0	0	0	4185	4057	3991	3943	3912	3874	3851	3821	3792	3763	3720	3713	3700	3686	3679	3679	3672	3672	3665	3665	3672	3672	3672	3672	3672	3679	3679	3686	3693	3693	3693	3700	3706	3713	3720	3727	3734	3742	3749	3756	3763
