317	317	316	316	316	316	316	316	316	316	316	317	317	317	317	317	318	318	319	319	319	320	320	320	320	320	320	321	321	321	321	321	321	321	322	322	322	322	322	322	322	322	322	322	321	321	321	320	320	319	319	319	319	319	320	320	320	320	320	319	319	319	318	317	317	317	317	317	317	317	317	317	317	318	318	318	318	318	318	318	319	319	319	319	319	319	319	320	320	320	320	322	322	0	0	0	0	0	0	0	0	0	0	0	0	0	225	225	225	225	224	224	224	224	224	223	223	222	222	221	221	218	217	217	216	214	213	212	212	212	212	212	212	212	212	212	212	212	212	212	213	213	213	212	212	212	213	211	211	211	211	210	210	210	210	210	210	210	210	210	211	211	211	211	211	212	212	212	212	211	211	211	210	210	210	210	210	210	210	210	210	210	210	209	209	209	209	209	209	209	209	209	209	209	209	209	209	209	208	208	209	209	209	209	209	209	209	209	210	210	209	209	209	210	209	209	209	209	210	210	210	210	210	210	210	209	209	209	208	208	208	208	208	208	208	208	208	208	208	209	208	208	207	207	0	0	0	0	0	0	0	0	0	0	0	0	0	0	0	0	0	0	0	0	0	0	0	0	883	883	886	892	903	909	914	916	909	909	909	905	890	871	871	0	0	0	0	0	0	0	0	0	0	0	0	0	0	0	0	0	0	0	0	0	0	0	0	0	0	0	0	0	0	0	0	0	0	0	0	0	0	0	0	0	0	0	0	0	0	0	0	0	0	0	0	0	0	0	0	235	235	234	234	234	234	234	233	233	232	231	231	230	230	229	228	228	228	228	228	227	227	227	227	227	227	227	227	227	227	227	227	227	226	226	226	226	226	227	0	0	0	0	0	0	0	0	0	0	0	0	0	0	0	0	0	0	0	0	0	0	0	0	0	0	0	0	0	0	0	0	0	0	0	0	0	0	0	0	0	0	0	22035	19716	19716	20811	22035	26757	31217	34055	34055	37460	41622	53514	46825	46825	41622	41622	0	0	0	0	0	0	0	0	0	0	0	0	0	0	0	0	0	0	0	0	0	0	0	0	0	0	0	0	0	0	0	0	0	0	0	0	0	0	539	533	533	0	0	517	516	516	0	500	498	497	497	499	499	499	497	497	497	498	497	496	495	494	494	494	494	494	494	495	496	499	501	504	507	510	511	0	0	0	339	339	339	339	0	0	0	0	340	340	340	341	341	341	341	341	341	342	342	341	341	341	342	342	342	343	343	343	344	345	345	346	346	346	346	346	346	346	346	347	347	347	347	347	348	348	349	349	349	350	350	350	350	349	349	348	347	347	346	345	345	344	344	343	343	342	342	342	342	342	342	342	343	343	345	346	350	355	355	356	358	358	358	356	355	353	352	349	348	348	348	348	348	348	348	348	348	349	349	349	349	349	350	350	350	350	351	352	353	354	355	357	359	360	0	0	0	0	0	0	0	0	0	0	0	346	346	345	345	345	345	345	345	344	344	344	344	343	343	343	343	343	343	342	342	342	343	0	0	0	0	0	0	0	0	0	0	0	0	0	0	0	1156	1153	1153	0	0	0	0	0	0	0	0	0	0	0	0	0	0	0	0	0	0	0	0	0	0	0	0	341	341	341	341	342	342	343	344	344	345	346	346	347	347	348	348	348	347	347	347	346
315	315	316	316	315	315	315	315	315	315	315	315	316	316	316	316	317	317	317	317	318	318	318	319	319	319	319	319	319	319	319	320	320	320	320	321	321	321	321	321	321	321	321	320	320	319	319	319	318	318	317	317	317	319	319	318	318	318	317	317	317	316	316	316	315	315	315	315	315	315	315	316	316	316	316	316	316	317	317	317	317	317	317	317	317	317	318	318	319	319	319	0	0	0	0	0	0	0	0	0	0	0	0	0	0	0	224	224	224	224	224	224	224	223	223	223	222	222	221	220	219	218	216	216	0	213	212	211	211	211	211	211	211	211	211	211	211	211	212	212	211	211	211	212	212	210	210	210	210	209	209	209	209	209	209	209	209	209	209	209	210	210	210	210	210	211	211	211	211	211	210	210	210	210	210	210	210	209	209	209	209	209	209	209	208	208	208	208	208	208	208	208	208	208	208	208	208	208	208	208	208	208	208	208	208	208	208	209	209	209	208	208	208	209	209	209	209	209	209	209	209	209	209	209	209	209	208	208	208	208	207	207	207	207	207	207	207	207	207	207	207	207	206	205	205	205	205	0	0	0	0	0	0	0	0	0	0	0	0	0	0	0	0	0	0	0	0	0	883	879	879	903	903	909	918	916	903	903	894	888	869	848	848	0	0	0	0	0	0	0	0	0	0	0	0	0	0	0	0	0	0	0	0	0	0	0	0	0	0	0	0	0	0	0	0	0	0	0	0	0	0	0	0	0	0	0	0	0	0	0	0	0	0	0	0	0	0	0	0	0	0	235	235	235	234	234	233	233	232	231	231	230	230	229	228	228	228	228	228	227	227	227	227	227	227	227	227	227	227	227	226	226	226	226	226	225	225	225	0	0	0	0	0	0	0	0	0	0	0	0	0	0	0	0	0	0	0	0	0	0	0	0	0	0	0	0	0	0	0	0	0	0	0	0	0	0	0	0	0	0	0	0	9858	9858	10406	11706	13379	23413	28815	31217	34055	41622	41622	41622	41622	37460	37460	0	0	0	0	0	0	0	0	0	0	0	0	0	0	0	0	0	0	0	0	0	0	0	0	0	0	0	0	0	0	0	0	0	0	0	0	0	0	539	537	537	537	536	525	524	524	0	508	503	501	501	506	506	501	500	500	501	501	500	499	497	497	496	496	496	497	0	0	0	0	0	0	0	0	0	0	0	339	339	339	339	339	0	0	0	338	338	339	339	339	340	340	340	340	340	340	340	340	340	340	340	340	340	341	341	341	342	342	343	343	344	344	344	344	345	345	345	345	345	345	345	346	347	347	348	348	348	349	349	349	349	348	348	347	347	346	346	345	344	343	343	343	342	342	342	342	341	341	341	342	342	342	343	344	346	0	0	0	0	0	0	0	0	0	0	347	347	347	346	346	347	347	347	347	347	347	347	347	348	348	348	348	349	349	350	351	351	353	355	357	358	360	0	0	0	0	0	0	0	0	0	0	343	343	343	343	343	343	343	343	343	343	343	342	342	342	342	342	342	342	342	342	342	342	342	342	0	0	0	0	0	0	0	0	0	0	0	0	0	0	0	0	0	0	0	0	0	0	0	0	0	0	0	0	0	0	0	0	0	0	0	0	0	0	339	339	339	340	340	340	340	341	341	342	342	343	343	344	344	345	345	346	346	346	345	345	344	343
315	315	315	315	315	315	315	315	315	315	315	315	315	315	315	315	315	316	316	316	317	317	317	317	318	318	318	318	318	318	319	319	319	319	319	319	319	319	319	319	319	319	319	319	318	318	317	317	317	316	316	316	317	317	317	316	316	316	316	315	315	315	314	314	314	314	313	313	313	313	314	314	314	314	315	315	315	315	315	315	315	316	316	316	316	316	316	317	317	317	319	0	0	0	0	0	0	0	0	0	0	0	0	0	0	224	224	224	224	224	224	223	223	223	222	222	222	221	220	219	219	216	215	214	213	212	212	211	210	210	210	210	210	210	210	210	210	210	210	210	210	210	210	209	209	209	209	208	208	208	208	208	208	208	208	208	208	208	208	208	209	209	209	209	210	210	210	210	210	0	210	210	210	210	209	209	209	209	209	209	209	208	208	208	208	207	207	207	207	207	207	207	207	207	207	207	207	207	207	207	207	207	207	208	208	208	208	208	208	208	208	208	208	208	208	208	208	208	208	208	208	208	208	208	208	208	208	207	207	207	207	206	206	206	206	206	206	206	206	206	206	206	206	205	205	205	205	0	0	0	0	0	0	0	0	0	0	0	0	0	0	0	0	0	0	0	0	0	0	879	879	900	900	909	916	914	903	900	894	888	869	848	848	0	0	0	0	0	0	0	0	0	0	0	0	0	0	0	0	0	0	0	0	0	0	0	0	0	0	0	0	0	0	0	0	0	0	0	0	0	0	0	0	0	0	0	0	0	0	0	0	0	0	0	0	0	0	0	0	0	0	0	0	0	0	0	0	233	232	232	232	230	230	229	229	228	228	228	228	227	227	227	227	227	227	227	227	227	227	227	226	226	226	226	226	225	225	225	0	0	0	0	0	0	0	0	0	0	0	0	0	0	0	0	0	0	0	0	0	0	0	0	0	0	0	0	0	0	0	0	0	0	0	0	0	0	0	0	0	0	5132	4995	4995	5429	5853	6042	6349	7068	10703	26757	34055	0	41622	41622	34055	31217	31217	31217	0	0	0	0	0	0	0	0	0	0	0	0	0	0	0	0	0	0	0	0	0	0	0	0	0	0	0	0	0	0	0	0	0	0	0	0	0	541	541	540	537	536	534	524	524	0	525	510	510	514	0	509	505	504	504	504	503	503	501	500	499	499	499	499	0	0	0	0	0	0	0	0	0	0	0	338	338	338	338	338	337	337	337	337	337	337	338	338	338	338	338	338	338	338	338	339	338	338	338	338	338	339	339	339	339	340	340	341	341	342	342	343	343	343	343	344	344	344	344	344	345	345	346	347	347	347	348	348	348	348	347	347	346	346	345	344	344	343	343	342	342	342	341	341	341	341	341	341	341	341	341	341	341	342	0	0	0	0	0	0	0	0	0	0	345	345	345	345	345	345	345	345	346	346	346	346	346	346	347	347	347	347	347	348	351	351	353	0	358	358	0	0	0	0	0	0	0	0	0	0	0	341	341	341	341	341	341	341	341	341	341	341	341	341	341	341	341	341	341	341	341	341	341	341	341	340	340	0	0	0	0	0	0	0	0	0	0	0	0	0	0	0	0	0	0	0	0	0	0	0	0	0	0	0	0	0	0	0	0	0	0	0	339	339	339	338	338	339	339	339	339	340	340	341	341	341	341	342	342	342	343	343	342	342	342	341	341
312	313	313	313	313	313	313	313	313	313	313	313	313	313	314	314	315	315	315	316	316	316	316	317	317	317	317	317	317	317	317	317	318	318	318	318	318	318	318	318	318	317	317	317	316	316	316	315	315	315	315	316	316	315	315	315	315	314	314	313	313	313	313	313	312	312	312	312	312	312	312	313	313	313	313	313	314	314	314	314	314	314	314	314	314	315	315	315	315	316	316	0	0	0	0	0	0	0	0	0	0	0	0	0	0	224	224	224	223	223	223	223	223	222	222	221	221	220	219	218	218	216	214	213	212	212	211	210	210	210	210	209	209	209	209	209	209	208	208	208	208	208	208	208	208	208	208	207	207	207	207	207	207	207	207	207	207	207	207	207	207	207	208	208	208	208	208	209	209	210	210	210	209	209	209	209	209	208	208	208	208	208	207	207	207	207	207	206	206	206	206	206	206	206	206	207	207	207	207	207	207	207	207	207	207	207	207	207	207	207	207	207	207	207	207	207	207	207	207	207	207	207	207	207	207	207	207	207	207	206	206	206	206	206	206	206	206	206	205	205	205	205	205	205	204	204	204	204	0	0	0	0	0	0	0	0	0	0	0	0	0	0	0	0	0	0	0	0	0	879	879	900	900	903	909	903	892	892	894	879	859	859	0	0	0	0	0	0	0	0	0	0	0	0	0	0	0	0	0	0	0	0	0	0	0	0	0	0	0	0	0	0	0	0	0	0	0	0	0	0	0	0	0	0	0	0	0	0	0	0	0	0	0	0	0	0	0	0	0	0	0	0	0	0	0	0	0	0	233	232	232	231	230	229	229	228	228	228	227	227	227	227	227	227	227	227	227	227	227	227	226	226	226	226	226	226	0	0	0	0	0	0	0	0	0	0	0	0	0	0	0	0	0	0	0	0	0	0	0	0	0	0	0	0	0	0	0	0	0	0	0	0	0	0	0	0	0	0	0	0	5132	4995	4995	5429	5853	6042	6349	7068	10703	26757	0	0	0	0	34055	23413	23413	23413	23413	0	0	0	0	0	0	0	0	0	0	0	0	0	0	0	0	0	0	0	0	0	0	0	0	0	0	0	0	0	0	0	0	0	0	0	0	0	542	542	541	536	534	534	534	0	525	518	514	514	0	0	509	507	507	507	507	0	0	0	501	501	0	0	0	0	0	0	0	0	0	0	336	336	336	337	337	337	337	337	337	337	337	336	336	336	336	336	336	336	337	337	337	337	337	337	337	337	337	337	337	337	337	337	337	337	338	338	339	339	340	340	340	341	341	341	342	342	342	343	343	344	345	346	346	346	347	347	347	347	347	346	345	344	344	343	342	342	341	341	341	341	341	341	341	340	340	340	340	340	340	340	340	342	0	0	0	0	0	0	0	0	0	342	342	342	342	342	343	343	343	344	344	344	345	345	345	345	346	346	346	346	347	347	348	0	0	0	0	0	0	0	0	0	0	0	0	0	0	0	0	339	339	339	339	340	340	340	340	340	340	340	340	340	340	340	340	340	340	340	340	340	340	339	339	339	339	0	0	0	0	0	0	0	0	0	0	0	0	0	0	0	0	0	0	0	0	0	0	0	0	0	0	0	0	0	0	0	0	0	0	339	338	338	337	337	337	337	337	337	337	337	338	338	339	339	339	339	339	339	339	339	339	339	339	339	338
310	311	311	311	311	311	311	311	311	311	311	311	312	312	312	313	313	313	313	314	314	314	315	315	315	315	316	316	316	316	317	317	317	317	317	317	317	317	317	317	317	317	316	315	315	315	314	314	313	313	315	314	314	313	313	313	313	312	312	312	312	312	312	311	311	311	311	311	311	311	311	312	312	312	312	312	312	312	313	313	313	313	313	313	313	313	314	314	315	315	316	0	0	0	0	0	0	0	0	0	0	0	0	0	0	224	223	223	223	223	223	223	222	222	221	221	220	219	218	218	216	215	213	212	211	211	210	210	209	209	209	209	209	208	208	208	207	207	207	207	207	207	206	206	206	206	206	206	206	206	206	206	206	206	206	206	206	206	206	207	207	207	207	207	207	207	207	209	209	209	209	209	209	209	208	208	208	208	208	207	207	207	207	206	206	206	206	205	205	205	205	205	205	205	205	205	206	206	206	206	206	206	206	206	206	206	207	207	207	207	206	206	206	207	207	206	206	206	206	207	206	206	206	206	206	206	206	206	206	206	206	205	205	205	205	205	205	205	205	205	205	205	204	204	204	204	203	203	0	0	203	203	0	0	0	0	0	0	0	0	0	0	0	0	0	0	0	0	0	0	0	0	903	903	905	903	892	892	0	867	849	831	831	0	0	0	0	0	0	0	0	0	0	0	0	0	0	0	0	0	0	0	0	0	0	0	0	0	0	0	0	0	0	0	0	0	0	0	0	0	0	0	0	0	0	0	0	0	0	0	0	0	0	0	0	0	0	0	0	0	0	0	0	0	0	0	0	0	0	0	0	231	231	0	0	229	228	228	227	227	227	227	227	227	227	227	227	0	0	227	226	226	226	226	0	0	0	0	0	0	0	0	0	0	0	0	0	0	0	0	0	0	0	0	0	0	0	0	0	0	0	0	0	0	0	0	0	0	0	0	0	0	0	0	0	0	0	0	0	0	0	0	0	0	0	0	0	0	0	0	0	0	0	0	0	23413	23413	23413	23413	0	0	0	0	0	0	0	0	0	0	0	0	0	0	0	0	0	0	0	0	0	0	0	0	0	0	0	0	0	0	0	0	0	0	0	0	0	542	542	541	541	540	538	538	0	532	526	519	519	0	0	0	508	508	508	0	0	0	0	0	0	0	0	0	0	0	0	0	0	0	0	335	335	336	336	336	336	336	336	336	336	335	335	335	335	335	335	335	335	335	335	335	335	335	335	335	335	335	335	335	335	335	335	335	335	336	336	336	337	337	337	337	338	338	338	339	339	340	340	340	341	342	342	343	343	344	344	345	345	344	344	343	343	342	342	341	341	341	341	340	340	340	340	340	339	339	339	339	338	338	337	337	337	0	0	0	0	0	0	0	0	0	337	337	338	339	340	341	341	342	342	343	343	344	344	344	344	345	345	345	345	346	346	347	0	0	0	0	0	0	0	0	0	0	0	335	335	0	0	337	337	337	337	338	338	338	338	338	338	338	338	339	338	338	339	339	339	339	339	339	338	338	338	337	337	339	0	0	0	0	0	0	0	0	0	0	0	0	0	0	0	0	0	0	0	0	0	0	0	0	0	0	0	0	0	0	0	0	0	0	337	337	336	336	336	336	335	335	335	335	336	336	336	336	337	337	337	337	337	337	337	337	337	337	337	336
308	308	309	309	309	309	309	309	309	309	309	309	310	310	310	311	311	311	311	312	312	312	312	312	313	313	313	313	314	314	314	314	314	314	315	315	315	315	315	314	314	314	314	313	313	312	312	312	313	313	313	312	312	312	312	312	312	311	311	311	311	311	311	310	310	310	310	310	310	310	310	310	311	311	311	311	311	312	312	312	312	312	312	313	313	313	313	313	314	315	0	0	0	0	0	0	0	0	0	0	0	0	0	0	224	223	223	223	223	223	222	222	222	221	220	220	219	218	217	217	215	214	212	212	211	211	210	209	209	209	208	208	208	208	207	207	207	206	206	206	205	205	205	205	205	205	206	206	206	206	206	206	206	206	206	206	206	206	206	206	206	206	206	206	206	206	207	0	0	209	209	209	209	209	208	207	207	207	207	207	206	206	206	206	205	205	205	204	204	204	204	204	204	204	204	205	205	205	205	205	205	205	206	206	206	206	206	206	206	206	206	206	206	206	206	206	206	206	206	206	205	205	205	205	205	205	205	205	205	205	205	205	205	205	205	205	205	205	205	204	204	204	204	204	203	203	203	203	203	202	202	202	202	0	0	0	0	0	0	0	0	0	0	0	0	0	0	0	0	0	0	0	0	0	905	905	0	0	0	844	827	827	831	0	0	0	0	0	0	0	0	0	0	0	0	0	0	0	0	0	0	0	0	0	0	0	0	0	0	0	0	0	0	0	0	0	0	0	0	0	0	0	0	0	0	0	0	0	0	0	0	0	0	0	0	0	0	0	0	0	0	0	0	0	0	0	0	0	0	0	0	0	0	0	0	0	0	0	0	0	227	227	227	227	227	0	0	0	0	0	0	0	0	0	0	0	0	0	0	0	0	0	0	0	0	0	0	0	0	0	0	0	0	0	0	0	0	0	0	0	0	0	0	0	0	0	0	0	0	0	0	0	0	0	0	0	0	0	0	0	0	0	0	0	0	0	0	0	0	0	0	0	0	0	0	0	0	0	0	0	0	0	0	0	0	0	0	0	0	0	0	0	0	0	0	0	0	0	0	0	0	0	0	0	0	0	0	0	0	0	0	0	0	0	0	0	542	542	543	542	542	543	0	0	0	531	531	0	0	0	0	0	0	0	0	0	0	0	0	0	0	0	0	0	0	0	0	0	0	0	335	335	336	336	336	336	336	336	336	335	335	334	334	334	333	333	333	333	333	333	333	333	333	333	333	333	333	333	333	333	333	333	333	334	334	334	334	334	334	334	335	335	336	336	336	336	337	337	337	338	339	339	340	340	341	341	341	342	342	342	341	341	341	341	340	340	340	340	340	340	339	339	339	338	338	338	337	336	336	335	334	334	0	0	0	0	0	0	0	0	0	334	334	335	336	337	338	339	340	341	341	342	343	343	343	344	344	344	345	345	345	345	347	0	0	0	0	0	0	0	0	0	0	0	334	334	335	335	336	336	336	336	336	337	337	337	337	337	337	337	337	337	337	337	337	337	337	337	337	337	337	336	336	335	335	0	0	0	0	0	0	0	0	0	0	0	0	0	0	0	0	0	0	0	0	0	0	0	0	0	0	0	0	0	0	0	0	0	337	336	335	335	334	334	334	334	334	334	334	334	334	334	334	334	334	334	334	334	334	334	335	335	335	335	334
307	307	307	307	307	307	307	307	307	307	308	308	308	308	309	309	309	309	309	310	310	310	310	310	310	311	311	311	311	311	311	311	312	312	312	312	312	312	312	312	312	312	312	312	311	311	311	312	312	312	311	311	311	311	311	310	310	310	310	310	309	309	309	309	309	309	309	309	309	309	309	309	310	310	310	310	311	311	311	311	312	312	312	312	312	312	313	313	314	0	0	0	0	0	0	0	0	0	0	0	0	0	0	0	223	223	223	223	222	222	222	222	221	221	220	219	219	218	216	215	214	213	212	211	210	210	210	209	209	208	208	208	207	207	207	206	206	206	205	205	205	205	205	205	205	205	205	205	205	205	205	205	205	205	205	205	205	205	205	205	205	205	205	205	205	205	0	0	0	0	0	0	0	0	208	207	207	206	206	206	206	205	205	205	204	204	204	203	203	203	203	203	203	203	203	203	204	204	204	204	204	205	205	205	205	205	205	205	205	205	205	205	205	205	205	205	205	205	205	204	204	204	204	204	204	204	204	204	204	204	204	204	204	204	204	204	204	204	204	204	204	204	204	203	203	203	202	202	202	202	202	202	202	0	0	0	0	0	0	0	0	0	0	0	0	0	0	0	0	0	0	0	0	0	0	0	0	0	0	844	827	827	0	0	0	0	0	0	0	0	0	0	0	0	0	0	0	0	0	0	0	0	0	0	0	0	0	0	0	0	0	0	0	0	0	0	0	0	0	0	0	0	0	0	0	0	0	0	0	0	0	0	0	0	0	0	0	0	0	0	0	0	0	0	0	0	0	0	0	0	0	0	0	0	0	0	0	0	0	0	0	0	0	0	0	0	0	0	0	0	0	0	0	0	0	0	0	0	0	0	0	0	0	0	0	0	0	0	0	0	0	0	0	0	0	0	0	0	0	0	0	0	0	0	0	0	0	0	0	0	0	0	0	0	0	0	0	0	0	0	0	0	0	0	0	0	0	0	0	0	0	0	0	0	0	0	0	0	0	0	0	0	0	0	0	0	0	0	0	0	0	0	0	0	0	0	0	0	0	0	0	0	0	0	0	0	0	0	0	0	0	0	0	0	0	0	0	539	539	540	541	541	0	0	0	0	0	0	0	0	0	0	0	0	0	0	0	0	0	0	0	0	0	0	0	0	0	0	0	0	335	335	336	336	336	336	336	336	336	335	334	334	334	333	333	332	332	332	332	332	332	332	332	332	332	332	332	332	332	332	332	332	332	332	332	332	332	332	332	332	333	333	333	334	334	334	334	334	335	335	336	337	337	338	338	338	339	339	339	339	339	339	339	339	339	339	339	339	339	339	338	338	338	337	337	336	336	335	334	333	332	332	332	0	0	0	0	0	0	0	331	331	332	332	334	334	335	337	337	338	339	340	341	342	342	343	343	344	344	344	344	344	0	0	0	0	0	0	0	0	0	0	0	334	334	334	334	334	334	334	334	334	334	334	335	335	335	335	335	335	335	335	335	335	335	335	335	335	335	335	335	334	334	334	333	333	333	0	0	0	0	0	0	0	0	0	0	0	0	0	0	0	0	0	0	0	0	0	0	0	0	0	0	0	0	0	0	0	337	336	335	335	334	332	332	332	332	332	332	332	332	332	332	332	332	332	332	332	332	332	332	333	333	333	333
305	305	305	305	305	305	305	305	305	305	305	306	306	306	306	306	307	307	307	307	307	307	307	308	308	308	308	308	308	308	309	309	309	309	309	309	309	309	310	310	310	310	310	310	310	310	311	310	310	310	310	310	310	309	309	309	309	309	309	308	308	308	308	308	308	308	308	308	308	308	308	308	309	309	309	310	310	310	310	311	311	311	311	312	312	312	312	313	0	0	0	0	0	0	0	0	0	0	0	0	0	0	0	0	223	223	222	222	222	222	222	221	221	220	220	219	218	217	215	214	213	212	211	210	210	209	209	209	208	208	207	207	207	206	206	206	206	205	205	205	205	205	205	205	204	204	205	205	205	205	205	205	205	205	205	205	205	205	204	204	204	204	204	204	203	203	203	0	0	0	0	0	0	0	0	0	205	204	204	204	204	204	204	204	203	203	203	202	202	202	202	202	202	202	202	202	202	203	203	203	203	203	204	204	204	204	205	205	205	205	205	204	204	204	204	204	204	204	204	203	203	203	203	203	203	203	203	203	203	204	204	204	204	204	204	204	204	204	204	204	204	203	203	203	203	202	202	202	202	202	202	202	202	202	0	0	0	0	0	0	0	0	0	0	0	0	0	0	0	0	0	0	0	0	0	0	0	0	0	0	0	0	0	0	0	0	0	0	0	0	0	0	0	0	0	0	0	0	0	0	0	0	0	0	0	0	0	0	0	0	0	0	0	0	0	0	0	0	0	0	0	0	0	0	0	0	0	0	0	0	0	0	0	0	0	0	0	0	0	0	0	0	0	0	0	0	0	0	0	0	0	0	0	0	0	0	0	0	0	0	0	0	0	0	0	0	0	0	0	0	0	0	0	0	0	0	0	0	0	0	0	0	0	0	0	0	0	0	0	0	0	0	0	0	0	0	0	0	0	0	0	0	0	0	0	0	0	0	0	0	0	0	0	0	0	0	0	0	0	0	0	0	0	0	0	0	0	0	0	0	0	0	0	0	0	0	0	0	0	0	0	0	0	0	0	0	0	0	0	0	0	0	0	0	0	0	0	0	0	0	0	0	0	0	0	0	0	0	0	0	0	0	0	0	0	0	537	537	537	537	537	538	539	0	0	0	0	0	0	0	502	501	501	501	0	0	0	0	0	0	0	0	0	0	0	0	0	0	0	0	335	335	335	335	335	335	335	335	335	334	334	333	333	332	332	332	331	331	331	331	331	331	331	332	332	331	331	331	331	330	330	330	330	330	330	330	330	330	331	331	331	331	331	332	332	332	332	333	333	333	333	334	335	335	335	335	336	336	336	337	337	337	337	337	337	337	337	338	337	337	337	337	337	336	336	335	334	333	332	331	330	329	328	328	0	0	0	0	0	0	328	328	329	330	331	332	333	334	334	336	337	337	339	340	341	342	342	343	343	344	344	344	0	0	0	0	0	0	0	0	0	0	0	333	333	333	333	333	333	333	333	333	333	333	333	333	333	333	333	333	333	333	333	333	333	334	334	333	333	333	333	332	332	331	331	331	330	330	0	0	0	0	0	0	0	0	0	0	0	0	0	0	0	0	0	0	0	0	0	0	0	0	0	0	0	0	0	0	0	0	0	0	330	330	330	330	329	329	329	330	330	330	330	330	330	330	330	330	330	330	330	331	331	331	331
303	303	303	303	303	303	303	303	303	303	303	303	303	303	304	304	304	304	304	304	304	304	305	305	305	305	305	306	306	306	306	306	306	306	306	306	306	306	307	307	307	307	306	306	306	309	309	309	309	309	309	308	308	308	308	308	308	308	307	307	307	307	307	307	307	306	306	306	306	307	307	307	307	308	308	308	309	309	310	310	310	311	311	311	312	312	312	313	0	0	0	0	0	0	0	0	0	0	0	0	0	0	0	0	223	223	222	222	222	222	221	221	220	220	219	218	218	217	214	213	212	211	210	209	209	208	208	208	207	207	206	206	206	205	205	205	205	205	205	205	204	204	204	204	204	204	204	204	204	204	204	204	204	204	204	204	204	204	204	203	203	203	202	202	202	201	201	201	201	0	0	0	0	0	0	203	203	203	203	203	203	203	203	202	202	202	202	201	201	201	201	201	201	201	201	201	202	202	202	202	202	203	203	203	203	204	204	204	204	204	204	204	204	203	203	203	203	203	202	202	202	202	202	202	202	202	202	202	202	203	203	203	203	203	203	203	204	203	203	203	203	203	203	202	202	202	202	202	202	202	202	202	202	202	202	202	0	0	0	0	0	0	0	0	0	0	0	0	0	0	0	0	0	0	0	0	0	0	0	0	0	0	0	0	0	0	0	0	0	0	0	0	0	0	0	0	0	0	0	0	0	0	0	0	0	0	0	0	0	0	0	0	0	0	0	0	0	0	0	0	0	0	0	0	0	0	0	0	0	0	0	0	0	0	0	0	0	0	0	0	0	0	0	0	0	0	0	0	0	0	0	0	0	0	0	0	0	0	0	0	0	0	0	0	0	0	0	0	0	0	0	0	0	0	0	0	0	0	0	0	0	0	0	0	0	0	0	0	0	0	0	0	0	0	0	0	0	0	0	0	0	0	0	0	0	0	0	0	0	0	0	0	0	0	0	0	0	0	0	0	0	0	0	0	0	0	0	0	0	0	0	0	0	0	0	0	0	0	0	0	0	0	0	0	0	0	0	0	0	0	0	0	0	0	0	0	0	0	0	0	0	0	0	0	0	0	0	0	0	0	0	0	533	533	534	535	536	537	536	535	535	535	536	0	0	0	0	0	508	506	502	501	501	501	507	508	0	0	0	0	0	0	0	0	0	0	0	0	0	0	335	335	335	335	335	335	335	334	334	334	334	332	332	332	331	331	330	330	330	330	330	330	330	330	330	329	329	329	329	329	328	328	328	328	328	328	328	328	329	329	329	329	329	329	330	330	330	330	331	331	331	332	332	332	332	332	333	333	333	334	334	334	335	335	335	336	336	337	337	337	336	336	336	335	335	334	333	332	331	330	329	328	327	326	326	0	324	324	325	325	325	326	327	328	328	329	330	331	332	332	334	335	336	337	338	340	341	341	341	344	0	0	0	0	0	0	0	0	0	0	0	0	0	332	332	332	332	332	332	332	332	332	331	331	331	331	331	331	331	331	331	331	331	331	331	331	331	331	331	331	330	330	329	329	329	328	328	328	0	0	0	0	0	0	0	0	0	0	0	0	0	0	0	0	0	0	0	0	0	0	0	0	0	0	0	0	0	0	329	329	328	328	328	327	327	327	327	327	327	327	328	328	328	328	328	328	328	328	328	328	329	329	329	330	330
301	301	301	301	301	301	301	301	301	301	301	301	301	301	301	301	301	301	302	302	302	302	302	302	302	303	303	303	303	303	303	303	304	304	304	304	303	303	304	304	304	304	304	306	306	306	306	306	306	306	306	306	306	306	306	306	306	306	306	306	306	306	305	305	305	305	305	305	305	305	305	305	306	306	307	307	308	308	309	309	310	310	311	311	312	312	312	313	313	313	313	0	0	0	0	0	0	0	0	0	0	0	0	0	0	223	222	222	222	222	221	220	220	219	218	217	216	214	214	213	212	210	209	208	208	207	207	207	206	206	205	205	205	204	204	204	204	204	204	204	204	203	203	203	203	203	203	203	203	204	204	204	204	204	203	203	203	203	203	202	202	202	201	201	201	200	200	200	201	0	0	0	0	0	201	201	202	202	202	202	202	202	202	202	201	201	201	200	200	200	200	200	200	200	200	200	201	201	201	201	202	202	202	202	202	203	203	203	203	203	203	203	203	203	202	202	202	202	202	202	202	201	201	201	201	201	201	202	202	202	202	202	202	203	203	203	203	203	203	203	203	202	202	202	202	202	202	202	202	202	202	202	202	202	202	202	203	203	203	0	0	0	0	0	0	0	0	0	0	0	0	0	0	0	0	0	0	0	0	0	0	0	0	0	0	0	0	0	0	0	0	0	0	0	0	0	0	0	0	0	0	0	0	0	0	0	0	0	0	0	0	0	0	0	0	0	0	0	0	0	0	0	0	0	0	0	0	0	0	0	0	0	0	0	0	0	0	0	0	0	0	0	0	0	0	0	0	0	0	0	0	0	0	0	0	0	0	0	0	0	0	0	0	0	0	0	0	0	0	0	0	0	0	0	0	0	0	0	0	0	0	0	0	0	0	0	0	0	0	0	0	0	0	0	0	0	0	0	0	0	0	0	0	0	0	0	0	0	0	0	0	0	0	0	0	0	0	0	0	0	0	0	0	0	0	0	0	0	0	0	0	0	0	0	0	0	0	0	0	0	0	0	0	0	0	0	0	0	0	0	0	0	0	0	0	0	0	0	0	0	0	0	0	0	0	0	0	0	0	0	533	533	533	533	534	534	534	535	534	534	534	534	534	0	0	0	0	0	508	506	506	506	506	506	507	508	515	516	519	520	0	0	0	0	0	0	0	0	0	0	0	0	335	335	335	335	335	334	334	0	0	332	332	330	330	329	329	329	329	329	329	329	329	329	328	328	327	327	327	327	327	326	326	326	326	326	327	327	327	327	327	327	328	328	328	329	329	329	329	329	329	329	329	329	330	330	330	330	330	330	331	331	332	332	333	333	334	334	334	334	334	334	334	334	333	332	331	330	329	328	327	326	325	325	325	324	324	324	324	324	324	325	325	325	326	326	327	327	328	329	330	332	333	334	335	337	338	339	340	0	0	0	0	0	0	0	0	0	0	0	0	0	0	330	330	331	331	331	331	330	330	330	329	329	329	329	329	329	329	329	329	329	329	329	329	329	329	329	329	329	328	328	328	327	327	327	327	328	0	0	0	0	0	0	0	0	0	0	0	0	0	0	0	0	0	0	0	0	0	0	0	0	0	0	0	0	0	327	326	326	325	325	325	325	325	325	325	325	325	325	325	326	326	326	326	326	326	327	327	327	327	327	328	328	328
300	300	300	300	300	300	300	300	299	299	300	300	299	299	300	299	299	300	300	300	300	300	300	300	300	300	300	301	301	301	301	301	301	301	301	301	301	301	301	301	301	301	304	303	303	303	303	303	303	303	303	303	304	304	304	304	304	304	304	304	304	304	304	304	303	303	303	303	303	304	304	304	304	304	305	306	306	307	308	309	309	310	310	311	311	312	312	312	312	313	313	0	0	0	0	0	0	0	0	0	0	0	0	0	0	0	222	222	222	221	221	220	220	219	216	215	214	214	214	0	0	208	207	207	206	206	206	206	205	205	204	204	204	203	203	204	204	204	204	204	203	202	202	202	202	202	202	203	203	203	203	203	203	203	203	203	202	202	202	202	201	201	201	200	200	200	200	200	0	0	199	199	0	200	200	200	201	201	201	201	201	201	201	201	201	200	200	200	200	200	200	200	200	200	200	200	200	200	201	201	201	201	201	202	202	202	202	203	203	203	203	203	203	202	202	202	202	202	202	201	201	201	201	201	201	201	201	201	202	202	202	202	202	202	202	202	203	203	202	202	202	202	202	202	202	202	202	202	202	202	202	202	202	202	202	202	202	202	202	203	0	0	0	0	202	202	0	0	0	0	0	0	0	0	0	0	0	0	0	0	0	0	0	0	0	0	0	0	0	0	0	0	0	0	0	0	0	0	0	0	0	0	0	0	0	0	0	0	0	0	0	0	0	0	0	0	0	0	0	0	0	0	0	0	0	0	0	0	0	0	0	0	0	0	0	0	0	0	0	0	0	0	0	0	0	0	0	0	0	0	0	0	0	0	0	0	0	0	0	0	0	0	0	0	0	0	0	0	0	0	0	0	0	0	0	0	0	0	0	0	0	0	0	0	0	0	0	0	0	0	0	0	0	0	0	0	0	0	0	0	0	0	0	0	0	0	0	0	0	0	0	0	0	0	0	0	0	0	0	0	0	0	0	0	0	0	0	0	0	0	0	0	0	0	0	0	0	0	0	0	0	0	0	0	0	0	0	0	0	0	0	0	0	0	0	0	0	0	0	0	0	0	0	0	0	0	0	0	534	534	533	533	533	533	534	534	534	534	534	534	533	533	534	0	0	0	0	0	510	510	510	510	510	510	511	513	515	516	519	520	0	0	0	0	0	0	0	0	0	0	0	0	0	0	0	0	0	0	0	0	0	0	0	330	330	328	328	328	328	328	328	328	328	327	327	326	326	325	325	325	325	325	324	324	324	324	325	325	325	326	326	326	327	327	327	327	327	327	328	327	327	327	327	328	328	328	328	328	328	328	329	329	329	330	331	331	331	332	332	331	331	331	331	331	330	329	328	328	327	327	326	325	324	324	324	324	324	323	323	323	323	323	324	324	324	324	325	325	325	326	327	327	329	331	332	334	335	339	340	0	0	0	0	0	0	0	0	0	0	0	0	0	0	328	328	328	329	329	329	328	328	328	327	327	327	327	327	327	327	327	327	327	327	327	327	327	327	327	327	326	326	326	326	325	325	325	325	0	0	0	0	0	0	0	0	0	0	0	0	0	0	0	0	0	0	0	0	0	0	0	0	0	0	0	0	0	0	327	323	323	323	323	323	323	323	323	323	323	323	323	323	324	324	324	324	324	325	325	325	325	325	326	326	327	327
298	298	298	298	298	298	298	298	298	298	298	298	298	298	298	298	298	298	298	298	298	298	298	299	299	299	299	299	299	299	299	299	300	300	299	299	299	299	299	299	299	301	301	301	301	301	301	301	301	301	301	301	301	301	302	302	302	302	302	302	302	302	302	302	302	302	302	302	302	302	302	302	303	303	303	304	305	306	306	307	308	309	309	310	310	311	311	311	311	311	312	0	0	0	0	0	0	0	0	0	0	0	0	0	0	0	0	222	221	221	221	221	0	0	214	213	213	214	0	0	0	206	206	205	205	205	205	205	204	203	203	203	202	202	202	0	0	0	0	0	203	201	201	201	201	202	202	202	202	202	202	202	202	202	202	202	202	202	201	201	201	200	200	199	199	199	199	199	199	199	199	199	199	199	199	200	200	200	200	201	201	201	201	200	200	200	200	200	199	199	199	199	199	199	199	200	200	200	200	200	201	201	201	201	202	202	202	202	202	202	202	202	202	202	202	202	201	201	201	201	201	201	201	201	201	201	201	201	201	201	202	202	202	202	202	202	202	202	202	202	202	202	202	202	202	202	202	202	202	202	202	202	202	202	202	202	202	202	202	202	202	202	203	202	202	202	202	0	0	0	0	0	0	0	0	0	0	0	0	0	0	0	0	0	0	0	0	0	0	0	0	0	0	0	0	0	0	0	0	0	0	0	0	0	0	0	0	0	0	0	0	0	0	0	0	0	0	0	0	0	0	0	0	0	0	0	0	0	0	0	0	0	0	0	0	0	0	0	0	0	0	0	0	0	0	0	0	0	0	0	0	0	0	0	0	0	0	0	0	0	0	0	0	0	0	0	0	0	0	0	0	0	0	0	0	0	0	0	0	0	0	0	0	0	0	0	0	0	0	0	0	0	0	0	0	0	0	0	0	0	0	0	0	0	0	0	0	0	0	0	0	0	0	0	0	0	0	0	0	0	0	0	0	0	0	0	0	0	0	0	0	0	0	0	0	0	0	0	0	0	0	0	0	0	0	0	0	0	0	0	0	0	0	0	0	0	0	0	0	0	0	0	0	0	0	0	0	0	534	534	533	533	533	533	534	534	534	534	534	534	533	532	531	530	528	523	520	519	515	515	514	514	514	515	515	517	518	520	522	524	0	0	0	0	0	0	0	0	0	0	0	0	0	0	0	0	0	0	0	0	0	0	0	0	0	328	328	327	327	327	327	327	326	326	325	325	324	324	323	323	323	323	323	322	322	322	323	323	323	324	324	324	325	325	325	326	326	326	326	326	326	326	326	326	326	326	326	326	326	326	327	327	327	328	328	329	329	329	329	328	328	328	328	328	327	326	326	325	325	325	324	323	323	323	323	323	323	323	323	323	323	323	322	322	322	322	322	322	322	322	323	324	325	331	332	334	335	0	0	0	0	0	0	0	0	0	0	0	0	0	0	0	323	323	325	326	326	326	326	326	326	325	325	325	325	325	325	325	325	325	325	324	324	324	325	325	325	325	325	324	324	324	324	324	324	323	323	323	0	0	0	0	0	0	0	0	0	0	0	0	0	0	0	0	0	0	0	0	0	0	0	0	0	0	0	0	0	0	323	322	322	322	322	322	321	321	321	321	321	322	322	322	322	322	323	323	323	323	323	323	324	324	324	325	325
297	297	297	298	298	298	297	297	297	298	298	298	297	297	297	297	297	297	297	297	297	297	297	297	298	298	298	298	298	298	298	298	298	298	298	298	298	298	297	297	299	299	298	298	298	298	298	298	298	299	299	299	299	299	300	300	300	300	300	300	300	300	300	300	300	300	300	300	300	301	301	301	301	301	302	302	303	304	305	306	307	307	308	308	309	309	310	310	310	310	312	0	0	0	0	0	0	0	0	0	0	0	0	0	0	0	0	0	221	221	0	0	0	0	214	213	213	207	207	0	205	204	204	204	204	204	204	204	204	202	202	202	201	201	201	0	0	0	0	0	0	201	201	201	201	201	201	202	202	202	202	202	202	202	202	201	201	201	201	200	200	200	199	199	199	199	199	198	198	199	199	199	199	199	199	200	200	200	200	200	200	200	200	200	200	200	200	199	199	199	199	199	199	199	199	199	200	200	200	200	200	201	201	201	201	201	202	202	202	202	202	202	202	202	202	201	201	201	201	201	200	200	200	200	200	200	200	201	201	201	201	201	201	201	201	202	202	202	202	202	202	202	202	202	202	202	202	202	202	202	202	202	202	202	202	202	202	202	202	202	202	202	202	202	202	202	202	0	0	0	0	0	0	0	0	0	0	0	0	0	0	0	0	0	0	0	0	0	0	0	0	0	0	0	0	0	0	0	0	0	0	0	0	0	0	0	0	0	0	0	0	0	0	0	0	0	0	0	0	0	0	0	0	0	0	0	0	0	0	0	0	0	0	0	0	0	0	0	0	0	0	0	0	0	0	0	0	0	0	0	0	0	0	0	0	0	0	0	0	0	0	0	0	0	0	0	0	0	0	0	0	0	0	0	0	0	0	0	0	0	0	0	0	0	0	0	0	0	0	0	0	0	0	0	0	0	0	0	0	0	0	0	0	0	0	0	0	0	0	0	0	0	0	0	0	0	0	0	0	0	0	0	0	0	0	0	0	0	0	0	0	0	0	0	0	0	0	0	0	0	0	0	0	0	0	0	0	0	0	0	0	0	0	0	0	0	0	0	0	0	0	0	0	0	0	0	0	0	534	534	534	533	533	533	534	533	533	533	532	532	531	531	531	528	527	523	520	519	517	517	516	516	517	517	517	519	520	521	524	525	0	0	0	0	0	0	0	0	0	0	0	0	0	0	0	0	0	0	0	0	0	0	0	0	0	0	0	327	327	325	325	325	324	323	323	322	322	321	321	320	320	320	320	320	321	321	321	321	322	322	323	323	323	323	324	324	325	325	325	325	325	325	325	325	325	325	325	325	325	325	325	326	326	326	327	327	327	327	326	326	325	325	325	325	324	323	323	323	323	323	323	322	322	322	322	323	323	323	322	322	322	322	322	321	321	320	320	320	320	320	320	321	321	322	323	325	326	328	0	0	0	0	0	0	0	0	0	0	0	0	319	319	320	321	322	323	323	323	324	324	323	323	323	323	323	323	323	323	323	323	323	323	323	323	323	323	323	323	322	322	322	322	322	322	322	322	321	321	0	0	0	0	0	0	0	0	0	0	0	0	0	0	0	0	0	0	0	0	0	0	0	0	0	0	0	0	0	0	323	321	321	320	320	320	320	320	320	320	320	320	320	320	320	321	321	321	321	321	322	322	322	322	322	322	322
296	296	296	296	296	296	296	296	296	296	296	296	295	295	295	295	295	295	295	295	296	296	296	296	296	297	297	297	297	297	297	297	297	297	296	296	296	296	296	297	297	297	296	296	296	296	296	296	296	296	297	297	297	297	298	298	298	298	299	299	299	299	299	299	299	299	299	299	299	299	299	299	300	300	300	301	302	303	304	304	305	306	306	307	307	308	308	309	310	310	0	0	0	0	0	0	0	0	0	0	0	0	0	0	0	0	0	0	0	0	0	0	0	0	0	205	204	204	207	0	203	203	203	203	203	203	203	202	202	201	201	201	200	200	199	199	0	199	199	199	199	199	200	200	200	200	200	201	201	201	201	201	201	201	201	201	200	200	200	200	200	199	199	199	199	198	198	198	198	198	198	198	199	199	199	199	199	200	200	199	199	200	200	199	199	199	199	199	199	199	199	199	199	199	199	199	200	200	200	200	200	200	201	201	201	201	201	202	202	202	202	202	202	201	201	201	201	201	201	200	200	200	200	200	200	200	200	200	201	201	201	201	201	201	201	201	201	201	201	201	201	201	201	201	201	201	201	202	202	202	202	202	202	202	202	202	202	202	202	202	202	202	202	202	202	202	202	202	202	0	0	0	0	0	0	0	0	0	0	0	0	0	0	0	0	0	0	0	0	0	0	0	248	248	0	0	0	0	0	0	0	0	0	0	0	0	0	0	0	0	0	0	0	0	0	0	0	0	0	0	0	0	0	0	0	0	0	0	0	0	0	0	0	0	0	0	0	0	0	0	0	0	0	0	0	0	0	0	0	0	0	0	0	0	0	0	0	0	0	0	0	0	0	0	0	0	0	0	0	0	0	0	0	0	0	0	0	0	0	0	0	0	0	0	0	0	0	0	0	0	0	0	0	0	0	0	0	0	0	0	0	0	0	0	0	0	0	0	0	0	0	0	0	0	0	0	0	0	0	0	0	0	0	0	200	200	199	199	0	0	0	0	0	0	0	0	0	0	0	0	0	0	0	0	0	0	0	0	0	0	0	0	0	0	914	914	0	0	0	0	0	0	0	0	0	0	0	0	534	534	534	533	533	533	534	533	532	532	532	532	531	531	531	528	527	524	522	521	520	520	518	518	518	519	520	520	521	522	524	525	0	0	0	0	0	0	0	0	0	0	0	0	0	0	0	0	0	0	0	0	0	0	0	0	0	0	0	0	0	325	322	322	321	321	320	319	319	319	318	318	318	318	318	318	319	319	319	320	320	320	320	321	321	322	322	322	322	323	323	323	323	323	323	323	323	324	324	324	324	324	324	325	325	325	325	325	325	325	324	324	323	323	323	323	322	322	323	320	320	321	320	320	321	321	321	322	322	322	322	322	321	321	320	320	320	319	319	319	318	318	318	318	318	318	319	325	326	328	0	0	0	0	0	0	0	0	0	0	0	0	317	317	318	319	320	320	321	321	321	321	321	321	321	321	321	321	321	321	321	321	321	321	321	321	321	321	321	321	320	320	320	320	320	320	320	320	319	319	0	0	0	0	0	0	0	0	0	0	0	0	0	0	0	0	0	0	0	0	0	0	0	0	0	0	0	0	0	0	0	320	319	319	319	319	318	318	318	318	318	318	319	319	319	319	319	319	320	320	320	320	320	320	320	320	320
295	295	295	295	295	295	294	294	294	294	294	294	294	294	294	294	294	294	294	294	294	295	295	295	295	295	296	296	296	296	296	296	296	295	295	295	295	296	296	295	295	295	295	294	294	294	294	294	294	294	294	294	295	295	295	296	296	297	297	297	297	297	297	297	297	297	297	297	298	298	298	298	298	298	299	299	300	301	302	303	304	304	305	305	305	306	308	309	0	0	0	0	0	0	0	0	0	0	0	0	0	0	0	0	0	0	0	0	0	0	0	0	0	0	0	205	202	202	202	202	202	202	202	202	202	202	202	201	201	200	200	200	199	199	199	198	198	198	198	198	198	199	199	199	200	200	200	200	201	200	200	200	200	200	200	200	200	199	199	199	199	199	199	199	198	198	198	198	198	198	198	198	198	198	199	199	199	199	199	199	199	199	199	199	199	199	199	199	199	199	199	199	199	199	199	199	199	199	199	199	199	200	200	200	200	200	200	200	200	202	202	202	201	201	200	200	200	201	201	200	200	200	200	200	200	200	200	200	201	201	201	200	200	200	200	200	200	200	201	201	201	201	201	201	201	201	201	201	201	201	202	202	202	202	202	202	202	202	202	202	202	202	202	202	202	202	202	202	202	202	0	0	0	0	0	0	0	0	0	0	0	0	0	0	0	0	0	0	0	248	248	248	248	248	0	0	0	0	0	0	0	0	0	0	0	0	0	0	0	0	0	0	0	0	0	0	0	0	0	0	0	0	0	0	0	0	0	0	0	0	0	0	0	0	0	0	0	0	0	0	0	0	0	0	0	0	0	0	0	0	0	0	0	0	0	0	0	0	0	0	0	0	0	0	0	0	0	0	0	0	0	0	0	0	0	0	0	0	0	0	0	0	0	0	0	0	0	0	0	0	0	0	0	0	0	0	0	0	0	0	0	0	0	0	0	0	0	0	0	0	0	0	0	0	0	0	0	0	0	0	0	201	201	200	200	199	198	198	198	0	0	0	0	0	0	0	0	0	0	0	0	0	0	0	0	0	0	0	0	0	0	0	0	0	914	914	914	914	0	0	0	0	0	0	0	0	0	0	534	534	534	534	533	533	534	533	532	532	532	532	531	531	531	530	529	528	527	525	525	525	523	523	522	522	523	524	524	525	526	527	0	0	0	0	0	0	0	0	0	0	0	0	0	0	0	0	0	0	0	0	0	0	0	0	0	0	0	0	0	0	322	319	318	318	318	317	317	316	316	316	316	316	316	316	317	317	317	317	318	318	318	319	319	320	320	320	321	321	321	321	321	322	322	322	322	323	323	323	323	323	323	323	323	323	323	323	323	323	322	322	322	321	321	320	320	320	319	319	319	319	319	319	319	319	320	320	321	322	321	321	321	320	320	319	319	318	317	317	316	316	315	315	315	314	314	0	0	0	0	0	0	0	0	0	0	0	0	0	315	315	315	316	316	317	318	318	319	319	319	319	319	319	319	319	320	320	320	320	320	320	320	320	320	320	320	320	319	319	319	319	318	318	318	318	317	317	316	316	0	0	0	0	0	0	0	0	0	0	0	0	0	0	0	0	0	0	0	0	0	0	0	0	0	0	0	0	0	0	0	319	318	318	317	317	317	317	317	317	317	317	317	317	317	318	318	318	318	318	318	318	318	318	318	317	317
294	294	294	294	293	293	293	293	293	293	293	293	292	292	292	292	292	293	293	293	293	294	294	294	294	295	295	295	295	295	295	295	295	294	294	294	295	294	294	294	294	293	293	293	292	292	292	292	292	292	292	293	293	293	294	294	294	295	295	295	296	296	296	296	296	296	296	296	296	296	297	297	297	297	298	298	299	300	301	302	303	303	304	304	304	305	305	305	305	0	0	0	0	0	0	0	0	0	0	0	0	0	0	0	0	0	0	0	0	0	0	0	0	0	0	0	201	201	201	201	201	201	201	201	201	201	201	200	200	200	200	199	199	199	198	198	198	198	198	198	198	199	199	199	199	200	200	200	200	200	200	200	200	200	200	200	200	199	199	199	199	199	199	199	198	198	198	198	198	198	198	198	198	198	198	198	199	199	199	199	199	199	199	199	199	199	199	199	199	199	199	199	199	199	199	199	199	199	199	199	199	199	199	200	200	200	200	200	200	0	0	0	201	201	200	200	200	0	0	200	200	200	0	200	200	0	200	200	0	0	200	200	200	200	200	200	200	200	200	200	200	201	201	201	201	201	201	201	201	201	202	202	202	202	202	202	202	202	202	202	202	202	202	202	202	202	202	202	202	202	0	0	0	0	0	0	0	0	0	0	0	0	0	0	0	0	0	0	0	248	248	248	248	248	0	0	0	0	0	0	0	0	0	0	0	0	0	0	0	0	0	0	0	0	0	0	0	0	0	0	0	0	0	0	0	0	0	0	0	0	0	0	0	0	0	0	0	0	0	0	0	0	0	0	0	0	0	0	0	0	0	0	0	0	0	0	0	0	0	0	0	0	0	0	0	0	0	0	0	0	0	0	0	0	0	0	0	0	0	0	0	0	0	0	0	0	0	0	0	0	0	0	0	0	0	0	200	200	0	0	0	0	0	0	0	0	0	0	0	0	0	0	0	0	0	0	0	0	0	0	200	200	200	199	199	199	198	197	197	196	196	196	0	0	0	0	0	0	0	0	0	0	0	0	0	0	0	0	0	0	0	0	0	0	916	916	914	914	0	0	0	0	0	0	0	0	0	0	535	534	534	534	533	533	534	534	532	532	532	532	531	531	531	531	531	531	531	530	529	529	528	528	528	529	529	529	529	530	531	531	0	0	0	0	0	0	0	0	0	0	0	0	0	0	0	0	0	0	0	0	0	0	0	0	0	0	0	0	0	0	316	316	316	316	315	315	315	315	314	314	314	314	315	315	315	315	315	315	316	316	316	317	317	318	318	318	319	319	319	319	320	320	320	320	321	321	321	321	322	322	322	322	322	322	322	322	322	322	321	321	320	320	319	319	318	317	317	317	317	317	317	317	317	318	319	319	320	320	320	320	320	320	319	318	317	317	316	315	314	314	313	312	312	312	314	0	0	0	0	0	0	0	0	0	0	0	0	313	313	314	315	315	315	316	316	316	317	317	317	317	317	317	318	318	318	318	318	319	319	319	319	319	319	319	319	318	318	318	317	317	317	317	317	316	316	316	316	316	0	0	0	0	0	0	0	0	0	0	0	0	0	0	0	0	0	0	0	0	0	0	0	0	0	0	0	0	0	0	0	319	317	316	316	316	316	316	316	316	316	316	316	316	316	316	316	316	316	316	316	316	316	316	316	316	316
292	292	292	292	292	292	292	292	292	292	291	291	291	291	291	291	292	292	292	292	292	292	293	293	294	294	294	294	294	294	294	294	294	293	293	294	294	293	293	293	292	292	292	291	291	291	291	291	291	291	291	291	291	292	292	292	293	293	294	294	294	294	294	294	294	295	295	295	295	295	295	295	296	296	297	297	298	298	300	301	301	302	302	302	303	303	303	303	305	0	0	0	0	0	0	0	0	0	0	0	0	0	0	0	0	0	0	0	0	0	0	0	0	0	0	0	201	200	200	200	200	200	200	200	200	200	200	199	199	199	199	199	198	198	198	198	198	198	198	198	198	198	199	199	199	200	200	200	200	200	200	199	199	200	200	199	199	199	199	199	199	199	199	198	198	198	198	198	198	198	198	198	198	198	198	198	198	198	198	198	198	198	198	198	198	198	199	199	199	199	199	199	199	199	199	199	199	199	199	199	199	199	199	0	0	0	0	0	0	0	0	0	0	0	0	0	0	0	0	0	0	0	0	0	0	0	0	0	0	0	199	199	199	199	199	199	199	199	200	200	200	200	200	200	200	201	201	201	201	201	201	202	202	202	202	202	202	202	202	202	202	202	202	202	201	201	201	201	201	201	0	0	0	0	0	0	0	0	0	0	0	0	0	0	0	0	0	0	0	248	248	248	248	248	0	0	0	0	0	0	0	0	0	0	0	0	0	0	0	0	0	0	0	0	0	0	0	0	0	0	0	0	0	0	0	0	0	0	0	0	0	0	0	0	0	0	0	0	0	0	0	0	0	0	0	0	0	0	0	0	0	0	0	0	0	0	0	0	0	0	0	0	0	0	0	0	0	0	0	0	0	0	0	0	0	0	0	0	0	0	0	0	0	0	0	0	0	0	0	0	0	0	0	0	0	200	200	200	0	0	0	0	0	0	0	0	0	0	0	0	0	0	0	0	0	0	0	0	0	0	200	200	200	199	199	197	197	197	196	196	195	195	195	0	0	0	0	0	0	0	0	0	0	0	0	0	0	0	0	0	0	0	0	0	916	916	914	914	0	0	0	0	0	0	0	0	0	0	0	0	0	0	0	534	534	534	534	534	534	534	534	534	533	532	532	533	533	537	533	533	534	534	534	534	534	534	535	535	535	536	0	0	0	0	0	0	0	0	0	0	0	0	0	0	0	0	0	0	0	0	0	0	0	0	0	0	0	0	0	0	312	312	313	313	313	313	313	312	312	312	312	312	313	313	313	313	313	313	313	314	314	315	315	316	316	316	316	317	317	317	317	318	318	319	319	319	320	320	320	321	321	321	322	322	322	322	321	321	320	320	319	319	318	317	317	316	316	315	315	315	315	315	316	316	317	317	319	319	320	320	319	319	319	318	317	316	315	314	313	312	311	311	311	310	310	0	0	0	0	0	0	0	0	0	0	312	312	313	313	313	314	315	315	315	315	315	315	315	316	316	316	316	316	316	317	317	317	317	317	318	318	318	318	318	318	317	317	317	316	316	316	315	315	315	315	315	313	313	0	0	0	0	0	0	0	0	0	0	0	0	0	0	0	0	0	0	0	0	0	0	0	0	0	0	0	0	0	0	0	0	317	315	315	315	315	315	315	314	314	315	315	315	315	315	315	315	315	315	315	315	314	314	314	314	314
290	290	291	291	291	290	290	290	290	291	291	290	290	290	291	291	291	291	291	292	292	292	292	293	293	293	293	294	294	293	293	293	293	293	293	293	292	292	292	291	291	291	290	290	290	290	289	289	289	289	289	289	290	290	290	291	291	292	292	292	293	293	293	293	293	294	294	294	294	294	294	294	294	295	295	296	296	297	298	299	299	300	300	301	301	301	301	300	300	0	0	0	0	0	0	0	0	0	0	0	0	0	0	0	0	0	0	0	0	0	0	0	0	0	0	0	199	199	199	200	200	199	199	199	199	199	199	199	198	198	198	198	198	198	198	198	198	198	198	198	198	198	198	199	199	200	200	199	199	199	199	199	199	199	199	199	199	199	199	199	199	199	199	198	198	198	198	197	197	197	197	197	197	197	198	198	198	198	198	198	198	198	198	198	198	198	198	199	199	199	198	198	198	198	198	198	198	198	198	199	199	198	198	0	0	0	0	0	0	0	0	0	0	0	0	0	0	0	0	0	0	0	0	0	0	0	0	0	0	0	199	199	199	199	199	199	199	199	200	200	200	200	200	200	200	200	201	201	201	201	201	201	202	202	202	202	201	201	201	201	201	201	201	201	201	201	201	201	201	201	0	0	0	0	0	0	0	0	0	0	0	0	0	0	0	0	0	0	0	248	248	248	248	248	0	0	0	0	0	0	0	0	0	0	0	0	0	0	0	0	0	0	0	0	0	0	0	0	0	0	0	0	0	0	0	0	0	0	0	0	0	0	0	0	0	0	196	196	196	196	196	196	0	0	0	0	0	0	0	0	0	0	0	0	0	0	0	0	0	0	0	0	0	0	0	0	0	0	0	0	0	0	0	0	0	0	0	0	0	0	0	0	0	196	196	195	195	0	0	0	0	0	0	0	0	200	200	200	0	0	0	0	0	0	0	0	0	0	0	0	0	0	0	0	0	0	0	0	0	0	0	0	0	0	0	197	197	196	196	196	195	195	195	0	0	0	0	0	0	0	0	0	0	0	0	0	0	0	0	0	0	918	916	916	916	916	914	914	0	0	0	0	0	0	0	0	0	0	0	0	0	0	0	534	534	534	534	534	534	535	536	536	536	536	536	537	537	537	537	537	538	537	537	537	538	538	0	0	0	0	0	0	0	0	0	0	0	0	0	0	0	0	0	0	0	0	0	0	0	0	0	0	0	0	0	0	0	309	309	309	310	310	311	311	311	311	311	310	310	311	311	311	311	311	311	311	311	311	311	312	312	312	312	313	313	314	314	315	315	315	315	316	316	317	317	318	319	319	319	320	320	321	321	321	320	320	320	319	318	318	317	316	316	315	315	314	314	314	314	314	314	314	314	315	315	316	317	318	319	319	319	319	318	317	316	315	313	312	311	311	310	309	309	308	308	308	0	0	0	0	0	0	0	0	312	312	312	313	313	313	313	313	314	314	314	314	314	314	315	315	315	315	316	316	316	316	317	317	317	317	317	317	317	317	317	316	316	316	315	315	314	314	314	315	314	313	311	311	0	307	306	303	303	303	0	0	0	0	0	0	0	0	0	0	0	0	0	0	0	0	0	0	0	0	0	0	0	0	0	0	0	314	314	314	313	313	313	313	313	313	313	313	313	313	313	313	313	313	313	313	313	313	312	312	312
289	289	289	289	289	289	289	289	290	290	290	290	290	290	290	290	290	290	291	291	291	291	292	292	292	293	293	293	293	293	293	292	292	292	292	292	291	291	290	290	290	289	289	289	289	289	289	289	289	289	289	289	289	289	289	290	290	290	291	291	292	292	292	292	292	292	293	293	293	293	293	293	293	294	294	294	295	295	296	297	297	298	298	299	299	299	299	299	300	0	0	0	0	0	0	0	0	0	0	0	0	0	0	0	0	0	0	0	0	0	0	198	198	198	199	199	199	199	199	199	199	199	198	198	198	198	198	198	197	197	198	197	197	197	197	197	197	197	197	197	198	198	198	198	198	199	0	199	199	199	199	199	199	199	199	199	199	199	199	199	198	198	198	198	198	198	197	197	197	197	197	197	197	197	197	197	197	197	198	198	198	198	198	198	198	198	198	198	198	198	198	198	198	198	198	198	198	198	198	198	198	198	198	197	197	197	197	197	197	197	197	197	0	0	0	0	0	0	0	0	0	0	0	0	0	0	0	0	198	198	198	198	198	198	199	199	199	199	199	199	199	200	200	200	200	200	200	201	201	201	201	201	201	201	201	201	201	201	201	201	201	201	201	200	200	200	200	200	200	0	0	0	0	0	0	0	0	0	0	0	0	0	0	0	0	0	0	0	0	248	248	248	248	248	0	0	0	0	0	0	0	0	0	0	0	0	0	0	0	0	0	0	0	0	0	0	0	0	0	0	0	0	0	0	0	0	0	0	0	0	0	0	0	0	0	0	196	196	196	196	196	196	0	0	0	0	0	0	0	0	0	0	0	0	0	0	0	0	0	0	0	0	0	0	0	0	0	0	0	0	0	0	0	0	0	0	0	0	195	195	195	195	0	196	196	195	195	0	0	0	0	0	0	0	0	0	0	0	0	0	0	0	0	0	0	0	0	0	0	0	0	0	0	0	0	0	0	0	0	0	0	0	197	197	196	196	196	196	196	195	195	195	195	195	195	195	0	0	0	0	0	0	0	0	0	0	0	0	0	0	916	916	916	916	916	916	914	909	909	0	0	0	0	0	0	0	0	0	0	0	0	0	0	0	0	0	534	534	536	536	537	537	537	537	537	538	538	539	539	539	540	540	540	541	0	0	0	0	0	0	0	0	0	0	0	0	0	0	0	0	0	0	0	0	0	0	0	0	0	0	0	0	0	0	0	306	306	307	307	308	308	309	309	309	309	309	309	309	309	309	309	309	309	309	310	310	310	310	309	309	310	310	310	311	311	312	312	313	313	313	313	314	314	315	316	317	317	318	318	319	319	320	320	320	319	319	318	317	316	315	315	314	313	313	312	312	312	312	312	312	312	312	313	313	313	314	315	316	317	318	318	318	317	316	316	315	312	311	310	309	309	308	308	307	307	307	307	0	0	0	0	0	312	312	312	312	312	313	313	313	313	313	313	313	313	313	313	313	314	314	314	315	315	315	316	316	316	316	316	317	317	316	316	316	315	315	314	314	313	312	312	314	313	313	312	310	309	309	0	305	303	301	301	301	0	0	0	0	0	0	0	0	0	0	0	0	0	0	0	0	0	0	0	0	0	0	0	0	0	0	0	314	312	312	312	311	311	311	311	311	311	311	311	311	312	312	312	312	312	311	311	311	311	311	311
287	287	287	288	288	288	288	288	288	289	289	289	289	289	289	289	289	290	290	290	291	291	291	291	291	291	291	291	291	291	291	291	292	292	291	291	290	290	289	289	289	289	288	288	288	288	288	288	287	287	287	288	288	288	288	289	289	289	290	290	290	291	291	291	291	292	292	292	292	292	292	292	292	292	293	293	293	294	294	295	296	296	297	297	297	297	299	299	0	0	0	0	0	0	0	0	0	0	0	0	0	0	0	0	0	0	0	0	197	197	197	197	197	198	198	198	198	198	198	198	198	198	198	198	197	197	197	197	197	197	197	197	197	197	197	197	197	197	197	197	197	197	198	198	198	198	199	199	199	199	199	199	199	199	199	199	199	199	199	198	198	198	198	198	198	197	197	197	197	197	197	197	197	197	197	197	197	197	197	197	197	198	198	198	198	198	198	198	198	198	198	198	198	198	198	198	198	198	198	198	198	197	197	197	197	197	197	197	197	197	197	197	197	197	197	197	197	197	197	197	197	197	197	197	197	0	197	197	197	197	198	198	198	198	198	199	199	199	199	199	199	199	200	200	200	200	200	201	201	201	201	201	201	201	201	201	201	201	201	201	200	200	200	200	200	200	200	200	199	199	0	0	0	0	0	0	0	0	0	0	0	0	0	0	0	0	0	0	0	249	248	248	248	248	0	0	0	0	0	0	0	0	0	0	0	0	0	0	0	0	0	0	0	0	0	0	0	0	0	0	0	0	0	0	0	0	0	0	0	0	0	195	195	195	196	196	196	196	196	196	196	196	0	0	0	0	0	0	0	0	0	0	0	0	0	0	0	0	0	0	0	0	0	0	0	0	0	0	0	0	0	0	0	0	0	0	0	196	195	195	195	195	0	0	0	0	0	0	0	0	0	0	0	0	0	0	0	0	0	0	0	0	0	0	0	0	0	0	196	196	0	0	0	0	0	0	0	0	0	0	196	196	196	196	196	196	196	195	195	195	195	195	195	195	195	195	0	0	0	0	0	0	0	0	0	0	0	0	0	0	916	916	916	916	916	916	914	909	903	903	0	0	0	0	0	0	0	0	0	0	0	0	0	0	0	0	0	0	537	537	537	537	538	538	538	539	539	540	540	540	541	541	541	0	0	0	0	0	0	0	0	0	0	0	0	0	0	0	0	0	0	0	0	0	0	0	0	0	0	0	0	0	0	0	0	305	305	306	306	306	307	307	307	308	308	308	308	308	308	308	308	308	308	308	308	308	308	308	308	308	308	308	308	309	309	310	310	311	311	312	312	312	313	314	315	316	317	318	318	319	319	320	320	319	318	317	316	315	313	313	312	311	311	311	311	310	310	310	310	310	311	311	311	312	312	313	314	315	316	316	316	316	315	315	316	0	312	309	308	308	307	307	306	306	305	305	305	0	0	0	0	312	312	312	312	312	312	312	312	313	313	313	313	313	312	312	313	313	313	313	313	314	314	315	315	315	315	315	315	315	315	314	313	313	312	312	311	311	311	312	312	312	311	311	310	309	307	306	305	304	302	300	300	300	0	0	0	0	0	0	0	0	0	0	0	0	0	0	0	0	0	0	0	0	0	0	0	0	0	0	0	0	309	309	309	309	309	309	309	310	309	309	310	310	310	310	310	310	310	310	310	310	310	309	309
286	286	286	286	286	287	287	287	287	287	287	288	288	288	288	288	288	288	288	289	289	289	289	289	289	289	289	289	289	289	291	291	291	290	290	289	289	289	288	288	288	288	287	287	287	287	287	287	286	286	287	287	287	287	287	288	288	288	289	289	289	290	290	290	290	290	291	291	291	291	291	291	291	291	292	292	292	292	293	294	294	294	295	295	295	296	0	0	0	0	0	0	0	0	0	0	0	0	0	0	0	0	0	0	0	0	0	197	197	197	197	197	197	197	198	198	198	198	198	198	198	197	197	197	197	197	196	196	196	196	196	196	196	196	196	196	196	196	197	197	197	197	197	197	197	198	198	198	198	198	198	199	199	199	199	199	199	199	198	198	198	198	198	198	197	197	197	197	197	197	197	197	197	197	197	197	197	197	197	197	197	197	197	198	198	198	198	198	198	198	198	198	198	198	198	197	197	197	197	197	197	197	197	197	197	197	197	197	197	197	197	197	197	197	197	197	197	197	197	197	197	197	197	197	197	197	197	197	197	197	197	197	197	197	198	198	198	198	199	199	199	199	199	200	200	200	200	200	201	201	201	201	201	201	201	201	201	200	200	201	200	200	200	200	199	199	199	199	199	199	0	0	0	0	0	0	0	0	0	0	0	0	0	0	0	0	0	0	0	0	0	0	0	0	0	0	0	0	0	0	0	0	0	0	0	0	0	0	0	0	0	0	0	0	0	0	0	0	0	0	0	0	0	0	0	0	0	196	195	195	195	195	195	195	196	196	196	196	196	196	196	196	196	195	195	195	195	195	195	195	195	195	195	196	196	196	196	197	197	198	198	198	198	198	198	198	198	198	198	197	197	197	0	0	196	196	196	196	196	196	196	196	196	196	196	196	196	196	196	196	196	196	0	0	0	0	197	197	197	198	199	199	0	199	198	198	197	197	196	195	195	195	0	0	195	195	195	195	195	196	196	196	196	196	195	195	195	195	195	195	195	195	195	195	195	195	195	0	0	0	0	0	0	0	0	0	0	0	0	0	0	0	0	916	916	916	914	909	903	903	0	0	0	0	0	0	0	0	0	0	0	0	0	0	0	0	0	0	537	537	538	538	538	538	538	539	539	541	541	541	542	0	0	0	0	0	0	0	0	0	0	0	0	0	0	0	0	0	0	0	0	0	0	0	0	0	0	0	0	0	0	0	0	0	304	304	305	305	305	306	306	306	306	306	306	306	306	306	306	306	307	307	307	307	307	307	307	306	306	306	306	306	306	307	307	308	308	309	310	310	311	311	312	313	314	315	316	317	318	318	319	320	319	319	318	317	313	312	311	310	310	309	309	309	308	308	308	308	309	309	309	309	309	310	311	311	312	313	314	314	314	314	314	315	0	310	309	308	307	307	306	306	305	305	305	304	304	0	0	0	0	312	312	312	312	312	312	312	312	312	312	312	312	312	312	312	312	312	312	312	312	313	313	313	313	313	313	312	312	311	311	311	310	309	309	309	309	311	310	310	310	309	309	308	308	307	305	304	303	302	301	300	299	299	0	0	0	0	0	0	0	0	0	0	0	0	0	0	0	0	0	0	0	0	0	0	0	0	0	0	0	0	307	307	307	308	309	309	308	308	308	308	308	308	308	309	309	309	309	309	309	308	308	308	308
285	285	285	285	285	285	286	286	286	286	286	286	286	287	287	287	287	287	287	287	287	287	287	287	287	287	287	287	287	289	289	289	289	289	288	288	287	287	287	286	286	286	286	286	286	286	286	286	286	286	286	286	286	286	286	286	287	287	288	288	288	289	289	289	289	290	290	290	290	290	290	290	290	290	290	290	291	291	292	292	292	293	293	294	294	294	0	0	0	0	0	0	0	0	0	0	0	0	0	0	0	0	0	0	0	0	0	197	197	197	197	197	197	197	197	197	197	197	197	197	197	197	197	196	196	196	196	196	196	196	196	196	196	196	196	196	196	196	196	196	197	197	197	197	197	197	198	198	198	198	198	198	198	198	198	198	198	198	198	198	198	197	197	197	197	197	197	197	197	197	197	197	197	197	197	197	197	197	197	197	197	197	197	197	197	197	197	197	197	197	197	197	197	197	197	197	197	197	197	197	197	197	197	197	197	197	197	197	197	197	197	197	197	197	197	197	197	197	197	197	197	197	197	197	196	196	197	196	196	196	196	196	197	197	197	198	198	198	198	198	198	199	199	199	199	200	200	200	200	200	200	201	201	201	200	200	200	200	199	199	200	199	199	199	198	198	198	198	198	198	0	0	0	0	0	0	0	0	0	0	0	0	0	0	0	0	0	0	0	0	0	0	0	0	0	0	0	0	0	0	0	0	0	0	0	0	0	0	0	0	0	0	0	0	0	0	0	194	194	194	194	195	195	0	195	195	195	195	195	195	195	195	195	196	196	196	196	196	196	196	196	196	196	195	195	195	195	195	195	195	195	195	195	196	196	196	196	197	197	198	198	198	198	198	198	198	198	198	198	197	197	197	0	196	196	196	196	196	196	196	196	196	196	196	196	196	196	196	196	196	196	196	196	196	196	0	197	197	197	198	198	198	198	198	198	197	197	197	196	195	195	195	195	195	195	195	195	195	195	195	196	196	196	196	195	195	195	195	195	195	195	195	195	195	195	195	195	0	0	0	0	0	0	0	0	0	0	0	0	0	0	0	0	0	0	0	0	0	0	0	0	0	0	0	0	0	0	0	0	0	0	0	0	0	0	0	0	0	538	538	538	538	538	538	538	539	539	541	0	0	0	0	0	0	0	0	0	0	0	0	0	0	0	0	0	0	0	0	0	0	0	0	0	0	0	0	0	0	0	0	0	0	0	0	304	304	304	305	305	305	305	305	305	305	305	305	304	304	305	305	305	305	305	305	305	305	304	304	304	304	304	304	305	305	306	306	307	307	308	309	309	310	311	312	313	314	315	316	317	317	318	319	317	317	0	0	313	312	308	308	307	307	307	307	306	306	306	307	307	307	307	308	308	308	309	310	310	311	312	312	312	312	314	0	0	308	307	306	306	305	305	305	305	304	304	304	304	0	0	0	0	311	311	311	311	311	311	311	311	311	311	311	311	311	311	311	311	311	311	311	311	311	311	311	311	310	309	309	308	307	307	307	307	306	306	309	308	308	307	307	307	306	306	305	305	304	303	302	301	301	299	299	298	298	297	297	0	0	0	0	0	0	0	0	0	0	0	0	0	0	0	0	0	0	0	0	0	0	0	0	0	0	305	305	306	306	306	306	306	306	306	306	307	307	307	307	307	307	307	307	307	307	307	307	307
284	284	284	284	284	284	284	285	285	285	285	286	286	286	286	286	285	285	285	285	285	285	285	285	285	285	285	285	287	287	287	287	287	287	287	287	286	286	286	285	285	285	285	285	285	285	285	285	285	285	285	285	285	285	285	286	286	286	286	287	287	287	288	288	288	289	289	289	289	289	289	289	289	289	289	289	289	290	290	291	291	291	292	292	292	294	0	0	0	0	0	0	0	0	0	0	0	0	0	0	0	0	0	0	0	0	197	197	197	197	197	197	197	197	197	197	197	197	197	197	197	197	196	196	196	195	195	195	195	195	195	195	195	195	195	195	196	196	196	196	196	196	196	196	196	196	197	197	197	197	197	197	197	198	198	198	198	198	198	198	198	197	197	197	197	197	197	197	197	197	197	197	197	197	197	197	197	197	197	197	197	197	197	197	197	197	197	197	197	197	197	197	197	197	197	197	197	197	197	197	197	197	197	197	197	197	197	197	197	197	197	197	197	197	197	197	197	197	197	197	197	197	196	196	196	196	196	196	196	196	196	196	196	196	196	196	196	196	197	197	197	198	198	199	199	199	199	199	200	200	200	200	200	200	199	199	199	199	199	199	0	197	197	197	197	197	197	197	197	197	0	0	0	0	0	0	0	0	0	0	0	0	0	0	0	0	0	0	0	0	0	0	0	0	0	0	0	0	0	0	0	0	0	0	0	0	0	0	0	0	0	0	0	0	0	0	0	194	194	194	194	194	194	194	195	195	195	195	195	195	195	195	195	195	195	195	196	196	195	195	195	195	195	195	195	195	195	195	195	195	195	195	195	196	196	196	196	197	197	197	198	198	198	198	198	198	198	197	197	197	197	197	196	196	196	196	196	196	196	196	196	196	196	196	196	196	196	196	196	196	196	196	196	196	196	197	197	197	197	197	198	198	198	198	197	197	197	197	196	195	195	195	195	195	195	195	195	195	195	195	195	196	196	196	195	195	195	195	195	195	195	195	195	195	195	195	195	0	0	0	0	0	0	0	0	0	0	0	0	0	0	0	0	0	0	0	0	0	0	0	0	0	0	0	0	0	0	0	0	0	0	0	0	0	0	0	0	541	540	540	539	538	538	537	537	538	0	0	0	0	0	0	0	0	0	0	0	0	0	0	0	0	0	0	0	0	0	0	0	0	0	0	0	0	0	0	0	0	0	0	0	0	0	0	304	304	304	304	304	304	304	304	304	304	303	303	303	303	303	303	303	303	303	302	302	302	302	303	303	303	303	303	303	303	304	304	305	305	307	307	308	308	309	311	312	313	315	316	317	317	318	319	317	317	0	0	307	306	305	305	305	304	304	304	304	304	305	305	306	306	306	306	306	307	307	308	308	309	309	310	310	310	0	0	307	306	305	304	304	304	303	303	303	303	303	303	304	0	0	0	309	309	310	311	311	311	311	311	311	311	311	310	310	310	309	309	309	308	308	308	308	308	307	307	306	306	305	305	304	304	303	303	303	306	306	305	305	305	305	304	304	303	303	303	302	301	300	300	299	298	298	297	297	296	295	295	294	293	293	0	0	0	0	0	0	0	0	0	0	0	0	0	0	0	0	0	0	0	0	0	0	304	304	304	304	304	304	304	304	304	305	305	305	305	305	306	306	306	306	306	306	306	306	306	306
283	283	283	283	283	283	284	284	284	284	284	284	284	284	284	284	284	284	284	284	283	283	283	283	283	283	283	285	285	285	285	285	285	285	284	284	284	284	284	284	284	284	284	284	284	284	284	284	284	284	284	284	284	284	284	285	285	285	285	286	286	286	286	287	287	287	287	288	288	288	288	288	288	288	288	288	288	289	289	289	289	290	289	289	289	288	288	0	0	0	0	0	0	0	0	0	0	0	0	0	0	0	0	0	0	0	197	196	196	196	196	196	196	196	197	197	197	197	197	197	196	196	196	195	195	195	195	195	195	195	195	195	195	195	195	195	195	195	196	196	196	196	196	196	196	196	196	196	196	196	196	196	197	197	197	197	197	197	197	197	197	197	197	197	197	197	197	197	197	197	197	197	197	197	197	197	197	197	197	197	197	197	197	197	197	197	197	197	197	197	197	197	197	197	197	197	197	197	197	197	197	197	197	197	197	197	197	197	197	197	197	197	197	197	197	197	197	196	196	196	196	196	196	196	196	196	196	195	195	195	195	195	195	195	195	195	195	195	196	196	197	197	197	198	198	199	199	199	199	199	199	199	199	199	199	198	198	198	199	0	0	197	197	197	197	197	197	196	196	196	0	0	196	196	0	0	0	0	0	0	0	0	0	0	0	0	0	0	0	0	0	0	0	0	0	0	0	0	0	0	0	0	0	0	0	0	0	0	0	0	0	0	0	0	0	194	194	194	194	194	194	194	194	194	194	195	195	195	195	195	195	195	195	195	195	195	195	195	195	195	195	195	195	194	194	194	195	195	195	195	195	195	195	195	196	196	196	196	197	197	197	197	197	197	198	197	197	197	197	197	197	197	196	196	196	196	196	196	196	196	196	196	196	196	196	196	196	196	196	196	196	196	196	197	197	197	197	197	197	197	198	198	198	198	197	197	197	197	196	195	195	195	195	195	195	195	195	195	195	195	195	196	196	196	195	195	195	195	195	195	195	195	195	195	195	195	196	0	0	0	0	0	0	0	0	0	0	0	0	0	0	0	0	0	0	0	0	0	0	0	0	0	0	0	0	0	0	0	0	0	0	0	0	0	0	0	544	541	540	540	539	538	538	537	537	537	0	0	0	0	0	0	0	0	0	0	0	0	0	0	0	0	0	0	0	0	0	0	0	0	0	0	0	0	0	0	0	0	0	0	0	0	0	0	303	303	303	304	304	304	303	303	303	303	302	302	301	301	301	301	301	301	301	300	300	300	301	301	301	301	301	301	301	302	302	302	303	304	305	305	308	308	309	311	312	313	0	0	0	318	318	319	0	0	0	306	305	303	303	303	303	302	302	303	303	303	303	304	304	304	305	305	305	305	306	306	306	307	307	307	307	306	306	305	304	303	303	303	302	302	302	302	302	301	301	301	0	0	0	305	305	307	308	309	309	309	309	309	309	309	309	308	308	307	307	307	306	306	305	305	305	304	304	303	303	302	302	305	304	304	303	303	303	303	303	303	302	302	302	302	301	301	301	300	300	300	299	298	298	297	297	296	295	295	294	294	293	293	293	0	0	0	0	0	0	0	0	0	0	0	0	0	0	0	0	0	0	0	0	303	303	303	303	303	303	303	303	303	303	303	303	303	303	303	304	304	304	304	305	305	305	305	304	304	304
282	282	282	282	282	282	283	283	283	283	283	283	283	283	283	283	283	282	282	282	281	281	281	280	280	280	282	282	282	282	282	282	282	282	282	282	282	282	282	282	283	283	283	283	283	283	283	283	283	283	283	283	283	283	284	284	284	284	284	284	285	285	285	286	286	286	286	286	287	287	287	287	287	287	287	287	287	287	288	288	288	287	287	286	285	284	284	0	0	0	0	0	0	0	0	0	0	0	0	0	0	0	0	0	0	0	196	196	196	196	196	196	196	196	196	196	197	197	196	196	196	196	195	195	195	195	194	194	194	194	194	194	194	194	194	195	195	195	195	195	195	195	195	195	195	195	195	195	195	195	195	195	195	196	196	196	196	197	197	197	197	197	197	197	197	197	197	197	197	197	197	197	197	197	197	197	197	197	197	197	197	197	197	197	197	197	197	197	197	197	197	197	197	197	197	197	197	197	197	197	197	197	197	197	197	197	197	197	197	196	196	196	196	196	196	196	196	196	196	196	196	196	196	196	196	195	195	195	195	195	195	195	194	194	194	194	194	195	195	195	196	196	197	197	198	198	199	199	199	198	198	198	198	198	197	197	197	196	195	195	195	195	195	195	195	195	195	195	195	195	0	196	196	196	0	0	0	0	0	0	0	0	0	0	0	0	0	0	0	0	0	0	0	0	0	0	0	0	0	0	0	0	0	0	0	0	0	0	0	0	0	0	0	0	194	194	194	194	194	194	194	194	194	194	194	194	195	195	195	195	195	195	195	195	195	195	194	194	194	194	194	194	194	194	194	194	194	194	194	194	194	194	195	195	195	195	196	196	196	197	197	197	197	197	197	197	197	197	197	197	196	196	196	196	196	196	196	196	196	196	196	196	196	196	196	196	196	196	196	196	196	197	197	197	197	197	197	197	197	198	198	198	198	198	197	197	197	197	196	196	196	195	195	195	195	195	195	195	195	195	196	196	196	196	196	196	196	196	196	196	195	195	195	196	195	195	196	0	0	0	0	0	0	0	0	0	0	0	0	0	0	0	0	0	0	0	0	0	0	0	0	0	0	0	0	0	0	0	0	0	0	0	0	549	549	548	544	541	540	539	538	538	537	536	534	534	0	0	0	0	0	0	0	0	0	0	0	0	0	0	0	0	0	0	0	0	0	0	0	0	0	0	0	0	0	0	0	0	0	0	0	0	0	0	303	303	303	303	303	303	302	302	301	301	301	300	300	300	299	299	299	299	299	299	299	299	299	299	299	299	299	299	300	300	301	301	301	302	303	305	0	0	0	0	0	0	0	0	0	0	0	0	0	0	0	303	302	301	301	301	301	301	301	301	301	302	302	302	303	303	303	304	304	304	304	304	304	304	304	304	304	303	303	302	301	301	301	301	301	301	300	300	300	300	300	300	0	0	0	303	303	304	306	306	307	307	307	307	307	307	307	306	306	305	305	304	303	303	302	302	301	301	301	303	303	298	298	298	304	300	300	300	300	300	300	300	300	300	300	300	299	299	299	299	298	298	297	297	297	296	296	295	294	294	294	293	293	293	293	0	0	0	0	0	0	0	0	0	0	0	0	0	0	0	0	0	0	0	0	302	302	302	301	301	301	301	301	301	301	301	301	301	302	302	302	302	303	303	303	303	303	303	303	303	303
281	281	281	281	281	281	282	282	282	282	282	282	282	281	281	281	281	281	280	280	279	279	279	279	280	280	280	280	279	279	280	280	280	280	280	280	280	280	281	281	281	281	282	282	283	283	283	283	283	283	283	283	283	283	283	283	283	283	283	283	283	284	284	284	284	284	285	285	285	285	285	286	286	286	286	286	286	286	286	286	285	284	284	282	281	280	278	276	276	0	0	0	0	0	0	0	0	0	0	0	0	0	0	0	0	0	196	196	196	196	196	196	196	196	196	196	196	196	196	196	196	195	195	195	194	194	194	194	194	194	194	194	194	194	194	194	194	194	194	194	194	195	194	194	194	194	194	194	194	194	194	194	195	195	195	195	195	196	196	196	196	196	196	196	197	197	197	197	197	197	197	197	197	197	197	197	197	197	197	197	197	197	197	197	197	197	197	197	197	197	197	197	197	197	197	197	197	197	197	197	197	197	197	197	197	197	197	197	196	196	196	196	196	196	196	196	196	195	195	195	195	195	195	195	195	195	195	195	194	194	194	194	194	194	194	194	194	194	194	195	195	195	196	197	197	198	198	198	198	198	197	197	197	197	196	196	196	195	195	195	195	194	194	194	194	194	194	195	195	195	0	195	195	196	196	0	0	0	0	0	0	0	0	0	0	0	0	0	0	0	0	0	0	0	0	0	0	0	0	0	0	0	0	0	0	0	0	0	0	0	0	0	0	0	194	194	194	194	194	194	194	194	194	194	194	194	195	194	194	195	195	195	195	194	194	194	194	194	194	194	194	194	194	194	194	194	194	194	194	194	194	194	194	194	195	195	195	196	196	196	196	197	197	197	197	197	197	197	197	196	196	196	196	196	196	196	196	196	196	196	196	196	196	196	196	196	196	196	197	197	197	197	197	197	197	197	197	198	198	198	198	198	198	197	197	197	197	197	196	196	196	195	195	195	195	195	195	195	195	195	196	196	196	196	196	196	196	196	196	196	196	196	196	196	195	195	196	0	0	0	0	0	0	0	0	0	0	0	0	0	0	0	0	0	0	0	0	0	0	0	0	0	0	0	0	0	0	0	0	0	0	0	0	549	549	548	544	541	540	538	538	537	537	535	531	525	525	0	0	0	0	0	0	0	0	0	0	0	0	0	0	0	0	0	0	0	0	0	0	0	0	0	0	0	0	0	0	0	0	0	0	0	0	0	0	303	303	302	302	302	301	300	300	300	299	299	298	298	298	298	298	297	297	297	297	297	297	298	298	298	298	298	299	299	299	300	300	301	301	0	0	0	0	0	0	0	0	0	0	0	0	0	0	0	0	303	300	300	300	300	300	300	300	301	301	301	301	301	302	302	302	302	302	303	303	303	303	302	302	302	304	301	300	300	299	299	299	299	299	299	299	299	300	300	300	300	0	0	0	302	302	303	304	304	305	305	305	305	305	305	305	304	303	303	302	302	301	300	299	298	298	298	297	296	296	295	295	298	297	297	297	297	297	297	297	297	298	298	298	298	298	298	297	297	297	297	296	296	296	295	295	294	294	294	293	293	293	293	292	292	0	0	0	0	0	0	0	0	0	0	0	0	0	0	0	0	0	0	0	302	301	301	301	301	300	300	300	300	300	300	300	300	300	300	301	301	301	301	302	302	302	302	302	302	302
280	280	280	280	280	280	280	280	280	280	280	280	280	280	280	280	279	279	279	278	278	277	277	278	278	278	277	277	277	277	277	277	277	277	278	278	278	279	279	279	280	280	281	281	282	282	282	282	282	282	282	282	282	282	282	282	282	282	282	282	282	282	282	283	283	283	283	283	283	283	283	283	284	284	284	284	284	283	283	283	282	281	280	279	278	277	275	274	274	0	0	0	0	0	0	0	0	0	0	0	0	0	0	0	0	0	0	196	196	196	196	196	196	196	196	196	196	196	196	196	195	195	195	194	194	194	194	194	194	194	194	194	194	194	194	194	194	194	194	194	194	194	194	194	194	194	194	194	194	194	194	194	194	194	194	194	194	195	195	195	196	196	196	196	196	196	197	197	197	197	197	197	197	197	197	197	197	197	197	197	197	197	197	197	197	197	197	197	197	197	197	197	197	197	197	197	197	197	197	197	197	197	197	197	197	196	196	196	196	196	196	196	196	196	195	195	195	195	195	195	195	195	195	194	194	195	194	194	194	194	194	194	193	193	193	193	194	194	194	194	194	195	195	196	197	197	197	197	197	198	196	196	196	196	196	196	196	194	194	194	0	194	194	194	194	194	194	194	194	194	0	195	195	196	196	0	0	0	0	0	0	0	0	0	0	0	0	0	0	0	0	0	0	0	0	0	0	0	0	0	0	0	0	0	0	0	0	0	0	0	0	0	0	0	194	194	194	194	194	194	194	194	194	194	194	194	194	194	194	195	194	194	194	194	194	194	194	194	194	194	194	194	194	194	194	194	194	194	194	194	194	194	194	194	195	195	195	195	196	196	196	196	196	196	196	196	196	196	196	196	196	196	196	196	196	196	196	196	196	196	196	196	196	196	196	196	196	196	197	197	197	197	197	198	198	198	198	198	198	198	198	198	197	197	197	197	197	197	196	196	196	195	195	195	195	195	195	195	195	195	196	196	196	196	196	196	196	196	196	196	196	196	196	196	196	196	196	197	0	0	0	0	0	0	0	0	0	0	0	0	0	0	0	0	0	0	0	0	0	0	0	0	0	0	0	0	0	0	0	0	0	0	0	0	0	548	544	541	540	538	538	537	537	535	531	525	525	0	0	0	0	0	0	0	0	0	0	0	0	0	0	0	0	0	0	0	0	0	0	0	0	0	0	0	0	0	0	0	0	0	0	0	0	0	0	0	0	302	302	302	301	300	300	300	298	298	297	297	297	297	297	296	296	296	296	296	296	296	297	297	297	298	298	298	299	299	299	300	300	301	0	0	0	0	0	0	0	0	0	0	0	0	0	0	0	0	300	300	300	300	300	300	300	300	300	300	300	301	301	301	301	301	301	301	301	301	301	301	300	300	299	299	298	298	297	297	297	297	297	297	297	297	298	298	298	298	298	298	299	300	300	301	302	302	303	303	303	303	303	303	302	302	301	300	300	299	298	298	297	296	295	295	294	294	294	295	295	295	295	295	295	295	295	295	296	296	296	296	297	297	297	297	296	296	296	296	295	295	295	294	294	294	294	293	293	293	293	293	292	292	0	0	0	0	0	0	0	0	0	0	0	0	0	0	0	0	0	0	0	0	300	300	299	299	299	299	299	299	299	299	299	299	299	299	300	300	300	301	301	301	301	301	301	301	300
279	279	279	279	279	279	279	279	279	279	279	279	279	279	278	278	278	278	277	277	276	276	277	277	276	276	276	276	276	276	275	275	275	276	276	276	277	277	277	278	279	279	280	280	281	281	281	281	281	281	281	281	281	281	281	281	281	281	281	281	281	281	281	281	281	281	281	281	281	281	281	281	281	281	281	281	281	281	280	280	279	278	277	276	275	275	274	273	272	271	271	0	0	0	0	0	0	0	0	0	0	0	0	0	0	0	0	196	196	196	196	196	196	196	196	196	196	196	196	195	195	195	195	194	194	194	194	194	193	193	193	193	193	193	193	193	193	194	194	194	194	194	194	194	194	194	194	193	193	193	193	193	193	193	193	194	194	194	194	195	195	196	196	196	196	196	197	197	197	197	197	197	197	197	197	197	197	197	197	197	197	197	197	197	197	197	197	197	197	197	197	197	197	197	197	197	197	197	197	197	197	197	197	196	196	196	196	196	196	196	195	195	195	195	195	195	195	195	195	195	195	195	194	194	194	194	194	194	194	193	193	193	193	193	193	193	194	194	194	194	194	195	195	196	196	197	197	197	197	196	196	196	196	196	196	0	195	194	194	194	0	194	194	194	194	194	194	194	194	194	0	0	196	196	196	196	0	0	0	0	0	0	0	0	0	0	0	0	0	0	0	0	0	0	0	0	0	0	0	0	0	0	0	0	0	0	0	0	0	0	0	0	0	0	194	194	193	193	194	194	194	194	194	194	194	194	194	194	194	194	194	194	194	194	194	194	194	194	194	194	194	194	194	194	194	194	194	194	194	194	194	194	194	194	195	195	195	195	196	196	196	196	196	196	196	196	196	196	196	196	196	196	196	196	196	196	196	196	196	196	196	196	196	196	197	197	197	197	197	197	197	197	197	198	198	198	198	198	198	198	198	198	197	197	197	197	196	196	196	196	196	196	196	196	196	195	195	196	196	196	196	196	196	196	196	196	196	196	196	196	196	196	196	196	196	196	197	197	197	0	0	0	0	0	0	0	0	0	0	0	0	0	0	0	0	0	0	0	0	0	0	0	0	0	0	0	0	0	0	0	0	0	0	0	0	0	0	0	540	539	538	537	537	537	0	0	0	0	0	0	0	0	0	0	0	0	0	0	0	0	0	0	0	0	0	0	0	0	0	0	0	0	0	0	0	0	0	0	0	0	0	0	0	0	0	0	0	0	0	0	0	0	0	0	297	296	296	296	296	296	296	296	295	295	295	295	296	296	296	296	297	297	297	298	298	298	299	299	299	300	0	0	0	0	0	0	0	0	0	0	0	0	0	0	0	0	299	299	299	299	300	300	300	300	300	300	300	300	300	300	300	300	300	300	300	300	299	299	299	298	298	297	297	296	296	296	296	295	295	296	296	296	296	297	297	297	298	298	298	299	299	300	300	301	301	303	301	301	301	300	300	299	299	298	298	297	296	295	294	294	293	293	293	294	293	293	293	293	293	293	293	294	294	294	294	294	295	295	295	296	296	296	296	295	295	295	295	295	294	294	294	294	293	293	293	293	293	293	0	0	0	0	0	0	0	0	0	0	0	0	0	0	0	0	0	0	0	0	0	0	300	298	298	298	298	298	298	298	297	297	297	298	298	298	299	299	299	300	300	300	300	300	300	300	300
278	278	278	278	278	278	278	278	278	278	278	278	278	277	277	277	277	277	276	276	276	276	276	276	275	275	275	274	274	274	274	274	274	274	274	275	275	276	276	276	277	278	279	279	280	280	280	280	280	280	280	280	280	280	280	280	280	280	280	279	279	279	279	279	279	279	280	280	280	280	280	279	279	279	279	279	278	278	277	277	276	275	275	276	273	273	272	271	271	270	270	269	269	0	0	0	0	0	0	0	0	0	0	0	0	0	0	0	196	196	196	196	196	196	196	196	196	196	196	195	195	195	194	194	194	194	194	193	193	193	193	193	193	193	193	193	193	193	193	193	193	193	193	193	193	193	193	193	193	193	193	193	193	193	193	193	193	193	194	194	194	195	195	196	196	196	196	197	197	197	197	197	197	197	197	197	196	196	196	196	196	196	196	196	197	197	197	197	197	197	197	197	197	197	197	197	197	197	197	197	197	197	196	196	196	196	196	196	196	195	195	195	195	195	195	195	195	195	194	194	194	194	194	194	194	194	194	194	194	193	193	193	193	193	193	193	194	194	194	194	195	195	195	196	196	0	197	197	196	195	195	195	195	195	194	194	194	194	194	194	194	194	194	194	194	194	194	194	194	194	0	0	196	196	196	196	197	0	0	0	0	0	0	0	0	0	0	0	0	0	0	0	0	0	0	0	0	0	0	0	0	0	0	0	0	0	0	0	0	0	0	0	0	0	193	193	193	193	193	193	194	194	194	194	194	194	194	194	194	194	194	194	194	194	194	194	194	194	194	194	194	194	193	193	193	193	193	193	194	194	194	194	194	194	194	195	195	195	195	196	196	196	196	196	196	196	196	196	196	196	196	196	196	196	196	196	196	196	196	196	196	196	196	196	196	197	197	197	197	197	197	197	198	198	198	198	198	198	198	198	198	197	197	197	197	196	196	196	196	196	196	196	196	196	195	195	195	195	196	196	196	196	196	196	196	196	196	196	197	196	196	196	197	197	197	197	197	197	197	0	0	0	0	0	0	0	0	0	0	0	0	0	0	0	0	0	0	0	0	0	0	0	0	0	0	0	0	0	0	0	0	0	0	0	548	548	549	549	543	541	541	540	540	540	0	0	0	0	0	0	0	0	0	0	0	0	0	0	0	0	0	0	0	0	0	0	0	0	0	0	0	0	0	0	0	0	0	0	0	0	0	0	0	0	0	0	0	0	0	0	0	0	0	0	295	295	295	295	295	295	295	295	295	294	294	294	295	295	295	296	296	296	297	297	298	298	298	298	299	299	0	0	0	0	0	0	0	0	0	0	0	0	0	0	0	0	299	299	299	299	299	299	299	299	299	299	299	300	300	300	300	300	299	299	299	299	298	298	297	297	296	296	295	294	294	294	294	294	294	294	294	295	295	296	296	297	297	297	298	298	298	298	298	298	298	298	298	298	298	298	298	297	296	296	295	294	294	293	292	292	292	293	292	292	292	292	292	292	292	292	292	293	293	293	293	294	294	294	295	295	295	295	295	295	295	294	294	294	294	294	294	294	293	293	293	293	293	293	0	0	0	0	0	0	0	0	0	0	0	0	0	0	0	0	0	0	0	0	0	0	0	298	297	297	296	296	296	296	296	296	296	297	297	298	298	298	299	299	300	300	300	300	299	299	299
277	277	277	277	277	277	277	277	277	277	277	277	277	276	276	276	276	276	275	275	275	275	275	274	274	274	274	273	273	273	273	273	273	273	273	274	274	274	275	276	276	277	277	278	279	279	279	279	279	279	279	279	279	279	279	279	279	279	279	278	278	278	278	278	278	278	278	278	278	278	277	277	277	277	276	276	276	276	277	277	273	273	272	272	271	271	270	270	270	269	269	269	269	269	0	0	0	0	0	0	0	0	0	0	0	0	0	0	0	0	196	196	196	196	196	196	196	196	195	195	195	195	194	194	194	193	193	193	193	193	193	193	193	193	193	193	193	193	193	193	193	193	193	193	193	193	193	193	193	193	193	193	193	193	193	193	193	193	193	194	194	194	195	196	196	196	196	197	197	197	197	197	197	197	197	196	196	196	196	196	196	196	196	196	196	197	197	197	197	197	197	197	197	197	197	197	197	197	197	197	197	197	196	196	196	196	196	196	195	195	195	195	195	195	195	195	194	194	194	194	194	194	194	194	194	194	194	194	193	193	193	193	193	193	193	194	194	194	194	194	195	195	195	196	196	0	196	195	195	195	194	194	194	194	194	194	194	194	194	193	193	193	193	193	193	194	194	194	194	194	0	0	196	196	197	197	197	197	0	0	0	0	0	0	0	0	0	0	0	0	0	0	0	0	0	0	0	0	0	0	0	0	0	0	0	0	0	0	0	0	0	0	0	0	193	193	193	193	193	193	193	193	194	194	194	194	194	194	194	194	194	194	194	194	194	194	193	193	193	193	193	193	193	193	193	193	193	193	193	193	193	193	193	194	194	194	194	195	195	195	195	196	196	196	196	196	196	196	196	196	196	196	196	196	196	196	196	196	196	196	196	196	196	196	196	197	197	197	197	197	197	197	198	198	198	198	198	198	198	198	198	197	197	197	196	196	196	196	196	196	195	195	195	195	195	195	195	195	196	196	196	196	196	196	196	196	197	197	197	197	197	197	197	197	197	197	197	198	198	198	0	0	0	0	0	0	0	0	0	0	0	0	0	0	0	0	0	0	0	0	0	0	0	0	0	0	0	0	0	0	0	0	0	0	548	548	549	549	548	548	548	548	548	548	0	0	0	0	0	0	0	0	0	0	0	0	0	0	0	0	0	0	0	0	0	0	0	0	0	0	0	0	0	0	0	0	0	0	0	0	0	0	0	0	0	0	0	0	0	0	0	0	0	294	294	294	294	294	294	294	294	294	294	294	294	294	294	294	294	294	295	295	295	296	296	297	297	298	298	299	0	0	0	0	0	0	0	0	0	0	0	0	0	0	0	0	298	298	298	298	299	299	299	299	299	299	299	299	299	299	299	299	299	298	298	297	297	296	295	295	294	294	293	293	293	292	292	292	292	292	293	293	294	294	295	295	296	296	297	297	297	297	297	297	297	297	297	296	296	296	295	295	294	294	293	293	292	292	292	292	292	291	291	291	291	291	291	291	291	292	292	292	292	293	293	293	294	294	294	294	294	294	294	294	294	294	294	294	294	294	294	294	293	293	293	293	293	293	0	0	0	0	0	0	0	0	0	0	0	0	0	0	0	0	0	0	0	0	0	0	0	0	296	295	295	295	294	294	294	294	295	295	296	296	297	298	298	299	300	299	299	299	299	299	298
275	275	275	275	275	275	275	275	275	275	275	275	275	275	275	275	275	274	274	275	274	274	274	273	273	273	273	273	272	272	272	272	272	273	273	273	273	274	274	275	275	276	277	277	278	278	278	278	278	278	278	278	278	278	278	277	277	277	277	277	277	276	276	276	276	276	276	276	276	276	276	275	275	275	274	274	273	273	272	272	271	270	270	270	269	269	269	269	269	269	268	268	268	268	0	0	0	0	0	0	0	0	0	0	0	0	0	0	0	0	196	196	196	196	196	196	196	196	195	195	195	195	194	194	194	193	193	193	193	193	193	193	193	193	193	193	193	193	193	193	193	193	193	193	193	193	193	193	193	193	193	192	192	192	192	192	192	193	193	193	194	194	195	195	196	196	196	197	197	197	197	197	197	196	196	196	196	196	196	196	196	196	196	196	196	196	197	197	197	197	197	197	197	197	197	197	197	197	197	197	197	197	196	196	196	196	196	196	195	195	195	195	195	195	195	194	194	194	194	194	194	194	194	194	194	194	194	193	193	193	193	193	193	193	193	194	194	194	194	194	195	195	195	196	0	0	196	195	195	194	194	194	194	193	193	193	193	193	193	193	193	193	193	193	193	194	194	194	194	194	0	0	196	196	197	197	197	197	0	0	0	0	0	0	0	0	0	0	0	0	0	0	0	0	0	0	0	0	0	0	0	0	0	0	0	0	0	0	0	0	0	0	0	0	193	193	193	193	193	193	193	193	194	194	194	193	193	194	193	193	193	193	193	193	193	193	193	193	193	193	193	193	193	193	193	193	193	193	193	193	193	193	193	194	194	194	194	194	195	195	195	195	195	196	196	196	196	195	195	195	195	195	195	195	195	196	196	196	196	196	196	196	196	196	196	196	197	197	197	197	197	197	198	198	198	198	199	198	198	198	198	197	197	197	196	196	196	195	195	195	195	195	195	195	195	195	195	195	196	196	196	196	196	196	197	197	197	197	197	197	197	197	197	197	197	197	197	198	198	198	0	0	0	0	0	0	0	0	0	0	0	0	0	0	0	0	0	0	0	0	0	0	0	0	0	0	0	0	0	0	0	0	0	0	550	550	551	551	551	551	551	551	0	0	0	0	0	0	0	0	0	0	0	0	0	0	0	0	0	0	0	0	0	0	0	0	0	0	0	0	0	0	0	0	0	0	0	0	0	0	0	0	0	0	0	0	0	0	0	0	0	0	292	292	292	293	293	293	293	293	293	293	293	293	293	293	293	293	294	294	294	294	295	295	296	296	296	297	298	298	0	0	0	0	0	0	0	0	0	0	0	0	0	0	0	298	298	298	298	298	298	298	298	298	298	298	298	299	299	299	299	298	298	298	297	296	296	295	294	294	293	293	292	292	292	292	291	291	291	291	292	292	292	293	294	295	295	296	296	296	296	296	295	295	295	295	295	294	294	294	294	293	293	292	292	292	292	292	291	291	291	290	290	290	290	290	290	290	291	291	292	292	292	293	293	293	293	293	294	294	294	294	294	294	294	294	294	294	294	294	294	294	293	293	293	293	293	293	0	0	0	0	0	0	0	0	0	0	1076	1076	1080	1080	0	0	0	0	0	0	0	0	0	0	296	294	293	293	293	293	293	293	294	294	295	295	296	298	298	299	0	299	299	299	298	298	298
