1239	1240	1242	1244	1246	1250	0	1253	1256	1259	1263	1266	1270	1274	1277	1279	1282	1284	1284	1285	1286	1285	1285	1285	1285	1284	1283	1282	1281	1281	1281	1281	1281	1281	1282	1282	1284	1284	1284	1285	1284	1284	1284	1284	1284	1284	1284	1284	1283	1283	1282	1281	1280	1279	1279	1277	1277	1276	1275	1275	1275	1275	1275	1275	1275	1275	1275	1275	1275	1276	1277	1278	1279	1280	1281	1281	1283	1284	1284	1284	1284	1284	1284	1285	1284	1284	1284	1284	1284	1282	1281	1280	1279	1279	1279	1279	1278	1278	1279	1279	1281	1283	1284	1285	1286	1287	1288	1287	1288	1288	1286	1285	1284	1283	1282	1280	1279	1279	1279	1279	1279	1280	1281	1282	1283	1284	1284	1284	1284	1284	1284	1284	1284	1284	1284	1283	1283	1283	1283	1283	1284	1284	1284	1286	1287	1288	1289	1289	1289	1290	1290	1291	1292	1292	1293	1293	1293	1294	1294	1293	1293	1291	1290	1289	1287	1285	1284	1283	1281	1279	1279	1278	1276	1276	1275	1275	1275	1275	1275	1275	1276	1276	1276	1277	1277	1277	1277	1276	1277	1277	1278	1278	1279	1279	1280	1282	1284	1284	1284	1284	1284	1284	1284	1283	1283	1283	1282	1282	1280	1280	1280	1279	1279	1279	1279	1278	1279	1278	1278	1278	1278	1278	1277	1277	1277	1276	1276	1276	1275	1275	1274	1274	1273	1273	1272	1268	1267	1267	1267	1268	1268	1268	1269	1270	1271	1272	1272	1272	1272	1274	1274	1275	1274	1274	1274	1275	1275	1275	1275	1276	1276	1278	1279	1280	1281	1282	1282	1283	1284	1284	1284	1284	1283	1282	1281	1279	1277	1275	1274	1272	1271	1270	1270	1269	1269	1269	1270	1270	1270	1270	1271	1272	1273	1272	1273	1274	1274	1274	1274	1274	1273	1273	1274	1274	1275	1275	1275	1276	1277	1278	1279	1279	1279	1279	1279	1279	1279	1279	1278	1277	1277	1276	1276	1276	1276	1276	1277	1278	1278	1278	1279	1279	1279	1279	1279	1278	1278	1277	1277	1276	1276	1275	1275	1274	1272	1270	1270	1269	1267	1266	1264	1264	1262	1262	1262	1262	1262	1263	1263	1264	1265	1266	1267	1267	1269	1269	1270	1270	1271	1272	1274	1274	1275	1275	1277	1276	1276	1276	1276	1275	1275	1274	1273	1273	1273	1273	1272	1272	1272	1272	1274	1274	1274	1274	1275	1275	1275	1275	1275	1275	1275	1275	1275	1275	1275	1275	1275	1275	1275	1275	1277	1278	1279	1281	1282	1283	1284	1284	1284	1284	1284	1283	1282	1280	1279	1278	1277	1276	1275	1275	1274	1273	1273	1273	1273	1273	1273	1273	1274	1274	1273	1274	1274	1274	1274	1274	1273	1273	1273	1272	1273	1273	1273	1274	1274	1274	1275	1275	1275	1277	1277	1277	1277	1278	1278	1279	1279	1281	1281	1281	1281	1281	1281	1281	1281	1280	1281	1281	1282	1283	1284	1286	1288	1290	1291	1292	1294	1294	1295	1296	1298	1299	1299	1299	1299	1298	1297	1295	1293	1290	1290	1287	1285	1284	1281	1281	1280	1279	1279	1278	1278	1277	1277	1278	1279	1281	1283	1284	1285	1288	1290	1293	0	1295	1296	1298	1300	1301	1298	1296	1295	1293	1292	1290	1289	1287	1286	1285	1286	1285	1286	1285	1285	1284	1284	1285	1285	1284	1284	1284	1283	1282	1281	1281	1281	1280	1280	1279	1279	1279	1279	1279	1279	1279	1279	1280	1279	1281	1280	1281	1281	1282	1283	1283	1284	1284	1284	1285	1286	1287	1288	1289	1290	1289	1290	1289	1289	1289	1289	1290	1290	1290	1290	1291	1290	1290	1291	1290	1290	1289	1288	1287	1285	1284	1282	1280	1279	1278	1278	1277	1277	1278	1279	1281	1283	1285	1287	1289	1290	1292	1292	1293	1294	1295	1295	1295	1295	1293	1292	1290	1289	1288	1286	1285	1285	1284	1284	1284	1284	1284	1283	1282	1280	1280	1279	1278	1278	1278	1278	1278	1278	1278	1278	1278	1279	1278	1279	1279	1280	1280	1282	1284	1284	1285	1287	1288	1288	1290	1290	1290	1291	1292	1292	1293	1294	1295	1295	1295	1294	1293	1291	1290	1289	1286	1284	1284	1282	1281	1280	1279	1279	1279	1279	1279	1280	1281	1283	1284	1285	1286	1288	1288	1289	1290	1290	1290	1290
1239	1241	1243	1246	1248	0	1252	1254	1258	1262	1265	1268	1271	1275	1278	1279	1282	1284	1284	1285	1285	1285	1285	1284	1284	1284	1282	1282	1281	1281	1281	1281	1281	1281	1282	1283	1284	1285	1285	1285	1285	1284	1284	1284	1283	1282	1281	1281	1280	1280	1279	1279	1278	1276	1276	1275	1275	1275	1275	1275	1275	1275	1275	1274	1274	1275	1274	1275	1275	1275	1276	1277	1278	1279	1280	1281	1281	1282	1283	1283	1283	1283	1283	1283	1283	1282	1282	1281	1281	1279	1279	1277	1276	1275	1274	1272	1271	1270	1270	1271	1273	1275	1277	1279	1281	1284	1286	1287	1287	1287	1286	1285	1284	1283	1281	1280	1279	1279	1279	1279	1279	1280	1280	1281	1282	1283	1284	1284	1284	1284	1284	1284	1284	1283	1283	1282	1282	1283	1283	1284	1284	1284	1285	1286	1287	1288	1289	1290	1290	1291	1291	1292	1293	1293	1293	1294	1294	1294	1294	1294	1293	1292	1291	1290	1288	1286	1284	1283	1281	1279	1278	1277	1275	1275	1275	1275	1275	1274	1274	1275	1275	1275	1275	1276	1276	1276	1275	1275	1275	1275	1276	1276	1277	1277	1278	1279	1280	1281	1281	1281	1282	1281	1281	1280	1280	1280	1279	1279	1279	1279	1279	1279	1279	1278	1278	1278	1277	1277	1277	1277	1276	1276	1276	1275	1275	1275	1275	1274	1271	1270	1270	1269	1267	1267	1266	1265	1264	1264	1266	1266	1266	1266	1267	1268	1270	1270	1270	1271	1270	1271	1272	1273	1272	1272	1272	1273	1272	1274	1275	1275	1275	1276	1278	1279	1279	1280	1281	1281	1283	1283	1283	1282	1281	1280	1280	1279	1276	1275	1274	1272	1270	1270	1269	1269	1269	1269	1269	1270	1270	1270	1270	1272	1272	1272	1273	1273	1273	1273	1273	1273	1273	1274	1274	1274	1275	1275	1276	1277	1278	1279	1279	1280	1280	1280	1281	1280	1280	1279	1279	1278	1277	1277	1276	1276	1277	1277	1278	1278	1279	1279	1279	1279	1279	1279	1279	1279	1278	1277	1276	1276	1276	1275	1275	1273	1271	1270	1269	1269	1267	1266	1264	1263	1262	1262	1262	1261	1262	1262	1262	1263	1264	1266	1266	1267	1268	1268	1269	1270	1270	1271	1273	1274	1275	1275	1276	1276	1276	1276	1275	1274	1273	1272	1272	1271	1271	1270	1270	1270	1270	1269	1270	1270	1270	1270	1270	1271	1272	1272	1272	1273	1273	1274	1275	1275	1275	1275	1275	1275	1275	1275	1275	1276	1278	1279	1279	1280	1281	1282	1282	1282	1281	1280	1279	1279	1278	1276	1275	1275	1274	1273	1273	1272	1271	1271	1271	1271	1271	1271	1272	1272	1273	1273	1273	1272	1272	1272	1272	1273	1272	1272	1272	1273	1272	1273	1273	1274	1274	1275	1276	1276	1277	1278	1279	1279	1279	1281	1281	1281	1282	1282	1282	1282	1282	1282	1281	1281	1281	1281	1281	1282	1284	1284	1286	1288	1290	1290	1291	1293	1294	1295	1296	1297	1297	1298	1298	1297	1296	1295	1292	1290	1289	1287	1285	1284	1284	1281	1280	1280	1279	1279	1278	1278	1278	1278	1279	1280	1282	1282	1284	1286	1289	1290	1293	0	1295	0	1297	1298	1296	1295	1294	1292	1291	1290	1288	1287	1286	1285	1286	1285	1285	1285	1285	1284	1284	1285	1285	1285	1284	1284	1284	1284	1283	1283	1283	1282	1281	1281	1280	1279	1280	1279	1279	1279	1279	1280	1280	1281	1281	1281	1282	1282	1283	1283	1284	1284	1284	1286	1286	1287	1288	1289	1289	1289	1289	1290	1289	1289	1289	1289	1289	1290	1290	1290	1291	1291	1291	1291	1290	1290	1290	1289	1287	1285	1284	1282	1280	1279	1279	1279	1279	1279	1280	1283	1285	1287	1289	1290	1292	1293	1293	1294	1295	1294	1294	1295	1294	1292	1290	1289	1288	1286	1285	1284	1284	1284	1284	1284	1284	1283	1282	1281	1280	1279	1279	1278	1278	1278	1277	1277	1277	1277	1277	1277	1278	1277	1277	1277	1279	1279	1279	1280	1281	1283	1283	1284	1284	1285	1285	1285	1287	1287	1289	1289	1290	1291	1291	1292	1291	1290	1290	1288	1286	1285	1284	1283	1282	1281	1280	1279	1279	1279	1279	1279	1280	1281	1283	1284	1284	1285	1286	1287	1288	1289	1289	1289	1289
1240	1243	1245	1247	0	1250	1254	1257	1260	1263	1266	1269	1273	1275	1277	1279	1282	1282	1284	1284	1284	1284	1284	1284	1284	1283	1282	1281	1281	1281	1281	1281	1281	1282	1283	1284	1284	1285	1286	1285	1285	1284	1283	1283	1281	1280	1279	1278	1278	1277	1276	1276	1275	1274	1275	1274	1274	1273	1274	1273	1274	1274	1274	1274	1274	1274	1274	1274	1275	1275	1275	1276	1276	1278	1279	1279	1279	1280	1280	1280	1280	1280	1280	1280	1280	1280	1279	1279	1279	1277	1275	1275	1273	1271	1269	1266	1265	1263	1263	1263	1264	1266	1269	1272	1276	1281	1284	1286	1288	1286	1285	1284	1284	1283	1281	1280	1279	1279	1278	1278	1278	1279	1279	1280	1281	1281	1283	1283	1283	1284	1283	1284	1284	1283	1282	1282	1282	1282	1283	1283	1284	1284	1285	1285	1287	1287	1289	1290	1290	1291	1292	1293	1293	1294	1294	1294	1294	1295	1294	1294	1293	1292	1291	1290	1288	1286	1284	1283	1281	1279	1279	1277	1275	1275	1275	1274	1274	1274	1274	1275	1275	1275	1275	1275	1275	1275	1275	1275	1274	1275	1275	1275	1275	1275	1275	1276	1277	1277	1277	1277	1277	1278	1277	1277	1278	1278	1278	1278	1278	1278	1278	1277	1277	1277	1276	1276	1275	1275	1275	1275	1275	1275	1275	1274	1274	1273	1272	1271	1270	1269	1268	1267	1266	1265	1264	1262	1262	1262	1263	1264	1265	1265	1266	1267	1268	1269	1269	1270	1269	1270	1270	1270	1270	1270	1270	1270	1270	1271	1273	1273	1274	1275	1276	1277	1279	1279	1279	1279	1280	1280	1280	1280	1280	1279	1279	1277	1275	1274	1274	1271	1271	1270	1270	1269	1269	1269	1270	1269	1270	1270	1270	1271	1272	1271	1272	1273	1273	1273	1273	1273	1272	1273	1273	1274	1275	1275	1276	1277	1279	1279	1280	1281	1281	1281	1281	1281	1280	1279	1279	1278	1277	1276	1276	1275	1276	1276	1277	1278	1279	1279	1279	1279	1279	1279	1279	1279	1278	1277	1276	1275	1275	1275	1274	1273	1271	1270	1269	1268	1267	1265	1265	1263	1262	1262	1262	1261	1262	1262	1262	1262	1263	1264	1265	1266	1267	1268	1269	1270	1270	1271	1272	1273	1274	1275	1275	1275	1275	1275	1275	1272	1271	1270	1270	1269	1269	1267	1267	1267	1267	1267	1267	1268	1267	1267	1268	1269	1270	1270	1270	1271	1272	1273	1274	1274	1275	1275	1275	1275	1275	1275	1275	1276	1276	1277	1278	1279	1279	1279	1279	1279	1279	1277	1277	1276	1275	1275	1274	1273	1273	1271	1270	1270	1270	1270	1270	1270	1270	1270	1271	1271	1271	1271	1272	1272	1272	1272	1272	1272	1272	1271	1271	1272	1271	1273	1272	1273	1273	1274	1275	1276	1278	1278	1279	1279	1280	1282	1282	1283	1284	1283	1283	1283	1282	1282	1281	1281	1280	1280	1280	1281	1282	1283	1284	1286	1288	1289	1290	1291	1292	1293	1295	1295	1295	1295	1295	1295	1294	1293	1291	1290	1287	1286	1285	1284	1284	1281	1281	1280	1279	1279	1279	1279	1279	1279	1279	1280	1281	1282	1283	1284	1286	1288	1290	1291	1293	1294	1295	1295	1295	1293	1293	1292	1291	1290	1289	1287	1287	1286	1286	1286	1286	1285	1285	1286	1286	1286	1286	1285	1285	1285	1285	1285	1284	1284	1284	1284	1283	1283	1281	1281	1280	1280	1280	1280	1279	1280	1280	1281	1281	1282	1283	1283	1284	1284	1284	1285	1285	1286	1287	1288	1289	1289	1289	1289	1289	1289	1289	1289	1289	1289	1290	1290	1290	1290	1291	1291	1292	1292	1291	1291	1290	1290	1289	1287	1285	1284	1282	1281	1280	1279	1279	1280	1281	1284	1284	1288	1290	1291	1292	1293	1293	1294	1294	1293	1293	1293	1291	1290	1288	1287	1286	1284	1284	1284	1283	1283	1283	0	1283	1283	1282	1281	1280	1280	1279	1279	1278	1277	1277	1277	1277	1277	1277	1277	1277	1276	1276	1276	1275	1276	1277	1277	1278	1278	1279	1279	1279	1280	1280	1281	1282	1283	1284	1285	1285	1287	1288	1288	1288	1288	1286	1285	1284	1284	1282	1281	1281	1280	1279	1279	1279	1279	1279	1279	1280	1280	1282	1283	1284	1284	1286	1286	1287	1288	1288	1287	1287
1242	1243	1246	0	1249	1251	1254	1258	1261	1264	1267	1270	1272	1275	1277	1279	1280	1282	1283	1283	1284	1284	1283	1283	1283	1282	1282	1281	1281	1281	1281	1281	1282	1282	1283	1284	1284	1285	1285	1285	1285	1283	1282	1281	1280	1279	1277	1276	1275	1275	1274	1274	1272	1272	1272	1272	1272	1272	1272	1273	1273	1273	1273	1274	1274	1273	1273	1273	1273	1274	1274	1275	1275	1275	1276	1276	1277	1278	1278	1278	1278	1278	1278	1278	1278	1278	1278	1277	1277	1276	1274	1273	1270	1268	1265	1262	1259	1258	1256	1256	1257	1260	1263	1266	1270	1277	1281	1284	1286	1285	1285	1284	1283	1281	1280	1279	1279	1278	1277	1277	1278	1278	1279	1279	1279	1280	1281	1281	1282	1282	1283	1283	1283	1283	1282	1282	1282	1282	1282	1283	1284	1284	1284	1285	1287	1287	1289	1290	1290	1291	1292	1293	1293	1294	1294	1293	1293	1294	1294	1293	1292	1291	1290	1290	1289	1286	1284	1283	1281	1280	1279	1278	1276	1275	1275	1275	1275	1275	1274	1275	1275	1275	1275	1275	1275	1275	1274	1274	1273	1273	1273	1274	1273	1273	1272	1272	1273	1272	1273	1274	1274	1274	1275	1275	1275	1275	1276	1276	1275	1276	1276	1276	1276	1276	1275	1275	1275	1275	1275	1275	1275	1274	1274	1274	1273	1272	1271	1270	1270	1268	1266	1265	1264	1262	1262	1261	1260	1260	1261	1262	1262	1264	1265	1267	1267	1268	1269	1268	1269	1268	1268	1268	1268	1268	1268	1268	1269	1269	1270	1271	1270	1272	1274	1275	1276	1277	1277	1278	1278	1279	1279	1279	1279	1278	1277	1276	1275	1275	1274	1272	1271	1270	1270	1270	1270	1270	1270	1270	1270	1271	1270	1271	1271	1271	1272	1272	1272	1272	1272	1272	1272	1273	1273	1274	1275	1275	1276	1278	1279	1280	1280	1282	1282	1282	1282	1282	1281	1279	1279	1278	1278	1277	1276	1275	1275	1275	1276	1277	1278	1279	1279	1279	1279	1279	1279	1278	1277	1276	1275	1275	1275	1275	1273	1272	1271	1270	1270	1268	1268	1266	1265	1263	1262	1262	1262	1261	1262	1262	1262	1262	1263	1264	1265	1266	1267	1268	1269	1269	1270	1270	1271	1272	1273	1274	1275	1275	1274	1274	1271	1270	1270	1269	1268	1267	1267	1266	1266	1266	1266	1266	1266	1266	1266	1266	1266	1266	1267	1268	1269	1270	1271	1273	1274	1275	1275	1275	1275	1275	1275	1275	1275	1275	1275	1275	1276	1275	1276	1276	1275	1275	1275	1275	1274	1273	1273	1273	1272	1271	1271	1270	1270	1269	1269	1268	1268	1269	1269	1269	1270	1270	1270	1270	1271	1271	1271	1271	1271	1271	1271	1270	1270	1271	1271	1271	1271	1272	1273	1273	1275	1275	1277	1277	1279	1279	1280	1283	1283	1284	1284	1284	1284	1283	1283	1282	1280	1279	1279	1279	1279	1280	1280	1281	1283	1284	1286	1287	1288	1290	1290	1291	1293	1293	1293	1293	1293	1292	1290	1290	1289	1287	1285	1284	1284	1284	1283	1282	1281	1281	1280	1280	1279	1279	1278	1279	1279	1279	1280	1280	1281	1283	1284	1286	1287	1288	1290	1291	1293	1293	1293	1293	1293	1292	1291	1290	1290	1288	1287	1288	1288	1287	1287	1288	1287	1287	1287	1287	1287	1287	1286	1286	1286	1286	1286	1285	1285	1285	1284	1284	1284	1283	1282	1282	1281	1280	1280	1280	1281	1281	1281	1282	1283	1283	1284	1284	1286	1286	1287	1288	1288	1289	1290	1290	1290	1290	1290	1290	1289	1289	1289	1289	1290	1290	1290	1290	1290	1291	1291	1291	1291	1291	1290	1290	1289	1288	1286	1285	1284	1282	1282	1281	1281	1282	1283	1284	1286	1289	1290	1291	1292	1293	1294	1293	1293	1293	1291	1291	1290	1288	1287	1285	1284	1284	1283	1283	1283	1282	1283	1284	1284	1283	1282	1282	1281	1280	1279	1279	1279	1278	1277	1277	1277	1277	1277	1276	1276	1275	1275	1275	1275	1274	1275	1275	1275	1275	1275	1275	1275	1276	1276	1277	1278	1278	1279	1280	1281	1283	1283	1283	1283	1283	1283	1282	1281	1280	1280	1280	1279	1279	1279	1279	1278	1278	1278	1279	1279	1279	1281	1282	1283	1284	1285	1285	1286	1286	1286	1286	1285
1242	1246	0	1248	1251	1254	1257	1260	1262	1265	1268	1270	1273	1275	1277	1279	1279	1279	1280	1282	1282	1282	1282	1282	1281	1282	1281	1281	1281	1281	1281	1281	1282	1282	1284	1284	1285	1285	1285	1285	1284	1283	1281	1280	1279	1278	1275	1275	1274	1274	1272	1271	1272	1271	1270	1271	1270	1271	1272	1272	1273	1273	1273	1274	1274	1274	1274	1273	1273	1273	1273	1275	1275	1275	1275	1275	1275	1275	1276	1276	1276	1276	1276	1277	1277	1277	1277	1276	1276	1275	1273	1272	1270	1266	1262	1259	1256	1251	1250	1251	1253	0	0	0	0	1271	1278	1283	1286	1286	1285	1284	1283	1281	1280	1279	1278	1277	1276	1276	1277	1276	1278	1278	1279	1279	1280	1280	1281	1282	1282	1282	1282	1282	1281	1281	1281	1281	1282	1282	1284	1284	1284	1285	1287	1287	1289	1290	1290	1290	1291	1292	1292	1292	1292	1292	1292	1292	1292	1291	1290	1290	1290	1290	1289	1286	1285	1284	1283	1281	1280	1279	1278	1278	1276	1275	1275	1275	1275	1275	1275	1275	1275	1275	1274	1274	1273	1273	1272	1272	1272	1271	1272	1270	1270	1270	1270	1270	1270	1270	1271	1271	1272	1273	1274	1275	1275	1275	1275	1275	1275	1275	1274	1274	1274	1274	1274	1274	1274	1274	1273	1273	1273	1272	1271	1270	1270	1269	1267	1266	1265	1263	1262	1261	1260	1258	1258	1258	1259	1260	1262	1262	1264	1265	1266	1267	1267	1267	1267	1266	1266	1266	1266	1266	1266	1266	1266	1267	1268	1269	1269	1270	1272	1273	1274	1275	1275	1276	1277	1277	1277	1277	1277	1276	1276	1275	1275	1274	1274	1273	1272	1271	1270	1270	1270	1270	1270	1270	1270	1270	1271	1271	1271	1270	1271	1271	1271	1271	1271	1271	1271	1271	1272	1273	1274	1275	1275	1277	1278	1279	1280	1281	1282	1282	1282	1282	1281	1279	1279	1278	1277	1276	1275	1275	1275	1275	1275	1277	1277	1278	1279	1279	1279	1279	1278	1278	1277	1276	1275	1275	1275	1274	1273	1272	1270	1269	1268	1268	1266	1266	1265	1263	1263	1262	1262	1262	1262	1262	1262	1262	1264	1265	1266	1266	1267	1268	1269	1270	1270	1270	1270	1271	1272	1273	1274	1273	1273	1271	1270	1269	1268	1267	1266	1266	1265	1264	1264	1264	1263	1263	1263	1264	1264	1264	1266	1266	1266	1267	1268	1270	1271	1273	1274	1275	1275	1275	1275	1275	1275	1275	1275	1275	1275	1275	1275	1275	1275	1274	1274	1273	1273	1272	1271	1271	1271	1270	1270	1270	1270	1269	1268	1268	1268	1267	1267	1267	1268	1268	1269	1270	1270	1270	1270	1270	1270	1271	1271	1271	1271	1270	1270	1270	1270	1271	1271	1271	1272	1272	1273	1275	1275	1277	1278	1279	1280	1283	1284	1284	1284	1284	1284	1283	1282	1281	1279	1279	1279	1279	1279	1279	1279	1280	1282	1283	1284	1285	1286	1288	1289	1290	1291	1291	1291	1290	1290	1289	1287	1287	1285	1284	1284	1284	1283	1283	1283	1282	1281	1281	1281	1280	1279	1279	1279	1278	1279	1279	1279	1279	1279	1281	1282	1283	1284	1286	1286	1289	1290	1291	1291	1291	1292	1292	1291	1291	1290	1290	1289	1289	1289	1289	1288	1289	1288	1288	1288	1289	1289	1288	1288	1287	1287	1287	1286	1286	1286	1285	1285	1284	1284	1284	1284	1283	1282	1282	1281	1281	1282	1282	1282	1283	1284	1284	1284	1286	1286	1287	1288	1289	1290	1290	1290	1291	1291	1290	1290	1290	1290	1290	1289	1289	1289	1289	1289	1289	1290	1290	1290	1290	1290	1290	1289	1290	1288	1287	1286	1284	1284	1283	1282	1281	1282	1282	1283	1285	1286	1289	1290	1291	1292	1292	1292	1292	1292	1291	1290	1290	1289	1287	1285	1284	1284	1284	1283	1283	1283	1283	1284	1284	1284	1284	1284	1284	1284	1282	1281	1280	1280	1279	1279	1279	1279	1279	1278	1277	1277	1276	1275	1274	1273	1273	1272	1272	1272	1272	1272	1272	1273	1273	1274	1274	1275	1275	1276	1276	1277	1278	1278	1278	1278	1279	1278	1279	1278	1278	1278	1278	1278	1277	1278	1277	1277	1277	1277	1278	1279	1279	1280	1281	1282	1283	1284	1284	1284	1284	1284	1284	1284
1245	0	1248	1250	1254	1256	1259	1262	1265	1267	1270	1271	1273	1275	1276	1277	1278	1279	1279	1280	1280	1280	1281	1281	1281	1280	1280	1281	1281	1281	1281	1282	1282	1283	1284	1284	1284	1285	1285	1284	1284	1282	1281	1280	1279	1277	1275	1274	1273	1273	1271	1271	1270	1270	1270	1270	1270	1270	1271	1271	1271	1272	1272	1273	1273	1273	1272	1272	1272	1272	1272	1274	1274	1274	1274	1274	1275	1275	1275	1275	1275	1275	1275	1275	1276	1276	1276	1276	1275	1275	1273	1271	1268	1265	1261	1258	1250	1247	1246	1246	1246	1249	0	0	0	1266	1275	1280	1285	1285	1284	1284	1283	1282	1280	1279	1279	1278	1277	1277	1277	1276	1277	1278	1279	1279	1279	1280	1280	1281	1281	1281	1281	1282	1282	1282	1281	1281	1283	1283	1284	1284	1284	1285	1286	1287	1288	1289	1290	1290	1290	1291	1291	1291	1290	1290	1290	1290	1290	1290	1289	1289	1289	1288	1288	1287	1285	1284	1284	1284	1282	1280	1279	1279	1279	1277	1277	1276	1275	1275	1275	1275	1275	1274	1275	1274	1273	1272	1271	1271	1271	1271	1270	1270	1269	1268	1269	1268	1268	1269	1270	1270	1270	1270	1272	1273	1273	1274	1274	1274	1274	1274	1274	1274	1273	1273	1273	1273	1273	1273	1272	1272	1271	1271	1270	1270	1268	1267	1266	1264	1262	1262	1260	1258	1258	1257	1257	1257	1258	1258	1260	1262	1262	1264	1266	1266	1266	1266	1266	1266	1265	1265	1264	1263	1263	1264	1265	1266	1266	1267	1267	1269	1270	1271	1272	1272	1274	1274	1274	1275	1275	1275	1275	1275	1275	1275	1275	1274	1274	1273	1273	1272	1272	1271	1271	1271	1271	1270	1270	1270	1270	1270	1270	1270	1270	1270	1270	1270	1270	1270	1270	1270	1271	1272	1273	1274	1275	1275	1276	1279	1279	1280	1281	1281	1282	1282	1280	1279	1278	1278	1277	1276	1275	1274	1275	1275	1275	1276	1276	1278	1278	1279	1279	1279	1279	1278	1278	1277	1276	1275	1274	1274	1272	1271	1270	1269	1268	1267	1266	1266	1264	1263	1263	1262	1262	1262	1262	1262	1263	1264	1265	1266	1266	1267	1268	1268	1269	1269	1269	1270	1270	1270	1270	1271	1271	1271	1270	1269	1268	1267	1266	1266	1265	1264	1263	1262	1262	1262	1262	1262	1262	1263	1263	1263	1264	1266	1266	1266	1267	1270	1271	1273	1275	1275	1276	1277	1277	1277	1277	1276	1275	1275	1275	1275	1275	1275	1274	1273	1271	1271	1270	1270	1270	1270	1270	1270	1269	1269	1268	1268	1267	1267	1267	1267	1267	1267	1267	1267	1268	1268	1269	1270	1270	1270	1270	1270	1270	1270	1270	1270	1270	1270	1270	1270	1270	1270	1270	1271	1272	1274	1275	1275	1276	1277	1279	1282	1282	1283	1283	1283	1283	1282	1281	1279	1279	1279	1279	1278	1279	1279	1279	1279	1280	1281	1282	1283	1284	1285	1286	1287	1288	1288	1288	1287	1286	1285	1284	1284	1283	1282	1282	1282	1282	1281	1282	1281	1281	1281	1281	1280	1279	1279	1279	1278	1278	1278	1278	1278	1278	1279	1279	1281	1282	1284	1284	1286	1289	1290	1290	1291	1292	1292	1292	1292	1292	1291	1290	1290	1290	1290	1290	1290	1290	1290	1290	1290	1290	1289	1288	1288	1287	1287	1286	1286	1286	1285	1285	1285	1284	1284	1284	1284	1283	1282	1282	1282	1282	1283	1283	1284	1284	1284	1285	1285	1286	1288	1288	1290	1290	1290	1291	1291	1291	1291	1290	1290	1290	1289	1289	1288	1288	1288	1288	1288	1289	1289	1290	1290	1289	1289	1288	1288	1287	1285	1285	1284	1283	1282	1282	1281	1281	1282	1283	1284	1284	1287	1289	1290	1290	1290	1290	1290	1290	1289	1288	1286	1285	1284	1284	1283	1283	1282	1283	1282	1282	1283	1284	1284	1284	1284	1284	1284	1284	1284	1283	1282	1281	1281	1280	1280	1279	1279	1279	1279	1278	1277	1275	1275	1274	1273	1271	1271	1270	1270	1270	1270	1270	1270	1270	1271	1271	1272	1273	1274	1274	1275	1275	1275	1275	1275	1275	1275	1275	1275	1275	1275	1276	1276	1276	1276	1276	1277	1277	1277	1278	1278	1279	1279	1281	1281	1282	1283	1283	1283	1283	1281	1281
1245	1247	1250	1253	1255	1258	1261	1263	1266	1268	1270	1271	1273	1274	1275	1275	1276	1277	1277	1278	1279	1279	1279	1280	1279	1279	1280	1280	1280	1281	1281	1281	1282	1283	1284	1284	1284	1284	1284	1284	1284	1281	1280	1279	1279	1276	1275	1275	1273	1272	1272	1271	1270	1270	1270	1270	1270	1270	1270	1270	1270	1270	1270	1270	1271	1271	1272	1271	1271	1271	1271	1272	1272	1272	1273	1273	1273	1274	1274	1274	1275	1275	1275	1275	1276	1276	1276	1276	1275	1275	1275	1272	1269	1265	1261	1257	1249	1245	1243	1242	1243	1246	0	0	0	0	1272	1279	1284	1284	1284	1284	1283	1281	1279	1279	1278	1277	1276	1276	1275	1275	1276	1278	1278	1279	1279	1279	1279	1280	1280	1281	1281	1281	1281	1281	1282	1281	1282	1283	1283	1284	1284	1285	1286	1286	1287	1288	1288	1289	1289	1289	1289	1288	1288	1288	1288	1288	1288	1288	1287	1288	1287	1287	1287	1286	1286	1285	1285	1284	1284	1282	1281	1280	1279	1279	1278	1277	1276	1276	1276	1275	1275	1275	1274	1274	1273	1272	1271	1271	1271	1271	1270	1269	1268	1267	1266	1266	1267	1267	1268	1269	1270	1270	1272	1272	1273	1274	1273	1274	1274	1274	1274	1274	1273	1273	1273	1273	1273	1273	1272	1271	1271	1270	1270	1269	1267	1266	1265	1263	1262	1261	1259	1258	1257	1256	1256	1256	1257	1258	1259	1262	1262	1263	1265	1266	1266	1266	1265	1265	1264	1263	1262	1262	1262	1262	1262	1263	1264	1265	1266	1267	1268	1269	1270	1270	1271	1272	1273	1273	1273	1273	1274	1274	1275	1274	1274	1274	1273	1273	1272	1272	1271	1271	1271	1271	1270	1270	1270	1270	1270	1270	1270	1270	1270	1270	1270	1270	1270	1270	1270	1270	1270	1270	1271	1272	1274	1275	1275	1277	1278	1279	1279	1280	1281	1281	1280	1279	1278	1277	1276	1276	1275	1274	1274	1274	1275	1275	0	1277	1278	1278	1279	1279	1279	1279	1278	1277	1276	1275	1274	1274	1272	1270	1270	1269	1268	1267	1266	1266	1265	1265	1264	1264	1264	1263	1263	1263	1264	1265	1266	1266	1267	1268	1268	1269	1269	1269	1269	1269	1270	1269	1270	1270	1270	1270	1269	1268	1267	1266	1266	1264	1263	1263	1262	1262	1261	1261	1261	1262	1261	1262	1262	1263	1264	1265	1266	1266	1268	1270	1271	1273	1275	1275	1277	1278	1278	1278	1278	1277	1276	1276	1275	1275	1274	1274	1273	1271	1270	1270	1269	1268	1268	1267	1267	1267	1267	1267	1266	1266	1266	1266	1266	1266	1266	1266	1266	1267	1267	1267	1268	1269	1269	1270	1270	1270	1270	1270	1270	1270	1269	1270	1269	1269	1270	1269	1269	1270	1271	1272	1273	1274	1275	1275	1277	1279	1280	1281	1280	1280	1280	1280	1279	1279	1278	1278	1278	1278	1278	1278	1279	1279	1279	1280	1280	1281	1283	1283	1284	1285	1285	1285	1284	1284	1284	1283	1282	1282	1281	1280	1280	1280	1281	1281	1281	1280	1280	1280	1280	1279	1279	1279	1278	1278	1277	1277	1277	1277	1277	1278	1278	1279	1280	1281	1283	1284	1286	1288	1289	1290	1291	1292	1292	1293	1293	1292	1292	1291	1292	1291	1291	1290	1290	1290	1290	1290	1290	1289	1288	1287	1286	1286	1284	1283	1283	1282	1282	1282	1283	1283	1283	1283	1283	1283	1283	1283	1282	1283	1283	1284	1284	1284	1285	1285	1287	1288	1288	1289	1290	1290	1291	1291	1291	1290	1290	1290	1289	1288	1287	1286	1286	1285	1285	1286	1287	1287	1288	1287	1287	1286	1286	1285	1284	1284	1283	1282	1281	1281	1280	1280	1279	1280	1281	1282	1284	1284	1286	1287	1288	1287	1287	1286	1286	1285	1284	1284	1283	1282	1282	1281	1281	1282	1282	1282	1282	1282	1283	1284	1284	1284	1284	1284	1284	1284	1284	1283	1282	1281	1282	1281	1281	1281	1280	1280	1279	1278	1276	1275	1274	1272	1271	1270	1270	1269	1268	1268	1268	1268	1268	1269	1269	1270	1270	1270	1271	1271	1271	1271	1272	1272	1272	1272	1273	1273	1274	1275	1275	1275	1275	1275	1275	1276	1276	1276	1277	1277	1278	1279	1279	1280	1281	1281	1281	1281	1280	1280	1279
1246	1250	1252	1254	1258	1260	1262	1265	1266	1269	1270	1271	1272	1273	1274	1274	1274	1275	1275	1276	1277	1278	1278	1279	1279	1279	1279	1279	1280	1280	1280	1281	1281	1282	1283	1284	1284	1283	1284	1283	1281	1280	1279	1278	1278	1275	1275	1274	1273	1272	1271	1270	1270	1270	1269	1268	1268	1269	1268	1268	1269	1269	1269	1269	1270	1270	1270	1270	1270	1270	1270	1271	1271	1271	1272	1272	1272	1273	1273	1274	1274	1275	1275	1275	1275	1275	1275	1276	1275	1275	1275	1272	1268	1265	1261	1256	1248	1243	1241	1240	1240	1242	1246	0	0	0	1267	1275	1281	1283	1283	1282	1281	1279	1278	1277	1276	1275	1274	1274	1274	1273	1275	1275	1276	1277	1279	1279	1279	1279	1280	1280	1280	1280	1280	1280	1281	1282	1282	1282	1283	1284	1284	1284	1285	1285	1286	1287	1287	1287	1287	1287	1286	1286	1286	1285	1285	1285	1286	1285	1285	1285	1286	1286	1286	1286	1286	1285	1285	1285	1284	1284	1283	1282	1281	1280	1279	1278	1277	1277	1276	1276	1275	1275	1275	1274	1273	1272	1272	1271	1270	1270	1270	1269	1267	1267	1266	1266	1267	1268	1268	1270	1270	1270	1271	1272	1273	1274	1274	1274	1274	1274	1274	1274	1273	1273	1273	1273	1273	1273	1272	1272	1271	1271	1270	1270	1268	1266	1265	1263	1262	1260	1258	1257	1257	1256	1255	1256	1257	1258	1259	1261	1262	1263	1264	1265	1265	1265	1265	1263	1262	1262	1261	1261	1260	1260	1261	1262	1262	1263	0	1265	1266	1266	1267	1268	1269	1270	1270	1271	1272	1272	1273	1273	1274	1274	1273	1273	1273	1273	1273	1272	1272	1271	1271	1271	1271	1270	1271	1270	1270	1270	1270	1270	1270	1270	1270	1269	1269	1269	1269	1269	1269	1270	1270	1271	1272	1274	1275	1275	1276	1278	1279	1279	1279	1279	1279	1279	1278	1277	1275	1275	1275	1274	1273	0	1274	1275	1275	1276	1277	1277	1278	1278	1279	1279	1279	1278	1277	1276	1274	1273	1272	1270	1269	1268	1267	1266	1266	1266	1266	1265	1264	1264	1264	1264	1264	1264	1265	1266	1266	1267	1268	1269	1269	1269	1269	1269	1269	1268	1268	1268	1268	0	1268	1267	1267	1266	1266	1265	1264	1263	1262	1262	1261	1260	1260	1260	1261	1261	1261	1262	1262	1263	1263	1265	1266	1267	1268	1270	1271	1273	1275	1276	1277	1278	1278	1279	1278	1278	1277	1276	1275	1275	1274	1273	1272	1270	1269	1269	1267	1266	1266	1266	1266	1266	1266	1266	1266	1266	1266	1266	1266	1266	1266	1266	1266	1266	1266	1267	1267	1268	1269	1270	1270	1270	1270	1270	1269	1269	1268	1268	1268	1268	1268	1268	1269	1269	1270	1270	1271	1272	1273	1274	1275	1276	1278	1279	1279	1279	1279	1279	1279	1278	1278	1277	1277	1277	1277	1277	1277	1278	1278	1279	1279	1279	1279	1281	1281	1282	1282	1282	1282	1282	1281	1280	1280	1280	1279	1279	1279	1279	1280	1280	1279	1279	1279	1279	1279	1279	1279	1278	1278	1277	1276	1276	1276	1276	1275	1276	1276	1277	1279	1279	1280	1281	1284	1285	1287	1288	1290	1290	1291	1292	1292	1292	1291	1291	1290	1291	1290	1290	1290	1290	1290	1290	1288	1286	1285	1284	1283	1282	1281	1280	1280	1280	1279	1279	1280	1281	1282	1282	1282	1282	1282	1282	1282	1282	1282	1283	1283	1284	1284	1284	1285	1287	1287	1288	1289	1290	1290	1290	1290	1290	1289	1288	1286	1284	1284	1283	1282	1283	1283	1282	1283	1284	1284	1284	1283	1283	1283	1283	1282	1282	1281	1280	1280	1279	1279	1279	1279	1279	1280	1281	1282	1283	1284	1284	1285	1284	1284	1284	1282	1282	1281	1280	1280	1279	1279	1279	1280	1281	1282	1281	1283	1283	1283	1284	1284	1284	1284	1284	1284	1284	1284	1284	1284	1284	1283	1283	1283	1282	1282	1281	1280	1279	1277	1275	1275	1273	1271	1270	1270	1269	1268	1267	1268	1267	1267	1267	1267	1268	1267	1268	1269	1270	1269	1269	1269	1270	1270	1270	1270	1271	1272	1273	1273	1274	1275	1275	1275	1275	1275	1275	1276	1277	1277	1279	1279	1280	1280	1281	1281	1280	1279	1279	1279
1249	1251	1254	1256	1258	1261	1263	1265	1267	1269	1270	1270	1270	1271	1272	1272	1272	1273	1274	1275	1275	1276	1276	1277	1278	1278	1279	1279	1279	1279	1279	1280	1280	1281	1282	1282	1282	1282	1282	1281	1280	1279	1279	1278	1277	1275	1275	1274	1273	1272	1271	1270	1270	1269	1268	1268	1267	1267	1267	1267	1267	1268	1268	1268	1268	1268	1269	1269	1270	1270	1270	1270	1270	1270	1271	1272	1272	1272	1273	1273	1274	1274	1275	1275	1275	1275	1275	1275	1275	1275	1274	1272	1269	1264	1260	1256	1246	1242	1239	1237	1237	1239	1242	0	0	0	0	1273	1279	1280	1280	1279	1279	1277	1275	1274	1273	1271	1271	1271	1271	0	1273	1274	1275	1275	1277	1277	1278	1278	1279	1279	1279	1279	1279	1279	1280	1280	1281	1282	1282	1283	1284	1284	1284	1284	1284	1284	1284	1285	1284	1284	1284	1284	1284	1283	1283	1283	1284	1283	1283	1284	1284	1284	1285	1285	1285	1285	1285	1286	1285	1284	1284	1283	1282	1281	1281	1279	1279	1278	1278	1277	1276	1275	1275	1273	1273	1271	1271	1271	1270	1270	1270	1269	1268	1267	1266	1266	1267	1268	1268	1269	1270	1270	1272	1273	1272	1273	1273	1274	1274	1274	1274	1274	1274	1273	1273	1273	1273	1273	1272	1272	1272	1271	1270	1270	1269	1266	1265	1263	1262	1260	1258	1257	1256	1256	1255	1255	1256	1258	1258	1260	1261	1262	1263	1264	1264	1264	1263	1263	1262	1261	1260	1260	1259	1260	1260	1261	1262	1262	1263	1264	1265	1266	1267	1268	1268	0	1270	1270	1271	1271	1272	1272	1272	1273	1273	1273	1272	1273	1272	1272	1272	1271	1271	1271	1271	1270	1270	1270	1270	1270	1270	1270	1270	1270	1270	1269	1269	1269	1269	1269	1269	1270	1270	1270	1271	1272	1273	1274	1275	1276	1276	1277	1278	1278	1278	1278	1277	1276	1275	1275	1274	1272	1272	1273	1273	1274	1275	1275	1275	1276	1277	1278	1279	1279	1278	1278	1277	1275	1274	1273	1271	1270	1269	1268	1267	1266	1266	1266	1266	1265	1265	1265	1265	1265	1265	1266	1266	1267	1267	1268	1269	1270	1269	1269	1269	1269	1268	1267	1267	1266	1267	1267	1266	1266	1266	1265	1264	1262	1262	1262	1261	1260	1260	1260	1260	1259	1260	1261	1261	1262	1262	1263	1264	1265	1266	1267	1268	1270	1271	1272	1274	1275	1276	1277	1277	1278	1278	1277	1277	1276	1275	1275	1273	1272	1271	1270	1268	1267	1266	1266	1266	1265	1266	1266	1266	1266	1266	1266	1266	1266	1266	1266	1266	1266	1266	1266	1266	1267	1268	1268	1269	1269	1269	1269	1269	1269	1269	1268	1267	1267	1266	1266	1266	1266	1266	1267	1268	1269	1269	1270	1270	1272	1273	1275	1275	1276	1276	1276	1277	1277	1277	1276	1276	1276	1276	1276	1277	1276	1276	1276	1277	1277	1277	1278	1278	1279	1279	1279	1280	1280	1280	1279	1279	1279	1279	1279	1279	1279	1279	1279	1279	1279	1279	1279	1279	1279	1279	1279	1278	1277	1277	1277	1276	1276	1275	1275	1275	1275	1275	1275	1276	1277	1278	1279	1280	1283	1284	1285	1287	1288	1289	1290	1290	1290	1290	1290	1290	1290	1288	1289	1288	1288	1287	1287	1286	1285	1283	1283	1280	1279	1279	1278	1278	1278	1279	1279	1279	1279	1280	1281	1281	1281	1281	1281	1281	1281	1281	1282	1282	1283	1284	1284	1284	1285	1286	1286	1288	1288	1288	1288	1287	1286	1285	1284	1282	1280	1279	1279	1278	1278	1277	1278	1278	1279	1279	1279	1279	1279	1279	1279	1279	1279	1279	1279	1278	1278	1278	1278	1278	1278	1279	1279	1280	1281	1282	1282	1283	1282	1282	1280	1279	1279	1279	1278	1278	1278	1278	1279	1279	1280	1281	1282	1282	1282	1283	1284	1284	1284	1284	1284	1284	1284	1284	1284	1284	1284	1284	1284	1284	1284	1283	1283	1282	1280	1279	1277	1276	1275	1273	1271	1270	1269	1269	1268	1268	1267	1266	1266	1266	1267	1266	1267	1266	1267	1267	1267	1267	1267	1268	1269	1270	1270	1270	1271	1272	1273	1274	1274	1274	1275	1275	1275	1275	1276	1277	1278	1279	1279	1280	1281	1281	1281	1279	1279	1278
1251	1254	1255	1258	1259	1262	1264	1266	1267	1268	1269	1269	1270	1270	1270	1270	1270	1270	1271	1272	1273	1274	1275	1276	1276	1277	1278	1278	1279	1279	1279	1279	1279	1280	1280	1280	1280	1280	1280	1279	1279	1278	1277	1276	1275	1275	1274	1274	1272	1271	1270	1270	1270	1269	1268	1267	1266	1266	1266	1266	1266	1266	1266	1266	1266	1266	1268	1268	1268	1268	1269	1270	1270	1270	1270	1271	1271	1272	1272	1273	1273	1274	1274	1275	1275	1275	1275	1275	1275	1275	1274	1273	1269	1265	1261	1257	1248	1244	1240	1239	1239	1242	1246	1250	0	1257	1264	0	1276	1278	1279	1278	1276	1275	1272	1270	1270	1269	1268	1268	1268	1270	1271	1273	1274	1275	1275	1275	1275	1276	1276	1277	1277	1277	1277	1278	1279	1279	1280	1281	1281	1282	1283	1283	1283	1283	1284	1284	1284	1283	1283	1283	1282	1282	1282	1281	1281	1281	1282	1281	1280	1281	1282	1283	1284	1284	1284	1284	1285	1286	1285	1285	1284	1284	1283	1282	1281	1280	1279	1279	1277	1277	1276	1275	1275	1273	1272	1271	1271	1270	1270	1270	1270	1269	1268	1267	1267	1267	1267	1269	1269	1270	1270	1270	1271	1272	1272	1273	1273	1273	1274	1274	1274	1274	1274	1273	1273	1273	1273	1273	1272	1272	1272	1271	1271	1270	1269	1267	1266	1264	1262	1260	1258	1258	1256	1255	1255	1255	1256	1257	1258	1259	1260	1262	1262	1263	1263	1263	1263	1262	1262	1261	1260	1259	1259	1259	1260	1261	1261	1261	1262	1262	1263	1264	1265	1266	1267	1267	1269	1269	1270	1270	1270	1272	1271	1272	1272	1272	1272	1272	1271	1271	1271	1271	1270	1271	1270	1270	1270	1270	1270	1270	1270	1270	1270	1270	1270	1270	1269	1269	1269	1269	1268	1269	1269	1270	1270	1271	1271	1273	1273	1275	1275	1275	1276	1276	1276	1276	1276	1275	1275	1274	1273	1272	1271	1271	1272	1273	1274	1274	1275	1275	1276	1277	1278	1278	1277	1278	1277	1275	1275	1273	1271	1270	1269	1267	1266	1266	1266	1266	1265	1265	1265	1265	1265	1266	1266	1266	1267	1268	1269	1270	1270	1270	1270	1269	1269	1268	1267	1266	1266	1266	1266	1266	1266	1265	1264	1263	1262	1262	1261	1260	1260	1259	1259	1259	1259	1260	1260	1261	1261	1262	1263	1264	1265	1265	1266	1267	1268	1269	1270	1272	1274	1274	1275	1276	1276	1277	1278	1277	1276	1275	1275	1274	1272	1271	1270	1269	1267	1266	1266	1265	1265	1264	1265	1265	1265	1265	1266	1266	1266	1266	1266	1266	1266	1266	1266	1266	1266	1266	1267	1267	1268	1268	1269	1269	1268	1268	1268	1267	1266	1266	1266	1266	1265	1265	1265	1266	1266	1267	1268	1268	1269	1270	1270	1272	1273	1273	1273	1273	1273	1274	1274	1274	1274	1274	1275	1275	1275	1275	1275	1275	1276	1275	1276	1276	1276	1276	1277	1278	1278	1278	1278	1277	1278	1278	1278	1278	1278	1278	1278	1279	1279	1279	1278	1278	1277	1277	1277	1277	1276	1276	1275	1275	1275	1275	1274	1274	1273	1272	1273	1273	1274	1275	1275	1276	1278	1279	1281	1282	1283	1284	1285	1286	1281	1282	1283	1284	1284	1284	1285	1286	1286	1285	1284	1284	1283	1283	1281	1279	1278	1277	1276	1276	1276	1276	1277	1277	1278	1279	1280	1280	1280	1280	1280	1280	1280	1281	1281	1281	1282	1282	1283	1283	0	1284	1285	0	1286	1286	1286	1285	1284	1283	1281	1279	1277	1275	1274	1272	1271	1271	1271	1272	1273	1274	1275	1275	1275	1275	1275	1275	1275	1275	1275	1275	1275	1276	1275	1276	1276	1277	1277	1278	1279	1279	1279	1280	1280	1279	1279	1279	1277	1277	1276	1276	1276	1276	1277	1278	1279	1279	1280	1281	1281	1281	1282	1283	1283	1283	1283	1284	1284	1284	1284	1284	1284	1285	1285	1285	1285	1284	1284	1284	1283	1282	1280	1279	1277	1276	1275	1273	1271	1270	1270	1269	1269	1268	1267	1266	1266	1266	1266	1266	1266	1266	1266	1266	1266	1266	1267	1267	1268	1268	1270	1270	1271	1271	1272	1273	1273	1274	1275	1275	1275	1276	1276	1277	1279	1279	1279	1280	1280	1279	1279	1278	1277
1254	1255	1258	1259	1261	1262	1265	1266	1267	1268	1268	1268	1268	1269	1268	1269	1269	1269	1269	1270	1271	1272	1273	1275	1275	1276	1277	1278	1278	1279	1279	1279	1279	1279	1279	1279	1279	1279	1279	1278	1278	1277	1276	1275	1275	1275	1274	1273	1272	1271	1270	1270	1270	1269	1268	1267	1266	1266	1266	1265	1265	1265	1265	1265	1265	1265	1266	1266	1267	1267	1268	1268	1268	1270	1270	1270	1271	1271	1272	1272	1273	1273	1273	1274	1275	1275	1275	1275	1275	1275	1274	1272	1270	1266	1262	0	1254	1246	1242	1242	1242	1246	1249	1254	0	0	0	0	0	1275	1275	1273	1272	1270	1267	1266	1265	1265	1264	1265	1265	1266	1268	1270	1272	1273	1274	1274	1274	1275	1275	1275	1275	1275	1276	1277	1279	1279	1279	1280	1280	1281	1282	1282	1282	1281	1282	1282	1282	1282	1281	1280	1280	1280	1279	1279	1279	1279	1279	1279	1279	1279	1280	1280	1281	1282	1283	1283	1284	1284	1284	1284	1284	1283	1282	1282	1280	1280	1279	1279	1278	1276	1275	1275	1274	1273	1272	1270	1270	1270	1270	1270	1269	1269	1268	1268	1268	1268	1269	1270	1270	1270	1271	1271	1271	1272	1272	1272	1273	1273	1273	1274	1274	1274	1274	1273	1274	1274	1274	1273	1273	1272	1272	1272	1270	1270	1269	1267	1266	1264	1262	1261	1259	1258	1257	1256	1256	1255	1255	1256	1256	1258	1259	1261	1262	1262	1262	1262	1262	1262	1262	1261	1260	1259	1259	1259	1260	1260	1260	1260	1261	1262	1262	1263	1264	1265	1266	1266	1266	1268	1268	1269	1270	1270	1270	1270	1270	1270	1270	1271	1270	1270	1270	1270	1270	1270	1270	1270	1270	1270	1270	1270	1270	1270	1270	1270	1270	1270	1270	1270	1268	1269	1268	1269	1269	1269	1269	1270	1270	1271	1272	1273	1273	1274	1275	1275	1275	1275	1275	1275	1274	1274	1271	1270	1270	1270	1270	1272	1272	1272	1273	1275	1275	1276	1277	1277	1277	1277	1276	1275	1274	1272	1270	1270	1268	1267	1266	1266	1266	1266	1266	1266	1266	1266	1266	1266	1267	1267	1268	1269	1270	1270	1270	1270	1270	1270	1269	1268	1267	1265	1265	1264	1264	1264	1264	1263	1262	1262	1261	1260	1260	1259	1258	1258	1259	1259	1260	1260	1261	1262	1262	1264	1264	1265	1266	1266	1267	1267	1268	1269	1270	1271	1273	1274	1274	1275	1275	1276	1276	1276	1275	1275	1274	1273	1271	1270	1270	1268	1266	1266	1265	1264	1264	1263	1265	1265	1265	1265	1265	1266	1266	1266	1265	1265	1265	1265	1265	1265	1266	1266	1266	1266	1267	1268	1268	1268	1267	1267	1267	1266	1266	1265	1264	1264	1263	1263	1264	1263	1263	1264	1266	1266	1266	1267	1268	1269	1270	1270	1270	1270	1270	1270	1270	1270	1271	1273	1273	1274	1275	1275	1275	1275	1275	1274	1274	1275	1274	1274	1275	1275	1275	1276	1276	1276	1276	1277	1277	1277	1277	1278	1278	1278	1278	1278	1277	1276	1276	1276	1275	1275	1275	1275	1275	1274	1273	1273	1272	1271	1271	1270	1270	1270	1271	1271	1272	1272	1274	1275	1277	1273	1275	1275	1276	1275	1276	1277	1278	1279	1279	1279	1281	1281	1282	1281	1280	1280	1279	1279	1278	1275	1275	1275	1275	1275	1274	1275	1275	1276	1277	1278	1279	1280	1280	1280	1281	1281	1281	1281	1281	1281	1281	1281	1282	1282	1282	1283	1284	1284	1284	1283	1283	1282	1281	1279	1277	1275	1274	1270	1270	1269	1267	1267	1267	1268	1269	1270	1270	1271	1271	1271	1272	1272	1272	1273	1273	1272	1273	1274	1275	1274	1275	1275	1275	1276	1276	1277	1278	1278	1279	1278	1277	1276	1275	1275	1275	1275	1275	1275	1276	1276	1277	1278	1279	1279	0	1280	1281	1281	1282	1282	1283	1283	1284	1284	1284	1284	1284	1284	1285	1285	1285	1285	1285	1284	1284	1283	1281	1279	1279	1277	1275	1274	1272	1271	1270	1269	1269	1268	1267	1267	1266	1266	1266	1266	1265	1265	1264	1265	1265	1265	1266	1266	0	1268	1269	1270	1270	1270	1270	1271	1271	1272	1273	1273	1274	1275	1275	1277	1277	1278	1279	1279	1279	1278	1277	1276	1276
1256	1258	1259	1261	1262	1264	1265	1266	1267	1267	1267	1268	1267	1267	1267	1267	1267	1267	1267	1269	1270	1270	1271	1272	1274	1275	1276	1276	1277	1278	1278	1278	1278	1278	1279	1278	1278	1278	1277	1277	1276	1276	1275	1275	1274	1274	1273	1272	1272	1271	1271	1270	1270	1269	1268	1267	1266	1266	1265	1265	1265	1264	1264	1264	1264	1264	1265	1265	1266	0	1267	1268	1268	1269	1269	1270	1270	1270	1270	1271	1272	1272	1273	1273	1274	1274	1274	1274	1273	1274	1273	1271	1269	1266	1263	1259	1256	1249	1246	1246	1246	1250	1253	0	1257	0	0	0	0	0	1271	1270	1268	1264	1262	1262	1262	1262	1262	1262	1262	1264	1266	1268	1270	1270	1271	1271	1271	1272	1274	1273	1275	1275	1275	1276	1277	1279	1279	1279	1279	1280	1281	1280	1281	1280	1280	1280	1280	1280	1279	1279	1279	1278	1278	1277	1277	1277	1277	1277	1277	1278	1279	1279	1278	1279	1280	1281	1281	1282	1282	1282	1282	1281	1280	1280	1279	1279	1278	1278	1277	1275	1275	1275	1273	1272	1271	1270	1270	1270	1269	1269	1269	1270	1269	1269	1269	1270	1270	1270	1270	1270	1271	1271	1271	1271	1271	1271	1271	1272	1273	1273	1273	1273	1273	1273	1274	1274	1274	1274	1273	1273	1272	1272	1271	1270	1270	1268	1266	1265	1263	1262	1260	1258	1257	1256	1256	1255	1254	1255	1256	1257	1258	1259	1261	1262	1262	1262	1262	1262	1262	1261	1261	1260	1259	1259	1260	1260	1260	1260	1260	1261	1261	1262	1262	1263	1264	1265	1265	1266	1266	1267	1267	1268	1268	1268	1268	1269	1269	1269	1269	1269	1269	1268	1269	1269	1269	1270	1270	1270	1270	1270	1270	1270	1270	1270	1270	1270	1270	1269	1270	1269	1269	1269	1269	1269	1270	1270	1270	1271	1271	1272	1272	1273	1274	1274	1275	1275	1274	1274	1274	1272	1272	1270	1270	1270	1270	1271	1271	1272	1273	1274	1275	1276	1276	1277	1277	1277	1276	1275	1274	1272	1270	1269	1267	1266	1266	1266	1266	1266	1266	1266	1266	1266	1266	1267	1268	1268	1269	1270	1270	1270	1271	1271	1270	1270	1269	1268	1266	1264	1263	1263	1263	1262	1262	1262	1262	1261	1260	1259	1259	1258	1258	1259	1259	1260	1260	1261	1262	1262	1263	1265	1265	1266	1267	1267	1267	1269	1269	1269	1270	1270	1271	1273	1274	1274	1274	1275	1275	1275	1275	1275	1273	1271	1271	1270	1268	1267	1266	1265	1263	1263	1263	1263	0	1264	1264	1264	1265	1265	1266	1266	1264	1264	1264	1264	1264	1264	1264	1265	1265	1266	1266	1266	1267	1267	1266	1266	1266	1266	1265	1264	1263	1262	1262	1262	1262	1262	1262	1263	1263	1264	1265	1265	1266	1266	1266	1267	1266	1266	1266	1267	1268	1269	1270	1270	1272	1273	1274	1274	1274	1274	1274	1273	1273	1273	1272	1272	1273	1274	1274	1274	1275	1275	1275	1276	1276	1278	1277	1278	1278	1277	1277	1277	1276	1275	1275	1275	1275	1274	1274	1273	1272	1272	1272	1271	1270	1270	1270	1269	1269	1269	1269	1266	1266	1266	1267	1267	1268	1269	1270	1270	1270	1271	1272	1273	1273	1274	1274	1275	1276	1277	1278	1277	1276	1276	1276	1275	1275	1273	1273	1272	1272	1273	1273	1274	1275	1275	1276	1277	1279	1279	1279	1280	1280	1281	1281	1281	1281	1281	1280	1281	1281	1280	1280	1280	1280	1281	1281	1280	1280	1279	1278	1276	1274	0	1270	1268	1266	1266	1265	1265	1265	1265	1266	1268	1268	1268	1268	1269	1269	1269	1270	1270	1270	1270	1270	1271	1271	1272	1272	1273	1274	1275	1275	1275	1275	1275	1275	1276	1275	1275	1274	1274	1274	1274	1274	0	1275	1276	0	1277	1278	1279	1279	1280	1280	1281	1281	1281	1281	1282	1283	1283	1283	1283	1283	1284	1284	1284	1285	1284	1285	1284	1284	1283	1282	1280	1279	1277	1275	1274	1273	1272	1271	1270	1269	1268	1268	1267	1266	1266	1266	1266	1265	1265	1264	1264	1265	1265	1266	1266	1267	1267	1269	1269	1269	1270	1270	1270	1271	1271	1272	1273	0	1274	1275	1275	0	1277	1278	1278	1277	1276	1275	1275	1275
1258	1260	1261	1262	1263	1265	1266	1266	1267	1266	1266	1266	1266	1266	1266	1266	1266	1266	1266	1266	1268	1268	1270	1270	1272	1274	1275	1275	1276	1276	1277	1277	1277	1277	1277	1277	1277	1276	1275	1275	1275	1275	1274	1274	1273	1273	1272	1271	1271	1271	1270	1270	1269	1268	1268	1267	1266	1266	1265	1265	1264	1264	1264	1263	1264	1264	1265	1265	1266	1266	1267	1267	1268	1269	1269	1269	1269	1270	1270	1270	1270	1271	1271	1272	1272	1272	1272	1272	1271	1272	1271	1270	1269	1266	1264	1262	1258	1257	1250	1250	1251	0	1254	1257	0	0	1266	1269	1270	1270	1269	1267	1263	1261	1260	1259	1258	1259	1259	1259	1261	1262	1263	1266	1267	1269	1270	1269	1270	1270	1271	1271	1273	1273	1275	1275	1276	1277	1279	1279	1279	1279	1279	1279	1279	1279	1279	1279	1279	1279	1278	1277	1276	1276	1276	1275	1275	1274	1274	1274	1275	1275	1275	1276	1277	1278	1278	1279	1279	1279	1279	1279	1279	1278	1278	1278	1276	1277	1276	1276	1275	1275	1274	1273	1271	1270	1270	1270	1269	1269	1269	1270	1270	1270	1270	1270	1270	1270	1270	1270	1270	1270	1270	1270	1270	1270	1270	1270	1271	1271	1271	1272	1273	1273	1273	1273	1274	1274	1274	1274	1274	1274	1273	1272	1271	1270	1270	1269	1266	1266	1263	1262	1260	1258	1258	1256	1255	1255	1254	1255	1255	1257	1258	1258	1260	1261	1261	1262	1262	1262	1262	1261	1261	1260	1260	1260	1260	1260	1260	1260	1260	1260	1260	1261	1261	1262	1262	1263	1263	1264	1264	1265	1265	1266	1266	1266	1266	1266	1266	1267	1267	1266	1266	1266	1266	1267	1268	1268	1268	1270	1270	1270	1270	1270	1270	1270	1270	1270	1270	1270	1270	1270	1270	1270	1270	1269	1270	1270	1270	1270	1270	1271	1271	1272	1273	1273	1273	1273	1274	1273	1272	1272	1270	1270	1270	1270	1270	1270	1270	1270	1271	1272	1274	1275	1276	1276	1277	1277	1276	1275	1273	1271	1270	1269	1267	1266	1266	1266	1266	1266	1266	1266	1266	1266	1267	1267	1268	1268	1269	1269	1270	1270	1270	1270	1270	1269	1268	1266	1264	1263	1262	1262	1262	1262	1262	1261	1261	1260	1259	1259	1259	1258	1259	1259	1259	1260	1260	1262	1262	1263	1264	1265	1266	1266	1266	1267	1267	1268	1268	1268	1269	1270	1270	1271	1272	1272	1272	1273	1274	1273	1273	1273	1272	1271	1270	1268	1267	1266	1265	1264	1262	1263	1262	1262	1262	1263	1263	1263	1264	1264	1264	1264	1264	1263	1263	1262	1263	1263	1263	1263	1264	1264	1265	1266	1266	1266	1266	1265	1265	1265	1263	1262	1262	1262	1261	1261	1260	1260	1260	1262	1262	1262	1262	1263	1263	1264	1264	1265	1265	1264	1264	1266	1266	1266	1269	1270	1271	1272	1273	1273	1273	1273	1273	1273	1272	1272	1271	1271	1272	1272	1272	1273	1274	1275	1275	1276	1277	1278	1278	1278	1277	1277	1276	1276	1275	1275	1274	1274	1273	1273	1272	1272	1271	1270	1270	1270	1270	1267	1267	1266	1266	1266	1265	1265	1263	1264	1264	1264	1265	1266	1266	1266	1266	1266	1267	1268	1269	1269	1269	1270	1271	1273	1273	1273	1272	1271	1271	1272	1271	1270	1270	1270	1270	1270	1272	1272	1273	1274	1275	1276	1278	1279	1279	1279	1279	1280	1281	1280	1280	1280	1280	1280	1279	1279	1279	1279	1279	1279	1278	1278	1278	1277	1275	1273	1271	1270	1267	1266	1265	1264	1263	1263	1263	1264	1266	1266	1266	1266	1267	1267	1267	1267	1267	1268	1268	1267	1269	1269	1270	1270	1270	1271	1271	1272	1273	1273	1273	1274	1273	1273	1273	1272	1272	1272	1272	1272	1273	1273	1275	1275	1276	1277	1277	1278	1279	1279	1279	1279	1280	1280	1280	1280	1281	1281	1281	1280	1281	1281	1282	1283	1283	1283	1283	1284	1283	1283	1281	1280	1279	1278	1276	1275	1273	1271	1270	1270	1268	1268	1268	1266	1266	1266	1266	1265	1265	1265	1265	1264	1265	1265	1266	1266	1266	1267	1267	1268	1268	1269	1269	1269	1270	1270	1270	1271	1272	1273	1274	1275	1275	1275	1275	1275	1275	1275	1274	1273	1273
1260	1261	1262	1264	1264	1266	1266	1266	1266	1266	1266	1266	1265	1264	1264	1264	1264	1264	1264	1265	1266	1266	1268	1269	1270	1272	1273	1274	1275	1275	1275	1276	1276	1276	1276	1275	1275	1275	1274	1274	1273	1273	1272	1272	1271	1272	1271	1270	1271	1270	1270	1269	1269	1268	1268	1267	1266	1266	1266	1266	1266	1265	1265	1264	1264	1264	1265	1265	1265	1266	1266	1267	1267	1268	1268	1268	1268	1268	1269	1270	1270	1270	1270	1270	1270	1270	1270	1270	1270	1270	1269	1268	1267	1266	1264	1263	1262	1259	1258	1256	1256	1258	1259	1262	1264	1266	1268	1270	1270	1270	1267	1266	1262	1260	1258	1258	1258	1258	1258	1258	1259	1262	1263	1266	1266	1268	1268	1267	1268	1269	1270	1270	1270	1271	1273	1275	1275	1277	1278	1278	1278	1279	1279	1279	1279	1279	1279	1279	1278	1277	1276	1275	1275	1274	1274	1274	1274	1274	1274	1274	1275	1275	1275	1275	1275	1276	1277	1277	1277	1277	1277	1277	1276	1276	1275	1274	1274	1274	1274	1274	1273	1272	1271	1271	1270	1270	1270	1268	1269	1269	1269	1269	1270	1270	1270	1270	1271	1270	1270	1270	1270	1270	1270	1270	1270	1270	1269	1270	1270	1270	1270	1271	1271	1272	1272	1273	1273	1274	1274	1275	1274	1274	1273	1273	1272	1271	1270	1269	1267	1266	1264	1262	1261	1259	1258	1256	1256	1254	1254	1254	1254	1255	1256	1258	1258	1259	1260	1261	1262	1262	1262	1261	1261	1260	1260	1259	1260	1260	1259	1260	1260	1259	1260	1260	1260	1261	1261	1261	1262	1262	1262	1262	1262	1263	1262	1263	1263	1263	1264	1265	1265	1265	1265	1265	1266	1266	1266	1267	1267	1268	1269	1269	1269	1270	1270	1270	1270	1270	1270	1270	1270	1270	1270	1270	1270	1270	1270	1270	1270	1270	1270	1271	1270	1271	1271	1272	1272	1272	1271	1272	1270	1270	1270	1269	1269	1269	1269	1269	1269	1270	1270	1271	1272	1274	1275	1275	1275	1276	1275	1274	1272	1270	1270	1268	1267	1266	1266	1265	1266	1266	1266	1266	1266	1266	1266	1267	1267	1268	1268	1268	1269	1269	1269	1269	1268	1267	1266	1266	1263	1262	1262	1261	1261	1261	1260	1260	1260	1259	1259	1259	1258	1258	1259	1259	1259	1261	1261	1262	1262	1264	1264	1265	1266	1266	1266	1266	1266	1266	1267	1267	1267	1268	1269	1269	1270	1270	1270	1271	1271	1272	1272	1272	1271	1270	1269	1268	1266	1266	1264	1263	1262	1262	1261	1262	1262	1262	1262	1262	1262	1262	1262	1262	1262	1262	1262	1261	1262	1262	1262	1262	1262	1263	1263	1264	1264	1264	1264	1263	1264	1263	1262	1262	1261	1260	1260	1259	1259	1259	1259	1260	1261	1261	1262	1262	1262	1262	1262	1263	1263	1262	1262	1264	1265	1266	1268	1269	1270	1271	1273	1273	1273	1273	1273	1272	1271	1271	1270	1270	1270	1271	1271	1272	1272	1273	1275	1275	1277	1277	1278	1278	1278	1277	1276	1275	1275	1274	1273	1273	1272	1272	1271	1270	1269	1269	1268	1268	1267	1266	1266	1265	1264	1263	1263	1262	1262	1262	1262	1262	1262	1262	1262	1262	1262	1262	1263	1264	1265	1265	1266	1266	1268	1269	1269	1269	1268	1268	1268	1268	1269	1268	1268	1268	1269	1270	1270	1271	1272	1274	1275	1275	1277	1278	1278	1279	1279	1279	1280	1280	1280	1279	1279	1279	1279	1278	1278	1277	1277	1277	1276	1276	1275	1275	1273	1271	1269	1267	1266	1265	1263	1263	1263	1263	1262	1264	1265	1265	1266	1266	1266	1266	1266	1266	1266	1266	1266	1266	1267	1268	1269	1269	1270	1270	1270	1270	1271	1271	1271	1271	1272	1272	1271	1271	1271	1271	1271	1271	1272	1273	1273	1274	1275	1275	1276	1277	1277	1278	1279	1279	1279	1279	1279	1279	1279	1279	1279	1278	1278	1279	1279	1279	1280	1280	1281	1281	1281	1281	1280	1279	1279	1277	1276	1275	1273	1271	1270	1270	1269	1268	1267	1266	1266	1266	1266	1265	1265	1265	1265	1265	1265	1266	1266	1266	1266	1266	1267	1267	1267	1267	1267	1267	1268	1269	1269	1270	1271	1271	1273	1273	1273	1274	1274	1274	1274	1273	1273	1272	1272
1262	1262	1263	1264	1265	1266	1266	1266	1266	1265	1265	1264	1264	1263	1262	1262	1262	1262	1262	1263	1264	1265	1266	1267	1268	1270	1271	1273	1273	1274	1275	1275	1275	1275	1275	1274	1274	1274	1273	1272	1271	1271	1271	1270	1270	1271	1270	1270	1270	1270	1270	1269	1269	1268	1267	1267	1267	1266	1266	1266	1266	1266	1266	1266	1265	1265	1266	1265	1266	1266	1266	1266	1266	1267	1267	1267	1267	1267	1267	1268	1268	1269	1269	1269	1269	1269	1268	1268	1267	1267	1266	1267	1266	1265	1265	1264	1263	1263	1262	1262	1262	1264	1266	1267	1268	1270	1271	1271	1270	1269	1266	1266	1261	1258	1257	1257	1257	1257	1257	1258	1259	1261	1263	1265	1266	1267	1267	1267	1267	1267	1268	1269	1270	1270	1271	1272	1274	1275	1277	1277	1277	1278	1279	1278	1276	1276	1276	1276	1276	1275	1275	1274	1274	1274	1274	1273	1273	1272	1272	1273	1273	1274	1274	1274	1275	1275	1275	1275	1275	1275	1274	1274	1273	1272	1272	1271	1271	1271	1271	1271	1270	1270	1270	1269	1268	1268	1269	1268	1268	1268	1269	1270	1270	1271	1271	1271	1272	1272	1272	1271	1270	1270	1270	1270	1269	1268	1268	1268	1268	1268	1269	1270	1270	1270	1271	1272	1272	1273	1273	1274	1274	1273	1273	1272	1271	1270	1270	1268	1266	1266	1264	1262	1261	1259	1258	1256	1255	1254	1254	1254	1254	1254	1254	1255	1257	1258	1258	1260	1260	1261	1260	1260	1260	1260	1260	1259	1260	1259	1259	1259	1259	1259	1259	1258	1259	1259	1259	1259	1260	1260	1260	1260	1260	1261	1260	1260	1261	1261	1261	1261	1262	1262	1262	1262	1262	1263	1264	1265	1266	1266	1268	1269	1269	1270	1270	1270	1270	1270	1270	1270	1270	1270	1270	1270	1270	1270	1270	1270	1270	1269	1270	1269	1270	1270	1270	1270	1270	1270	1270	1270	1270	1269	1268	1268	1268	1267	1268	1268	1268	1268	1269	1270	1270	1272	1273	1274	1274	1274	1273	1272	1270	1270	1268	1267	1266	1266	1266	1265	1266	1266	1266	1266	1266	1266	1266	1266	1266	1267	1267	1267	1267	1267	1267	1268	1266	1266	1266	1264	1262	1262	1261	1260	1260	1260	1259	1259	1259	1259	1259	1258	1258	1258	1259	1260	1261	1261	1262	1262	1263	1264	1265	1265	1265	1266	1266	1265	1266	1266	1266	1266	1266	1266	1266	1267	1268	1268	1269	1269	1269	1270	1270	1270	1270	1268	1267	1266	1265	1264	1263	1262	1262	1261	1260	1261	1261	1261	1260	1260	1261	1262	1262	1261	1261	1260	1260	1259	1260	1260	1260	1260	1261	1261	1262	1262	1262	1262	1262	1262	1262	1262	1262	1261	1260	1259	1259	1259	1258	1258	1258	1259	1260	1262	1262	1262	1262	1262	1262	1262	1262	1262	1262	1263	1264	1265	1266	1269	1270	1271	1272	1272	1272	1273	1272	1272	1271	1270	1270	1270	1270	1270	1271	1271	1271	1272	1274	1275	1276	1277	1277	1277	1277	1277	1276	1275	1274	1273	1271	1271	1270	1270	1270	1269	1268	1267	1268	1267	1266	1266	1265	1264	1263	1262	1262	1262	1260	1259	1259	1259	1259	1259	1258	1258	1258	1259	1260	1261	1261	1262	1262	1263	1264	1264	1265	1265	1264	1265	1265	1265	1266	1266	1266	0	1268	1269	1270	1270	1271	1273	1275	1275	1276	1277	1278	1278	1279	1279	1280	1280	1280	1279	1279	1279	1278	1277	1276	1276	1275	1275	1275	1274	1273	1272	1270	1269	1267	1266	1265	1264	1263	1263	1262	1263	1262	1263	1265	1265	1266	1266	1266	1266	1266	1266	1266	1266	1266	1266	1266	1266	1267	1268	1268	1269	1269	1269	1270	1270	1270	1270	1270	1270	1270	1270	1270	1270	1270	1270	1271	1272	1273	1274	1274	1275	1275	1276	1277	1278	1278	1278	1278	1278	1278	1277	1277	1276	1276	1275	1275	1275	1276	1276	1277	1278	1278	1279	1279	1279	1279	1278	1278	1277	1275	1274	1273	1271	1270	1269	1268	1267	1266	1266	1266	1266	1265	1265	1265	1265	1265	1265	1266	1266	1266	1267	1266	1266	1266	1266	1266	1266	1266	1266	1266	1267	1267	1268	1269	1270	1270	1270	1270	1270	1271	1270	1270	1270	1270	1270	1270
1262	1263	1264	1264	1265	1265	1265	1266	1265	1264	1263	1262	1262	1262	1261	1261	1260	1260	1261	1262	1263	1264	1265	1266	0	1268	1270	1270	1272	1273	1273	1274	1274	1274	1273	1273	1273	1272	1272	1271	1270	1270	1270	1270	1270	1270	1270	1270	1269	1269	1269	1268	1268	1268	1267	1267	1267	1267	1267	1268	1268	1268	1267	1267	1266	1266	1266	1266	1266	1266	1266	1266	1266	1266	1266	1266	1266	1266	1266	1267	1267	1267	1267	1267	1267	1267	1266	1266	1266	1265	1265	1265	1264	1263	1264	1264	1264	1265	1265	1266	1266	1268	1269	1271	1271	1271	1271	1270	1269	1267	1266	1261	1260	1258	1257	1256	1256	1257	1257	1258	1259	1262	1263	1265	1266	1267	1266	1266	1266	1266	1267	1267	1267	1268	1269	1270	1272	1272	1273	1274	1275	1275	1275	1275	1275	1275	1275	1275	1275	1275	1274	1274	1273	1272	1272	1272	1272	1271	1272	1272	1273	1273	1274	1273	1274	1274	1274	1274	1272	1272	1270	1270	1270	1270	1269	1269	1269	1269	1269	1269	1269	1268	1268	1267	1267	1267	1267	1268	1268	1268	1269	1270	1270	1271	1271	1271	1272	1272	1271	1271	1270	1270	1269	1269	1267	1266	1266	1266	1266	1266	1267	1268	1268	1269	1270	1270	1270	1271	1271	1273	1273	1272	1272	1271	1270	1269	1267	1266	1266	1264	1262	1261	1260	1258	1257	1255	1254	1254	1253	1253	1253	1253	1254	1254	1255	1256	1257	1258	1258	1259	1259	1259	1260	1260	1260	1259	1259	1259	1259	1258	1258	1258	1258	1258	1258	1258	1258	1258	1258	1258	1258	1258	1258	1258	1258	1258	1258	1258	1258	1259	1259	1259	1259	1260	1260	1261	1262	1263	1264	1265	1266	1267	1267	1269	1269	1269	1270	1270	1270	1270	1270	1270	1270	1270	1270	1270	1270	1270	1269	1269	1269	1268	1268	1268	1268	1268	1269	1269	1269	1268	1268	1268	1267	1267	1266	1266	1266	1266	1266	1267	1267	1268	1269	1270	1270	1271	1271	1271	1271	1270	1269	1268	1267	1266	1266	1266	1265	1265	1265	1266	1266	1266	1266	1266	1266	1266	1266	1266	1266	1266	1266	1266	1266	1266	1266	1265	1264	1262	1262	1261	1260	1259	1259	1259	1259	1259	1259	1259	1259	1259	1259	1259	1260	1261	1262	1262	1262	1263	1264	1264	1265	1265	1265	1265	1264	1264	1264	1264	1265	1264	1265	1265	1266	1266	1266	1267	1266	1268	1268	1268	1269	1269	1268	1267	1266	1266	1264	1263	1262	1262	1261	1261	1259	1260	1260	1259	1259	1259	1259	1259	1259	1259	1259	1258	1258	1258	1258	1258	1258	1258	1258	1258	1259	1260	1261	1261	1260	1260	1261	1261	1260	1260	1259	1259	1258	1258	1258	1258	1258	1259	1260	1262	1262	1262	1262	1262	1262	1262	1262	1261	1262	1262	1263	1265	1266	1268	1270	1270	1271	1272	1272	1272	1272	1272	1271	1270	1270	1270	1270	1270	1270	1270	1271	1272	1273	1275	1275	1276	1277	1277	1276	1275	1275	1274	1273	1272	1271	1270	1270	1269	1269	1268	1267	1266	1266	1266	1266	1265	1264	1263	1262	1262	1262	1261	1259	1258	1258	1258	1258	1257	1257	1257	1257	1258	1258	1258	1259	1259	1261	1262	1262	1262	1263	1263	1262	1262	1263	1264	1264	1265	1266	1267	0	1268	1269	1270	1271	1273	1275	1275	1276	1277	1277	1278	1279	1279	1279	1279	1279	1278	1278	1278	1276	1275	1275	1275	1273	1273	1273	1272	1271	1270	1269	1268	1266	1266	1265	1265	1263	1263	1264	1264	1264	1264	1265	1266	1266	1266	1266	1266	1266	1267	1267	1266	1266	1266	1266	1266	1266	1267	1267	1267	1268	1269	1268	1270	1270	1270	1270	1270	1270	1270	1270	1270	1269	1270	1270	1271	1271	1273	1274	1275	1275	1276	1276	1277	1278	1278	1277	1277	1276	1275	1275	1275	1274	1273	1272	1272	1273	1273	1275	1275	1275	1276	1277	1277	1277	1277	1277	1276	1275	1273	1272	1270	1269	1268	1267	1266	1266	1266	1266	1265	1265	1265	1265	1266	1266	1266	1266	1266	1266	1267	1266	1266	1266	1266	1265	1265	1264	1264	1265	1266	1266	1266	1267	1267	1268	1268	1268	1269	1269	1269	1270	1270	1270	1270	1270
1262	1263	1264	1264	1264	1264	1265	1264	1264	1263	1262	1262	1261	1261	1260	1259	1259	1259	1260	1261	1262	1262	1263	1265	1266	1268	0	1269	1270	1271	1272	1272	1272	1272	1272	1272	1272	1272	1271	1271	1270	1270	1270	1270	1269	1269	1269	1269	1269	1268	1268	1267	1268	1268	1268	1268	1269	1269	1270	1270	1270	1270	1269	1269	1268	1268	1267	1266	1267	1266	1266	1266	1266	1266	1266	1266	1266	1266	1266	1266	1266	1266	1266	1266	1266	1266	1266	1264	1263	1263	1263	1263	1262	1262	1262	1263	1264	1266	1266	1266	1268	1268	1270	1271	1271	1271	1270	1270	1269	1267	1265	1261	1259	1258	1258	1257	1258	1258	1259	1260	1262	1263	1265	1266	1266	1266	1266	1266	1266	1265	1265	1265	1266	1266	1266	1268	1269	1270	1271	1272	1273	1274	1274	1274	1274	1274	1274	1275	1274	1273	1273	1273	1273	1272	1272	1271	1271	1271	1271	1271	1272	1272	1272	1272	1273	1272	1272	1272	1271	1270	1269	1268	1267	1267	1267	1266	1266	1267	1267	1267	1266	1266	1266	1266	1266	1267	1267	1267	1267	1268	1270	1270	1270	1271	1271	1271	1272	1271	1270	1270	1269	1269	1267	1266	1266	1265	1265	1264	1264	1265	1265	1266	1266	1266	1267	1269	1269	1270	1270	1270	1270	1270	1270	1269	1268	1266	1266	1264	1263	1262	1260	1259	1258	1257	1255	1254	1253	1252	1251	1251	1251	1251	1251	1252	1253	1254	1255	1256	1258	1258	1258	1259	1259	1259	1259	1258	1258	1258	1258	1258	1258	1258	1258	1257	1257	1257	1258	1257	1257	1257	1257	1256	1256	1257	1256	1256	1257	1257	1257	1257	1258	1258	1258	1258	1258	1259	1260	1261	1262	1263	1265	1266	1266	1267	1268	1269	1269	1269	1270	1270	1270	1270	1270	1270	1269	1269	1269	1268	1269	1268	1267	1267	1266	1266	1266	1266	1267	1266	1266	1266	1267	1266	1266	1266	1265	1265	1265	1265	1266	1266	1266	1266	1267	1268	1269	1269	1269	1269	1269	1268	1267	1266	1266	1266	1265	1265	1264	1264	1265	1265	1265	1266	1266	1266	1266	1266	1266	1266	1266	1266	1266	1266	1265	1265	1264	1264	1263	1262	1262	1262	1261	1260	1259	1259	1259	1259	1260	1260	1260	1260	1260	1260	1261	1262	1262	1263	1263	1264	1265	1265	1265	1265	1264	1264	1264	1263	1262	1262	1263	1263	1263	1263	1264	1265	1266	1266	1266	1266	1267	1268	1267	1267	1267	1266	1266	1264	1263	1262	1262	1261	1260	1260	1259	1259	1258	1258	1258	1258	1258	1258	1258	1257	1257	1256	1256	1255	1256	1256	1256	1256	1256	1257	1257	1258	1258	1258	1258	1258	1259	1259	1259	1259	1258	1258	1258	1258	1258	1258	1259	1260	1261	1262	1262	1262	1262	1262	1262	1262	1261	1262	1262	1262	1262	1264	1266	1267	1269	1270	1271	1272	1272	1272	1272	1272	1271	1270	1270	1270	1270	1270	1270	1270	1270	1271	1271	1273	1274	1275	1275	1275	1275	1275	1274	1274	1272	1271	1270	1269	1269	1268	1267	1266	1266	1266	1266	1266	1265	1265	1263	1262	1262	1262	1262	1261	1258	1258	1258	1257	1256	1255	1255	1255	1256	1256	1256	1257	1258	1258	1258	1259	1260	1261	1261	1261	1261	1262	1262	1262	1262	1264	1265	1266	1267	0	1269	1270	1271	1273	1275	1275	1276	1276	1277	1277	1278	1279	1279	1279	1279	1277	1276	1276	1275	1275	1274	1273	1272	1271	1272	1271	1271	1270	1270	1268	1267	1266	1266	1266	1266	1265	1265	1266	1266	1266	1267	1267	1267	1267	1268	1268	1267	1268	1267	1266	1266	1266	1265	1265	1266	1266	1266	1267	1267	1268	1268	1269	1270	1270	1270	1270	1270	1270	1270	1269	1269	1269	1270	1270	1271	1272	1273	1274	1274	1275	1275	1276	1276	1276	1276	1275	1275	1274	1273	1272	1270	1270	1270	1270	1270	1270	1270	1270	1272	1273	1274	1274	1275	1275	1275	1275	1274	1272	1270	1269	1268	1267	1266	1266	1266	1265	1265	1266	1266	1266	1266	1266	1266	1266	1266	1267	1267	1267	1267	1266	1266	1265	1265	1264	1263	1263	1264	1264	1265	1265	1266	1266	1267	1266	1267	1267	1266	1267	1267	1268	1267	1268	1267
1261	1262	1262	1263	1263	1263	1263	1263	1262	1262	1262	1261	1260	1259	1258	1258	1258	1258	1259	1260	1261	1262	1262	1264	1266	1267	1268	1269	1269	1270	1270	1270	1271	1271	1271	1270	1271	1271	1271	1270	1270	1270	1270	1269	1269	1269	1269	1268	1268	1268	1267	1267	1267	1267	1268	1269	1270	1270	1271	1272	1272	1272	1271	1271	1270	1270	1269	1268	1267	1267	1266	1266	1265	1265	1265	1266	1265	1266	1266	1266	1266	1266	1266	1266	1266	1265	1264	1263	1262	1262	1262	1262	1262	1262	1263	1263	1264	1266	1266	1267	1268	1270	1270	1271	1271	1270	1270	1269	1267	1265	1263	1260	1258	1258	1258	1258	1258	1259	1261	1262	1263	1265	1266	1266	1266	1266	1266	1265	1265	1264	1264	1264	1264	1265	1265	1266	1267	1268	1269	1269	1270	1270	1270	1271	1271	1272	1272	1272	1272	1272	1272	1271	1271	1271	1271	1270	1270	1270	1270	1271	1271	1271	1272	1272	1272	1271	1271	1270	1269	1267	1266	1266	1266	1265	1265	1265	1265	1266	1266	1266	1266	1266	1266	1266	1266	1266	1267	1268	1268	1269	1270	1270	1270	1271	1271	1270	1270	1270	1270	1269	1268	1267	1266	1265	1264	1263	1262	1262	1262	1262	1263	1264	1264	1265	1266	1266	1268	1268	1268	1268	1267	1267	1266	1266	1264	1263	1262	1260	1259	1258	1257	1256	1254	1254	1253	1251	1250	1250	1250	1250	1250	1250	1250	1250	1250	1252	1253	1254	1255	1256	1257	1258	1258	1258	1258	1258	1258	1258	1258	1258	1258	1257	1257	1257	1257	1256	1256	1256	1255	1255	1255	1254	1254	1255	1254	1254	1254	1254	1254	1255	1255	1255	1255	1255	1256	1257	1258	1258	1260	1261	1262	1264	1264	1266	1266	1267	1268	1268	1269	1269	1269	1270	1269	1269	1269	1268	1268	1268	1267	1267	1266	1266	1265	1265	1265	1265	1265	1265	1265	1265	1265	1265	1265	1264	1264	1264	1263	1264	1264	1264	1265	1265	1266	1266	1266	1267	1266	1267	1267	1266	1266	1266	1265	1265	1264	1264	1263	1263	1264	1265	1265	1266	1266	1266	1266	1266	1266	1266	1265	1265	1264	1264	1264	1263	1263	1263	1262	1262	1262	1261	1260	1260	1259	1259	1259	1260	1260	1260	1261	1261	1261	1262	1262	1262	1263	1264	1264	1264	1265	1265	1264	1264	1263	1262	1262	1262	1262	1262	1262	1262	1262	1263	1263	1264	1266	1266	1266	1266	1267	1267	1267	1267	1267	1266	1265	1264	1263	1262	1261	1259	1259	1258	1258	1258	1257	1256	1256	1255	1255	1256	1255	1255	1254	1254	1254	1254	1254	1254	1254	1254	1254	1254	1254	1255	1257	1257	1257	1257	1258	1258	1258	1258	1258	1258	1258	1258	1258	1259	1259	1260	1261	1262	1262	1262	1262	1262	1262	1262	1261	1262	1262	1262	1263	1264	1266	1267	1268	1270	1271	1272	1272	1272	1272	1272	1272	1271	1270	1270	1270	1270	1269	1269	1269	1269	1270	1271	1272	1273	1273	1273	1273	1273	1272	1272	1271	1270	1269	1268	1267	1266	1266	1266	1265	1265	1265	1265	1264	1264	1263	1262	1262	1262	1261	1260	1258	1258	1257	1256	1256	1255	1254	1254	1255	1255	1256	1256	0	1258	1258	1258	1259	1259	1259	1259	1259	1260	1261	1262	1262	1262	1263	1264	1266	1267	1268	0	1270	1271	1274	1275	1275	1276	1276	1277	1277	1278	1278	1277	1277	1276	1276	1275	1275	1274	1274	1272	1272	1271	1271	1270	1270	1270	1270	1269	1268	1267	1266	1267	1266	1266	1266	1266	1267	1268	1268	1269	1269	1269	1269	1269	1269	1269	1268	1267	1266	1266	1265	1264	1264	1265	1265	1266	1266	1266	1267	1268	1269	1269	1270	1270	1270	1269	1269	1269	1268	1268	1269	1269	1270	1271	1272	1273	1274	1274	1275	1275	1275	1275	1275	1275	1273	1272	1271	1270	1269	1267	1266	1266	1266	1266	1267	1267	1268	1270	1270	1270	1271	1272	1273	1272	1272	1270	1270	1268	1267	1266	1266	1265	1265	1265	1265	1265	1266	1265	1266	1266	1266	1266	1267	1267	1267	1267	1267	1266	1265	1265	1264	1263	1262	1262	1262	1264	1264	1264	1264	1265	1265	1266	1266	1266	1266	1266	1266	1266	1266	1266	1266
1259	1261	1262	1262	1262	1262	1262	1262	1262	1262	1261	1260	1259	1259	1258	1258	1258	1258	1259	1260	1260	1261	1262	1263	1265	1266	1266	1267	1267	1268	1268	1269	1269	1270	1270	1270	1270	1270	1270	1270	1270	1269	1269	1269	1269	1269	1268	1268	1268	1267	1267	1266	1267	1267	1268	1269	1270	1271	1273	1274	1275	1275	1273	1273	1272	1270	1270	1269	1267	1267	1266	1266	1265	1265	1265	1265	1265	1265	1265	1266	1266	1266	1266	1266	1265	1264	1263	1262	1262	1262	1262	1261	1261	1261	1262	1262	1263	1264	1265	1266	1266	1267	1268	1269	1268	1268	1267	1267	1265	1263	1260	1258	1258	1257	1258	1258	1258	1260	1261	1262	1265	1266	1266	1265	1265	1265	1265	1264	1263	1262	1262	1262	1262	1262	1263	1263	1265	1265	1266	1266	1267	1267	1267	1268	1268	1268	1269	1270	1270	1270	1270	1270	1270	1270	1270	1269	1269	1269	1269	1270	1270	1270	1270	1270	1271	1270	1270	1270	1266	1266	1266	1265	1265	1264	1264	1264	1264	1264	1264	1265	1265	1265	1265	1265	1266	1266	1268	1268	1269	1269	1270	1270	1270	1270	1270	1269	1269	1268	1268	1266	1266	1265	1263	1262	1262	1261	1260	1260	1260	1260	1261	1261	1262	1262	1263	1264	1265	1266	1265	1265	1264	1264	1262	1261	1260	1259	1258	1257	1255	1254	1254	1252	1251	1250	1250	1249	1248	1248	1247	1247	1247	1247	1248	1248	0	1250	1251	1252	1254	1254	1255	1256	1256	1257	1257	1257	1257	1257	1257	1257	1257	1256	1256	1256	1255	1255	1254	1254	1254	1254	1254	1254	1254	1254	1254	1254	1254	1254	1254	1254	1254	1254	1254	1254	1254	1255	1256	1257	1258	1259	1261	1262	1262	1263	1264	1266	1266	1267	1267	1267	1268	1268	1268	1268	1267	1267	1267	1266	1266	1266	1265	1264	1264	1263	1263	1263	1263	1263	1263	1263	1263	1263	1263	1263	1263	1262	1262	1262	1262	1263	1263	1263	1264	1264	1265	1265	1265	1265	1265	1264	1264	1264	1263	1263	1263	1263	1262	1262	1263	1264	1264	1265	1265	1265	1266	1265	1265	1264	1264	1263	1262	1262	1262	1262	1262	1262	1262	1261	1262	1260	1260	1259	1259	1259	1260	1260	1261	1261	1262	1262	1262	1262	1263	1263	1264	1264	1265	1264	1264	1264	1263	1263	1262	1262	1261	1261	1261	1261	1262	1262	1262	1262	1263	1264	1265	1266	1266	1266	1266	1266	1267	1267	1266	1266	1265	1264	1263	1262	1261	1260	1258	1258	1256	1256	1255	1255	1254	1254	1253	1253	1253	1253	1252	1252	1252	1252	1251	1251	1251	1251	1252	1252	1253	1254	1254	1254	1254	1255	1256	1257	1258	1258	1258	1258	1258	1259	1259	1259	1260	1261	1262	1262	1262	1262	1262	1263	1262	1262	1261	1262	1262	1262	1262	1264	1265	1266	1267	1269	1270	1270	1271	1271	1271	1271	1271	1270	1270	1269	1269	1268	1267	1267	1267	1268	1269	1270	1270	1271	1271	1272	1271	1271	1271	1270	1270	1269	1268	1266	1266	1266	1265	1264	1263	1263	1264	1264	1264	1264	1263	1262	1262	1262	1262	1260	1259	1258	1258	1257	1256	1255	1254	1255	1254	1254	1255	0	1256	1257	1257	1257	1258	1258	1258	1258	1258	1258	1259	1260	1260	1261	1262	1262	1264	1266	1266	1267	0	1270	1272	1273	1274	1275	1275	1275	1275	1275	1276	1276	1275	1275	1275	1275	1274	1274	1273	1272	1272	1271	1271	1271	1270	1270	1270	1270	1269	1268	1268	1268	1269	1268	1268	1268	1268	1269	1270	1270	1270	1270	1270	1270	1270	1270	1269	1268	1266	1266	1265	1264	1264	1264	1264	1264	1265	1265	1266	1266	1268	1268	1269	1269	1269	1269	1268	1268	1268	1268	1268	1269	1270	1270	1271	1272	1272	1274	1274	1274	1274	1274	1274	1272	1271	1270	1269	1267	1266	1265	1264	1263	1262	1262	1264	1263	1265	1265	1266	1266	1267	1268	1269	1270	1270	1268	1267	1266	1266	1266	1265	1264	1265	1265	1265	1266	1266	1265	1266	1266	1266	1266	1266	1267	1267	1267	1266	1266	1265	1264	1263	1262	1262	1262	1262	1262	1262	1262	1263	1263	1263	1264	1264	1264	1264	1264	1264	1265	1265	1265	1266
1258	1258	1259	1259	1259	1260	1260	1261	1261	1260	1260	1259	1259	1259	1258	1258	1258	1258	1259	1260	1261	1262	1262	1263	1264	1265	1266	1266	1266	1266	1266	1267	1267	1267	1267	1268	1269	1270	1269	1270	1269	1269	1268	1268	1268	1268	1267	1267	1267	1267	1266	1266	1267	1267	1268	1269	1271	1272	1274	1275	1275	1275	1275	1275	1273	1272	1270	1270	1268	1266	1266	1265	1265	1265	1264	1264	1265	1265	1265	1266	1266	1266	1266	1266	1265	1264	1263	1262	1262	1261	1260	1260	1259	1260	1260	1261	1262	1262	1263	1263	1264	1265	1265	1266	1266	1265	1265	1264	1263	1260	1258	1258	1258	1258	1258	1258	1259	1261	1262	1263	1264	1264	1264	1264	1264	1263	1262	1262	1262	1260	1260	1259	1259	1260	1260	1260	1262	1262	1262	1262	1263	1263	1264	1265	1264	1265	1266	1267	1268	1268	1268	1268	1269	1268	1268	1268	1268	1268	1268	1269	1270	1270	1270	1270	1271	1271	1270	1267	1266	1266	1264	1263	1262	1262	1262	1262	1262	1262	1263	1263	1264	1264	1264	1265	1266	1267	1268	1269	1269	1270	1270	1270	1270	1269	1268	1268	1267	1266	1266	1264	1263	1262	1261	1260	1258	1258	1257	1257	1258	1258	1258	1258	1259	1260	1261	1262	1261	1262	1262	1261	1260	1259	1258	1256	1255	1254	1254	1252	1251	1250	1249	1248	1248	1247	1246	1246	1245	1244	0	1245	1244	1244	1245	1246	1247	1249	1250	1251	0	1253	1254	1254	1255	1256	1256	1257	1257	1257	1258	1257	1257	1256	1255	1255	1255	1254	1254	1254	1254	1254	1254	1254	1253	1253	1253	1253	1253	1253	1253	1253	1253	1253	1253	1253	1253	1254	1254	1255	1256	1258	1258	1260	1261	1262	1263	1264	1265	1266	1266	1266	1266	1267	1266	1266	1266	1266	1266	1266	1265	1264	1263	1262	1262	1262	1262	1262	1262	1262	1262	1262	1262	1262	1262	1262	1262	1262	1262	1261	1262	1262	1262	1262	1262	1262	1262	1262	1262	1262	1263	1262	1262	1262	1262	1262	1262	1262	1261	1262	1262	1262	1263	1263	1264	1264	1264	1264	1264	1263	1262	1262	1261	1261	1261	1261	1261	1260	1261	1260	1260	1260	1260	1259	1259	1260	1260	1261	1262	1262	1262	1263	1263	1263	1264	1265	1265	1264	1264	1264	1264	1263	1262	1262	1262	1261	1260	1260	1259	1260	1260	1261	1262	1262	1263	1264	1265	1266	1266	1266	1266	1266	1266	1266	1266	1266	1265	1264	1263	1262	1261	1258	1258	1256	1256	1254	1254	1254	1252	1252	1252	1251	1251	1251	1251	1251	1250	1250	1250	1250	1250	1250	1250	1250	1250	1252	1253	1254	1254	1254	1255	1255	1256	1257	1257	1258	1258	1259	1260	1261	1261	1262	1262	1262	1263	1263	1263	1263	1262	1262	1262	1261	1261	1261	1262	1262	1264	1265	1265	1266	1267	1268	1269	1270	1270	1270	1270	1270	1268	1268	1268	1266	1266	1265	1266	1266	1267	1268	1269	1270	1270	1270	1270	1270	1270	1270	1270	1268	1267	1266	1265	1264	1263	1262	1262	1262	1263	1264	1264	1264	1263	1263	1263	1262	1262	1262	1261	1259	1258	1258	1257	1256	1255	1255	1254	1254	1254	1255	1255	1256	1256	1256	1256	1257	1257	1257	1257	1258	1258	1258	1259	1259	1260	1261	1262	1262	1263	1264	1266	1267	1269	1270	1271	1271	1272	1272	1273	1273	1274	1274	1274	1273	1273	1272	1272	1273	1272	1272	1271	1271	1271	1271	1271	1271	1271	1270	1270	1270	1269	1270	1269	1269	1269	1269	1269	1269	1270	1270	1270	1270	1270	1270	1270	1270	1269	1268	1267	1266	1265	1264	1264	1263	1263	1264	1263	1264	1265	1266	1266	1267	1267	1267	1268	1268	1268	1267	1267	1267	1267	1268	1269	1270	1270	1270	1271	1273	1273	1272	1272	1272	1271	1270	1269	1268	1266	1265	1263	1262	1262	1261	1260	1259	1261	1261	1261	1261	1262	1262	1263	1263	1265	1266	1265	1265	1265	1264	1264	1263	1264	1263	1264	1265	1265	1266	1266	1266	1266	1266	1266	1266	1266	1266	1266	1266	1266	1266	1264	1263	1263	1262	1262	1262	1262	1262	1262	1262	1262	1262	1262	1262	1263	1263	1263	1263	1263	1264	1264	1264	1264
1255	1256	1257	1257	1258	1258	1258	1258	1259	1259	1259	1258	1259	1258	1258	1258	1259	1260	1261	1261	1262	1262	1262	1263	1264	1265	1265	1265	1265	1265	1265	1266	1266	1266	1266	1266	1267	1268	1268	1268	1268	1268	1268	1267	1267	1267	1267	1267	1267	1266	1266	1266	1267	1267	1268	1270	1271	1273	1275	1275	1275	1276	1275	1275	1273	1272	1270	1269	1267	1266	1265	1264	1264	1263	1264	1264	1264	1264	1265	1265	1266	1265	1265	1264	1264	1264	1263	1262	1261	1261	1260	1259	1259	1259	1259	1259	1260	1260	1261	1261	1262	1262	1262	1262	1260	1259	1259	1258	1257	1257	1256	1256	1256	1257	1257	1258	1259	1261	1262	1262	1262	1262	1263	1262	1262	1262	1260	1260	1258	1257	1256	1255	1255	1256	1255	1256	1258	1257	1258	1258	1259	1260	1261	1261	1261	1262	1263	1265	1265	1266	1266	1266	1267	1267	1267	1266	1267	1267	1268	1269	1269	1269	1270	1270	1270	1270	1270	1268	1266	1265	1263	1262	1262	1261	1262	1261	1262	1261	1262	1262	1263	1263	1264	1265	1266	1267	1268	1269	1269	1270	1270	1270	1270	1268	1267	1266	1265	1264	1262	1262	1260	1258	1258	1256	1255	1254	1254	1254	1254	1255	1255	1256	1256	1257	1258	1258	1258	1258	1257	1256	1255	1254	1253	1251	1250	1250	1250	1247	1247	1246	1245	1244	1243	1242	1241	1240	1240	1240	1241	1240	1241	1241	1242	1242	1244	1246	1248	1249	1250	1252	1253	1253	1254	1255	1255	1256	1257	1257	1257	1257	1257	1256	1255	1254	1254	1254	1254	1253	1253	1253	1253	1253	1253	1253	1253	1253	1253	1253	1253	1252	1252	1252	1252	1252	1253	1253	1254	1254	1255	1256	1258	1258	1260	1261	1262	1262	1263	1264	1265	1265	1266	1266	1266	1266	1266	1265	1265	1264	1264	1262	1262	1262	1260	1260	1260	1261	1261	1261	1261	1261	1261	1262	1262	1262	1261	1261	1261	1261	1261	1261	1260	1260	1260	1260	1260	1260	1260	1261	1262	1261	1261	1260	1260	1260	1260	1260	1260	1261	1261	1261	1262	1262	1262	1262	1262	1262	1262	1262	1261	1261	1260	1259	1259	1259	1259	1259	1260	1259	1260	1259	1260	1259	1260	1260	1261	1262	1262	1262	1263	1264	1264	1263	1265	1265	1265	1264	1264	1264	1263	1262	1262	1262	1260	1259	1259	1258	1258	1259	1259	1261	1261	1262	1262	1264	1265	1266	1266	1266	1266	1266	1266	1266	1266	1266	1265	1263	1262	1261	1260	1258	1256	1255	1254	1254	1254	1253	1252	1251	1251	1250	1251	1250	1250	1250	1250	1250	1249	1249	1249	1249	1249	1250	1250	1250	1251	1252	1253	1253	1254	1254	1256	1256	1258	1258	1258	1259	1260	1261	1262	1262	1263	1263	1263	1264	1264	1263	1262	1262	1262	1261	1260	1260	1260	1261	1262	1262	1263	1265	1266	1266	1267	1267	1268	1268	1268	1267	1267	1266	1266	1266	1264	1264	1264	1265	1266	1266	1267	1267	1268	1268	1268	1269	1269	1269	1268	1266	1266	1265	1264	1262	1262	1262	1262	1262	1262	1263	1264	1265	1265	1265	1264	1264	1263	1263	1262	1261	1260	1258	1258	1257	1255	1255	1254	1254	1254	1254	1254	1254	1254	1254	1255	1255	1255	1255	1255	1256	1256	1257	1258	1258	1258	1258	1259	1260	1261	1261	1262	1263	1264	1266	1266	1267	1269	1269	1270	1270	1270	1271	1271	1271	1271	1271	1271	1271	1272	1271	1270	1271	1271	1271	1271	1271	1271	1270	1270	1270	1270	1270	1270	1270	1268	1268	1268	1269	1269	1269	1270	1270	1270	1270	1270	1270	1270	1269	1267	1266	1265	1264	1264	1263	1263	1263	1263	0	1264	1265	1266	1266	1266	1267	1267	1268	1268	1267	1266	1266	1267	1268	1268	1269	1270	1270	1270	1271	1271	1271	1270	1270	1269	1268	1267	1265	1264	1263	1262	1261	1260	1259	1258	1258	1258	1258	1258	1258	1258	1259	1259	1260	1262	1262	1262	1262	1262	1262	1262	1262	1262	1262	1263	1264	1264	1265	1265	1265	1265	1265	1265	1265	1264	1265	1264	1265	1265	1264	1263	1262	1262	1262	1262	1261	1261	1261	1261	1261	1261	1261	1262	1262	1262	1262	1262	1262	1262	1263	1263	1263	1263
1253	1254	1254	1255	1256	1257	1257	1258	1258	1258	1258	1259	1259	1259	1259	1259	1260	1260	1261	1262	1262	1262	1263	1263	1264	1264	1264	1264	1264	1264	1263	1264	1264	1264	1264	1266	1266	1266	1267	1268	1268	1267	1267	1267	1267	1267	1267	1267	1266	1266	1266	1266	1267	1267	1268	1269	1271	1272	1274	1275	1275	1275	1275	1274	1272	1270	1270	1268	1266	1265	1264	1263	1263	1262	1263	1263	1263	1264	1265	1266	1266	1266	1265	1264	1264	1264	1263	1262	1261	1261	1260	1259	1258	1258	1258	1258	1258	1255	1254	1254	1255	1256	1256	1256	1256	1256	1255	1254	1254	1254	1254	1254	1254	1255	1256	1257	1258	1259	1260	1260	1261	1261	1261	1260	1259	1259	1257	1256	1255	1253	1251	1251	1251	1251	1251	1253	1253	1254	1254	1255	1256	1257	1257	1257	1258	1259	1261	1262	1262	1264	1264	1265	1266	1266	1266	1266	1266	1267	1267	1269	1268	1270	1270	1270	1270	1270	1270	1267	1266	1266	1263	1262	1262	1262	1261	1261	1262	1262	1262	1262	1263	1264	1265	1266	1267	1268	1269	1270	1270	1270	1270	1269	1268	1266	1266	1264	1262	1262	1260	1258	1257	1255	1254	1253	1252	1252	1252	1252	1253	1253	1253	1254	1254	1254	1254	1254	1254	1254	1252	1251	1250	1249	1247	1246	1245	1244	1243	1242	1242	1241	1239	1239	1239	1238	1236	1236	1236	1236	1237	1236	1238	1238	1239	1239	1241	1243	1246	1247	1248	1250	1251	1252	1254	1254	1255	1256	1256	1256	1256	1257	1256	1255	1254	1254	1254	1254	1253	1254	1254	1253	1253	1253	1253	1253	1253	1253	1253	1253	1252	1253	1252	1252	1252	1252	1252	1253	1253	1254	1254	1255	1257	1258	1258	1259	1260	1261	1262	1262	1263	1264	1264	1264	1264	1264	1264	1263	1263	1262	1262	1261	1261	1259	1259	1259	1259	1259	1259	1260	1260	1260	1261	1261	1261	1261	1261	1261	1260	1260	1260	1261	1260	1259	1259	1259	1259	1259	1258	1259	1259	1259	1259	1258	1258	1258	1258	1258	1258	1258	1259	1259	1260	1261	1261	1261	1261	1261	1261	1260	1260	1259	1258	1258	1258	1258	1258	1258	1258	1258	1258	1258	1259	1259	1259	1260	1261	1262	1262	1262	1263	1264	1264	1265	1265	1265	1264	1264	1263	1263	1262	1262	1262	1260	1259	1258	1258	1258	1258	1258	1259	1260	1261	1262	1262	1263	1264	1265	1265	1266	1266	1266	1266	1266	1266	1265	1263	1262	1262	1260	1258	1256	1255	1254	1254	1253	1252	1251	1251	1251	1251	1251	1250	1250	1250	1250	1249	1249	1248	1248	1248	1248	1248	1248	1249	1250	1250	1251	1252	1254	1254	1255	1256	1257	1258	1258	1259	1260	1260	1262	1262	1262	1263	1264	1264	1264	1263	1262	1262	1262	1260	1260	1259	1258	1258	1259	1260	1261	1262	1262	1263	1264	1265	1265	1266	1266	1266	1266	1265	1264	1263	1262	1262	1262	1262	1263	1263	1264	1265	1266	1266	1266	1266	1267	1267	1266	1266	1265	1264	1263	1262	1262	1262	1261	1261	1261	1262	1263	1264	1264	1264	1265	1265	1265	1265	1264	1263	1262	1261	1260	1258	1257	1256	1256	1255	1255	1254	1254	1254	1254	1254	1254	1254	1254	1254	1254	1254	1254	1254	1255	1255	1255	1256	1257	1257	1258	1258	1259	1259	1261	1262	1263	1265	1266	1266	1266	1268	1267	1268	1269	1270	1270	1270	1270	1270	1270	1270	1270	1271	1271	1271	1271	1272	1272	1271	1271	1271	1270	1270	1270	1270	1270	1268	1268	1267	1268	1268	1268	1268	1268	1269	1269	1270	1270	1270	1269	1268	1266	1265	1264	1263	1263	1262	1262	1262	1263	1264	0	1265	1266	1266	1266	1267	1267	1268	1267	1266	1266	1266	1266	1267	1267	1267	1267	1269	1268	1268	1268	1267	1266	1266	1265	1265	1263	1262	1262	1260	1259	1258	1258	1257	1256	1256	1256	1255	1256	1255	1256	1257	1258	1258	1258	1258	1258	1258	1259	1259	1259	1260	1261	1261	1262	1262	1263	1263	1263	1262	1264	1263	1262	1262	1262	1262	1262	1262	1262	1262	1262	1262	1262	1261	1261	1260	1260	1260	1260	1260	1260	1260	1261	1260	1261	1261	1262	1262	1262	1262	1262	1262
1251	1251	1252	1252	1253	1254	1255	1256	1257	1258	1258	1259	1260	1260	1260	1261	1261	1262	1262	1263	1264	1264	1264	1264	1264	1265	1264	1263	1263	1262	1262	1263	1263	1263	1263	1264	1266	1266	1266	1266	1266	1267	1267	1267	1267	1267	1267	1266	1266	1266	1266	1266	1266	1267	1268	1270	1271	1272	1273	1274	1274	1274	1273	1271	1270	1269	1268	1266	1265	1264	1263	1262	1262	1262	1262	1263	1263	1263	1265	1265	1266	1266	1265	1264	1263	1263	1262	1262	1260	1260	1258	1257	1256	1255	1254	1253	1252	1252	1252	1251	1252	1252	1253	1253	1253	1253	1253	1252	1253	1252	1252	1253	1254	1254	1255	1256	1257	1258	1258	1259	1259	1258	1259	1258	1257	1256	1254	1253	1251	1249	1248	1247	1246	1246	1247	1246	1247	1248	1250	1251	1252	1253	1254	1254	1255	1256	1258	1259	1260	1261	1262	1262	1263	1265	1265	1266	1266	1266	1266	1268	1268	1269	1269	1270	1270	1270	1270	1267	1266	1265	1264	1262	1261	1261	1261	1261	1262	1262	1262	1263	1264	1265	1266	1266	1268	1269	1270	1270	1270	1270	1269	1268	1266	1265	1263	1262	1260	1258	1257	1255	1253	1252	1251	1250	1250	1249	1249	1250	1250	1250	1250	1250	1250	1250	1250	1250	1250	1249	1247	1246	1245	1244	1242	1240	1239	1239	1239	1238	1236	1235	1234	1235	1234	1233	1232	1232	1232	1232	1232	1232	1234	1235	1235	1236	1238	1241	1242	1245	1246	1249	1250	1251	1253	1254	1255	1256	1257	1257	1257	1256	1256	1255	1254	1254	1254	1254	1253	1254	1254	1253	1253	1253	1253	1253	1253	1253	1253	1253	1253	1252	1252	1252	1252	1251	1252	1252	1252	1253	1254	1254	1256	1257	1257	1258	1258	1259	1259	1261	1261	1262	1262	1262	1262	1262	1262	1262	1261	1261	1260	1260	1259	1258	1258	1258	1258	1258	1258	1259	1259	1259	1260	1260	1261	1261	1261	1261	1261	1260	1260	1260	1259	1259	1258	1258	1258	1258	1258	1258	1258	1258	1258	1257	1257	1257	1257	1257	1256	1257	1257	1258	1258	1259	1259	1259	1259	1259	1259	1259	1258	1258	1258	1258	1258	1258	1258	1257	1258	1257	1258	1258	1258	1258	1258	1260	1260	1261	1262	1262	1263	1264	1264	1264	1265	1264	1264	1263	1262	1262	1262	1261	1260	1259	1258	1258	1258	1257	1257	1258	1258	1259	1261	1262	1262	1263	1264	1264	1265	1265	1265	1265	1265	1264	1263	1263	1262	1262	1261	1259	1257	1256	1254	1254	1253	1252	1251	1251	1251	1251	1251	1250	1250	1250	1250	1250	1249	1248	1247	1247	1247	1247	1247	1248	1249	1250	1250	1251	1252	1253	1254	1255	1256	1257	1258	1258	1259	1260	1260	1262	1262	1262	1262	1262	1262	1262	1262	1262	1261	1260	1259	1258	1258	1258	1258	1258	1258	1259	1259	1260	1261	1262	1262	1262	1263	1263	1263	1262	1262	1262	1262	1261	1260	1260	1260	1260	1262	1262	1263	1263	1264	1264	1265	1265	1266	1265	1264	1263	1262	1262	1261	1260	1259	1259	1259	1259	1261	1262	1263	1264	1265	1266	1266	1266	1266	1265	1264	1263	1262	1260	1259	1258	1258	1256	1255	1254	1254	1254	1254	1254	1253	1253	1253	1253	1252	1252	1252	1253	1253	1253	1253	1254	1254	1254	1255	1255	1256	1257	1258	1258	1260	1261	1262	1263	1265	1266	1266	1267	1268	1268	1269	1270	1270	1270	1270	1270	1271	1271	1271	1270	1271	1272	1272	1272	1272	1272	1271	1270	1270	1270	1269	1268	1267	1266	1266	1266	1266	1266	1266	1267	1268	1268	1269	1270	1270	1269	1267	1266	1265	1264	1263	1263	1262	1262	1262	1262	1262	1264	1265	1265	1266	1266	1266	1267	1267	1267	1267	1267	1267	1267	1267	1268	1267	1266	1267	1267	1266	1266	1265	1264	1264	1263	1262	1261	1261	1259	1258	1258	1257	1256	1255	1254	1255	1254	1254	1254	1254	1254	1254	1254	1255	1255	1256	1256	1256	1256	1257	1258	1258	1258	1258	1259	1259	1260	1260	1260	1261	1261	1261	1260	1260	1260	1261	1261	1261	1260	1260	1260	1260	1260	1260	1259	1258	1258	1258	1259	1258	1258	1258	1259	1259	1260	1260	1261	1261	1262	1262	1262	1262
1250	1250	1250	1250	1251	1252	1254	1255	1256	1257	1258	1259	1260	1261	1262	1262	1262	1263	1264	1265	1265	1265	1265	1265	1265	1265	1264	1262	1262	1262	1262	1262	1262	1262	1262	1262	1263	1264	1265	1265	1265	1266	1266	1266	1266	1266	1266	1266	1266	1266	1266	1266	1267	1267	1268	1270	1270	1271	1271	1272	1272	1271	1270	1269	1269	1267	1266	1264	1264	1263	1262	1262	1262	1262	1262	1262	1262	1263	1264	1265	1265	1265	1264	1262	1261	1261	1260	1259	1258	1258	1257	1255	1254	1253	1251	1250	1248	1248	1248	1248	1248	1249	1250	1250	1250	1250	1250	1250	1250	1250	1250	1250	1251	1252	1253	1254	1255	1257	1257	1258	1258	1258	1257	1256	1254	1254	1251	1250	1248	1246	1244	1243	1242	1242	1242	1243	1244	1244	1245	1247	1249	1250	1251	1252	1254	1254	1256	1257	1258	1259	1260	1261	1262	1262	1263	1264	1265	1266	1266	1266	1267	1268	1269	1269	1270	1270	1269	1267	1266	1265	1263	1262	1261	1261	1261	1261	1262	1262	1262	1263	1265	1266	1267	1268	1269	1270	1270	1270	1270	1269	1268	1266	1264	1262	1261	1259	1258	1255	1252	1250	1250	1249	1248	1247	1246	1246	1246	1246	1247	1247	1247	1247	1247	1247	1246	1246	1245	1244	1242	1241	1240	1239	1237	1235	1233	1232	1232	1232	1230	1229	1229	1229	1229	1229	1228	1228	1228	1229	1229	1229	1230	1232	1232	1233	1235	1238	1240	1243	1245	1246	1250	1250	1252	1254	1254	1256	1257	1257	1257	1256	1256	1255	1254	1254	1253	1253	1253	1253	1253	1252	1253	1253	1253	1253	1253	1253	1253	1253	1253	1253	1253	1252	1252	1252	1251	1252	1251	1253	1253	1254	1254	1254	1255	1256	1256	1257	1258	1258	1258	1259	1259	1260	1260	1260	1260	1259	1259	1259	1259	1258	1258	1258	1258	1258	1258	1258	1258	1258	1258	1259	1259	1260	1260	1261	1261	1261	1261	1260	1260	1260	1260	1259	1258	1258	1257	1257	1257	1257	1257	1257	1257	1255	1255	1255	1255	1255	1255	1255	1255	1255	1256	1257	1258	1257	1257	1258	1258	1258	1258	1257	1256	1256	1256	1256	1256	1257	1256	1256	1257	1257	1258	1258	1258	1259	1260	1261	1262	1262	1262	1263	1263	1263	1263	1263	1263	1262	1262	1262	1261	1260	1259	1258	1258	1258	1257	1257	1257	1257	1258	1259	1260	1261	1262	1262	1263	1263	1263	1262	1263	1262	1263	1262	1262	1261	1261	1260	1259	1256	1255	1254	1254	1253	1252	1252	1251	1251	1251	1251	1251	1251	1250	1250	1250	1250	1249	1248	1247	1247	1247	1247	1248	1248	1249	1250	1250	1251	1252	1253	1254	1255	1255	1257	1258	1258	1258	1258	1259	1260	1261	1261	1262	1262	1262	1262	1261	1260	1259	1258	1258	1257	1257	1257	1256	1256	1256	1257	1257	1258	1258	1258	1259	0	1260	1261	1260	1261	1260	1259	1258	1258	1258	1258	1258	1259	1259	1260	1261	1262	1262	1262	1263	1263	1264	1263	1262	1262	1261	1259	1259	1258	1258	1257	1258	1258	1259	1261	1262	1263	1265	1266	1266	1266	1266	1266	1265	1263	1262	1261	1259	1258	1257	1256	1255	1254	1254	1254	1253	1253	1253	1252	1251	1251	1251	1251	1251	1251	1252	1252	1252	1252	1252	1253	1253	1254	1254	1254	1255	1257	1258	1259	1261	1262	1263	1264	1266	1266	1266	1268	1268	1269	1269	1269	1270	1270	1271	1271	1271	1271	1272	1272	1273	1273	1273	1272	1272	1271	1270	1270	1269	1267	1266	1266	1266	1265	1266	1266	1266	1266	1267	1268	1269	1269	1268	1268	1267	1266	1265	1264	1263	1262	1261	1261	1260	1261	1261	1262	1262	1263	1264	1265	1266	1266	1267	1267	1267	1268	1267	1268	1268	1268	1267	1266	1266	1266	1264	1263	1262	1261	1260	1260	1260	1258	1258	1258	1257	1256	1255	1255	1254	1253	1254	1253	1252	1253	1252	1253	1252	1252	1253	1253	1254	1254	1254	1254	1254	1254	1254	1254	1255	1255	1256	1257	1257	1257	1257	1258	1258	1258	1258	1258	1258	1258	1258	1258	1258	1258	1258	1258	1258	1258	1257	1258	1257	1257	1257	1258	1258	1258	1259	1259	1260	1260	1260	1261	1260	1261	1261
1248	1248	1249	1249	1250	1251	1253	1254	1256	1257	1258	1259	1260	1261	1262	1262	1263	1264	1265	1266	1266	1266	1266	1265	1265	1264	1263	1262	1261	1260	1260	1260	1260	1260	1261	1261	1262	1262	1263	1263	1263	1264	1265	1266	1265	1266	1266	1266	1267	1266	1266	1266	1267	1267	1268	1269	1270	1270	1270	1270	1269	1269	1269	1268	1266	1265	1264	1262	1262	1262	1261	1261	1261	1261	1262	1262	1262	1262	1262	1262	1262	1261	1260	1258	1258	1258	1256	1255	1255	1254	1254	1253	1250	1250	1249	1246	1246	1245	1245	1245	1246	1246	1247	1247	1248	1248	1249	1249	1249	1249	1249	1250	1250	1250	1251	1253	1253	1254	1255	1255	1255	1255	1254	1254	1252	1250	1249	1246	1245	1242	1241	1239	1238	1238	1239	1239	1240	1242	1243	0	1246	1247	1249	1250	1251	1253	1254	1256	1256	1258	1258	1258	1260	1262	1262	1262	1262	1264	1264	1265	1266	1266	1267	1268	1269	1268	1267	1266	1265	1264	1262	1262	1261	1261	1261	1261	1262	1262	1263	1264	1266	1266	1269	1269	1270	1270	1270	1270	1269	1267	1266	1265	1262	1261	1258	1257	1255	1251	1250	1248	1246	1246	1245	1244	1243	1243	1243	1243	1244	1244	1244	1244	1243	1243	1242	1242	1241	1239	1239	1237	1235	1234	1231	1229	1229	1228	1227	1226	1226	1225	1224	1226	1225	1224	1224	1224	1224	1225	1226	1226	1227	1228	1229	1232	1234	1236	1239	1240	1243	1246	1247	1249	1251	1253	1254	1255	1257	1257	1257	1256	1255	1255	1254	1254	1253	1252	1252	1252	1252	1252	1252	1252	1252	1252	1252	1253	1253	1253	1252	1252	1252	1252	1251	1251	1251	1252	1251	1251	1252	1252	1253	1253	1254	1254	1254	1254	1255	1256	1256	1257	1257	1258	1258	1258	1258	1258	1258	1258	1258	1258	1258	1258	1257	1257	1257	1257	1258	1258	1258	1258	1259	1259	1260	1261	1261	1261	1261	1260	1260	1261	1260	1259	1258	1258	1257	1257	1256	1257	1256	1255	1254	1254	1254	1254	1254	1254	1253	1253	1254	1254	1254	1255	1254	1255	1254	1255	1255	1255	1255	1255	1255	1254	1255	1255	1254	1254	1254	1255	1255	1256	1256	1256	1257	1258	1259	1259	1260	1261	1262	1262	1262	1262	1262	1262	1262	1262	1261	1260	1260	1259	1259	1258	1257	1256	1255	1256	1256	1257	1258	1258	1258	1259	1260	1260	1261	1262	1261	1262	1261	1262	1261	1260	1261	1260	1260	1258	1258	1255	1254	1254	1253	1252	1251	1251	1251	1251	1251	1251	1251	1250	1250	1250	1250	1250	1250	1249	1248	1247	1247	1248	1249	1249	1250	1250	1250	1252	1253	1254	1254	1255	1256	1256	1257	1258	1258	1258	1258	1259	1260	1260	1261	1261	1261	1260	1260	1259	1258	1258	1257	1256	1255	1255	1254	1254	0	1255	1255	1256	1256	1256	1257	1257	1257	1258	1257	1257	1256	1257	1256	1256	1256	1257	1257	1257	1258	1258	1260	1261	1261	1262	1262	1262	1262	1262	1261	1260	1259	1258	1257	1256	1254	1254	1254	1255	1257	1258	1261	1262	1264	1265	1266	1266	1266	1266	1265	1263	1262	1260	1259	1258	1257	1256	1255	1254	1254	1253	1253	1252	1251	1251	1251	1250	1250	1250	1250	1250	1251	1251	1250	1251	1250	1251	1252	1252	1252	1253	1254	1254	1256	1258	1258	1260	1261	1262	1263	1265	1266	1266	1267	1267	1269	1269	1269	1270	1271	1271	1272	1272	1273	1273	1274	1274	1273	1273	1272	1271	1270	1270	1268	1267	1266	1265	1264	1263	1264	1265	1265	1266	1266	1266	1267	1267	1267	1267	1266	1265	1264	1263	1262	1262	1260	1259	1259	1258	1259	1260	1261	1262	1262	1263	1265	1266	1266	1267	1267	1267	1267	1268	1268	1268	1267	1266	1266	1264	1262	1261	1260	1259	1258	1258	1258	1257	1257	1256	1255	1255	1254	1254	1254	1252	1252	1252	1251	1250	1251	1250	1251	1251	1251	1251	1252	1252	1252	1252	1252	1252	1252	1252	1252	1253	1253	1254	1254	1254	1254	1254	1255	1255	1255	1255	1255	1256	1256	1256	1255	1256	1256	1256	1255	1255	1254	1255	1255	1254	1255	1255	1256	1256	1257	1258	1258	1259	1259	1260	1260	1260	1260
1246	1247	1247	1247	1249	1250	1252	1254	1255	1256	1258	1258	1261	1262	1262	1263	1265	1266	1266	1266	1267	1267	1266	1266	1265	1264	1263	1262	1261	1260	1259	1259	1258	1258	1258	1259	1259	1261	1261	1261	1262	1262	1263	1263	1264	1264	1265	1266	1266	1266	1267	1267	1267	1268	1268	1269	1269	1269	1269	1268	1267	1266	1266	1265	1263	1262	1262	1261	1262	1260	1260	1260	1260	1261	1261	1261	1262	1262	1262	1261	1260	1259	1258	1256	1254	1254	1252	1251	1250	1250	1249	1247	1246	1243	1243	1242	1242	1242	1242	1242	1243	1244	1244	1246	1246	1246	1247	1247	1247	1247	1247	1248	1248	1249	1250	1250	1251	1252	1253	1253	1253	1252	1252	1251	1250	1248	1246	1244	1242	1241	1239	1236	1235	1236	1236	1236	1238	1239	1241	1242	1245	1246	0	1247	1249	1251	1253	1254	1255	1256	1257	1258	1258	1259	1260	1260	1262	1262	1262	1263	1264	1265	1266	1266	1266	1266	1266	1266	1264	1263	1262	1262	1260	1261	1260	1261	1262	1262	1263	1265	1266	1267	1269	1270	1270	1270	1270	1268	1267	1266	1265	1263	1261	1258	1256	1254	1250	1249	1246	1246	1244	1242	1242	1241	1241	1240	1240	1240	1241	1241	1241	1240	1239	1239	1239	1237	1236	1235	1234	1232	1231	1228	1226	1226	1225	1224	1223	1222	1222	1222	1221	1222	1221	1221	1220	1220	1220	1222	1222	1223	1224	1226	1227	1229	1232	1233	1235	1239	1241	1243	1246	1248	1250	1252	1254	1255	1256	1256	1257	1256	1255	1254	1254	1253	1253	1252	1251	1251	1251	1251	1252	1252	1252	1252	1252	1252	1252	1253	1252	1252	1251	1251	1251	1251	1250	1251	1250	1251	1251	1251	1252	1252	1252	1252	1252	1253	1253	1254	1254	1254	1254	1254	1255	1255	1256	1256	1257	1257	1257	1257	1257	1257	1256	1256	1256	1256	1257	1257	1258	1258	1258	1259	1259	1261	1261	1261	1261	1261	1261	1261	1260	1259	1258	1258	1258	1257	1256	1256	1255	1254	1254	1253	1253	1253	1253	1253	1251	1251	1251	1252	1252	1253	1253	1253	1253	1254	1253	1254	1254	1253	1253	1253	1254	1253	1253	1253	1253	1253	1254	1254	1254	1254	1255	1256	1257	1258	1258	1259	1260	1261	1261	1261	1260	1261	1260	1260	1259	1259	1258	1258	1257	1257	1255	1255	1254	1254	1255	1256	1257	1257	1258	1258	1258	1259	1259	1259	1259	1260	1259	1259	1259	1259	1259	1258	1258	1258	1255	1254	1253	1253	1252	1252	1251	1251	1251	1251	1251	1251	1251	1251	1250	1250	1250	1250	1250	1249	1248	1248	1248	1249	1250	1250	1250	1251	1252	1253	1254	1254	1254	1255	1255	1256	1256	1258	1258	1258	1258	1258	1259	1259	1260	1260	1260	1259	1259	1259	1258	1257	1256	1255	1254	1254	1253	1253	1254	1254	1253	1253	1253	1254	1254	1254	1254	1254	1254	1254	1254	1254	1254	1254	1254	1254	1254	1255	1256	1257	1258	1259	1260	1260	1261	1261	1262	1262	1260	1258	1258	1256	1254	1254	1253	1252	1252	1253	1254	1257	1258	1260	1262	1263	1265	1266	1266	1265	1265	1263	1262	1261	1259	1258	1257	1256	1254	1254	1253	1252	1252	1252	1251	1250	1250	1250	1250	1250	1250	1250	1250	1250	1250	1250	1250	1250	1250	1250	1251	1252	1252	1254	1254	1255	1257	1258	1260	1261	1262	1262	1263	1266	1266	1267	1267	1268	1269	1270	1271	1271	1272	1272	1273	1273	1274	1273	1273	1272	1271	1270	1270	1268	1267	1266	1265	1264	1263	1262	1262	1262	1263	1264	1265	1265	1266	1266	1266	1266	1265	1263	1263	1262	1261	1259	1258	1258	1258	1257	1257	1258	1259	1260	1260	1262	1263	1264	1266	1266	1266	1267	1267	1268	1268	1268	1267	1266	1266	1265	1263	1262	1260	1259	1258	1258	1257	1256	1256	1255	1255	1254	1254	1254	1253	1252	1251	1250	1250	1250	1250	1250	1250	1250	1250	1250	1251	1251	1251	1251	1250	1250	1250	1250	1250	1250	1250	1250	1250	1251	1251	1252	1252	1252	1252	1253	1253	1253	1253	1253	1253	1253	1253	1254	1254	1254	1252	1252	1252	1253	1253	1253	1253	1254	1254	1255	1257	1257	1258	1258	1258	1258	1258
1246	1246	1246	0	1248	1250	1251	1253	1254	1255	1258	1259	1260	1262	1263	1264	1266	1266	1266	1267	1267	1267	1266	1266	1265	1263	1262	1261	1260	1259	1258	1258	1257	1257	1257	1257	1258	1258	1258	1259	1259	1260	1261	1262	1262	1263	1263	1265	1266	1266	1267	1268	1267	1268	1268	1268	1267	1267	1266	1266	1265	1264	1259	1258	1258	1258	1258	1258	1258	1259	1259	1259	1259	1260	1260	1260	1260	1260	1259	1258	1258	1257	1255	1253	1251	1250	1248	1247	1246	1245	1242	1241	1240	1239	1239	1239	1238	1238	1239	1239	1242	1242	1243	1244	1245	1246	1246	1246	1246	1246	1246	1246	1247	1248	1249	1250	1250	1250	1250	1251	1251	1250	1250	1249	1247	1246	1244	1242	1240	1239	1236	1235	1235	1234	1234	1235	1235	1236	1239	1241	1242	1244	1246	1247	0	1250	1252	1253	1254	1254	1255	1255	1256	1258	1258	1258	1259	1259	1260	1261	1262	1263	1263	1264	1265	1265	1265	1264	1264	1262	1261	1260	1260	1260	1259	1261	1262	1262	1263	1265	1266	1267	1268	1269	1268	1268	1268	1266	1266	1264	1262	1261	1258	1256	1254	1250	1248	1246	1244	1242	1242	1240	1239	1239	1238	1238	1238	1237	1238	1238	1238	1237	1236	1235	1235	1234	1232	1230	1227	1226	1225	1225	1223	1222	1221	1221	1220	1219	1219	1219	1218	1219	1219	1218	1217	1217	1218	1218	1219	1220	1222	1222	1225	1227	1229	1232	1233	1236	1239	1242	1244	1246	1249	1251	1253	1254	1255	1256	1256	1255	1254	1254	1253	1253	1252	1251	1250	1251	1251	1251	1251	1251	1251	1251	1251	1251	1252	1252	1252	1251	1251	1250	1250	1250	1250	1250	1250	1250	1250	1250	1250	1250	1250	1250	1250	1251	1251	1252	1252	1252	1252	1253	1253	1254	1254	1254	1255	1255	1255	1255	1255	1255	1255	1255	1255	1256	1256	1256	1257	1258	1258	1258	1259	1259	1259	1260	1260	1260	1260	1260	1260	1259	1258	1258	1257	1257	1256	1255	1254	1254	1253	1252	1252	1251	1251	1251	1250	1250	1250	1250	1250	1250	1250	1250	1251	1251	1251	1252	1252	1252	1251	1251	1252	1251	1251	1251	1250	1250	1251	1251	1252	1252	1253	1254	1256	1256	1257	1258	1258	1258	1258	1259	1258	1259	1259	1258	1258	1258	1257	1257	1256	1255	1254	1254	1254	1254	1254	1255	1256	1257	1258	1258	1258	1258	1258	1258	1258	1258	1257	1256	1256	1255	1255	1255	1254	1254	1253	1253	1253	1252	1251	1251	1251	1251	1251	1251	1252	1252	1252	1252	1251	1251	1251	1251	1250	1250	1250	1249	1249	1250	1250	1251	1251	1252	1253	1253	1254	1254	1254	1255	1255	1256	1256	1257	1257	1257	1257	1258	1258	1259	1259	1259	1259	1258	1258	1258	1257	1256	1255	1254	1254	1253	1252	1252	1252	1252	1252	1251	1251	1251	1251	1251	1251	1251	1251	1251	1251	1251	1251	1251	1252	1252	1253	1254	1254	1255	1258	1258	1259	1260	1260	1260	1260	1260	1259	1258	1256	1254	1254	1253	1251	1251	1250	1251	1253	1254	1257	1258	1259	1262	1262	1263	1264	1264	1264	1262	1261	1260	1258	1257	1256	1254	1254	1253	1252	1252	1251	1251	1250	1250	1250	1250	1250	1250	1249	1249	1250	1250	1250	1249	1249	1249	1250	1250	1250	1250	1251	1252	1254	1254	1255	1257	1258	1259	1261	1261	1262	1263	1265	1266	1266	1267	1268	1269	1270	1270	1271	1271	1272	1273	1273	1273	1272	1272	1271	1270	1269	1268	1266	1265	1264	1262	1262	1260	1261	1261	1261	1262	1262	1263	1264	1264	1264	1263	1263	1262	1262	1261	1261	1259	1258	1258	1257	1256	1256	1256	1258	1258	1259	1260	1261	1263	1264	1265	1266	1266	1267	1268	1267	1268	1267	1266	1266	1265	1262	1261	1260	1259	1258	1258	1257	1256	1256	1255	1255	1254	1254	1253	1252	1252	1251	1250	1250	1250	1250	1250	1250	1250	1250	1250	1250	1250	1250	1250	1249	1249	1249	1249	1248	1249	1248	1248	1247	1248	1249	1249	1250	1250	1249	1250	1250	1250	1250	1250	1250	1250	1250	1250	1250	1250	1250	1250	1250	1250	1250	1250	1250	1250	1251	1252	1254	1254	1254	1255	1255	1255	1256
