1170	1170	1170	1170	0	0	0	0	0	896	896	896	896	896	896	896	896	896	896	896	896	896	896	895	895	895	895	893	892	892	890	890	890	887	882	878	878	878	0	843	843	839	838	835	835	833	831	829	829	828	827	827	826	826	826	825	825	825	824	824	824	825	825	825	825	825	826	826	826	827	827	827	828	828	829	830	830	831	833	833	835	839	839	842	842	843	845	845	848	852	852	858	858	860	862	863	870	870	876	876	879	882	882	887	887	892	895	895	898	898	898	899	899	900	900	900	900	900	900	900	900	900	900	900	900	900	900	900	900	900	900	899	899	899	899	899	899	899	899	899	899	899	899	899	899	898	898	898	898	898	898	898	898	897	896	896	894	890	888	888	884	881	880	880	878	876	876	874	873	871	871	869	868	868	867	866	866	866	866	866	867	867	867	869	869	871	871	873	875	875	876	878	878	880	882	882	885	885	890	893	893	896	896	897	898	898	898	898	898	897	896	896	896	895	895	895	0	0	0	0	0	0	0	0	0	0	0	0	0	918	918	917	916	916	915	914	912	912	910	908	908	906	904	903	903	903	903	903	903	903	903	903	373	373	372	372	373	373	373	373	373	373	374	374	906	906	906	906	906	904	904	904	904	904	904	904	904	903	903	903	903	903	903	903	903	903	902	902	902	902	902	901	901	901	901	901	901	901	901	901	901	901	901	901	901	901	902	902	902	902	902	902	0	0	0	0	0	0	0	0	0	0	0	0	0	901	901	901	900	900	901	901	901	901	901	903	903	903	903	904	904	904	906	906	906	906	906	906	906	906	906	906	906	906	906	906	906	906	906	906	906	906	904	904	904	904	904	904	904	904	904	904	904	904	904	904	904	904	904	904	903	903	903	903	903	903	903	903	903	903	903	903	903	903	902	902	901	901	901	901	900	900	900	899	899	898	896	895	895	894	893	893	892	890	890	889	888	888	888	889	890	890	890	892	892	893	894	894	895	896	896	897	898	898	899	900	900	900	901	901	902	904	904	908	908	908	910	910	910	910	910	910	0	0	0	0	0	0	0	0	0	0	0	0	0	0	0	0	0	0	0	0	0	0	0	0	0	0	0	0	0	0	0	0	0	0	0	0	0	0	759	759	758	756	756	754	753	752	752	752	751	751	750	750	750	750	750	750	749	747	746	746	744	743	743	742	740	739	739	739	738	738	738	737	737	737	737	736	736	735	734	734	733	731	731	731	730	730	730	729	729	729	729	0	0	0	0	0	0	0	0	0	0	0	0	0	0	0	0	0	0	0	0	0	0	0	0	0	0	0	0	0	0	0	0	0	0	0	1986	1986	1986	1986	1986	1986	1986	1986	1983	1983	1980	1980	1980	1980	1977	1977	1974	1974	1974	1974	1974	1974	1974	1977	1980	1980	1983	1986	1986	1989	1989	1989	1992	1995	1995	1995	1995	1995	1995	1998	1998	1998	1998	1998	1998	1998	1998	1998	1998	1995	1995	1995	1995	1992	1992	1992	1989	1989	1986	1983	1983	1980	1977	1977	1977	1974	1974	1974	1974	1974	1974	1974	1974	1977	1977	1980	1983	1983	1986	1989	1989	1992	1992	1992	1995	1998	1998	1998	2001	2001	2001	2001	2001	2001	2001	2001	2001	2001	2001	2001	2001	2001	1998	1998	1998	1998	1998	1998	1998	1998	1998	2001	2001	2001	2001	2001	2001	2001	2001	1998	1998	1998	1998	1998	1998	1998	1998	1998	1998	1998	1998	1998	1998	1998	1998	1998	1998	1998	1998	2001	2001	2001	2001	2001	2004	2004	2004	2004	2004	2004	2007	2007	2007	2007	2007	2004	2004	2004	2004	2001	2001	2001	1995	1995	1995	1992	1989	1989	1989	1986	1986	1986	1983	1983	1983	1983	1986	1986	1989	1989	1989	1992	1995	1995	2001	2001	2001	2004	2004	2004	2010	2014	2014	2017	2020	2020	2023	2023	2023	2023	2023	2023	2020	2020	2017	2014	2014	2010	2007	2007	2004	2001	2001
1170	1170	1170	1170	0	0	0	0	892	892	892	892	893	893	893	894	894	894	894	894	894	894	894	893	892	891	891	890	890	890	888	887	887	884	881	875	875	875	0	843	843	839	838	838	838	835	833	833	830	829	828	828	827	826	826	826	825	825	825	824	824	825	825	825	825	825	826	826	826	827	827	828	829	829	830	831	831	833	834	834	837	840	840	842	842	844	846	846	850	855	855	860	860	862	862	864	871	871	876	876	879	882	882	887	887	892	895	895	898	898	898	899	899	900	900	900	900	900	900	900	900	900	900	900	900	900	900	900	900	900	900	899	899	899	899	899	899	899	899	899	899	899	899	899	899	898	898	898	898	898	898	898	898	897	896	896	894	891	889	889	886	883	881	881	880	879	879	878	877	877	875	874	873	873	873	871	871	871	871	873	873	873	873	873	874	875	875	876	878	878	879	880	880	881	884	884	888	888	891	893	895	896	896	897	898	898	898	898	896	896	896	896	895	895	895	895	0	0	0	0	0	0	0	0	0	0	0	0	0	918	918	917	917	917	915	914	912	912	910	908	908	906	903	903	903	902	902	902	902	902	902	902	902	902	374	373	373	373	373	373	373	373	374	374	904	904	904	904	904	904	904	904	904	903	903	904	903	902	902	902	902	902	901	901	901	901	901	901	900	900	900	900	900	900	900	900	900	900	900	900	900	900	900	900	900	900	900	900	900	900	900	900	0	0	0	0	0	0	0	0	0	0	0	0	0	900	900	900	900	900	900	900	900	901	901	901	901	901	901	901	901	902	903	903	903	903	903	903	903	903	904	904	904	904	904	904	903	903	903	903	903	903	903	903	903	903	902	902	902	902	903	902	902	902	901	901	901	901	901	901	901	901	901	901	901	901	901	901	901	901	901	901	902	901	901	901	900	900	900	899	899	899	898	898	898	897	896	895	895	894	893	893	892	890	890	889	888	888	888	889	890	890	890	892	892	893	894	894	896	896	896	897	898	898	899	900	900	900	901	901	902	904	904	908	908	908	910	910	910	910	910	910	0	0	0	0	0	0	0	0	0	0	0	0	0	0	0	0	0	0	0	0	0	0	0	0	0	0	0	0	0	0	0	0	0	0	0	0	0	0	0	760	760	756	756	756	754	753	753	752	752	752	750	750	750	750	750	750	749	748	747	747	745	744	744	742	741	740	740	739	738	738	738	737	737	737	737	736	736	735	734	734	733	732	732	731	730	730	731	730	730	731	731	0	0	0	0	0	0	0	0	0	0	0	0	0	0	0	0	0	0	0	0	0	0	0	0	0	0	0	0	0	0	0	0	0	0	0	1986	1986	1986	1986	1986	1986	1986	1983	1983	1983	1980	1977	1977	1977	1977	1977	1974	1974	1974	1974	1974	1974	1974	1974	1977	1977	1983	1986	1986	1989	1989	1989	1992	1995	1995	1995	1995	1995	1995	1998	1998	1998	1998	1998	1998	1998	1998	1998	1998	1995	1995	1995	1995	1992	1992	1989	1989	1989	1983	1980	1974	1974	1971	1971	1971	1965	1965	1965	1965	1965	1965	1965	1965	1971	1971	1974	1977	1977	1980	1986	1986	1989	1992	1992	1992	1995	1995	1995	1998	1998	1998	1998	1998	1998	1998	1998	1998	1998	1998	1998	1998	1998	1998	1998	1998	1998	1998	1998	1998	1998	1998	1998	1998	1998	1998	1998	1998	1998	1998	1998	1998	1998	1998	1998	1998	1998	1998	1998	1998	1998	1998	1995	1995	1995	1995	1995	1998	1998	1998	1998	1998	2001	2001	2001	2001	2001	2001	2004	2004	2004	2004	2004	2004	2004	2004	2004	2001	2001	2001	1998	1995	1995	1992	1989	1989	1989	1986	1986	1983	1980	1980	1974	1974	1977	1977	1977	1980	1980	1983	1986	1986	1989	1992	1992	1995	2001	2001	2004	2004	2004	2010	2014	2014	2017	2020	2020	2023	2023	2023	2023	2023	2023	2020	2020	2017	2014	2014	2010	2007	2007	2004	2001	2001
1170	0	0	0	0	0	884	884	884	884	886	886	887	887	887	890	890	890	890	890	890	890	890	890	890	889	889	888	886	886	884	883	882	882	879	875	875	875	851	844	844	842	840	840	838	835	833	833	830	829	828	828	827	826	826	826	825	825	825	824	824	825	825	825	825	825	826	826	826	827	827	828	829	829	830	831	831	833	834	834	837	840	840	842	842	844	846	846	850	853	855	860	860	862	862	864	871	871	875	875	879	881	881	884	887	889	892	892	895	896	896	898	898	898	899	899	899	899	900	900	899	899	899	899	899	899	898	898	898	898	898	898	898	898	898	898	898	898	898	898	898	898	898	898	898	898	898	897	897	897	897	896	896	895	894	894	891	890	888	888	887	884	884	883	881	880	880	880	879	879	878	878	878	877	876	876	876	876	876	876	876	876	877	877	878	878	878	879	880	880	881	881	881	884	884	887	890	890	893	893	895	896	896	897	898	898	898	898	896	896	896	896	895	895	895	895	0	0	0	0	0	0	0	0	0	0	0	0	0	0	0	918	917	917	916	914	912	912	910	908	908	906	903	903	903	902	902	902	902	902	902	902	902	902	374	374	374	374	374	374	374	374	374	903	904	904	904	904	904	904	904	904	904	903	903	904	903	902	902	901	900	900	900	900	900	900	900	900	899	899	899	899	899	899	899	898	898	898	898	898	898	898	898	898	898	898	899	898	898	899	899	899	0	0	0	0	0	0	0	0	0	0	0	0	0	899	899	899	899	899	899	899	899	900	900	900	900	900	900	900	900	900	901	901	901	901	901	901	901	902	902	902	902	902	902	902	902	902	902	901	901	901	901	901	901	901	900	900	900	900	900	900	900	900	900	900	900	900	900	900	900	900	900	900	900	900	900	900	900	900	900	900	900	900	900	900	899	898	898	898	898	898	897	896	896	895	895	893	893	892	891	891	890	889	889	888	888	888	888	888	889	889	890	892	892	893	894	894	896	896	896	897	898	898	899	899	899	900	900	900	901	903	903	904	904	906	906	906	906	906	906	908	908	908	0	0	0	0	0	0	0	0	0	0	0	0	0	0	0	0	0	0	0	0	0	0	0	0	0	0	0	0	0	0	0	0	0	0	0	761	761	760	759	756	756	756	754	753	753	752	751	751	750	750	750	750	750	750	749	748	747	747	745	744	744	742	741	740	740	739	738	738	738	737	737	737	737	736	736	735	734	734	733	732	732	732	732	732	732	731	731	731	0	0	0	0	0	0	0	0	0	0	0	0	0	0	0	0	0	0	0	0	0	0	0	0	0	0	0	0	0	0	0	0	0	0	0	0	0	1986	1986	1986	1989	1989	1986	1983	1983	1983	1980	1977	1977	1977	1977	1977	1974	1974	1974	1974	1974	1974	1974	1974	1977	1977	1983	1986	1986	1989	1989	1989	1992	1995	1995	1995	1995	1995	1998	1998	1998	1998	2001	1998	1998	1998	1998	1998	1998	1995	1995	1995	1995	1992	1992	1989	1989	1989	1980	1977	1971	1971	1971	1962	1962	1962	1956	1956	1956	1956	1956	1956	1962	1962	1962	1965	1971	1971	1977	1980	1980	1986	1989	1989	1992	1992	1992	1995	1995	1995	1995	1995	1995	1995	1998	1998	1998	1998	1998	1995	1995	1995	1995	1995	1995	1995	1995	1995	1995	1995	1995	1995	1995	1995	1995	1995	1995	1998	1998	1998	1998	1998	1998	1998	1998	1998	1998	1998	1998	1995	1995	1995	1995	1995	1995	1995	1995	1995	1995	1998	1998	1998	2001	2001	2001	2001	2001	2004	2004	2004	2004	2004	2004	2001	2001	2001	2001	1998	1998	1995	1992	1992	1989	1989	1989	1983	1980	1980	1977	1971	1971	1971	1971	1971	1971	1971	1974	1974	1977	1977	1977	1983	1989	1989	1992	1995	1995	1998	2001	2001	2004	2004	2004	2010	2010	2010	2014	2014	2014	2014	2014	2010	2007	2007	2007	2004	2004	2001	2001	2001	1998	1995	1995
0	0	0	0	0	0	884	884	884	884	886	886	887	887	887	890	890	890	890	890	890	890	890	890	890	889	889	888	886	886	884	883	882	882	878	878	0	0	851	844	844	842	841	841	840	837	834	834	832	830	828	828	827	826	826	826	825	825	825	825	825	825	825	825	826	826	826	827	827	828	828	829	830	830	832	834	834	835	837	837	839	840	841	843	843	844	847	847	853	853	857	860	860	862	862	865	871	871	875	875	878	881	881	883	886	886	890	890	891	895	895	896	897	897	898	898	898	898	898	898	898	898	898	898	898	898	898	898	898	898	898	897	897	897	896	896	896	896	896	896	896	896	896	896	896	896	896	896	895	895	895	894	894	893	892	890	890	889	888	888	886	884	884	883	881	880	880	880	879	879	878	878	878	877	876	876	876	876	876	876	876	876	877	877	878	878	878	879	880	880	881	881	881	884	884	887	890	890	893	893	895	896	896	897	897	897	898	898	896	896	896	896	895	895	895	895	0	0	0	0	0	0	0	0	0	0	0	0	0	0	0	918	917	917	916	914	912	912	910	908	908	906	903	902	902	902	901	901	901	901	901	901	901	375	374	374	374	374	374	374	374	374	374	375	903	903	903	903	902	902	902	902	902	902	902	903	902	901	901	901	900	900	900	900	900	900	900	900	899	899	899	899	899	899	899	898	898	898	898	898	898	898	898	898	898	898	899	898	898	899	899	899	0	0	0	0	0	0	0	0	0	0	0	0	0	899	899	899	899	899	899	899	899	900	900	900	900	900	900	900	900	900	901	901	901	901	901	901	901	902	902	902	902	902	902	902	902	902	902	901	901	901	901	901	901	901	900	900	900	900	900	900	900	900	900	900	900	900	900	900	900	900	900	900	900	900	900	900	900	900	900	900	900	900	900	900	899	897	897	896	895	895	895	895	893	893	892	891	891	890	890	890	889	888	888	888	888	888	888	888	889	889	890	892	892	893	895	895	896	896	896	898	898	898	898	899	899	899	900	900	901	901	901	903	903	903	903	904	904	904	906	906	906	906	0	0	0	0	0	0	0	0	0	0	0	0	0	0	0	0	0	0	0	0	0	0	0	0	0	0	0	0	0	0	0	0	0	0	0	761	761	760	759	758	758	756	754	754	754	753	751	751	751	750	750	750	750	750	749	748	747	747	746	744	744	743	742	740	740	739	738	738	738	737	737	737	736	736	736	735	734	734	733	732	732	732	732	732	732	731	731	731	0	0	0	0	0	0	0	0	0	0	0	0	0	0	0	0	0	0	0	0	0	0	0	0	0	0	0	0	0	0	0	0	0	0	0	0	0	1986	1986	1986	1986	1986	1983	1983	1980	1980	1977	1977	1977	1974	1974	1974	1974	1974	1974	1974	1974	1974	1974	1974	1977	1977	1983	1986	1986	1989	1989	1989	1992	1995	1995	1995	1995	1995	1998	1998	1998	1998	2001	1998	1998	1998	1998	1998	1998	1995	1995	1995	1995	1992	1992	1989	1986	1986	1980	1977	1971	1971	1971	1962	1962	1962	1956	1956	1956	1956	1956	1956	1962	1962	1962	1965	1971	1971	1977	1980	1980	1986	1989	1989	1992	1992	1992	1995	1995	1995	1995	1995	1995	1995	1998	1998	1998	1998	1998	1995	1995	1995	1995	1995	1995	1995	1995	1995	1995	1995	1995	1995	1995	1995	1995	1995	1995	1998	1998	1998	1998	1998	1998	1998	1998	1998	1998	1998	1998	1995	1995	1995	1995	1995	1995	1995	1995	1995	1995	1998	1998	1998	2001	2001	2001	2001	2001	2004	2004	2004	2004	2004	2004	2001	2001	2001	2001	1998	1998	1995	1992	1992	1989	1989	1989	1983	1980	1980	1977	1971	1971	1971	1971	1971	1971	1971	1974	1971	1971	1977	1977	1980	1983	1983	1989	1992	1992	1995	1995	1995	1998	2001	2001	2001	2004	2004	2004	2004	2004	2004	2004	2004	2001	2001	2001	1998	1998	1995	1995	1995	1992	1992	1992
0	0	0	0	0	0	879	879	880	880	881	882	882	883	884	884	886	886	886	886	887	887	887	887	886	885	885	884	884	884	883	881	880	880	878	878	0	0	852	845	845	843	842	842	840	839	837	837	834	832	829	829	828	827	827	826	826	826	826	826	826	826	826	826	826	826	827	827	828	829	829	830	832	832	834	836	836	837	839	839	840	840	842	843	843	845	848	848	853	853	858	861	861	863	863	866	871	871	875	875	878	881	881	883	886	886	890	890	891	895	895	896	897	897	898	898	898	898	898	898	898	898	898	898	898	898	898	898	898	898	898	897	897	897	896	896	896	896	896	896	896	896	896	896	896	896	896	896	895	895	895	891	891	890	890	888	888	888	886	886	886	885	885	883	883	881	881	881	881	881	880	880	880	879	878	878	878	878	878	878	878	878	878	879	880	880	880	881	881	881	883	883	884	887	887	890	892	892	894	894	895	896	896	897	897	897	898	898	896	896	896	896	895	895	895	895	0	0	0	0	0	0	0	0	0	0	0	0	0	0	0	0	917	917	916	915	913	913	910	908	908	908	0	902	902	901	901	901	901	901	901	901	901	375	375	375	375	375	375	375	375	375	375	375	376	903	903	903	902	902	902	902	902	901	901	901	901	901	901	900	900	900	900	899	899	899	899	899	898	898	898	898	898	898	898	898	898	898	898	897	897	897	897	897	897	898	898	898	898	898	898	899	0	0	0	0	0	0	0	0	0	0	0	0	0	898	898	898	898	898	898	898	898	898	898	898	898	899	899	899	899	899	899	900	900	900	900	900	900	901	901	901	901	901	901	901	901	901	901	900	900	900	900	900	900	900	899	899	899	899	899	899	899	899	899	899	898	898	898	899	899	899	899	899	899	899	899	899	899	899	899	899	899	898	898	898	898	897	897	896	895	895	895	895	893	893	892	891	891	890	890	890	889	888	888	888	888	888	888	888	890	890	890	892	892	894	895	895	896	896	896	898	898	898	898	899	899	899	900	900	901	901	901	903	903	903	903	904	904	904	906	906	906	906	0	0	0	0	0	0	0	0	0	0	0	0	0	0	0	0	0	0	0	0	0	0	0	0	0	0	0	0	0	0	0	0	0	0	0	761	761	760	759	758	758	757	754	754	754	753	752	752	751	750	750	750	750	750	749	748	747	747	746	744	744	743	742	740	740	739	738	738	738	737	737	737	736	736	736	735	734	734	733	733	734	733	732	732	732	732	0	0	0	0	0	0	0	0	0	0	0	0	0	0	0	0	0	0	0	0	0	0	0	0	0	0	0	0	0	0	0	0	0	0	0	0	0	0	0	0	0	1989	1986	1986	1983	1983	1980	1980	1977	1977	1977	1974	1974	1974	1974	1974	1974	1974	1974	1974	1974	1977	1980	1980	1983	1986	1986	1989	1992	1992	1992	1995	1995	1995	1998	1998	1998	1998	1998	1998	1998	1998	1998	1998	1995	1995	1995	1995	1995	1995	1992	1992	1992	1989	1983	1983	1980	1974	1965	1965	1965	1956	1956	1956	1953	1953	1951	1951	1951	1951	1953	1956	1956	1962	1965	1965	1971	1977	1977	1983	1986	1986	1989	1992	1992	1992	1995	1995	1995	1995	1995	1995	1995	1995	1995	1995	1995	1995	1995	1995	1995	1995	1995	1995	1995	1995	1995	1995	1995	1995	1995	1995	1995	1995	1995	1995	1995	1995	1995	1995	1995	1995	1995	1995	1995	1995	1995	1995	1995	1995	1995	1995	1995	1995	1995	1995	1995	1995	1995	1998	2001	2001	2001	2001	2001	2001	2001	2001	2001	2001	2001	2001	2001	2001	1998	1995	1995	1995	1992	1992	1989	1986	1986	1980	1977	1977	1971	1965	1965	1962	1962	1962	1962	1965	1965	1965	1971	1977	1977	1980	1983	1983	1989	1992	1992	1995	1995	1995	1998	2001	2001	2001	2004	2004	2004	2004	2004	2004	2004	2004	2001	2001	2001	1998	1998	1995	1995	1995	1992	1992	1992
0	0	0	0	0	0	875	875	876	876	878	880	880	881	881	881	883	883	883	883	884	884	884	884	883	883	883	883	882	881	881	880	879	879	875	867	867	0	852	845	845	843	842	842	840	839	837	837	834	832	829	829	828	827	827	826	826	826	826	826	826	826	826	826	826	826	827	827	828	829	829	830	832	832	834	836	836	837	839	839	840	840	842	843	843	845	848	848	853	853	858	861	861	863	863	866	871	871	875	875	878	880	880	881	884	884	886	886	890	891	891	893	895	895	896	897	897	898	898	898	898	898	898	897	897	897	896	896	896	896	896	895	895	895	895	895	895	895	895	895	895	895	895	895	894	894	894	894	893	893	892	891	891	890	890	888	888	888	886	886	886	885	885	884	883	883	883	882	881	881	881	881	881	881	881	881	880	880	880	880	880	880	880	881	881	881	881	882	882	883	884	884	885	888	888	890	892	892	894	894	895	896	896	897	898	898	898	898	896	896	896	896	895	895	895	895	0	0	0	0	0	0	0	0	0	0	0	0	0	0	0	0	917	917	916	915	913	913	910	908	908	908	0	902	902	901	901	901	901	901	901	901	901	901	901	376	376	376	376	376	376	376	376	376	376	903	903	903	903	902	902	902	902	901	901	901	901	900	900	900	900	900	899	899	899	898	898	898	898	897	897	897	897	896	896	896	896	896	896	895	895	895	896	896	896	896	896	896	896	896	896	0	0	0	0	0	0	0	0	0	0	0	0	0	0	897	897	897	897	897	897	898	898	898	898	898	898	898	898	898	898	898	898	898	898	899	899	899	899	900	900	900	900	900	900	900	900	900	900	899	899	899	898	898	898	898	898	898	898	898	898	897	897	897	897	897	897	898	898	898	898	898	898	898	898	898	898	897	897	897	897	897	897	896	896	896	895	895	895	894	893	892	892	892	890	890	890	889	889	889	889	889	888	887	887	887	887	887	887	888	890	890	890	892	892	894	895	895	896	896	896	897	898	898	898	898	898	899	899	899	900	900	900	901	902	902	903	903	903	903	904	904	906	906	0	0	0	0	0	0	0	0	0	0	0	0	0	0	0	0	0	0	0	0	0	0	0	0	0	0	0	0	0	0	0	0	0	0	0	761	761	760	759	758	758	757	754	754	754	753	752	752	751	750	750	750	750	750	749	747	746	746	745	744	744	742	741	740	740	739	738	738	738	737	737	737	737	737	736	735	734	734	734	734	734	734	734	734	734	734	0	0	0	0	0	0	0	0	0	0	0	0	0	0	0	0	0	0	0	0	0	0	0	0	0	0	0	0	0	0	0	0	0	0	0	0	0	0	0	0	0	0	1986	1986	1983	1983	1983	1980	1980	1977	1977	1977	1974	1974	1974	1974	1974	1974	1974	1977	1977	1977	1980	1980	1983	1989	1989	1989	1992	1992	1992	1995	1995	1995	1998	1998	1998	1998	1998	1998	1998	1998	1998	1998	1995	1995	1995	1992	1992	1992	1992	1989	1989	1986	1980	1980	1977	1971	1965	1965	1962	1956	1956	1953	1953	1953	1951	1951	1951	1951	1951	1953	1953	1953	1962	1962	1965	1974	1974	1977	1983	1983	1986	1989	1989	1992	1992	1992	1992	1995	1995	1995	1995	1995	1995	1995	1995	1995	1995	1995	1995	1995	1995	1995	1995	1995	1995	1995	1995	1992	1992	1992	1992	1992	1992	1995	1995	1995	1995	1995	1995	1995	1995	1995	1995	1995	1995	1995	1995	1995	1995	1995	1995	1995	1995	1995	1995	1995	1995	1998	1998	1998	2001	2001	2001	2001	2001	2001	2001	2001	2001	1998	1998	1998	1995	1995	1995	1992	1989	1989	1986	1983	1983	1977	1974	1974	1971	1962	1962	1962	1962	1962	1962	1965	1965	1965	1971	1974	1974	1977	1980	1980	1986	1989	1989	1992	1992	1992	1995	1995	1995	1998	2001	2001	2001	2001	1998	1998	1998	1998	1995	1995	1995	1992	1992	1992	1989	1989	1989	1986	1986
0	0	0	0	0	0	875	875	876	876	878	880	880	881	881	881	883	883	883	883	884	884	881	881	881	881	881	881	881	880	880	879	878	878	874	867	862	860	853	845	845	843	843	843	842	841	841	839	837	834	834	832	830	828	828	828	827	827	827	827	827	827	827	827	827	828	828	828	829	830	830	833	834	834	836	837	837	840	840	841	842	842	843	845	845	848	852	852	855	855	860	862	862	864	864	867	871	871	875	875	878	879	879	881	882	882	884	886	886	889	889	890	892	892	894	895	895	895	896	896	896	896	896	895	895	895	895	895	894	894	893	893	893	893	893	892	892	892	892	892	892	892	891	891	891	891	891	890	890	890	890	890	889	889	888	887	887	886	886	886	885	884	884	884	883	883	883	882	881	881	881	881	881	881	881	881	880	880	880	880	880	880	880	881	881	881	881	882	882	883	884	884	885	888	888	890	892	892	894	894	895	896	896	897	898	898	898	898	896	896	896	896	895	895	895	895	0	0	0	0	0	0	0	0	0	0	0	0	0	0	0	0	917	917	916	915	913	913	910	908	908	908	0	902	902	901	901	901	901	677	677	677	677	377	377	376	376	376	376	376	376	376	376	376	376	903	903	903	0	0	0	0	0	0	901	901	901	900	900	900	900	900	899	899	899	898	898	898	898	897	897	897	897	896	896	896	896	896	896	895	895	895	896	896	896	896	896	896	896	896	896	0	0	0	0	0	0	0	0	0	0	0	0	0	0	897	897	897	897	897	897	898	898	898	898	898	898	898	898	898	898	898	898	898	898	899	899	899	899	900	900	900	900	900	900	900	900	900	900	899	899	899	898	898	898	898	898	898	898	898	898	897	897	897	897	897	897	898	898	898	898	898	898	898	898	898	898	897	893	893	893	893	893	893	892	891	891	891	890	890	890	890	890	889	888	888	887	887	888	887	887	888	887	886	886	887	887	887	887	888	890	890	891	892	892	894	895	895	896	896	896	897	897	897	898	898	898	898	898	898	899	900	900	901	901	901	901	903	903	903	904	904	0	0	0	0	0	0	0	0	0	0	0	0	0	0	0	0	0	0	0	0	0	0	0	0	0	0	0	0	0	0	0	0	0	0	0	0	0	0	0	761	760	758	758	757	755	755	754	753	752	752	751	750	750	750	750	750	748	747	746	746	744	743	743	742	740	739	739	739	738	738	737	737	737	737	737	737	736	735	734	734	734	734	734	734	734	734	734	734	0	0	0	0	0	0	0	0	0	0	0	0	0	0	0	0	0	0	0	0	0	0	0	0	0	0	0	0	0	0	0	0	0	0	0	0	0	0	0	0	0	0	1986	1986	1983	1980	1980	1980	1980	1977	1977	1977	1974	1974	1974	1974	1974	1974	1974	1977	1977	1977	1980	1980	1983	1989	1989	1989	1992	1992	1992	1995	1995	1995	1995	1995	1998	1998	1998	1995	1995	1995	1995	1995	1995	1995	1995	1992	1992	1992	1992	1989	1989	1986	1980	1980	1977	1971	1965	1965	1962	1956	1956	1953	1953	1953	1951	1951	1951	1951	1951	1953	1953	1953	1962	1962	1965	1974	1974	1977	1983	1983	1986	1989	1989	1992	1992	1992	1992	1995	1995	1995	1995	1995	1995	1995	1995	1995	1995	1995	1995	1995	1995	1995	1995	1995	1995	1995	1995	1992	1992	1992	1992	1992	1992	1995	1995	1995	1995	1995	1995	1995	1995	1995	1995	1995	1995	1995	1995	1995	1995	1995	1995	1995	1995	1995	1995	1995	1995	1998	1998	1998	2001	2001	2001	2001	2001	2001	2001	2001	2001	1998	1998	1998	1995	1995	1995	1992	1989	1989	1986	1983	1983	1977	1974	1974	1971	1962	1962	1962	1956	1956	1962	1962	1965	1965	1971	1974	1974	1977	1980	1980	1983	1986	1986	1989	1989	1989	1992	1992	1992	1992	1992	1992	1995	1995	1992	1992	1992	1992	1992	1992	1989	1989	1989	1989	1986	1983	1983	1980	1980
0	0	0	0	0	870	870	870	871	875	875	877	877	879	880	880	881	881	881	881	881	881	881	881	881	881	881	881	881	880	880	879	878	878	874	874	862	860	860	855	848	845	844	844	843	842	842	842	840	838	838	835	834	831	831	829	829	829	828	828	828	828	828	828	828	829	830	830	832	834	834	836	837	837	839	839	840	841	841	842	843	843	844	847	847	849	854	854	858	858	860	862	862	864	864	868	871	871	875	875	878	879	879	881	882	882	884	886	886	889	889	890	892	892	894	895	895	895	896	896	896	896	896	895	895	895	895	895	894	894	893	893	893	893	893	892	892	892	892	892	892	890	890	890	890	889	889	889	888	888	888	887	886	886	886	885	885	884	884	884	884	884	884	884	883	883	883	883	883	883	883	883	883	882	881	881	881	881	881	881	881	881	881	882	883	883	883	884	884	884	886	886	887	889	889	891	893	893	894	894	895	896	896	896	897	897	898	898	897	896	896	896	896	896	896	896	896	0	0	0	0	0	0	0	0	0	0	0	0	0	0	0	0	0	0	0	0	0	0	0	0	0	0	0	0	0	0	677	677	677	677	677	677	377	377	377	377	377	377	377	377	377	377	377	377	0	0	0	0	0	0	0	0	0	901	901	901	900	900	899	899	899	898	898	898	898	898	896	896	896	896	896	895	895	895	895	895	895	895	894	894	894	894	894	893	893	895	895	895	895	895	0	0	0	0	0	0	0	0	0	0	0	0	0	0	896	896	896	896	896	896	896	896	896	896	896	896	896	896	896	896	896	896	897	897	898	898	898	898	898	898	899	899	899	899	899	898	898	898	898	898	898	898	897	897	896	896	895	895	895	894	894	894	894	894	894	895	895	895	895	895	895	895	895	895	895	895	894	893	893	893	893	893	893	892	891	891	891	890	890	890	890	890	889	888	888	887	887	888	887	887	888	887	886	886	887	887	888	888	890	890	890	892	893	893	895	895	895	896	897	897	897	897	897	898	898	898	898	898	898	899	900	900	901	901	901	901	903	903	903	904	904	0	0	0	0	0	0	0	0	0	0	0	0	0	0	0	0	0	0	0	0	0	0	0	0	0	0	0	0	0	0	0	0	0	0	0	0	0	0	0	0	761	759	759	757	756	756	755	753	752	752	751	750	750	750	750	750	748	747	745	745	744	743	743	741	740	739	739	738	738	738	737	737	737	737	737	737	736	736	735	735	735	735	735	734	734	734	734	734	0	0	0	0	0	0	0	0	0	0	0	0	0	0	0	0	0	0	0	0	0	0	0	0	0	0	0	0	0	0	0	0	0	0	0	0	0	0	0	0	0	0	0	0	0	1980	1980	1980	1980	1980	1980	1977	1977	1977	1977	1977	1977	1977	1977	1977	1977	1980	1983	1983	1986	1989	1989	1989	1992	1992	1992	1995	1995	1995	1995	1995	1995	1995	1995	1995	1995	1995	1992	1992	1992	1992	1992	1992	1989	1989	1989	1986	1986	1983	1977	1977	1974	1971	1962	1962	1956	1953	1953	1951	1951	1951	1945	1945	1945	1945	1945	1951	1951	1953	1956	1956	1962	1965	1965	1974	1980	1980	1983	1986	1986	1989	1989	1989	1992	1992	1992	1992	1992	1992	1992	1992	1992	1992	1992	1992	1992	1992	1992	1992	1992	1992	1992	1992	1992	1992	1992	1992	1992	1992	1992	1992	1992	1992	1992	1992	1992	1992	1992	1992	1992	1992	1992	1992	1992	1992	1992	1992	1992	1995	1995	1995	1995	1995	1995	1995	1998	1998	1998	2001	2001	2001	2001	2001	2001	2001	2001	1998	1995	1995	1995	1992	1992	1992	1989	1989	1986	1980	1980	1977	1974	1974	1965	1962	1962	1962	1956	1956	1962	1962	1965	1965	1971	1974	1974	1977	1980	1980	1983	1986	1986	1989	1989	1989	1992	1992	1992	1992	1992	1992	1995	1995	1992	1992	1992	1992	1992	1992	1989	1989	1989	1989	1986	1983	1983	1980	1980
0	0	0	0	0	864	864	866	866	871	871	874	876	876	878	878	878	879	879	879	880	880	880	880	880	880	880	880	880	880	880	878	878	878	873	867	862	860	860	855	848	845	844	844	843	842	842	842	840	838	838	835	834	831	831	829	829	829	828	828	828	828	828	828	828	829	830	830	832	834	834	836	837	837	839	839	840	841	841	842	843	843	844	847	847	849	852	854	858	858	860	861	862	864	864	867	871	871	874	874	877	878	878	880	881	881	882	884	884	886	888	888	890	890	890	891	891	893	893	893	894	894	894	894	894	893	892	891	891	891	890	890	890	890	890	890	890	890	890	890	890	890	890	890	890	889	889	889	888	888	888	887	886	886	886	885	885	884	884	884	884	884	884	884	883	883	883	883	883	883	883	883	883	883	882	882	882	882	882	882	883	883	883	883	883	883	884	884	884	885	886	886	887	889	889	891	893	893	894	894	895	896	896	896	897	897	898	898	897	896	896	896	896	896	896	896	896	0	0	0	0	0	0	0	0	0	0	0	0	0	0	0	0	0	0	0	0	0	0	0	0	0	0	0	0	0	0	677	677	677	677	677	677	677	378	378	378	378	378	378	378	378	377	377	377	0	0	0	0	0	0	0	0	0	0	0	0	0	0	899	899	899	898	898	898	897	896	896	896	895	895	895	894	893	893	893	892	892	892	891	891	891	891	892	891	891	892	891	891	892	892	0	0	0	0	0	0	0	0	0	0	0	0	0	895	895	894	894	895	895	895	895	895	895	895	895	895	895	895	895	895	895	895	895	895	896	896	896	897	898	898	898	898	898	898	898	898	897	897	896	896	896	895	895	894	894	892	891	891	891	890	890	890	890	890	890	890	890	890	890	890	889	889	890	890	889	888	888	887	887	888	888	889	889	888	888	888	888	888	888	888	887	887	887	886	886	886	886	886	886	886	886	886	886	886	886	887	888	888	890	890	890	892	893	893	895	895	895	896	897	896	896	897	897	898	898	898	898	898	898	899	899	899	900	900	900	901	901	901	902	904	904	0	0	0	0	0	0	0	0	0	0	0	0	0	0	0	0	0	0	0	0	0	0	0	0	0	0	0	0	0	0	0	0	0	0	0	0	762	762	0	761	761	759	759	757	756	756	755	753	752	752	751	750	750	750	749	749	748	747	745	745	744	743	743	741	740	739	739	738	738	738	737	737	737	737	737	737	737	736	736	736	735	735	735	735	735	735	734	734	0	0	0	0	0	0	0	0	0	0	0	0	0	0	0	0	0	0	0	0	0	0	0	0	0	0	0	0	0	0	0	0	0	0	0	0	0	0	0	0	0	0	0	0	0	0	0	1980	1980	1980	1980	1980	1977	1977	1977	1977	1977	1977	1977	1980	1980	1983	1983	1983	1986	1989	1989	1989	1992	1992	1992	1995	1995	1995	1995	1995	1995	1995	1995	1992	1992	1989	1989	1989	1989	1989	1989	1986	1983	1983	1983	1980	1980	1977	1971	1965	1965	1962	1956	1956	1953	1951	1951	1945	1945	1945	1942	1942	1942	1942	1942	1945	1945	1951	1951	1951	1956	1962	1962	1971	1974	1974	1980	1983	1983	1986	1989	1989	1989	1992	1992	1992	1992	1992	1992	1992	1992	1992	1992	1992	1992	1992	1992	1992	1992	1992	1989	1989	1989	1989	1989	1989	1989	1989	1989	1989	1992	1992	1992	1992	1992	1992	1992	1992	1992	1992	1992	1992	1992	1992	1992	1992	1992	1992	1992	1992	1992	1992	1992	1995	1995	1995	1995	1995	1995	1998	2001	2001	2001	2001	1998	1995	1995	1995	1995	1992	1992	1992	1989	1989	1983	1980	1980	1977	1974	1974	1965	1962	1962	1962	1956	1956	1962	1962	1965	1965	1971	1971	1971	1974	1977	1977	1980	1983	1983	1986	1986	1986	1989	1989	1989	1989	1989	1989	1989	1989	1989	1989	1989	1989	1986	1986	1986	1983	1983	1983	1980	1980	1980	1977	1977
0	0	0	0	0	864	864	866	866	871	871	871	871	871	874	876	876	877	878	878	878	878	878	879	879	879	879	879	879	878	878	878	876	876	873	867	863	860	860	858	853	848	846	846	845	844	844	843	842	842	841	840	837	837	835	834	834	833	831	831	831	831	831	831	831	833	834	834	835	837	837	839	839	840	841	841	842	842	842	843	844	844	845	848	848	852	852	855	859	859	861	861	863	864	864	866	870	870	873	873	875	878	878	879	880	880	881	881	881	883	884	884	886	887	887	889	889	890	890	890	890	891	891	891	890	890	890	889	889	889	888	888	888	888	888	888	887	887	887	887	887	887	887	887	887	886	886	886	885	885	885	884	884	884	884	883	883	883	883	883	883	883	883	883	883	883	883	883	883	883	883	883	883	883	882	882	882	882	882	882	883	883	883	883	883	883	884	884	884	884	885	885	886	888	888	890	891	891	892	893	893	895	895	895	896	896	896	896	896	896	896	896	896	896	896	896	896	0	0	0	0	0	0	0	0	0	0	0	0	0	0	0	0	0	0	0	0	0	0	0	0	0	0	0	0	0	676	676	676	676	676	676	676	676	378	378	378	378	378	378	378	378	377	377	377	0	0	0	0	0	0	0	0	0	0	0	0	0	0	0	0	0	898	898	898	897	896	896	896	895	895	895	894	893	893	893	892	892	892	891	891	891	891	892	891	891	892	891	891	892	892	0	0	0	0	0	0	0	0	0	0	0	0	0	895	895	894	894	895	895	895	895	895	895	895	895	895	895	895	895	895	895	895	895	895	896	896	896	897	898	898	898	898	898	898	898	898	897	897	896	896	896	895	895	894	894	892	891	891	891	890	890	890	890	890	890	890	885	885	884	884	884	884	884	884	883	883	883	883	883	884	884	884	884	884	884	884	884	885	885	884	884	885	884	884	884	884	884	885	885	885	885	886	886	886	886	888	890	890	891	891	891	893	895	895	896	896	896	897	897	896	896	897	897	897	898	898	898	898	898	898	899	899	899	900	900	900	901	901	901	0	0	0	0	0	0	0	0	0	0	0	0	0	0	0	0	0	0	0	0	0	0	0	0	0	0	0	0	0	0	0	0	0	0	0	0	0	0	762	762	0	761	761	761	760	758	757	757	755	754	752	752	751	750	750	750	749	749	748	747	745	745	743	742	742	741	740	739	739	738	738	738	737	737	737	737	737	737	737	736	736	736	735	735	735	735	735	735	734	734	0	0	0	0	0	0	0	0	0	0	0	0	0	0	0	0	0	0	0	0	0	0	0	0	0	0	0	0	0	0	0	0	0	0	0	0	0	0	0	0	0	0	0	0	0	0	0	1980	1980	1980	1980	1980	1977	1977	1977	1977	1977	1977	1977	1980	1980	1983	1983	1983	1986	1989	1989	1989	1992	1992	1992	1992	1992	1992	1992	1992	1992	1992	1992	1992	1992	1989	1989	1989	1989	1989	1989	1986	1983	1983	1983	1980	1980	1977	1971	1965	1965	1962	1956	1956	1953	1951	1951	1945	1945	1945	1942	1942	1942	1942	1942	1945	1945	1951	1951	1951	1956	1962	1962	1971	1974	1974	1980	1983	1983	1986	1989	1989	1989	1992	1992	1992	1992	1992	1992	1992	1992	1992	1992	1992	1992	1992	1992	1992	1992	1992	1989	1989	1989	1989	1989	1989	1989	1989	1989	1989	1992	1992	1992	1992	1992	1992	1992	1992	1992	1992	1992	1992	1992	1992	1992	1992	1992	1992	1992	1992	1992	1992	1992	1995	1995	1995	1995	1995	1995	1998	2001	2001	2001	2001	1998	1995	1995	1995	1995	1992	1992	1992	1989	1989	1983	1980	1980	1977	1974	1974	1965	1962	1962	1962	1962	1962	1962	1962	1965	1965	1971	1971	1971	1974	1977	1977	1980	1980	1980	1983	1983	1983	1986	1986	1986	1986	1986	1986	1986	1986	1983	1983	1983	1983	1980	1980	1980	1980	1977	1977	1977	1974	1974	1974	1974
857	857	857	860	860	860	862	863	863	866	866	869	871	871	874	876	876	877	878	878	878	878	878	879	879	879	879	879	879	878	878	878	876	876	873	867	863	861	861	859	855	853	853	849	847	846	846	845	844	844	843	842	842	841	840	839	839	837	837	837	836	836	836	836	836	837	837	838	839	839	840	841	841	842	842	842	843	843	843	844	845	845	847	850	850	854	854	857	859	859	861	861	863	864	864	866	870	870	873	873	875	878	878	879	880	880	881	881	881	883	884	884	886	887	887	889	889	890	890	890	890	891	891	891	890	890	890	889	889	889	886	886	885	885	885	885	885	884	884	884	884	884	884	884	884	884	884	884	884	883	883	883	883	883	882	882	882	882	882	882	882	881	881	881	881	881	881	881	881	881	881	881	882	882	882	882	882	882	882	882	882	882	882	883	883	883	883	884	884	884	884	884	885	886	886	888	889	889	890	890	890	892	893	893	894	894	895	895	895	895	895	895	895	895	896	896	896	0	0	0	0	0	0	0	0	0	0	0	0	0	0	0	0	0	0	0	0	0	0	0	0	0	0	0	676	676	676	676	676	676	676	676	676	676	379	379	379	378	378	378	378	378	378	378	670	670	670	670	0	0	0	0	0	0	0	0	0	0	0	0	0	0	898	898	898	897	895	895	895	893	892	892	892	891	891	890	890	890	890	889	889	889	890	890	890	890	889	889	889	890	892	0	0	0	0	0	0	0	0	0	0	0	0	891	891	891	891	891	891	891	891	891	891	892	892	892	891	891	891	891	892	892	892	893	893	894	895	895	895	896	896	896	896	896	896	896	896	895	893	893	893	891	891	890	890	890	889	888	888	887	887	886	886	886	885	885	885	885	885	884	884	884	884	884	884	883	883	883	883	883	884	884	884	884	884	884	884	884	885	885	884	884	885	884	884	884	884	884	885	885	885	885	886	886	887	887	888	890	890	892	893	893	894	895	895	896	897	897	897	897	897	897	897	897	897	898	898	898	898	898	898	899	899	899	900	900	900	901	901	901	0	0	0	0	0	0	0	0	0	0	0	0	0	0	0	0	0	0	0	0	0	0	0	0	0	0	0	0	0	0	0	0	0	0	0	0	0	0	762	762	0	761	761	761	760	758	757	757	756	754	753	753	751	750	750	750	749	749	748	747	745	745	743	742	740	740	739	739	739	738	738	738	737	737	737	737	737	737	737	737	737	736	736	736	736	736	736	736	735	735	736	736	736	0	0	0	0	0	0	0	0	0	0	0	0	0	0	0	0	0	0	0	0	0	0	0	0	0	0	0	0	0	0	0	0	0	0	0	0	0	0	0	0	0	0	0	0	1983	1983	1983	1983	1983	1983	1983	1983	1983	1983	1983	1983	1983	1983	1983	1983	1983	1986	1986	1986	1986	1989	1989	1989	1989	1989	1989	1989	1989	1989	1989	1989	1986	1986	1986	1983	1983	1980	1980	1980	1980	1977	1977	1974	1974	1974	1971	1965	1962	1962	1953	1953	1953	1951	1942	1942	1942	1936	1936	1936	1936	1936	1936	1936	1942	1942	1942	1951	1951	1953	1956	1956	1962	1971	1971	1974	1980	1980	1983	1986	1986	1989	1989	1989	1989	1989	1989	1989	1989	1989	1989	1989	1989	1989	1989	1989	1989	1989	1989	1989	1989	1989	1989	1989	1986	1986	1989	1989	1989	1989	1989	1989	1989	1989	1989	1989	1989	1989	1989	1989	1989	1989	1989	1989	1989	1989	1989	1989	1989	1989	1989	1989	1992	1992	1992	1992	1995	1995	1995	1995	1995	1995	1995	1995	1995	1995	1995	1992	1992	1992	1989	1989	1989	1983	1980	1980	1977	1974	1974	1971	1965	1965	1965	1965	1965	1965	1965	1971	1971	1971	1974	1974	1974	1977	1977	1980	1980	1980	1983	1983	1983	1986	1986	1986	1986	1986	1986	1986	1986	1983	1983	1983	1983	1980	1980	1980	1980	1977	1977	1977	1974	1974	1974	1974
855	855	855	857	859	859	860	861	861	863	865	865	867	867	871	873	873	874	875	875	876	877	877	878	878	878	878	878	878	878	878	877	875	875	873	867	863	861	861	859	855	853	853	849	847	846	846	845	844	844	843	842	842	841	840	839	839	837	837	837	836	836	836	836	836	837	837	838	839	839	840	841	841	842	842	842	843	843	843	844	845	845	847	850	850	854	854	857	859	859	861	861	863	864	864	866	869	869	871	873	874	877	877	878	879	879	880	880	880	881	882	882	883	884	884	885	887	887	888	889	889	888	888	888	888	888	887	886	886	886	886	886	885	885	885	885	885	884	884	884	884	884	884	884	884	884	884	884	884	883	883	883	883	883	882	882	882	882	882	882	882	881	881	881	881	881	881	881	881	881	881	881	882	882	882	882	882	882	882	882	882	882	882	883	883	883	883	884	884	884	884	884	885	886	886	888	889	889	890	890	890	892	893	893	894	894	895	895	895	895	895	895	895	895	896	896	0	0	0	0	0	0	0	0	0	0	0	0	0	0	0	0	0	0	0	0	0	0	0	0	0	0	0	0	676	676	676	676	676	676	676	676	676	676	380	380	380	380	380	380	380	380	380	380	669	669	669	669	669	669	669	669	669	0	0	0	0	0	0	0	0	0	0	0	0	0	895	893	893	891	890	890	890	889	889	888	888	887	887	887	887	887	887	887	887	887	887	887	887	888	0	0	0	0	0	0	0	0	0	0	0	0	0	891	889	889	889	889	890	889	889	889	889	890	890	890	889	889	889	889	889	889	890	890	890	890	892	892	893	893	893	894	894	894	893	892	892	891	890	890	889	888	888	887	886	884	884	884	884	884	883	883	883	883	883	883	882	882	882	881	881	881	881	881	881	881	881	881	881	881	881	881	881	881	881	882	883	883	883	883	883	883	884	884	884	884	884	884	884	884	884	885	885	886	887	887	888	890	890	892	893	893	894	895	895	896	897	897	896	896	896	896	896	896	896	896	896	897	898	898	898	899	899	899	900	900	900	901	901	901	0	0	0	0	0	0	0	0	0	0	0	0	0	0	0	0	0	0	0	0	0	0	0	0	0	0	0	0	0	0	0	0	0	0	0	0	0	0	762	762	0	761	761	761	760	758	757	757	756	754	753	753	752	751	751	750	750	750	748	747	745	745	744	742	740	740	739	739	739	738	738	738	737	737	737	737	737	737	737	737	737	737	737	737	737	737	737	737	736	736	736	736	736	0	0	0	0	0	0	0	0	0	0	0	0	0	0	0	0	0	0	0	0	0	0	0	0	0	0	0	0	0	0	0	0	0	0	0	0	0	0	0	0	0	0	0	0	0	1986	1986	1986	1986	1986	1986	1986	1983	1983	1983	1983	1983	1983	1983	1983	1983	1986	1986	1986	1986	1989	1989	1983	1983	1983	1983	1983	1983	1980	1980	1980	1977	1977	1977	1974	1974	1974	1974	1974	1971	1965	1965	1965	1962	1956	1956	1953	1951	1951	1951	1945	1945	1942	1936	1936	1936	1933	1933	1933	1933	1933	1933	1933	1936	1936	1942	1945	1945	1945	1953	1953	1956	1965	1965	1971	1974	1974	1980	1983	1983	1986	1986	1986	1989	1989	1989	1989	1989	1989	1989	1989	1989	1986	1986	1986	1986	1986	1983	1983	1983	1983	1983	1983	1983	1983	1983	1983	1983	1983	1983	1983	1986	1986	1986	1986	1986	1986	1986	1983	1983	1986	1986	1986	1986	1986	1986	1986	1986	1986	1989	1989	1989	1989	1989	1992	1992	1992	1992	1992	1992	1992	1992	1992	1992	1992	1992	1992	1989	1989	1989	1986	1986	1983	1980	1980	1977	1974	1974	1971	1965	1965	1965	1965	1965	1965	1965	1971	1971	1971	1974	1974	1974	1977	1977	1977	1980	1980	1980	1980	1980	1983	1983	1983	1983	1983	1980	1980	1980	1980	1977	1977	1977	1977	1977	1977	1977	1974	1974	1974	1974	1974	1974	1974
855	855	855	857	858	858	859	860	860	862	863	863	865	867	868	869	869	871	873	873	874	875	875	875	877	877	877	877	877	877	877	876	874	871	871	868	864	862	862	860	858	855	855	853	851	851	849	847	846	846	845	844	844	843	843	843	842	841	841	841	840	840	840	840	840	841	841	841	842	842	842	842	842	843	843	843	843	844	844	845	846	846	848	850	852	855	855	858	860	860	861	861	863	863	863	866	867	867	870	873	873	875	875	877	878	878	879	880	880	880	881	881	881	882	882	883	884	884	884	885	885	885	885	885	884	884	884	884	884	883	883	883	883	883	883	883	883	883	883	883	883	883	883	883	883	883	882	882	882	881	881	881	881	881	881	881	881	881	881	881	881	881	881	881	881	881	881	881	881	881	881	881	881	881	881	881	881	881	881	881	882	882	882	882	883	883	883	883	883	883	883	883	883	884	884	885	886	886	887	888	888	889	890	890	891	892	892	893	894	894	894	894	894	895	895	895	0	0	0	0	0	0	0	0	0	0	0	0	0	0	0	0	0	0	0	0	0	0	0	0	0	0	0	0	676	676	676	676	676	676	676	676	676	381	380	380	380	380	380	380	380	380	380	380	669	669	669	669	669	669	669	669	669	0	0	0	0	0	0	0	0	0	0	0	0	0	0	893	893	891	890	890	890	889	889	888	888	887	887	887	887	887	887	887	887	887	887	887	887	888	0	0	0	0	0	0	0	0	0	0	0	0	0	0	889	889	889	889	890	889	889	889	889	890	890	890	889	889	889	889	889	889	890	890	890	890	892	892	893	893	893	894	894	894	893	892	892	891	890	890	889	888	888	887	886	884	884	884	881	881	881	881	881	881	881	881	881	881	881	880	880	880	880	879	879	879	879	879	880	880	880	880	880	881	881	881	881	882	882	883	883	883	883	883	883	883	884	884	884	884	884	885	885	886	887	887	890	890	890	893	894	894	895	896	896	896	897	897	896	896	896	896	896	896	896	896	896	896	0	898	898	0	0	0	0	0	0	0	0	0	0	0	0	0	0	0	0	0	0	0	0	0	0	0	0	0	0	0	0	0	0	0	0	0	0	0	0	0	0	0	0	0	0	0	0	0	0	0	763	763	763	762	761	761	760	758	758	758	756	754	753	753	752	751	751	750	750	750	748	747	745	745	744	742	740	740	739	739	739	738	738	738	737	737	737	737	737	737	737	737	737	737	737	737	737	737	737	737	736	736	736	736	736	0	0	0	0	0	0	0	0	0	0	0	0	0	0	0	0	0	0	0	0	0	0	0	0	0	0	0	0	0	0	0	0	0	0	0	0	0	0	0	0	0	0	0	0	0	1986	1986	1986	1986	1986	1986	1986	1983	1983	1983	1983	1983	1980	1980	1980	1980	1980	1980	1980	1980	1983	1983	1983	1983	1983	1983	1983	1983	1980	1980	1980	1977	1977	1977	1974	1974	1974	1974	1974	1971	1965	1965	1965	1962	1956	1956	1953	1951	1951	1951	1945	1945	1942	1936	1936	1936	1933	1933	1933	1933	1933	1933	1933	1936	1936	1942	1945	1945	1945	1953	1953	1956	1965	1965	1971	1974	1974	1980	1983	1983	1986	1986	1986	1989	1989	1989	1989	1989	1989	1989	1989	1989	1986	1986	1986	1986	1986	1983	1983	1983	1983	1983	1983	1983	1983	1983	1983	1983	1983	1983	1983	1986	1986	1986	1986	1986	1986	1986	1983	1983	1986	1986	1986	1986	1986	1986	1986	1986	1986	1989	1989	1989	1989	1989	1992	1992	1992	1992	1992	1992	1992	1992	1992	1989	1989	1989	1989	1989	1989	1989	1986	1986	1983	1980	1980	1977	1974	1974	1971	1965	1965	1965	1965	1965	1965	1965	1971	1971	1974	1974	1974	1974	1977	1977	1977	1980	1980	1980	1980	1980	1980	1980	1980	1980	1980	1980	1977	1977	1977	1977	1977	1974	1974	1974	1974	1974	1974	1974	1974	1974	1974	1971	1971
0	0	857	857	858	858	859	860	860	862	863	863	865	868	868	869	869	871	873	873	874	875	875	875	877	877	877	877	877	877	877	876	874	871	871	868	866	863	863	861	860	860	859	857	855	855	853	852	852	849	848	847	847	845	845	845	844	843	843	843	843	843	843	843	843	843	843	843	843	843	843	843	843	843	843	843	844	845	845	846	847	847	850	850	853	855	855	859	860	860	862	862	863	863	863	866	867	867	870	873	873	875	875	877	878	878	879	880	880	880	881	881	881	882	882	883	884	884	884	885	883	883	883	883	883	883	882	881	881	881	881	881	881	881	881	881	881	881	881	881	881	881	881	881	881	881	881	881	881	881	881	881	881	881	881	880	880	880	880	880	880	880	880	880	880	880	880	880	881	881	881	881	881	881	881	881	881	881	881	881	881	881	881	881	881	881	881	881	881	882	882	882	882	883	883	883	884	884	884	884	884	885	885	885	887	890	890	890	890	890	891	892	892	893	895	895	0	0	0	0	0	0	0	0	0	0	0	0	0	0	0	0	0	0	0	0	0	0	0	0	0	0	0	0	676	676	676	674	674	674	674	674	674	381	381	381	380	380	380	380	380	380	380	380	669	669	668	668	668	667	667	667	667	666	666	666	0	0	0	0	0	0	0	0	0	0	0	893	893	890	889	889	888	887	886	886	885	885	885	884	884	884	884	884	885	885	885	885	885	885	0	0	0	0	0	0	0	0	0	0	0	0	0	0	889	889	886	885	885	886	886	886	887	887	887	887	887	887	887	887	887	887	887	887	888	888	889	890	890	890	890	890	890	890	890	889	889	887	885	885	884	884	883	883	883	882	882	881	881	881	881	881	881	881	881	881	881	881	881	880	880	880	880	879	879	879	879	879	880	880	880	880	880	881	881	881	881	882	882	883	883	883	883	883	883	883	884	884	884	884	884	885	885	886	888	888	890	891	891	893	895	895	896	896	896	897	897	897	897	897	896	896	896	896	896	896	896	896	0	0	0	0	0	0	0	0	0	0	0	0	0	0	0	0	0	0	0	0	0	0	0	0	0	0	0	0	0	0	0	0	0	0	0	0	0	0	0	0	0	0	0	0	0	0	0	0	0	0	763	763	763	762	761	761	761	759	758	758	756	754	754	753	752	751	751	750	750	750	748	747	746	746	744	742	740	740	739	739	739	738	738	738	737	737	737	737	737	737	737	737	737	737	737	737	737	737	737	737	737	737	737	737	0	0	0	0	0	0	0	0	0	0	0	0	0	0	0	0	0	0	0	0	0	0	0	0	0	0	0	0	0	0	0	0	0	0	0	0	0	0	0	0	0	0	0	0	0	0	1989	1989	1989	1989	1989	1986	1986	1986	1983	1983	1980	1980	1980	1977	1977	1977	1974	1974	1974	1974	1974	1974	1974	1977	1974	1974	1974	1974	1974	1974	1971	1971	1971	1965	1965	1965	1962	1956	1956	1956	1956	1953	1953	1953	1951	1951	1951	1945	1945	1942	1942	1942	1936	1933	1933	1933	1928	1928	1928	1928	1928	1928	1933	1936	1936	1936	1942	1942	1945	1951	1951	1956	1962	1962	1965	1971	1971	1977	1980	1980	1980	1983	1983	1983	1983	1983	1983	1983	1983	1983	1983	1983	1980	1980	1980	1980	1980	1980	1980	1980	1977	1977	1977	1977	1977	1977	1977	1977	1980	1980	1980	1980	1980	1980	1980	1980	1980	1980	1980	1980	1980	1980	1980	1980	1980	1980	1983	1983	1983	1983	1983	1986	1986	1986	1989	1989	1989	1989	1989	1989	1989	1989	1989	1989	1989	1989	1989	1989	1989	1989	1986	1986	1983	1980	1980	1977	1974	1974	1974	1971	1971	1971	1971	1971	1971	1971	1974	1974	1974	1974	1974	1977	1977	1977	1977	1980	1980	1980	1980	1980	1980	1980	1980	1980	1980	1980	1977	1977	1977	1977	1977	1974	1974	1974	1974	1974	1974	1974	1974	1974	1974	1971	1971
854	854	854	855	858	858	859	860	860	861	863	863	864	866	866	867	867	869	870	870	871	873	873	873	875	875	875	875	875	875	875	875	873	871	871	868	866	863	863	861	860	860	859	857	855	855	853	852	852	849	848	847	847	845	845	845	844	843	843	843	843	843	843	843	843	843	843	843	843	843	843	843	843	843	843	843	844	845	845	846	847	847	850	850	853	855	855	859	860	860	862	862	862	863	863	865	866	866	869	871	871	873	875	875	877	877	878	878	878	879	880	880	880	881	881	881	881	881	882	882	882	883	883	883	883	883	882	881	881	881	881	881	881	881	881	881	881	881	881	881	881	881	881	881	881	881	881	881	881	881	881	881	881	881	881	880	880	880	880	880	880	880	880	880	880	880	880	880	881	881	881	881	881	881	881	881	881	881	881	881	881	881	881	881	881	881	881	881	881	882	882	882	882	883	883	883	884	884	884	884	884	885	885	885	887	890	890	890	890	890	891	892	892	893	895	895	0	0	0	0	0	0	0	0	0	0	0	0	0	0	0	0	0	0	0	0	0	0	0	0	0	0	0	0	0	673	673	673	673	673	673	672	672	672	672	381	381	381	381	381	381	381	381	381	668	668	667	667	667	667	667	667	666	666	666	666	666	0	0	0	0	0	0	0	0	0	0	0	0	890	886	885	885	884	884	884	884	883	883	883	883	883	883	883	883	883	883	883	883	884	0	0	0	0	0	0	0	0	0	0	0	0	883	883	883	883	883	883	884	884	884	884	884	884	884	884	884	884	884	884	884	884	884	884	885	885	886	887	887	887	887	886	886	886	884	884	884	883	882	881	881	881	881	881	881	880	880	880	880	880	879	879	879	879	879	879	878	878	878	878	878	878	878	878	878	878	878	878	878	878	879	879	879	880	880	880	881	881	881	882	882	882	883	883	883	883	883	883	883	884	884	884	885	885	886	886	890	891	891	893	895	895	896	896	896	897	897	896	896	896	896	896	896	896	896	896	896	896	0	0	0	0	0	0	0	0	0	0	0	0	0	0	0	0	0	0	0	0	0	0	0	0	0	0	0	0	0	0	0	0	0	0	0	0	0	0	0	0	0	0	0	0	0	0	0	0	0	0	763	763	763	762	762	762	761	760	758	758	756	754	754	753	752	751	751	750	750	750	749	747	746	746	744	743	743	741	740	739	739	739	738	738	738	738	738	738	738	738	738	738	738	738	738	738	738	738	738	738	738	0	0	0	0	0	0	0	0	0	0	0	0	0	0	0	0	0	0	0	0	0	0	0	0	0	0	0	0	0	0	0	0	0	0	0	0	0	0	0	0	0	0	0	0	0	0	0	0	0	1989	1989	1989	1989	1989	1986	1986	1986	1983	1983	1980	1980	1980	1971	1971	1965	1962	1962	1962	1962	1962	1962	1962	1962	1962	1962	1962	1956	1956	1956	1956	1956	1956	1953	1953	1951	1951	1951	1951	1951	1951	1945	1945	1945	1945	1945	1942	1942	1942	1936	1936	1936	1933	1933	1933	1928	1928	1928	1928	1928	1928	1928	1933	1933	1933	1936	1936	1936	1942	1951	1951	1953	1956	1956	1962	1965	1965	1974	1974	1974	1977	1980	1980	1980	1980	1980	1977	1977	1977	1977	1977	1977	1974	1974	1974	1974	1974	1974	1974	1974	1974	1971	1971	1971	1971	1971	1971	1974	1974	1974	1974	1974	1974	1974	1974	1974	1974	1974	1974	1974	1974	1974	1974	1974	1974	1974	1974	1977	1977	1977	1977	1977	1980	1983	1983	1983	1983	1983	1983	1986	1986	1986	1986	1986	1983	1983	1983	1983	1986	1983	1983	1983	1980	1977	1977	1977	1974	1974	1974	1971	1971	1971	1971	1971	1971	1971	1974	1974	1974	1974	1974	1977	1977	1977	1977	1980	1980	1980	1980	1980	1980	1980	1980	1977	1977	1977	1974	1974	1974	1974	1974	1974	1971	1971	1971	1971	1971	1971	1971	1971	1971	1971	1971
852	854	854	855	858	858	859	860	860	861	863	863	864	864	864	866	867	867	868	868	869	871	871	871	873	873	874	874	874	875	875	873	873	871	871	869	866	866	864	862	861	861	860	859	859	858	857	855	855	854	853	853	851	849	848	848	847	845	845	845	845	845	844	844	844	844	844	844	844	844	844	844	844	844	844	844	845	845	845	847	848	849	852	852	855	857	857	859	860	860	862	862	862	863	863	864	866	866	867	870	870	871	873	873	875	875	876	877	877	878	878	878	879	880	880	880	880	880	881	881	881	881	881	881	881	881	881	881	881	881	880	880	880	880	880	880	880	880	880	880	880	880	880	880	880	880	880	880	880	880	880	880	880	880	880	880	880	880	880	879	879	879	880	880	880	880	880	880	880	880	880	880	880	880	881	881	881	881	881	881	881	881	881	881	881	881	881	881	881	881	881	881	881	881	881	881	881	881	881	881	882	882	882	884	884	884	884	885	886	886	888	889	889	893	895	895	0	0	0	0	0	0	0	0	0	0	0	0	0	0	0	0	0	0	0	0	0	0	0	0	0	0	0	0	0	673	673	673	673	673	673	672	672	382	382	382	382	382	382	382	382	382	381	381	668	668	667	667	667	667	667	667	666	666	666	666	666	0	0	0	0	0	0	0	0	0	0	0	0	0	886	885	885	884	884	884	884	883	883	883	883	883	883	883	883	883	883	883	883	884	0	0	0	0	0	0	0	0	0	0	0	0	883	883	883	883	883	883	884	884	884	884	884	884	884	884	884	884	884	884	884	884	884	884	885	885	886	887	887	887	887	886	886	886	884	884	884	883	882	880	880	879	879	879	878	878	878	878	877	877	877	876	876	876	876	877	877	876	876	876	876	876	876	876	876	876	876	877	877	877	878	878	878	879	880	880	880	881	881	881	881	881	882	883	882	882	883	883	883	884	884	884	884	884	886	886	889	890	890	892	894	894	895	896	896	0	0	896	896	896	896	0	0	0	0	0	0	0	0	0	0	0	0	0	0	0	0	0	0	0	0	0	0	0	0	0	0	0	0	0	0	0	0	0	0	0	0	0	0	0	0	0	0	0	0	0	0	0	0	0	0	0	0	0	0	0	0	0	763	763	763	762	762	762	761	760	758	758	756	754	754	753	752	751	751	750	750	750	749	747	746	746	744	743	743	741	740	739	739	739	738	738	738	738	738	738	738	738	738	738	738	738	738	738	738	738	738	738	738	0	0	0	0	0	0	0	0	0	0	0	0	0	0	0	0	0	0	0	0	0	0	0	0	0	0	0	0	0	0	0	0	0	0	0	0	0	0	0	0	0	0	0	0	0	0	0	0	0	1989	1989	1989	1989	1989	1986	1983	1980	1980	1977	1977	1977	1974	1971	1971	1965	1962	1962	1962	1962	1962	1962	1962	1962	1962	1962	1962	1956	1956	1956	1956	1956	1956	1953	1953	1951	1951	1951	1951	1951	1951	1945	1945	1945	1945	1945	1942	1942	1942	1936	1936	1936	1933	1933	1933	1928	1928	1928	1928	1928	1928	1928	1933	1933	1933	1936	1936	1936	1942	1951	1951	1953	1956	1956	1962	1965	1965	1974	1974	1974	1977	1980	1980	1980	1980	1980	1977	1977	1977	1977	1977	1977	1974	1974	1974	1974	1974	1974	1974	1974	1974	1971	1971	1971	1971	1971	1971	1974	1974	1974	1974	1974	1974	1974	1974	1974	1974	1974	1974	1974	1974	1974	1974	1974	1974	1974	1974	1977	1977	1977	1977	1977	1980	1983	1983	1977	1977	1977	1977	1977	1977	1977	1977	1977	1977	1977	1977	1977	1977	1977	1980	1980	1977	1977	1977	1977	1977	1977	1974	1974	1974	1971	1971	1974	1974	1974	1974	1974	1977	1977	1977	1977	1977	1977	1980	1980	1977	1977	1980	1980	1980	1980	1977	1977	1977	1974	1974	1974	1974	1971	1971	1971	1965	1965	1965	1965	1965	1971	1971	1971	1971	1965	1965
852	854	854	857	858	858	859	860	860	862	863	863	864	864	864	866	867	867	868	868	869	871	871	871	873	873	874	874	874	875	875	873	873	871	871	869	867	867	865	863	862	862	862	861	861	860	860	860	859	858	857	857	855	854	854	853	851	850	850	848	848	848	847	846	846	845	845	845	845	845	845	845	845	845	845	845	845	847	847	848	848	851	853	853	857	858	858	860	860	860	862	862	862	863	863	864	866	866	867	870	870	871	873	873	875	875	876	877	876	876	877	877	877	878	878	878	878	878	879	879	879	879	879	879	879	879	880	880	880	880	880	879	879	879	879	879	879	879	880	880	879	879	879	879	879	879	879	879	879	879	879	879	879	879	879	879	878	878	878	878	878	878	878	878	878	879	879	879	879	879	879	879	880	880	880	880	880	880	880	880	880	880	880	880	880	880	880	880	880	880	880	880	880	880	880	880	880	880	880	880	880	880	880	881	881	881	882	882	883	883	883	889	889	0	0	0	0	0	0	0	0	0	0	0	0	0	0	0	0	0	0	0	0	0	0	0	0	0	0	0	0	0	0	0	0	673	673	672	672	672	672	671	671	382	382	382	382	382	382	382	382	382	381	381	383	667	667	666	666	666	666	666	666	666	666	666	666	666	0	0	0	0	0	0	0	0	0	0	0	0	886	884	884	883	883	883	882	881	881	881	881	881	881	881	882	881	881	882	882	883	0	0	0	0	0	0	0	0	0	0	0	0	881	881	881	881	881	881	881	882	882	882	883	883	883	883	882	882	882	882	883	883	883	883	883	883	883	884	884	883	883	883	882	882	882	881	881	881	880	880	880	879	879	879	878	878	878	878	877	877	877	876	876	876	876	877	877	876	876	876	876	876	876	876	876	876	876	877	877	877	878	878	878	879	880	880	880	881	881	881	881	881	882	883	882	882	883	883	883	884	884	884	884	884	886	886	889	890	890	892	894	894	895	0	0	0	0	0	0	0	0	0	0	0	0	0	0	0	0	0	0	0	0	0	0	0	0	0	0	0	0	0	0	0	0	0	0	0	0	0	0	0	0	0	0	0	0	0	0	0	0	0	0	0	0	0	0	0	0	0	0	0	0	0	0	0	0	0	763	763	763	762	762	762	761	760	758	758	757	754	754	753	752	751	751	750	750	750	749	748	746	746	744	743	743	742	740	739	739	739	738	738	738	738	738	738	738	739	739	739	739	739	739	739	739	739	739	739	740	0	0	0	0	0	0	0	0	0	0	0	0	0	0	0	0	0	0	0	0	0	0	0	0	0	0	0	0	0	0	0	0	0	0	0	0	0	0	0	0	0	0	0	0	0	0	0	0	0	0	0	1989	1989	1989	1983	1980	1977	1977	1971	1971	1971	1962	1953	1953	1953	1951	1951	1951	1951	1951	1951	1951	1951	1951	1951	1951	1951	1945	1945	1945	1945	1945	1945	1942	1942	1942	1942	1942	1942	1942	1936	1936	1936	1936	1936	1936	1936	1936	1936	1933	1933	1933	1928	1928	1928	1928	1928	1928	1928	1928	1928	1933	1933	1933	1936	1936	1936	1942	1945	1945	1951	1953	1953	1956	1962	1962	1965	1971	1971	1974	1974	1974	1974	1974	1974	1971	1971	1971	1971	1971	1971	1965	1965	1965	1965	1965	1965	1965	1965	1965	1965	1965	1962	1962	1962	1962	1965	1965	1965	1965	1965	1965	1965	1965	1965	1965	1965	1965	1965	1962	1962	1962	1965	1965	1965	1965	1965	1965	1971	1974	1974	1974	1974	1974	1977	1977	1977	1977	1977	1977	1977	1977	1977	1977	1977	1977	1977	1977	1977	1980	1980	1977	1977	1977	1977	1977	1977	1974	1974	1974	1974	1974	1974	1974	1977	1977	1977	1977	1980	1980	1980	1980	1980	1980	1980	1977	1977	1980	1980	1980	1980	1977	1977	1977	1974	1974	1974	1974	1971	1971	1971	1965	1965	1965	1965	1965	1971	1971	1971	1971	1965	1965
852	854	854	857	858	858	859	860	860	862	863	863	863	864	864	864	866	866	866	867	867	868	869	869	871	871	871	873	873	873	873	873	871	871	871	869	867	867	865	863	862	862	862	861	861	860	860	860	859	858	857	857	855	854	854	853	851	850	850	848	848	848	847	846	846	845	845	845	845	845	845	845	845	845	845	845	845	847	847	848	848	851	853	853	857	858	858	860	860	860	862	862	862	863	863	863	864	864	866	868	868	870	871	871	873	874	874	875	876	876	877	877	877	878	878	878	878	878	879	879	879	879	879	879	879	879	880	880	880	880	880	879	879	879	879	879	879	879	880	880	879	879	879	879	879	879	879	879	879	879	879	879	879	879	879	879	878	878	878	878	878	878	878	878	878	879	879	879	879	879	879	879	880	880	880	880	880	880	880	880	880	880	880	880	880	880	880	880	880	880	880	880	880	880	880	880	880	880	880	880	880	880	880	881	881	881	882	882	883	883	883	0	0	0	0	0	0	0	0	0	0	0	0	0	0	0	0	0	0	0	0	0	0	0	0	0	0	0	0	0	0	0	0	0	670	670	670	670	670	670	670	670	670	670	383	383	383	383	383	383	383	382	382	383	383	665	665	665	665	665	665	665	665	665	665	665	665	665	665	665	0	0	0	0	0	0	0	0	0	0	0	884	884	881	881	881	881	881	881	881	881	881	881	881	881	881	881	881	881	883	0	0	0	0	0	0	0	0	0	0	0	879	879	880	880	880	880	880	880	881	881	881	881	881	881	881	881	881	881	881	881	881	881	881	881	881	881	881	881	881	881	881	881	880	880	880	879	879	878	878	878	877	876	876	875	875	875	874	873	873	873	873	873	873	873	873	873	873	874	874	874	874	874	874	874	875	875	875	876	876	877	878	878	878	879	879	880	881	881	881	881	881	881	881	881	882	882	882	883	883	883	884	884	884	884	886	888	890	890	890	892	892	892	0	0	0	0	0	0	0	0	0	0	0	0	0	0	0	0	0	0	0	0	0	0	0	0	0	0	0	0	0	0	0	0	0	0	0	0	0	0	0	0	0	0	0	0	0	0	0	0	0	0	0	0	0	0	0	0	0	0	0	0	0	0	0	0	0	0	764	764	763	762	762	762	761	759	759	757	755	755	753	752	751	751	751	750	750	750	748	748	747	746	744	744	742	742	740	740	739	738	738	738	738	738	738	739	739	739	739	739	739	740	740	740	740	741	740	740	0	0	0	0	0	0	0	0	0	0	0	0	0	0	0	0	0	0	0	0	0	0	0	0	0	0	0	0	0	0	0	0	0	0	0	0	0	0	0	0	0	0	0	0	0	0	0	0	0	0	0	0	1989	1989	1983	1977	1971	1971	1962	1956	1956	1953	1945	1945	1942	1936	1933	1933	1933	1933	1933	1933	1933	1933	1933	1933	1933	1933	1933	1933	1933	1933	1933	1933	1933	1933	1933	1933	1936	1936	1936	1936	1936	1936	1936	1936	1936	1936	1933	1933	1933	1928	1928	1928	1928	1928	1928	1928	1928	1928	1928	1933	1933	1933	1936	1936	1936	1942	1945	1945	1951	1951	1951	1956	1962	1962	1962	1965	1965	1965	1971	1971	1965	1965	1965	1965	1965	1962	1962	1962	1962	1962	1962	1956	1956	1956	1956	1956	1956	1956	1956	1956	1956	1956	1956	1956	1956	1956	1956	1956	1956	1956	1956	1956	1956	1956	1956	1956	1953	1953	1956	1956	1956	1956	1956	1956	1956	1956	1962	1962	1962	1965	1965	1965	1965	1965	1965	1965	1965	1965	1965	1965	1965	1971	1971	1971	1971	1974	1974	1974	1974	1974	1974	1974	1974	1974	1974	1974	1974	1974	1974	1974	1974	1974	1977	1977	1977	1977	1980	1980	1977	1977	1977	1977	1977	1977	1977	1977	1977	1977	1977	1977	1974	1974	1974	1974	1974	1971	1965	1965	1965	1965	1965	1965	1965	1965	1965	1965	1965	1965	1965	1965
853	855	855	857	858	858	859	860	860	862	862	862	863	863	863	864	864	864	865	866	866	866	867	867	868	869	869	870	871	871	870	870	870	870	870	868	867	867	866	864	863	863	863	862	862	862	861	861	860	860	860	859	859	858	858	857	855	855	854	853	853	852	850	848	848	848	847	847	847	846	846	845	845	845	845	845	847	847	847	849	849	852	854	854	857	858	858	860	860	860	861	861	862	863	863	863	864	864	865	866	866	867	869	869	870	871	871	873	874	874	875	875	875	876	876	876	877	877	877	877	877	877	878	878	878	878	878	878	878	878	878	878	878	878	878	878	878	878	878	878	878	878	878	878	878	878	878	878	878	878	878	878	878	878	878	878	878	878	877	877	877	877	877	878	878	878	878	878	878	878	878	878	879	879	879	879	879	879	879	879	879	879	879	879	879	879	879	879	879	879	878	878	878	878	878	878	878	878	878	878	878	878	878	879	879	880	880	880	880	883	883	0	0	0	0	0	0	0	0	0	0	0	0	0	0	0	0	0	0	0	0	0	0	0	0	0	0	0	0	0	0	0	0	0	670	670	670	670	670	670	670	670	670	670	384	383	383	383	383	383	383	383	383	383	383	665	665	665	665	665	665	665	665	665	665	665	665	665	665	665	0	0	0	0	0	0	0	0	0	0	0	0	0	881	881	881	881	881	881	881	881	881	881	881	881	881	881	881	881	0	0	0	0	0	0	0	0	0	0	0	0	879	879	880	880	880	880	880	880	881	881	881	881	881	881	881	881	881	881	881	881	881	881	881	881	881	881	881	881	880	880	880	879	878	878	878	877	877	875	875	875	873	873	871	871	870	869	869	869	868	868	868	868	868	868	870	870	870	871	873	873	873	873	873	874	875	875	875	876	876	877	878	878	878	879	879	880	881	881	881	881	881	881	881	881	882	882	882	882	883	883	883	884	884	884	887	887	889	889	890	891	891	891	0	0	0	0	0	0	0	0	0	0	0	0	0	0	0	0	0	0	0	0	0	0	0	0	0	0	0	0	0	0	0	0	0	0	0	0	0	0	0	0	0	0	0	0	0	0	0	0	0	0	0	0	0	0	0	0	0	0	0	0	0	0	0	0	0	0	764	764	763	762	762	762	761	759	759	757	755	755	753	752	751	751	751	750	750	750	748	748	747	746	744	744	742	742	740	740	739	738	738	738	738	738	738	739	739	739	739	739	739	740	740	740	740	741	740	740	742	742	0	0	0	0	0	0	0	0	0	0	0	0	0	0	0	0	0	0	0	0	0	0	0	0	0	0	0	0	0	0	0	0	0	0	0	0	0	0	0	0	0	0	0	0	0	0	0	0	0	1989	1989	1989	1980	1977	1971	1971	1962	1956	1956	1953	1945	1945	1942	1936	1933	1933	1933	1933	1933	1933	1933	1933	1933	1933	1933	1933	1933	1933	1933	1933	1933	1933	1933	1933	1933	1933	1936	1936	1936	1936	1936	1936	1936	1936	1936	1936	1933	1933	1933	1928	1928	1928	1928	1928	1928	1928	1928	1928	1928	1933	1933	1933	1936	1936	1936	1942	1945	1945	1951	1951	1951	1956	1962	1962	1962	1965	1965	1965	1971	1971	1965	1965	1965	1965	1965	1962	1962	1962	1962	1962	1962	1956	1956	1956	1956	1956	1956	1956	1956	1956	1956	1956	1956	1956	1956	1956	1956	1956	1956	1956	1956	1956	1956	1956	1956	1956	1953	1953	1956	1956	1956	1956	1956	1956	1956	1953	1953	1953	1953	1953	1953	1953	1953	1953	1953	1953	1953	1953	1956	1956	1956	1956	1962	1962	1962	1965	1965	1965	1971	1971	1971	1971	1971	1974	1974	1974	1974	1974	1974	1974	1977	1977	1977	1977	1977	1977	1977	1977	1977	1977	1977	1974	1974	1974	1974	1974	1974	1974	1974	1974	1971	1971	1971	1965	1965	1965	1962	1962	1962	1962	1956	1956	1956	1962	1962	1962	1956	1956	1956	1956
854	855	855	857	859	859	859	860	860	862	862	862	863	863	863	864	864	864	865	866	866	866	867	867	868	869	869	870	871	871	870	870	870	870	870	868	867	867	866	865	864	864	863	863	863	863	862	862	862	861	861	861	860	860	860	859	858	858	857	857	857	854	853	852	852	850	849	849	848	847	847	847	847	847	847	847	847	847	848	850	850	853	855	855	857	859	859	860	860	860	861	861	862	863	863	863	864	864	865	865	865	866	867	867	868	869	869	870	871	871	871	873	873	873	873	873	874	874	874	875	875	875	875	875	875	876	876	876	877	877	877	877	877	876	876	876	876	875	875	875	876	877	877	877	877	876	876	876	876	876	876	876	876	876	876	876	875	875	875	875	875	875	875	876	876	876	877	877	877	877	877	877	878	878	878	878	878	878	878	878	878	878	878	878	878	878	878	878	878	877	877	877	877	877	877	877	877	877	876	876	876	876	877	877	877	877	877	877	878	0	0	0	0	0	0	0	0	0	0	0	0	0	0	0	0	0	0	0	0	0	0	0	0	0	0	0	0	0	0	0	0	0	0	0	669	669	669	669	669	669	669	668	668	668	384	383	383	383	383	383	383	383	383	383	383	665	665	665	665	665	665	665	665	665	665	665	665	665	665	665	665	0	0	0	0	0	0	0	0	0	0	0	0	881	880	880	880	880	880	880	880	880	880	880	880	880	881	881	881	0	0	0	0	0	0	0	0	0	0	0	0	878	878	878	878	879	879	879	879	880	880	880	880	880	880	880	880	880	880	880	880	880	880	880	880	880	881	881	880	880	880	880	879	878	878	878	877	877	875	875	875	873	873	871	871	870	869	869	869	868	868	868	868	868	868	870	870	870	871	873	873	873	873	873	874	875	875	875	876	876	877	878	878	878	879	879	880	881	881	881	881	881	881	881	881	882	882	882	882	883	883	883	884	884	884	887	887	889	889	890	891	891	891	0	0	0	0	0	0	0	0	0	0	0	0	0	0	0	0	0	0	0	0	0	0	0	0	0	0	0	0	0	0	0	0	0	0	0	0	0	0	0	0	0	0	0	0	0	0	0	0	0	0	0	0	0	0	0	0	0	0	0	0	0	0	0	0	0	766	764	764	764	764	764	763	761	761	760	758	756	756	754	753	752	752	751	750	750	750	749	749	748	747	745	745	743	742	740	740	739	739	739	738	738	738	738	739	739	739	739	740	740	740	741	741	742	742	742	742	742	742	0	0	0	0	0	0	0	0	0	0	0	0	0	0	0	0	0	0	0	0	0	0	0	0	0	0	0	0	0	0	0	0	0	0	0	0	0	0	0	0	0	0	0	0	0	0	0	0	0	1989	1986	1986	1977	1971	1962	1962	1953	1951	1951	1942	1936	1928	1928	1925	1925	1925	1925	1922	1922	1922	1922	1922	1922	1922	1922	1922	1925	1925	1925	1925	1928	1928	1928	1928	1928	1928	1933	1933	1933	1933	1933	1936	1936	1936	1936	1936	1933	1933	1933	1928	1928	1928	1928	1928	1928	1928	1928	1928	1928	1933	1933	1933	1936	1936	1936	1942	1945	1945	1945	1951	1951	1953	1956	1956	1956	1962	1962	1962	1962	1962	1956	1956	1956	1953	1953	1953	1953	1953	1953	1951	1951	1951	1951	1951	1951	1951	1951	1951	1951	1945	1945	1945	1945	1951	1951	1951	1951	1951	1951	1951	1951	1951	1951	1951	1951	1951	1951	1951	1951	1951	1951	1951	1951	1951	1953	1953	1953	1953	1953	1953	1953	1953	1953	1953	1953	1953	1953	1953	1956	1956	1956	1956	1962	1962	1962	1965	1965	1965	1971	1971	1971	1971	1971	1974	1974	1974	1974	1974	1974	1977	1977	1977	1977	1977	1977	1977	1977	1977	1977	1977	1977	1974	1974	1974	1974	1974	1974	1974	1974	1974	1971	1971	1971	1965	1965	1965	1962	1962	1962	1962	1956	1956	1956	1962	1962	1962	1956	1956	1956	1956
853	855	855	857	858	858	859	860	860	861	862	862	862	863	863	863	863	863	864	864	864	864	865	865	866	867	867	868	868	868	868	868	868	867	867	867	866	866	866	864	864	864	863	863	863	863	862	862	862	861	861	861	860	860	860	859	858	858	857	857	857	854	853	852	852	850	849	849	848	847	847	847	847	847	847	847	847	847	848	850	850	853	855	855	857	859	859	860	860	860	861	861	862	862	862	863	863	863	864	865	865	866	867	867	868	869	869	870	871	871	871	873	873	873	873	873	874	874	874	875	875	875	875	875	875	876	876	876	877	877	877	877	877	876	876	876	876	875	875	875	876	877	877	877	877	876	876	876	876	876	876	876	876	876	876	876	875	875	875	875	875	875	875	876	876	876	877	877	877	877	877	877	878	878	878	878	878	878	878	878	878	878	878	878	878	878	878	878	878	877	877	877	877	877	877	877	877	877	876	876	876	876	877	877	877	877	877	877	878	0	0	0	0	0	0	0	0	0	0	0	0	0	0	0	0	0	0	0	0	0	0	0	0	0	0	0	0	0	0	0	0	0	0	0	668	668	668	668	668	667	667	667	667	667	384	384	384	384	384	384	384	384	384	384	664	664	664	664	664	664	664	664	664	664	664	664	664	664	664	664	664	0	0	0	0	0	0	0	0	0	0	0	0	0	880	880	879	879	879	879	879	879	879	879	879	879	880	880	880	0	0	0	0	0	0	0	0	0	0	876	876	876	877	877	877	877	877	877	878	878	878	878	878	878	879	879	879	879	879	879	879	879	879	879	879	879	879	879	879	878	878	878	877	876	876	875	874	871	871	870	869	869	867	866	866	865	865	865	864	864	864	864	864	865	866	866	868	868	869	870	870	871	873	873	873	875	875	875	876	876	877	878	878	878	879	879	880	881	881	881	881	881	881	881	881	881	881	881	882	882	882	883	883	883	884	886	886	887	887	889	890	890	891	0	0	0	0	0	0	0	0	0	0	0	0	0	0	0	0	0	0	0	0	0	0	0	0	0	0	0	0	0	0	0	0	0	0	0	0	0	0	0	0	0	0	0	0	0	0	0	0	0	0	0	0	0	0	0	0	0	0	0	0	0	0	0	0	0	766	765	765	765	764	764	764	762	762	761	758	757	757	754	753	752	752	751	751	751	750	750	750	749	748	746	746	744	743	743	742	740	739	739	738	738	739	739	739	739	739	740	740	740	741	742	742	742	743	743	743	743	743	0	0	0	0	0	0	0	0	0	0	0	0	0	0	0	0	0	0	0	0	0	0	0	0	0	0	0	0	0	0	0	0	0	0	0	0	0	0	0	0	0	0	0	0	0	0	0	0	0	0	1986	1986	1977	1965	1953	1953	1945	1936	1936	1933	1925	1925	1925	1919	1919	1919	1916	1916	1916	1916	1916	1916	1916	1916	1916	1916	1919	1919	1919	1922	1922	1922	1925	1928	1928	1928	1933	1933	1933	1933	1933	1936	1936	1936	1936	1936	1933	1933	1933	1933	1933	1933	1933	1933	1933	1933	1933	1933	1933	1933	1933	1933	1936	1936	1936	1942	1942	1942	1945	1945	1945	1951	1953	1953	1953	1953	1953	1956	1956	1953	1953	1953	1951	1945	1945	1945	1945	1945	1945	1945	1945	1945	1945	1945	1945	1945	1945	1945	1942	1942	1942	1942	1942	1942	1942	1942	1945	1945	1942	1942	1942	1942	1945	1942	1942	1942	1942	1942	1942	1942	1942	1942	1942	1942	1945	1945	1945	1945	1945	1945	1945	1945	1945	1945	1945	1945	1945	1945	1945	1951	1951	1951	1951	1951	1956	1956	1956	1962	1965	1965	1965	1971	1971	1971	1974	1974	1974	1974	1974	1977	1977	1974	1974	1974	1974	1974	1974	1974	1974	1974	1971	1971	1971	1971	1971	1971	1971	1965	1965	1965	1965	1962	1962	1962	1962	1962	1956	1956	1956	1953	1953	1953	1953	1953	1953	1953	1956	1956	1953	1953
853	855	855	857	858	858	859	860	860	861	861	861	862	862	862	862	863	863	863	863	863	863	864	864	865	866	866	866	866	866	866	866	866	866	866	865	865	865	864	864	863	863	863	863	863	863	863	863	862	862	862	862	861	861	860	860	860	860	859	858	858	857	855	855	854	853	852	852	850	848	848	848	848	848	848	848	848	848	849	851	851	853	855	855	857	859	859	860	860	860	861	861	862	862	862	862	863	863	863	864	864	865	866	866	866	867	867	868	869	869	869	869	869	869	869	869	870	870	869	869	869	869	868	868	869	868	868	868	868	868	869	869	870	870	870	870	871	871	871	873	873	873	873	873	873	873	873	873	874	873	873	873	873	873	874	873	873	873	873	873	873	873	873	874	874	874	875	875	875	875	875	875	876	876	877	877	877	877	877	877	877	877	877	877	876	876	875	875	875	875	875	875	874	874	874	874	873	873	873	873	873	873	873	874	873	873	874	874	874	0	0	0	0	0	0	0	0	0	0	0	0	0	0	0	0	0	0	0	0	0	0	0	0	0	0	0	0	0	0	0	0	0	0	0	668	668	668	668	668	667	667	667	667	667	384	384	384	384	384	384	384	384	384	384	664	664	664	664	664	664	664	664	664	664	664	664	664	664	664	664	664	0	0	0	0	0	0	0	0	0	0	0	0	0	880	880	879	879	879	879	879	879	879	879	879	879	880	880	880	0	0	0	0	0	0	0	0	0	0	876	876	876	877	877	877	877	877	877	878	878	878	878	878	878	879	879	879	879	879	878	878	878	878	878	878	878	878	877	877	876	875	875	874	873	873	871	870	867	867	866	865	865	864	863	863	863	863	863	863	863	863	863	863	863	864	864	866	866	867	869	869	871	873	873	873	875	875	875	876	876	877	878	878	878	879	879	880	880	880	881	881	881	881	881	881	881	881	881	881	882	882	883	883	883	884	886	886	886	886	888	888	888	0	0	0	0	0	0	0	0	0	0	0	0	0	0	0	0	0	0	0	0	0	0	0	0	0	0	0	0	0	0	0	0	0	0	0	0	0	0	0	0	0	0	0	0	0	0	0	0	0	0	0	0	0	0	0	0	0	0	0	0	0	0	0	0	0	0	766	765	765	765	764	764	764	762	762	761	758	757	757	754	753	752	752	751	751	751	750	750	750	749	748	746	746	744	743	743	742	740	739	739	738	738	739	739	739	739	739	740	740	740	741	742	742	742	743	743	743	743	743	0	0	0	0	0	0	0	0	0	0	0	0	0	0	0	0	0	0	0	0	0	0	0	0	0	0	0	0	0	0	0	0	0	0	0	0	0	0	0	0	0	0	0	0	0	0	0	0	0	0	0	0	0	1965	1953	1953	1945	1936	1936	1933	1925	1925	1925	1919	1919	1919	1916	1916	1916	1916	1916	1916	1916	1916	1916	1916	1919	1919	1919	1922	1922	1922	1925	1928	1928	1928	1933	1933	1933	1936	1936	1936	1936	1936	1936	1936	1936	1936	1936	1933	1933	1933	1933	1933	1933	1933	1933	1933	1933	1933	1933	1933	1936	1936	1936	1942	1942	1942	1945	1945	1945	1951	1953	1953	1953	1953	1953	1956	1956	1953	1953	1953	1951	1945	1945	1945	1945	1945	1945	1945	1945	1945	1945	1945	1945	1945	1945	1945	1942	1942	1942	1942	1942	1942	1942	1942	1945	1945	1942	1942	1942	1942	1945	1942	1942	1942	1936	1936	1936	1936	1936	1936	1936	1936	1936	1936	1936	1936	1936	1936	1936	1936	1936	1936	1936	1936	1936	1936	1936	1942	1942	1945	1945	1945	1951	1953	1953	1956	1962	1962	1965	1965	1965	1971	1974	1974	1974	1974	1974	1974	1974	1974	1974	1974	1974	1971	1971	1971	1971	1971	1965	1962	1962	1962	1962	1962	1962	1962	1962	1962	1956	1956	1956	1956	1953	1953	1953	1953	1953	1951	1951	1951	1951	1951	1953	1953	1953	1953	1951	1951
854	855	855	857	858	858	859	860	860	861	861	861	862	862	862	862	863	863	863	863	863	863	864	864	865	866	866	866	866	866	866	866	866	866	866	865	865	865	864	864	863	863	863	863	863	863	863	863	863	863	863	862	862	862	862	861	861	860	860	859	859	859	857	857	857	855	855	853	852	851	851	850	849	849	849	849	849	849	851	852	852	853	855	855	857	859	859	859	859	860	860	860	861	862	862	862	863	863	863	863	863	864	864	864	865	866	866	866	866	866	866	866	866	866	866	866	864	863	863	863	863	863	862	862	862	862	861	861	861	862	862	862	863	863	863	863	864	864	866	867	867	869	870	870	870	870	870	871	871	871	871	871	871	871	871	871	871	871	871	871	871	871	871	871	871	871	873	873	873	873	873	873	874	874	875	875	875	875	875	875	875	875	875	875	874	874	873	873	873	873	873	873	871	871	871	871	871	871	871	870	870	871	871	871	871	871	871	871	871	871	0	0	0	0	0	0	0	0	0	0	0	0	0	0	0	0	0	0	0	0	0	0	0	0	0	0	0	0	0	0	0	0	668	668	667	667	667	667	667	666	666	666	666	666	384	384	384	384	384	384	384	384	384	384	663	662	662	662	662	662	662	663	663	663	663	663	663	663	663	663	664	0	0	0	0	0	0	0	0	0	0	0	0	0	880	880	878	878	878	878	878	878	878	878	878	878	878	880	880	0	0	0	0	0	0	0	0	0	0	875	875	875	875	875	875	875	876	876	876	877	877	877	877	877	877	878	878	878	878	878	878	878	878	878	878	878	878	877	877	876	875	875	874	873	873	871	870	867	867	866	865	865	864	863	863	863	863	863	863	863	863	863	863	863	864	864	866	866	867	869	869	871	873	873	873	875	875	875	876	876	877	878	878	878	879	879	880	880	880	881	881	881	881	881	881	881	881	881	881	882	882	883	883	883	884	0	886	886	886	888	888	888	0	0	0	0	0	0	0	0	0	0	0	0	0	0	0	0	0	0	0	0	0	0	0	0	0	0	0	0	0	0	0	0	0	0	0	0	0	0	0	0	0	0	0	0	0	0	0	0	0	0	0	0	0	0	0	0	0	0	0	0	0	0	0	0	0	0	768	768	767	766	765	765	764	763	763	762	759	758	758	755	754	754	753	752	751	751	750	750	750	750	748	746	746	744	743	743	742	740	739	739	739	739	739	739	739	739	739	740	740	740	742	742	742	743	743	744	0	0	0	0	0	0	0	0	0	0	0	0	0	0	0	0	0	0	0	0	0	0	0	0	0	0	0	0	0	0	0	0	0	0	0	0	0	0	0	0	0	0	0	0	0	0	0	0	0	0	0	0	0	0	0	0	1965	1953	1953	1945	1928	1925	1925	1922	1916	1916	1913	1913	1913	1913	1913	1913	1913	1911	1911	1911	1916	1916	1916	1919	1919	1919	1922	1922	1922	1925	1928	1928	1928	1933	1933	1933	1936	1936	1936	1936	1936	1936	1936	1936	1936	1936	1933	1933	1933	1933	1928	1928	1928	1928	1928	1928	1933	1933	1933	1933	1936	1936	1936	1936	1936	1942	1942	1942	1945	1945	1945	1945	1951	1951	1951	1951	1951	1945	1945	1942	1942	1936	1936	1936	1936	1936	1936	1936	1936	1936	1936	1936	1936	1936	1936	1936	1936	1936	1936	1936	1936	1936	1936	1936	1936	1936	1936	1936	1936	1936	1936	1936	1936	1936	1936	1936	1936	1936	1936	1936	1936	1936	1936	1936	1936	1936	1936	1936	1936	1936	1936	1936	1936	1936	1936	1936	1942	1942	1945	1945	1945	1951	1953	1953	1956	1962	1962	1965	1965	1965	1971	1974	1974	1974	1974	1974	1974	1974	1974	1974	1974	1974	1971	1971	1971	1971	1971	1965	1962	1962	1962	1962	1962	1962	1962	1962	1962	1956	1956	1956	1956	1953	1953	1953	1953	1953	1951	1951	1951	1951	1951	1953	1953	1953	1953	1951	1951
854	855	855	857	858	858	859	860	860	860	860	860	861	861	861	862	862	862	862	862	862	863	863	863	863	864	864	864	864	864	864	864	864	864	864	864	864	863	863	863	863	863	863	863	863	863	863	863	863	863	863	862	862	862	862	861	861	860	860	859	859	859	857	857	857	855	855	853	852	851	851	850	849	849	849	849	849	849	851	852	852	853	855	855	857	858	858	859	859	860	860	860	861	862	862	862	863	863	863	863	863	864	864	864	865	866	866	866	866	866	866	866	866	866	866	866	864	863	863	863	863	863	862	862	862	862	861	861	861	862	862	862	863	863	863	863	864	864	866	867	867	869	870	870	870	870	870	871	871	871	871	871	871	871	871	871	871	871	871	871	871	871	871	871	871	871	873	873	873	873	873	873	874	874	875	875	875	875	875	875	875	875	875	875	874	874	873	873	873	873	873	873	871	871	871	871	871	871	871	870	870	871	871	871	871	871	871	871	869	869	0	0	0	0	0	0	0	0	0	0	0	0	0	0	0	0	0	0	0	0	0	0	0	0	0	0	0	0	0	0	0	0	667	667	667	667	666	666	666	666	666	666	665	665	385	385	385	385	385	385	384	384	385	385	661	660	660	660	660	660	660	661	661	661	662	662	662	662	662	662	663	0	0	0	0	0	0	0	0	0	0	0	0	0	0	0	877	877	878	877	877	877	877	877	877	877	877	0	0	0	0	0	0	0	0	0	0	0	0	873	873	873	874	874	874	873	873	875	875	875	875	875	875	875	875	876	876	876	876	876	876	876	876	876	875	875	875	874	874	873	871	871	870	868	866	866	865	864	864	863	863	862	862	862	862	862	861	861	862	861	861	862	862	862	863	863	864	866	866	867	867	869	871	871	873	874	874	875	876	876	877	877	877	878	878	878	879	880	880	880	881	881	881	881	881	881	881	881	881	881	881	882	883	883	884	885	885	885	885	886	888	888	0	0	0	0	0	0	0	0	0	0	0	0	0	0	0	0	0	0	0	0	0	0	0	0	0	0	0	0	0	0	0	0	0	0	0	0	0	0	0	0	0	0	0	0	0	0	0	0	0	0	0	0	0	0	0	0	0	0	0	0	0	0	0	0	0	0	0	0	769	767	767	766	765	764	764	762	761	758	758	757	755	755	753	753	751	751	751	750	750	750	748	748	747	745	744	744	743	743	0	0	0	0	0	739	739	739	739	740	740	740	0	0	0	0	0	0	0	0	0	0	0	0	0	0	0	0	0	0	0	0	0	0	0	0	0	0	0	0	0	0	0	0	0	0	0	0	0	0	0	0	0	0	0	0	0	0	0	0	0	0	0	0	0	0	0	0	0	0	0	0	0	0	0	0	0	0	1922	1919	1919	1916	1911	1911	1911	1911	1911	1911	1911	1911	1911	1911	1911	1911	1916	1916	1916	1919	1919	1919	1922	1925	1925	1928	1933	1933	1936	1936	1936	1936	1942	1942	1942	1942	1942	1942	1942	1936	1936	1936	1933	1933	1933	1933	1928	1928	1928	1928	1928	1928	1928	1928	1928	1933	1933	1933	1933	1933	1933	1936	1936	1936	1942	1942	1942	1942	1942	1942	1942	1942	1942	1936	1936	1936	1933	1933	1933	1933	1933	1933	1933	1933	1933	1933	1933	1933	1933	1933	1933	1933	1933	1933	1933	1933	1933	1933	1933	1933	1933	1933	1933	1933	1933	1933	1933	1933	1933	1933	1933	1933	1933	1933	1933	1933	1933	1933	1933	1933	1933	1933	1933	1933	1933	1928	1928	1928	1928	1928	1933	1933	1936	1936	1936	1942	1942	1945	1951	1951	1956	1956	1956	1962	1965	1965	1971	1971	1971	1974	1974	1974	1974	1974	1974	1971	1971	1971	1965	1965	1965	1962	1962	1956	1953	1953	1953	1953	1953	1953	1953	1953	1953	1951	1951	1951	1951	1951	1951	1951	1951	1951	1945	1945	1945	1945	1945	1945	1945	1945	1945	1945	1945
855	855	855	857	857	857	858	859	859	860	860	860	860	860	860	861	861	861	861	862	862	862	862	862	863	863	863	863	863	863	863	863	863	863	863	863	863	863	863	863	863	863	863	863	863	863	863	863	863	863	863	863	862	862	862	862	862	861	860	860	860	860	859	859	858	857	857	855	853	853	853	852	851	851	851	851	851	851	852	853	853	853	855	855	857	858	858	859	859	860	860	860	861	862	862	862	862	862	863	863	863	863	864	864	864	864	864	864	864	864	864	864	864	863	862	862	861	860	860	860	859	858	858	857	855	855	855	855	857	857	858	859	859	860	860	860	861	862	862	863	864	864	866	866	866	866	866	867	868	868	868	868	868	868	868	868	868	868	868	868	868	869	869	869	870	870	870	870	870	871	871	871	871	873	873	873	873	873	873	873	873	871	871	871	871	871	871	871	871	870	869	868	868	868	868	868	867	867	867	867	867	868	868	868	868	867	867	869	869	869	0	0	0	0	0	0	0	0	0	0	0	0	0	0	0	0	0	0	0	0	0	0	0	0	0	0	0	0	0	0	0	0	667	667	667	667	666	666	666	666	666	666	665	665	386	386	386	386	386	386	385	385	385	386	661	660	660	660	660	660	660	661	661	661	662	662	662	662	662	662	663	0	0	0	0	0	0	0	0	0	0	0	0	0	0	0	877	877	0	877	877	877	877	877	877	877	877	0	0	0	0	0	0	0	0	0	0	0	0	873	873	873	874	874	874	873	873	875	875	873	873	873	874	874	874	874	874	874	874	874	874	874	874	874	874	874	873	871	871	871	869	867	867	865	864	864	863	863	863	862	862	861	861	860	860	860	860	860	860	860	861	861	861	862	863	863	864	865	865	866	867	868	870	870	871	873	873	874	875	875	875	877	877	878	878	878	879	879	879	880	880	880	880	881	880	880	881	881	881	881	881	882	883	883	884	885	885	885	885	886	0	0	0	0	0	0	0	0	0	0	0	0	0	0	0	0	0	0	0	0	0	0	0	0	0	0	0	0	0	0	0	0	0	0	0	0	0	0	0	0	0	0	0	0	0	0	0	0	0	0	0	0	0	0	0	0	0	0	0	0	0	0	0	0	0	0	0	774	774	773	769	767	767	766	765	764	764	762	761	758	758	757	755	755	753	753	751	751	751	750	750	750	748	748	747	745	744	744	743	743	0	0	0	0	0	739	739	739	739	740	740	740	0	0	0	0	0	0	0	0	0	0	0	0	0	0	0	0	0	0	0	0	0	0	0	0	0	0	0	0	0	0	0	0	0	0	0	0	0	0	0	0	0	0	0	0	0	0	0	0	0	0	0	0	0	0	0	0	0	0	0	0	0	0	0	0	0	0	1922	1919	1919	1916	1911	1911	1911	1911	1911	1911	1911	1911	1911	1911	1913	1913	1916	1919	1919	1922	1925	1925	1928	1933	1933	1936	1942	1942	1942	1945	1945	1945	1945	1945	1945	1945	1945	1942	1942	1942	1936	1936	1936	1933	1933	1933	1928	1928	1928	1928	1928	1928	1928	1928	1928	1933	1933	1933	1933	1933	1933	1936	1936	1936	1942	1942	1942	1942	1942	1942	1942	1942	1942	1936	1936	1936	1933	1933	1933	1933	1933	1933	1933	1933	1933	1933	1933	1933	1933	1933	1933	1933	1933	1933	1933	1933	1933	1933	1933	1933	1933	1925	1925	1925	1925	1928	1928	1928	1928	1928	1928	1928	1928	1928	1928	1928	1928	1928	1928	1928	1928	1928	1928	1928	1928	1925	1925	1925	1925	1928	1928	1928	1928	1936	1936	1936	1936	1945	1951	1951	1953	1956	1956	1962	1965	1965	1965	1971	1971	1971	1971	1971	1971	1971	1965	1965	1965	1962	1962	1962	1956	1953	1953	1953	1951	1945	1945	1945	1945	1945	1945	1945	1945	1945	1945	1945	1945	1945	1945	1942	1942	1942	1942	1942	1942	1942	1942	1942	1942	1942	1942	1942	1942
855	857	857	857	857	857	858	859	859	860	860	860	860	860	860	861	861	861	861	862	862	862	862	862	863	863	863	863	863	863	863	863	863	863	863	863	863	863	863	863	863	863	863	863	863	863	863	863	863	863	863	863	863	863	862	862	862	862	861	860	860	860	859	859	859	858	858	857	855	855	854	853	852	852	852	852	852	852	852	853	853	853	855	855	855	857	857	858	859	859	860	860	860	861	861	862	862	862	862	863	863	863	863	863	863	863	863	863	863	863	863	863	863	862	860	860	859	857	854	854	852	849	848	848	846	846	846	846	847	848	848	851	853	853	855	855	857	859	859	861	862	862	863	863	863	863	864	864	866	866	866	866	866	866	866	866	866	866	866	866	866	866	866	867	867	867	867	868	868	868	869	869	869	870	870	870	870	870	870	870	870	869	869	869	868	868	868	867	867	867	866	866	866	866	866	866	865	865	865	864	864	866	866	866	866	866	866	866	866	866	0	0	0	0	0	0	0	0	0	0	0	0	0	0	0	0	0	0	0	0	0	0	0	0	0	0	0	0	0	0	0	0	667	667	667	667	666	666	666	666	666	665	665	665	386	386	386	386	386	386	385	385	385	386	659	658	658	658	658	658	659	659	659	660	660	660	660	661	661	661	661	661	661	0	0	0	0	0	0	0	0	0	0	0	0	0	877	877	0	877	877	877	877	877	877	877	877	0	0	0	0	0	0	0	0	0	0	0	0	871	871	871	871	871	873	873	873	873	873	873	873	873	874	874	874	874	874	874	874	874	874	874	874	874	874	874	873	871	871	871	869	867	867	865	864	864	863	863	863	862	862	861	861	860	860	860	860	860	860	860	861	861	861	862	863	863	864	865	865	866	868	868	870	870	871	873	873	874	875	875	875	877	877	878	878	878	879	879	879	880	880	880	880	881	880	880	881	881	881	881	881	882	0	0	0	0	0	0	0	0	0	0	0	0	0	0	0	0	0	0	0	0	0	0	0	0	0	0	0	0	0	0	0	0	0	0	0	0	0	0	0	0	0	0	0	0	0	0	0	0	0	0	0	0	0	0	0	0	883	883	883	883	882	882	882	0	0	0	0	0	0	0	0	0	0	0	777	774	774	773	773	768	768	766	765	764	764	764	761	761	760	758	757	757	754	753	752	752	751	750	750	750	748	748	748	0	0	0	0	0	0	0	0	656	656	0	0	0	0	0	0	0	0	0	0	0	0	0	0	0	0	0	0	0	0	0	0	0	0	0	0	0	0	0	0	0	0	0	0	0	0	0	0	0	0	0	0	0	0	0	0	0	0	0	0	0	0	0	0	0	0	0	0	0	0	0	0	0	0	0	0	0	0	0	0	0	0	0	1922	1919	1919	1911	1911	1911	1911	1911	1911	1911	1911	1911	1911	1911	1913	1913	1916	1919	1919	1922	1925	1925	1928	1933	1933	1936	1942	1942	1942	1945	1945	1945	1945	1945	1945	1945	1945	1942	1942	1942	1936	1936	1933	1933	1933	1928	1928	1928	1928	1928	1928	1928	1928	1928	1928	1928	1928	1928	1933	1933	1933	1933	1933	1933	1933	1933	1933	1933	1933	1933	1933	1933	1933	1928	1928	1928	1928	1928	1928	1928	1928	1928	1925	1925	1928	1928	1928	1928	1928	1928	1928	1925	1925	1925	1925	1925	1925	1925	1925	1925	1925	1925	1925	1925	1925	1928	1928	1928	1928	1928	1928	1928	1928	1928	1928	1928	1928	1928	1928	1928	1928	1928	1928	1928	1928	1925	1925	1925	1925	1928	1928	1928	1928	1936	1936	1936	1936	1945	1951	1951	1953	1956	1956	1962	1965	1965	1965	1971	1971	1971	1971	1971	1971	1971	1965	1965	1965	1962	1962	1962	1956	1953	1953	1953	1951	1945	1945	1945	1945	1945	1945	1945	1945	1945	1945	1945	1945	1945	1945	1942	1942	1942	1942	1942	1942	1942	1942	1942	1942	1942	1942	1942	1942
855	855	855	857	857	857	858	858	858	859	859	859	860	860	860	860	860	860	860	861	861	862	862	862	862	862	862	863	863	863	863	863	862	862	862	862	862	862	862	862	862	862	862	862	862	862	863	863	863	863	863	863	863	863	862	862	862	862	861	860	860	860	859	859	859	858	858	857	855	855	854	853	852	852	852	853	853	853	853	853	853	854	855	855	855	857	857	858	859	859	860	860	860	861	861	862	862	862	862	863	863	863	863	863	863	863	863	863	863	863	863	863	863	862	860	860	859	857	854	854	852	849	848	848	846	846	846	846	847	848	848	851	853	853	855	855	857	859	859	861	862	862	863	863	863	863	864	864	866	866	866	866	866	866	866	866	866	866	866	866	866	866	866	867	867	867	867	868	868	868	869	869	869	870	870	870	870	870	870	870	870	869	869	869	868	868	868	867	867	867	866	866	866	866	866	866	865	863	863	863	863	863	863	863	864	864	864	865	865	866	0	0	0	0	0	0	0	666	666	660	660	660	0	0	0	0	0	0	0	0	0	0	0	0	0	0	0	0	0	0	0	0	0	0	0	0	665	665	665	665	665	664	664	664	664	387	387	387	387	387	387	387	387	387	657	657	657	657	657	657	657	657	657	658	658	659	659	659	660	660	660	660	661	0	0	0	0	0	0	0	0	0	0	0	0	0	0	0	0	0	0	0	0	0	0	0	0	0	0	0	0	0	0	0	0	0	0	0	0	870	869	869	869	871	871	871	871	871	871	871	871	871	871	871	871	871	871	871	871	871	871	871	871	871	871	871	869	868	866	866	866	864	864	863	863	863	862	862	861	861	860	860	860	860	860	860	860	860	860	860	860	860	860	861	862	862	863	864	864	865	866	866	868	868	870	871	871	871	873	873	873	875	875	876	877	877	878	878	878	879	880	880	880	880	880	880	881	881	881	881	881	882	0	0	0	0	0	0	0	0	0	0	0	0	0	0	0	0	0	0	0	0	0	0	0	0	0	0	0	0	0	0	0	0	0	0	0	0	0	0	0	0	0	0	0	0	0	0	0	0	0	0	0	0	0	0	0	0	883	883	883	883	882	882	882	0	0	0	0	0	0	0	0	0	0	0	777	775	775	774	774	769	769	767	766	764	764	764	763	763	761	760	757	757	756	754	752	752	751	751	0	0	0	0	0	0	0	0	0	0	0	0	0	656	656	0	0	0	0	0	0	0	0	0	0	0	0	0	0	0	0	0	0	0	0	0	0	0	0	0	0	0	0	0	0	0	0	0	0	0	0	0	0	0	0	0	0	0	0	0	0	0	0	0	0	0	0	0	0	0	0	0	0	0	0	0	0	0	0	0	0	0	0	0	0	0	0	0	0	0	0	1911	1908	1908	1908	1908	1908	1908	1908	1911	1911	1911	1916	1916	1916	1922	1922	1925	1933	1933	1936	1942	1942	1945	1951	1951	1951	1951	1951	1951	1951	1951	1951	1951	1945	1942	1942	1936	1936	1936	1933	1928	1928	1928	1928	1928	1925	1925	1925	1925	1925	1925	1925	1925	1925	1925	1925	1925	1925	1925	1928	1928	1928	1928	1928	1928	1928	1928	1928	1925	1925	1925	1925	1925	1925	1922	1922	1922	1922	1925	1925	1925	1925	1925	1925	1925	1925	1925	1925	1925	1922	1922	1922	1922	1925	1925	1925	1925	1925	1925	1925	1925	1925	1925	1925	1925	1925	1925	1925	1925	1925	1925	1925	1925	1925	1925	1925	1925	1925	1922	1922	1922	1922	1922	1922	1922	1922	1925	1925	1925	1928	1928	1933	1936	1936	1942	1951	1951	1953	1956	1956	1962	1965	1965	1965	1971	1971	1971	1971	1965	1965	1965	1962	1956	1956	1953	1953	1953	1951	1945	1945	1945	1942	1936	1936	1936	1936	1936	1936	1936	1936	1936	1936	1936	1936	1936	1936	1936	1933	1933	1933	1933	1933	1933	1936	1936	1936	1936	1942	1936	1936
854	855	855	855	857	857	857	858	858	858	858	858	859	859	859	860	860	860	860	860	860	861	861	861	861	862	862	862	862	862	862	862	862	862	862	862	862	862	862	862	862	862	862	862	862	862	862	862	862	862	863	862	862	862	862	862	862	862	861	861	861	860	860	860	859	858	858	857	855	855	855	854	853	853	853	853	853	853	853	853	853	853	854	854	855	857	857	858	859	859	860	860	860	860	861	861	862	862	862	862	863	862	862	863	863	863	863	862	862	862	861	861	861	860	858	855	855	851	847	845	845	843	843	843	842	842	842	842	842	843	843	844	845	845	847	848	848	853	857	857	860	860	860	861	861	862	863	863	863	864	864	864	864	864	864	864	864	864	864	864	864	865	865	865	865	865	865	866	866	866	866	866	866	867	867	867	867	867	866	866	866	866	866	866	866	865	865	865	864	864	864	864	864	864	863	863	863	863	863	863	863	863	863	863	864	864	864	865	865	0	0	0	0	0	0	0	0	666	666	660	660	660	0	0	0	0	0	0	0	0	0	0	0	0	0	0	0	0	0	0	0	0	0	0	0	0	665	665	665	665	665	664	664	664	664	388	388	388	388	388	388	387	387	657	657	657	657	657	657	657	657	657	657	658	658	659	659	659	660	660	660	660	0	0	0	0	0	0	0	0	0	0	0	0	0	0	0	0	0	0	0	0	0	0	0	0	0	0	0	0	0	0	0	0	0	0	0	0	0	870	867	867	867	868	869	868	868	868	868	868	868	868	868	869	869	869	869	869	868	868	868	868	866	866	866	866	866	864	863	863	863	863	863	862	861	861	861	860	860	860	860	860	860	860	860	860	860	860	860	860	860	860	860	861	862	862	863	864	864	864	866	866	866	867	867	869	869	869	870	870	871	873	873	873	875	875	876	877	877	878	879	879	879	880	879	879	880	880	881	881	881	0	0	0	0	0	0	0	0	0	0	0	0	0	0	0	0	0	0	0	0	0	0	0	0	0	0	0	0	0	0	0	0	0	0	0	0	0	0	0	0	0	0	0	0	0	0	0	0	0	0	0	0	0	0	0	0	0	881	881	881	881	881	881	881	880	880	879	879	0	0	0	0	0	0	780	777	775	775	774	774	769	769	767	766	764	764	764	763	763	761	760	757	757	756	754	752	752	751	751	0	0	0	0	0	667	666	666	665	665	0	0	0	656	654	654	654	0	0	0	0	0	0	0	0	0	0	0	0	0	0	0	0	0	0	0	0	0	0	0	0	0	0	0	0	0	0	0	0	0	0	0	0	0	0	0	0	0	0	0	0	0	0	0	0	0	0	0	0	0	0	0	0	0	0	0	0	0	0	0	0	0	0	0	0	0	0	0	0	0	0	0	1908	1908	1908	1908	1908	1908	1908	1911	1911	1911	1916	1916	1919	1925	1925	1933	1936	1936	1945	1945	1951	1953	1953	1953	1956	1956	1953	1953	1953	1951	1951	1951	1945	1942	1942	1936	1936	1936	1933	1928	1928	1928	1928	1928	1925	1925	1925	1925	1925	1925	1925	1925	1925	1925	1925	1925	1925	1925	1928	1928	1928	1928	1928	1928	1928	1928	1928	1925	1925	1925	1925	1925	1925	1922	1922	1922	1922	1925	1925	1925	1925	1925	1925	1925	1925	1925	1925	1925	1922	1922	1919	1919	1919	1919	1919	1919	1919	1919	1919	1919	1919	1919	1919	1922	1922	1922	1922	1922	1922	1922	1922	1922	1922	1922	1922	1919	1919	1919	1919	1919	1919	1919	1919	1919	1919	1922	1922	1922	1925	1928	1933	1936	1936	1942	1951	1951	1953	1956	1956	1962	1962	1962	1965	1965	1965	1965	1965	1962	1962	1962	1956	1953	1953	1951	1945	1945	1945	1936	1936	1936	1933	1928	1928	1928	1928	1928	1928	1928	1928	1928	1928	1928	1928	1928	1928	1928	1928	1928	1928	1928	1928	1928	1928	1933	1933	1933	1933	1933	1936
854	855	855	855	857	857	857	858	858	858	858	858	859	859	859	860	860	860	860	860	860	861	861	861	861	862	862	862	862	862	862	862	862	862	862	862	862	862	862	862	862	862	862	862	862	862	862	862	862	862	863	862	862	862	862	862	862	862	861	861	861	860	860	860	859	859	859	858	857	857	855	855	854	854	853	853	853	853	853	853	853	853	854	854	855	855	855	857	858	858	859	860	860	860	860	860	861	862	862	862	862	862	862	862	862	862	862	861	860	860	860	859	859	857	853	848	845	845	843	841	841	840	837	835	835	835	835	835	835	837	839	839	841	843	843	844	844	846	850	850	855	855	858	859	859	860	861	861	862	862	862	863	863	863	863	863	863	863	863	863	863	863	863	863	864	864	864	864	864	864	864	864	864	865	864	864	864	864	864	864	864	864	864	864	863	863	863	863	863	863	863	863	863	862	862	862	862	862	862	862	862	862	862	863	863	863	863	865	865	0	0	0	0	0	0	0	0	666	661	660	660	660	0	0	0	0	0	0	0	0	0	0	0	0	0	0	0	0	0	0	0	0	0	0	0	0	664	664	664	663	663	663	663	388	388	388	388	388	388	388	388	387	387	388	388	656	655	655	655	655	656	656	656	657	657	657	658	658	658	659	659	659	0	0	0	0	0	0	0	0	0	0	0	0	0	0	0	0	0	0	0	0	0	0	0	0	0	0	0	0	0	0	0	0	0	0	0	0	0	868	867	867	867	868	869	868	868	868	868	868	868	868	868	869	869	869	869	869	868	868	868	868	866	866	866	866	866	864	863	863	863	863	863	862	861	861	861	860	860	860	860	860	860	860	860	860	860	860	860	860	860	860	860	861	862	862	863	864	864	864	866	866	866	867	867	869	869	869	870	870	871	873	873	873	875	875	876	877	877	878	879	879	879	880	879	879	880	880	0	0	0	0	0	0	0	0	0	0	0	0	0	0	0	0	0	0	0	0	0	0	0	0	0	0	0	0	0	0	0	0	0	0	0	0	0	0	0	0	0	0	0	0	0	0	0	0	0	0	0	0	0	0	0	881	881	881	0	0	881	881	881	881	881	881	880	878	878	878	878	878	878	0	0	0	0	780	779	778	778	776	774	771	771	769	767	765	765	764	764	764	763	761	761	760	758	755	755	753	753	0	0	0	0	667	667	667	666	666	665	665	0	0	0	656	654	654	652	652	0	0	0	0	0	0	0	0	0	632	630	630	627	626	625	625	625	623	623	623	0	0	0	0	0	0	0	0	0	0	0	0	0	0	0	0	0	0	0	0	0	0	0	0	0	0	0	0	0	0	0	0	0	0	0	0	0	0	0	0	0	0	0	0	0	0	0	0	0	0	0	0	0	0	1908	1908	1908	1908	1908	1908	1908	1911	1911	1911	1916	1916	1919	1925	1925	1933	1936	1936	1945	1945	1951	1953	1953	1953	1953	1953	1951	1951	1951	1945	1942	1942	1942	1936	1936	1933	1933	1933	1928	1925	1925	1925	1925	1925	1922	1922	1922	1922	1922	1922	1922	1922	1922	1922	1922	1922	1922	1922	1922	1922	1922	1922	1922	1922	1922	1922	1922	1919	1919	1919	1919	1919	1919	1919	1919	1919	1919	1919	1919	1919	1919	1919	1919	1919	1919	1919	1919	1919	1919	1919	1919	1919	1919	1919	1919	1919	1919	1919	1919	1919	1919	1919	1919	1922	1922	1922	1922	1922	1922	1922	1922	1922	1922	1922	1922	1919	1919	1919	1919	1919	1919	1919	1919	1919	1919	1922	1922	1922	1925	1933	1933	1936	1936	1942	1951	1951	1953	1956	1956	1962	1962	1962	1965	1965	1965	1965	1965	1962	1962	1962	1956	1953	1953	1951	1945	1945	1945	1936	1936	1936	1933	1928	1928	1928	1928	1928	1928	1928	1928	1928	1928	1928	1928	1928	1928	1928	1928	1928	1928	1928	1928	1928	1928	1933	1933	1933	1933	1933	1936
854	855	855	855	855	855	855	857	857	857	857	857	858	858	858	859	859	859	859	860	860	860	860	860	860	860	860	861	861	861	861	861	861	861	861	861	861	861	861	861	861	861	861	861	861	861	861	862	862	862	862	862	862	862	862	862	862	862	861	860	860	860	860	860	859	859	859	858	857	857	857	855	854	854	853	853	853	853	853	853	853	853	854	854	855	855	855	857	858	858	859	860	860	860	860	860	861	862	862	862	862	862	862	862	862	862	862	861	860	860	860	859	859	857	853	848	845	845	843	841	841	840	837	835	835	835	835	835	835	837	839	839	841	843	843	844	844	846	850	850	855	855	858	859	859	860	861	861	862	862	862	863	863	863	863	863	863	863	863	863	863	863	863	863	864	864	864	864	864	864	864	864	864	865	864	864	864	864	864	864	864	864	864	864	863	863	863	862	862	862	862	862	862	861	861	861	861	861	861	861	862	862	862	862	862	862	863	0	0	0	0	0	0	0	0	0	0	666	661	660	660	660	0	0	0	0	0	0	0	0	0	0	0	0	0	0	0	0	0	0	0	0	0	0	0	661	661	661	661	660	660	660	660	388	388	388	388	388	388	388	388	388	388	388	388	655	655	655	655	655	655	655	655	656	656	657	657	657	658	659	659	659	0	0	0	0	0	0	0	0	0	0	0	0	0	0	0	0	0	0	0	0	0	0	0	0	0	0	0	0	0	0	0	0	0	0	0	0	0	865	865	865	865	866	866	866	866	866	866	866	866	866	866	866	866	866	866	866	866	865	865	864	864	864	864	863	863	863	862	862	861	861	861	861	860	860	860	860	860	860	860	860	860	860	859	859	859	860	860	860	860	860	860	861	862	862	863	863	863	864	864	864	865	866	866	867	867	867	868	868	869	870	870	871	873	873	874	875	875	877	878	878	878	878	878	879	880	880	0	0	0	0	0	0	0	0	0	0	0	0	0	0	0	0	0	0	0	0	0	0	0	0	0	0	0	0	0	0	0	0	0	0	0	0	0	0	0	0	0	0	0	0	0	0	0	0	0	0	0	0	0	0	0	881	881	881	0	0	881	881	881	881	881	881	880	878	878	878	878	878	878	0	0	0	0	782	780	780	780	779	777	777	774	772	769	769	767	766	765	765	764	763	763	762	761	759	759	759	0	0	0	0	0	667	667	667	666	666	665	665	0	0	0	0	654	654	652	652	0	0	0	0	0	0	0	0	0	632	630	630	627	626	625	625	625	623	623	623	0	0	0	0	0	0	0	0	0	0	0	0	0	0	0	0	0	0	0	0	0	0	0	0	0	0	0	0	0	0	0	0	0	0	0	0	0	0	0	0	0	0	0	0	0	0	0	0	0	0	0	0	0	0	0	0	1908	1908	1908	1908	1908	1911	1911	1913	1916	1916	1922	1928	1928	1936	1942	1942	1945	1945	1951	1953	1953	1953	1953	1951	1945	1942	1942	1942	1936	1936	1933	1933	1933	1928	1925	1925	1922	1922	1922	1919	1919	1919	1919	1919	1919	1919	1919	1919	1919	1919	1916	1916	1916	1916	1916	1916	1916	1916	1916	1916	1916	1916	1916	1916	1916	1916	1916	1916	1916	1916	1916	1916	1916	1916	1916	1916	1916	1916	1916	1916	1916	1916	1916	1916	1916	1916	1916	1916	1916	1916	1916	1916	1916	1916	1916	1916	1916	1916	1916	1916	1916	1916	1916	1916	1916	1916	1916	1919	1919	1919	1916	1916	1916	1916	1916	1916	1916	1916	1916	1916	1916	1919	1919	1919	1922	1922	1925	1928	1928	1933	1933	1942	1945	1945	1951	1953	1953	1956	1962	1962	1962	1962	1962	1956	1956	1956	1953	1953	1953	1945	1945	1945	1936	1936	1936	1933	1928	1928	1925	1925	1925	1922	1922	1922	1922	1922	1922	1922	1922	1922	1922	1925	1925	1925	1925	1925	1925	1925	1925	1925	1928	1928	1928	1933	1933	1933	1933
853	853	853	853	854	854	854	855	855	855	855	855	857	857	857	857	858	858	858	859	859	859	860	860	860	860	860	860	860	860	860	860	860	860	860	860	860	860	860	860	860	860	860	860	860	860	860	861	861	861	861	861	861	861	861	861	861	861	860	860	860	860	860	860	859	859	859	858	857	857	857	855	854	854	853	853	853	853	853	853	853	853	854	854	854	855	855	857	858	858	858	859	859	860	860	860	860	860	860	861	861	861	861	861	860	860	860	860	860	860	858	857	852	852	847	845	842	842	839	834	830	829	829	828	828	828	828	828	829	829	830	834	834	837	837	840	843	843	844	848	848	852	852	855	858	858	859	859	860	861	861	861	862	862	862	862	862	862	862	862	862	862	862	862	863	863	863	863	863	863	863	863	863	863	863	863	863	863	863	863	863	863	862	862	862	862	862	862	862	862	862	862	862	861	861	861	861	861	861	861	862	862	862	862	862	862	0	0	0	0	0	0	0	0	0	0	0	0	661	660	660	660	0	0	0	0	0	0	0	0	0	0	0	0	0	0	0	0	0	0	0	0	0	0	0	661	661	661	661	660	660	660	660	660	660	389	389	389	389	389	389	389	389	389	389	655	655	655	655	655	655	655	655	656	656	657	657	657	658	659	659	660	0	0	0	0	0	0	0	0	0	0	0	0	0	0	0	0	0	0	0	0	0	0	0	0	0	0	0	0	0	0	0	0	0	0	0	0	0	864	864	864	864	864	864	864	863	863	863	863	864	864	864	863	863	863	863	863	863	863	863	862	862	862	862	861	861	861	860	860	860	860	860	860	860	860	860	860	860	860	860	860	860	860	859	859	859	860	860	860	860	860	860	861	862	862	862	863	863	863	864	864	864	865	865	866	866	866	866	867	867	867	869	869	870	870	871	873	873	875	876	876	877	878	878	880	0	0	0	0	0	0	0	0	0	0	0	0	0	0	0	0	0	0	0	0	0	0	0	0	0	0	0	0	0	0	0	0	0	0	0	0	0	0	0	0	0	0	0	0	0	0	0	0	0	0	0	0	0	0	876	876	876	878	879	879	879	879	878	878	878	878	877	877	877	874	871	871	871	870	870	870	0	0	0	782	780	780	780	779	777	777	774	772	769	769	767	766	765	765	764	763	763	762	761	759	759	759	0	0	667	667	667	667	667	666	665	665	665	663	663	663	657	655	654	654	652	650	650	650	647	645	643	643	643	0	635	632	630	630	627	626	625	625	624	623	623	623	0	0	0	0	0	0	0	0	0	0	0	0	0	0	0	0	0	0	0	0	0	0	0	0	0	0	0	0	0	0	0	0	0	0	0	0	0	0	0	0	0	0	0	0	0	0	0	0	0	0	0	0	0	0	0	0	0	0	0	1911	1911	1911	1911	1913	1919	1919	1928	1933	1933	1942	1942	1945	1951	1951	1953	1953	1953	1953	1953	1951	1945	1942	1942	1942	1936	1936	1933	1933	1933	1928	1925	1925	1922	1922	1922	1919	1919	1919	1919	1919	1919	1919	1919	1919	1919	1919	1916	1916	1916	1916	1916	1916	1916	1916	1916	1916	1916	1916	1916	1916	1916	1916	1916	1916	1916	1916	1916	1916	1916	1916	1916	1916	1916	1916	1916	1913	1913	1913	1913	1913	1913	1911	1911	1911	1911	1911	1911	1911	1911	1913	1913	1913	1913	1913	1913	1913	1913	1913	1913	1913	1913	1913	1913	1913	1913	1913	1913	1913	1913	1913	1913	1913	1913	1913	1913	1913	1913	1916	1916	1919	1922	1922	1922	1928	1928	1933	1933	1936	1945	1945	1945	1953	1953	1953	1956	1956	1956	1956	1953	1953	1953	1951	1951	1951	1945	1942	1936	1936	1933	1928	1928	1928	1925	1925	1922	1922	1922	1922	1922	1922	1919	1919	1919	1919	1919	1919	1919	1922	1922	1922	1922	1925	1925	1925	1925	1925	1925	1928	1928	1928	1933	1933	1933
