529	530	531	534	535	537	541	542	544	545	546	548	549	550	550	550	549	548	548	547	547	547	548	548	549	550	550	550	551	552	552	552	552	551	550	550	548	547	546	546	546	544	544	544	544	544	544	544	545	545	547	547	548	548	549	550	550	551	552	553	553	553	552	552	552	552	550	549	548	548	548	548	548	548	548	549	550	552	553	554	558	559	561	564	566	568	568	569	569	569	569	569	569	569	569	569	569	569	569	569	570	571	571	571	571	572	572	572	572	572	572	572	572	130	0	0	0	0	0	0	185	816	815	813	811	809	808	807	803	800	798	798	798	798	798	798	798	798	798	798	798	798	800	800	801	806	580	431	834	839	843	856	866	876	886	890	894	906	920	935	968	984	1001	1033	1049	1068	1103	1120	1138	1189	1204	1220	1228	1229	1229	1226	1224	1220	1212	1210	1208	1203	1200	1196	1189	1187	1187	224	0	0	0	0	0	0	0	0	0	0	0	398	542	542	542	542	542	542	542	542	542	542	542	542	542	542	542	543	543	544	544	544	545	545	546	547	548	549	550	550	550	550	551	552	553	553	554	554	554	554	555	556	556	556	557	558	558	558	558	558	557	556	556	556	555	554	554	552	551	550	550	550	550	550	549	549	549	548	548	548	548	548	547	546	546	546	546	546	545	544	544	544	543	542	542	541	540	539	539	538	538	538	538	537	537	537	537	537	537	537	537	537	537	538	538	538	538	538	538	538	539	539	539	539	539	539	539	539	539	538	538	538	538	538	537	537	537	536	536	536	536	535	535	535	535	536	536	536	536	536	536	536	537	538	538	539	540	540	540	540	541	541	541	541	542	542	542	542	541	541	541	540	540	538	537	537	536	535	535	534	533	533	531	530	529	527	526	526	525	525	524	523	522	522	521	520	520	520	520	520	520	519	519	518	518	518	518	517	517	517	517	518	517	517	516	516	516	516	516	516	516	516	516	516	516	516	516	516	517	518	518	519	520	522	523	525	527	528	529	530	531	533	535	535	536	536	537	537	537	537	537	537	538	538	538	538	539	539	539	540	540	541	542	542	542	542	542	542	542	542	542	542	543	543	544	544	544	544	544	544	544	544	544	544	543	543	542	542	542	542	541	540	540	540	540	538	538	538	537	537	536	536	536	536	536	536	536	536	537	538	538	538	539	540	540	540	541	542	542	542	542	542	543	543	542	542	542	542	542	541	541	540	540	540	540	540	540	540	540	540	540	540	540	540	540	540	540	540	540	540	539	539	539	539	538	538	538	538	537	536	536	535	535	534	534	533	533	532	531	530	530	529	529	528	528	528	528	528	528	527	527	527	527	527	527	528	528	528	528	528	528	529	530	530	531	531	533	533	533	534	534	534	535	535	535	535	535	536	536	536	536	536	537	538	538	537	536	536	536	536	536	536	536	536	536	536	535	535	535	535	535	535	535	535	536	536	536	537	537	537	538	538	538	538	538	538	538	538	538	538	537	537	537	536	536	536	536	536	536	536	535	535	535	535	535	535	534	534	534	534	534	534	534	535	536	536	536	537	538	538	538	539	540	541	542	542	542	542	543	544	544	544	544	544	544	544	544	544	544	544	544	544	544	543	543	543	543	542	542	542	542	542	542	542	542	542	542	542	542	542	542	542	542	542	542	542	542	543	543	544	544	544	544	544	544	545	545	545	545	545	545	547	547	547	547	548	548	547	547	547	547	547	547	548	548	547	547	546	545	545	545	544	544	544	544	544	543	543	542	542	542	542
529	530	531	534	535	537	541	542	543	545	546	548	549	549	550	549	549	548	547	547	547	548	548	548	550	550	550	551	552	553	553	553	553	551	551	550	548	548	548	547	546	544	544	544	544	545	545	545	545	545	547	547	547	548	549	549	550	551	551	551	551	551	551	550	550	550	549	548	547	547	547	547	547	547	548	549	550	551	552	554	558	559	561	564	565	567	568	568	569	569	569	569	569	569	569	569	569	569	569	570	571	571	571	571	572	572	572	573	573	573	573	573	573	130	0	0	0	0	0	0	185	816	815	814	814	810	808	808	803	800	798	798	798	798	798	798	798	798	798	798	798	798	801	801	801	806	811	815	824	833	841	853	864	874	886	890	893	906	921	937	968	986	1005	1037	1052	1070	1106	1124	1144	1195	1209	1223	1228	1229	1229	1229	1227	1223	1213	1211	1211	1201	1199	1199	1189	1187	1187	224	0	0	0	0	0	0	0	0	0	0	0	399	542	542	543	543	542	542	542	542	542	542	543	543	543	543	543	543	544	545	545	545	545	545	547	548	548	549	550	550	550	550	550	551	552	553	554	554	554	554	554	555	556	556	556	558	558	558	558	557	556	556	556	555	554	554	553	551	551	550	550	550	549	549	549	548	547	547	547	547	547	547	545	545	545	545	545	545	544	544	543	543	543	542	541	541	540	539	538	538	538	538	538	537	537	537	537	537	537	537	537	537	538	538	538	538	538	538	538	538	540	540	540	540	540	540	540	540	540	538	538	538	538	538	537	537	537	536	536	536	535	535	535	535	535	535	535	535	535	536	536	536	537	538	538	538	540	540	540	540	540	541	541	541	541	541	541	541	541	541	541	540	540	538	537	537	536	535	535	534	533	533	531	530	529	527	526	526	525	525	525	524	523	522	521	520	520	520	520	520	520	519	519	518	518	518	518	517	517	517	517	518	517	517	517	517	517	517	517	517	517	517	517	517	517	517	517	517	517	518	518	519	520	522	523	525	527	528	529	530	531	533	535	535	536	536	536	537	537	537	537	537	537	537	538	538	538	538	538	540	540	540	541	541	541	541	542	542	542	542	542	542	542	542	543	543	543	543	543	543	543	543	543	543	542	542	542	541	541	541	541	540	540	540	540	538	538	538	537	537	536	536	536	536	536	536	537	537	537	538	538	539	540	540	540	541	542	542	543	543	543	543	544	544	543	543	543	542	542	542	541	540	540	540	540	540	540	540	540	540	540	540	540	540	540	540	540	540	540	539	538	538	538	538	538	537	537	537	536	536	535	535	535	534	533	533	533	532	531	530	530	529	528	528	528	528	528	527	527	527	527	527	527	527	527	527	528	528	528	528	528	529	530	530	530	531	533	533	533	534	534	535	535	535	535	535	535	536	536	536	537	537	537	538	538	538	537	537	537	537	536	536	536	536	536	535	535	535	535	535	535	535	535	535	536	536	536	537	537	537	538	538	538	538	538	538	538	538	538	538	538	537	537	537	537	537	537	536	536	536	535	535	535	535	535	535	534	534	534	534	534	534	534	535	535	535	536	536	537	537	537	538	540	540	541	542	542	542	543	543	543	543	543	543	544	544	544	544	544	544	543	543	543	542	542	542	542	542	542	542	542	542	541	541	541	541	541	541	541	541	541	541	541	542	542	542	542	543	543	543	543	544	544	544	544	545	545	545	545	545	545	547	547	547	547	547	548	547	547	547	547	547	547	548	548	547	547	546	545	545	545	544	544	544	544	543	543	543	542	542	542	541
530	530	531	534	535	537	540	541	542	545	546	547	548	548	548	547	547	547	547	547	547	548	548	548	550	550	550	551	552	553	551	551	551	551	551	550	549	549	548	547	546	544	544	544	544	545	545	545	545	545	545	545	545	545	546	547	548	547	547	547	547	547	547	547	547	547	545	544	544	544	544	544	545	545	547	548	548	551	552	554	556	558	560	563	564	565	567	567	568	569	569	569	569	569	569	571	571	571	571	571	572	572	572	573	573	573	573	574	574	574	574	575	576	130	0	0	0	0	0	0	187	824	820	819	819	817	816	814	809	806	806	804	803	803	802	801	801	801	801	801	802	803	801	801	801	806	811	815	824	833	841	853	864	874	883	888	893	906	923	940	976	994	1013	1046	1061	1079	1116	1134	1154	1201	1215	1229	1234	1233	1229	1224	1221	1217	1212	1209	1205	1200	1197	1193	1184	1182	1182	223	0	0	0	0	0	0	0	0	0	0	0	400	544	543	543	543	544	543	543	543	543	543	544	544	544	544	544	544	545	545	545	547	547	547	547	548	548	549	550	550	550	550	550	551	552	553	554	554	554	554	554	555	556	556	556	556	556	556	556	556	556	555	555	555	553	552	551	550	550	549	548	548	547	545	545	545	544	544	544	543	543	543	543	543	543	542	542	542	542	542	541	541	541	541	540	540	540	539	538	538	538	538	538	537	537	537	537	537	537	537	537	538	538	538	538	539	540	540	541	541	541	541	541	541	541	541	541	540	540	540	539	538	538	538	537	537	537	536	536	536	535	534	534	534	535	535	535	535	535	535	535	535	536	537	537	538	538	539	540	540	540	540	540	540	541	541	541	541	540	540	540	539	538	538	537	537	536	535	535	533	532	531	531	530	529	527	526	526	525	524	524	524	523	522	521	520	520	520	520	520	519	518	518	518	518	518	517	517	517	517	517	518	518	518	518	518	518	518	517	517	517	517	517	518	518	518	518	518	518	518	519	519	520	522	523	525	527	528	529	530	531	533	534	534	535	536	536	536	536	536	536	537	537	537	537	537	537	538	538	538	539	540	540	540	540	541	541	541	541	542	542	542	542	542	542	542	542	542	542	542	542	542	542	541	541	541	541	541	541	541	541	540	538	538	538	538	538	537	537	537	537	537	537	537	537	537	537	538	538	538	538	539	540	541	541	542	542	542	543	543	543	544	544	544	543	543	543	542	541	541	541	541	541	540	540	540	540	540	540	538	538	538	538	538	538	538	537	537	537	537	537	537	537	537	536	536	536	536	535	535	535	534	534	534	533	533	533	532	531	530	530	529	528	528	528	528	528	527	527	527	526	526	526	526	527	527	527	527	527	528	528	528	529	530	530	531	533	533	533	534	534	535	535	535	535	536	536	537	537	537	538	538	538	540	539	538	538	538	538	536	536	536	536	535	535	534	534	534	534	534	534	534	534	534	535	536	536	537	538	538	538	539	540	540	540	540	540	540	540	540	539	538	538	538	538	537	537	536	536	536	536	536	536	535	535	535	534	534	534	534	534	534	534	534	534	535	535	535	536	537	537	537	538	539	540	541	541	541	542	542	542	542	542	543	543	543	543	542	542	542	541	541	541	541	541	541	541	541	541	541	541	541	541	541	541	541	541	541	541	541	541	541	541	541	542	542	542	543	543	543	543	544	544	544	544	544	544	545	545	545	545	547	547	547	547	547	548	548	548	547	547	547	548	547	547	547	547	546	545	545	545	544	544	544	543	543	543	543	542	542	542	541
530	530	531	534	535	537	540	541	542	544	545	546	547	548	548	547	547	546	546	546	547	548	548	548	550	550	550	551	551	552	551	551	551	551	551	550	549	548	548	547	546	544	544	544	544	546	546	546	545	545	545	545	545	545	546	546	546	546	546	546	546	546	546	546	545	545	544	543	543	543	544	544	544	545	546	547	548	550	551	552	555	557	560	563	564	564	567	567	568	568	569	569	569	569	569	571	571	571	571	572	572	572	573	573	573	573	574	575	575	575	347	287	288	65	0	0	0	0	0	313	516	828	826	824	823	821	820	818	813	811	808	807	806	806	805	804	804	804	804	804	803	803	802	802	802	807	812	816	827	835	842	854	865	874	883	888	893	909	926	944	980	997	1015	1048	1064	1082	1118	1137	1160	1202	1215	1229	1232	1230	1226	1221	1218	1214	1209	1206	1202	1197	1194	1190	1183	1182	1182	223	0	0	0	0	0	0	0	0	0	67	272	472	544	544	544	544	544	544	544	544	544	544	544	544	544	544	544	545	546	546	546	548	548	548	548	548	549	550	550	550	550	550	550	551	552	552	554	554	554	554	554	555	556	556	556	556	556	556	556	556	556	555	555	554	553	552	550	550	549	548	547	546	546	545	544	544	543	543	543	542	542	542	542	542	542	542	542	542	541	541	540	540	540	540	540	540	539	538	538	538	538	538	538	537	537	537	537	537	538	538	538	539	539	539	540	540	541	541	541	542	542	542	542	542	542	542	542	541	540	540	540	539	538	538	537	537	537	536	536	535	534	534	534	534	534	534	534	534	534	534	534	535	536	536	537	538	538	538	539	539	539	539	539	539	540	540	540	540	539	539	539	538	538	538	537	536	536	535	534	533	532	531	530	530	529	527	526	525	525	524	524	523	522	522	521	520	520	520	520	519	519	518	518	518	518	518	517	517	517	517	517	518	518	518	518	518	518	518	518	518	518	518	518	518	518	518	518	518	518	518	519	520	520	522	523	525	527	528	529	530	531	533	534	534	535	536	536	536	536	536	536	536	536	536	537	537	537	537	538	538	539	539	540	540	540	541	541	541	541	541	542	542	542	542	542	542	542	542	542	542	542	542	542	541	541	541	541	541	540	540	539	539	538	538	538	537	537	536	536	536	536	536	536	536	537	537	537	538	538	538	538	539	540	541	541	542	542	542	542	543	543	544	544	543	543	543	542	542	541	541	541	541	540	540	540	540	539	539	539	538	538	538	538	538	538	538	537	537	536	536	536	536	536	536	536	536	536	536	535	535	534	534	534	534	533	533	532	531	531	530	530	529	528	528	528	528	527	527	527	527	526	526	526	526	527	527	527	527	527	528	528	528	529	530	530	531	533	533	534	534	534	535	535	535	536	536	537	538	538	538	539	539	539	540	539	539	539	538	538	536	536	536	536	535	534	534	534	534	534	534	534	534	534	534	534	535	536	536	537	538	538	539	540	540	540	540	540	540	540	540	540	540	539	539	538	538	537	536	536	536	536	536	536	535	535	535	534	534	534	534	534	534	534	534	534	534	535	535	536	536	537	537	538	538	539	540	540	540	541	542	542	542	542	542	542	542	542	542	542	542	541	541	541	541	540	540	540	540	540	540	540	540	540	540	540	540	540	540	540	540	540	541	541	541	542	542	542	543	543	543	543	544	544	544	544	544	544	545	545	545	546	547	547	547	547	547	548	548	548	548	548	548	548	547	547	547	547	546	545	545	545	544	544	544	543	543	543	543	542	542	542	541
530	530	531	534	535	537	540	541	542	544	544	545	547	547	547	547	546	545	545	546	547	548	548	548	550	550	550	551	551	551	551	551	551	551	550	549	548	548	547	547	547	545	545	545	545	546	547	547	546	545	545	545	545	545	545	545	544	544	544	545	544	544	544	544	544	543	542	542	542	543	543	543	544	544	544	546	548	550	550	551	555	557	559	563	563	564	567	567	568	568	568	569	569	569	569	571	571	571	572	572	572	573	573	573	573	573	574	576	576	576	120	0	0	0	0	0	0	0	0	625	846	833	831	829	827	825	824	822	818	815	811	809	808	808	808	808	806	806	806	806	804	803	803	803	803	808	813	817	830	836	842	856	866	874	883	888	893	912	929	947	984	1000	1017	1051	1066	1084	1121	1141	1165	1202	1215	1229	1229	1227	1223	1218	1215	1211	1206	1203	1199	1194	1191	1187	1183	1182	1182	223	0	0	0	0	0	0	0	0	0	134	545	544	544	544	544	544	544	545	545	544	544	544	545	545	545	545	545	545	547	547	547	548	548	548	548	549	549	550	550	550	550	550	550	551	551	551	553	554	554	554	554	555	556	556	556	556	556	556	556	556	556	555	555	554	553	552	550	549	548	547	545	545	544	544	544	543	542	542	542	541	541	541	541	541	541	541	541	541	540	540	540	540	540	540	540	540	538	538	538	538	538	538	538	537	537	537	537	537	538	538	538	540	540	540	541	541	541	542	542	542	542	543	543	542	542	542	542	541	541	541	541	540	538	538	537	537	537	536	535	535	534	534	534	534	534	534	534	534	534	534	534	534	535	536	536	537	538	538	538	538	538	538	538	539	540	540	540	540	538	538	538	538	538	537	536	536	535	534	534	533	532	531	530	529	529	527	526	525	525	524	524	522	522	522	521	520	520	519	519	519	519	518	518	518	518	518	517	517	517	517	517	518	518	518	518	519	519	519	519	519	519	519	519	518	518	518	519	519	519	519	519	520	521	522	523	525	527	528	529	530	531	533	534	534	535	536	536	536	536	536	536	536	536	536	537	537	537	537	537	537	538	538	540	540	540	541	541	541	541	541	541	542	542	542	542	542	542	542	542	542	542	542	542	541	541	541	541	540	540	538	538	538	537	537	537	536	536	536	536	536	536	536	536	536	537	537	537	538	538	538	538	539	540	541	541	541	542	542	542	543	543	543	543	543	543	542	542	542	541	541	541	540	540	540	540	540	538	538	538	538	537	537	537	537	537	537	537	537	536	536	536	536	535	535	535	535	535	535	535	535	534	534	534	533	533	533	531	531	531	530	530	529	528	528	528	527	527	527	527	527	526	526	526	526	527	527	527	527	527	527	528	528	529	530	530	531	533	533	534	534	534	535	535	536	537	537	537	538	538	538	540	540	540	541	540	540	540	539	538	536	535	535	535	534	534	534	533	533	533	533	533	533	534	534	534	535	535	536	537	537	537	539	540	540	540	540	541	541	541	541	541	541	540	539	538	538	538	537	536	536	536	536	536	535	535	535	534	534	534	533	533	533	534	534	534	534	535	535	535	536	536	537	538	538	538	540	540	540	541	541	541	542	542	542	542	542	541	541	541	541	541	541	541	540	540	540	540	540	540	540	540	540	540	540	540	540	540	540	540	540	540	541	541	541	542	542	542	543	543	543	543	544	544	544	544	544	544	545	545	546	547	547	547	547	547	547	548	548	548	548	548	548	548	547	547	547	547	546	545	545	545	544	544	544	543	543	543	543	542	542	542	541
530	530	531	535	536	537	540	541	542	544	544	545	547	547	547	545	545	545	545	546	547	548	548	549	550	550	551	551	551	551	550	550	550	550	550	549	548	548	547	547	547	545	545	545	547	547	547	547	546	545	545	545	545	545	544	544	544	543	543	543	543	543	543	543	543	542	541	541	541	542	542	543	543	543	544	546	547	549	550	551	554	556	559	560	561	563	565	566	567	568	568	569	569	569	569	571	571	572	572	572	573	574	574	574	574	575	576	577	577	577	120	0	0	0	0	0	0	0	0	625	849	847	845	843	841	839	837	833	827	824	822	820	819	816	815	814	814	812	811	808	805	803	803	803	804	811	816	819	827	833	839	853	864	874	883	888	893	912	931	951	988	1004	1021	1055	1069	1084	1121	1141	1165	1202	1210	1217	1217	1217	1217	1212	1209	1205	1200	1197	1193	1188	1185	1182	1182	803	0	0	0	0	0	0	0	0	0	0	0	134	545	545	545	545	545	545	547	546	545	545	545	545	547	547	547	547	547	547	548	549	549	549	549	549	549	549	549	550	550	550	550	550	550	551	551	551	553	554	554	554	554	555	556	556	556	556	556	556	556	556	556	555	555	554	553	552	550	549	548	547	545	544	543	543	542	541	541	541	540	540	539	538	538	538	538	538	538	538	538	538	538	538	538	538	538	538	538	538	538	538	538	538	538	538	538	538	538	538	540	540	540	541	542	542	542	543	543	544	544	544	544	544	544	544	544	544	543	542	542	541	541	540	540	539	537	536	536	535	534	534	533	533	533	533	533	533	533	533	533	533	533	533	534	534	534	535	536	536	536	537	537	537	537	537	537	537	537	537	537	537	537	537	537	536	535	535	534	533	533	531	530	530	530	529	528	526	525	525	525	524	524	522	522	522	521	520	520	519	519	519	518	518	518	517	517	517	517	517	517	517	517	518	518	518	519	519	519	519	519	519	519	519	519	519	519	519	519	519	519	519	520	520	521	522	523	525	527	527	528	529	530	531	533	534	535	536	536	536	536	536	536	536	536	536	536	536	536	537	537	537	538	538	538	539	540	540	541	541	541	541	541	541	542	542	542	542	542	542	542	542	541	541	541	541	540	540	540	539	538	537	537	536	536	536	535	535	535	535	535	535	535	535	535	536	536	536	537	537	537	537	537	538	540	540	540	541	541	541	541	541	541	542	542	542	542	541	541	540	540	540	540	540	540	538	538	538	538	537	537	537	536	536	536	536	536	535	535	535	535	535	535	535	535	535	534	534	534	534	534	534	534	533	533	533	533	533	531	531	531	530	530	529	528	528	528	527	527	527	526	526	526	526	526	526	526	526	526	527	527	527	528	528	529	530	530	531	533	533	534	534	534	535	536	536	537	538	539	540	540	540	540	541	541	541	541	541	540	539	538	536	535	535	534	534	534	533	533	533	533	533	533	533	533	533	534	535	535	535	536	536	537	538	538	540	540	540	541	541	541	541	541	541	541	541	540	540	539	538	537	537	536	536	536	536	535	535	534	534	534	533	533	533	534	534	534	534	535	535	535	536	536	537	537	537	538	538	539	540	540	540	540	541	541	541	540	540	540	540	540	540	540	540	540	540	540	540	540	540	540	540	540	540	540	540	540	540	540	540	540	540	540	541	541	542	542	542	543	543	543	543	543	544	544	544	544	544	544	545	545	546	547	547	547	547	547	547	548	547	547	547	547	547	548	547	547	547	547	547	547	545	545	545	544	544	544	544	544	543	542	542	542	541
530	531	532	535	536	537	540	541	542	544	544	545	547	547	547	545	545	545	546	547	548	548	548	549	550	550	551	551	551	551	550	550	550	550	550	549	549	548	548	548	547	546	546	546	548	548	548	548	546	546	545	545	545	545	544	543	543	543	542	542	542	542	542	542	542	542	541	540	540	541	542	542	543	543	544	545	546	548	549	550	553	556	558	559	561	562	564	565	566	568	568	568	569	569	569	571	571	572	572	573	574	574	574	575	575	575	576	577	578	578	120	0	0	0	0	0	0	0	0	630	855	852	849	848	844	842	840	837	831	828	823	822	821	818	817	816	815	813	811	808	805	803	803	803	804	811	816	819	827	833	839	852	863	873	883	888	893	916	934	953	992	1009	1028	1059	1072	1086	1121	1141	1165	1199	1207	1214	1211	1211	1211	1206	1204	1202	1194	1192	1190	1183	1181	1179	1181	803	0	0	0	0	0	0	0	0	0	0	207	341	546	546	546	546	546	546	547	546	546	546	546	546	547	547	547	548	548	548	548	549	550	550	550	550	550	550	550	550	550	550	550	550	551	551	551	551	553	554	554	554	554	555	556	556	556	556	556	557	557	557	556	555	555	554	553	552	550	549	548	547	545	544	543	543	542	541	541	540	539	539	539	538	538	538	538	538	538	538	538	538	538	538	538	538	538	538	538	538	538	538	538	538	538	539	539	539	539	539	540	541	541	542	542	543	543	543	544	544	545	546	546	546	545	544	544	544	544	543	542	541	541	540	539	538	537	536	535	534	534	533	532	532	532	532	532	532	532	532	532	532	532	532	532	533	534	534	535	535	536	536	536	536	536	536	536	536	536	536	536	536	536	536	536	536	535	534	534	533	533	531	530	530	530	529	528	526	525	525	524	524	524	522	522	522	521	520	520	519	519	519	518	518	518	517	517	517	517	517	517	517	517	518	518	519	519	519	520	520	520	520	520	520	519	519	519	519	519	519	519	519	520	520	521	522	523	525	527	527	528	529	530	531	533	534	535	535	536	536	536	536	536	536	536	536	536	536	536	536	537	537	537	538	538	539	539	540	540	541	541	541	541	541	542	542	542	542	542	542	542	542	541	541	541	540	540	539	538	538	537	536	536	536	535	535	534	534	534	534	534	534	534	534	535	535	535	536	536	536	537	537	537	538	539	540	540	540	540	540	540	540	541	542	541	541	541	541	540	540	539	539	539	539	539	538	538	538	538	537	537	536	536	536	536	536	535	535	535	535	534	534	534	534	534	534	534	534	534	534	534	534	534	533	533	533	533	533	532	531	531	530	530	529	528	528	528	528	527	527	526	526	526	526	526	526	526	526	526	527	527	527	528	528	529	530	530	531	533	533	534	534	534	536	536	537	538	539	539	540	540	540	540	541	542	542	541	541	540	539	538	536	535	535	534	534	534	532	532	532	532	533	533	533	533	533	534	534	535	535	536	536	536	537	538	539	540	540	541	541	541	542	542	542	541	541	540	540	540	539	538	537	536	536	536	536	536	535	534	534	534	534	534	534	534	534	534	534	535	535	535	536	536	537	537	537	538	538	538	539	540	540	540	540	540	540	540	540	540	540	540	540	540	540	539	539	539	539	539	539	539	540	540	540	540	540	540	540	540	540	540	540	540	541	541	542	542	542	543	543	543	544	544	544	544	544	544	544	545	545	545	546	547	547	547	547	547	547	548	547	547	547	547	547	548	548	547	547	547	547	547	546	546	545	545	544	544	544	544	543	543	542	542	542
530	531	533	536	536	537	540	541	542	544	544	545	547	547	547	545	545	545	547	547	548	548	548	549	550	550	551	551	551	551	550	550	550	550	550	549	549	549	549	548	548	547	547	547	548	548	548	548	547	547	545	545	545	545	544	543	542	542	542	542	542	542	542	542	542	542	541	540	540	541	541	542	543	543	543	544	544	548	549	550	553	555	558	559	560	561	564	564	565	568	568	568	569	569	569	571	571	572	573	573	574	574	575	576	576	576	577	578	578	578	120	0	0	0	0	0	0	0	0	634	861	856	854	852	847	845	843	841	836	831	824	824	823	819	819	819	816	813	811	808	805	803	803	803	804	811	816	819	827	833	838	850	861	871	883	888	893	919	937	955	996	1014	1034	1064	1075	1088	1121	1141	1165	1196	1204	1211	1206	1205	1205	1200	1199	1199	1189	1187	1187	1178	1176	1176	1181	803	0	0	0	0	0	0	0	0	0	0	414	548	547	547	547	547	547	547	547	547	547	547	547	547	547	547	547	548	548	548	549	550	550	550	550	550	550	550	550	551	550	550	550	551	551	551	551	551	553	554	554	554	554	555	556	556	556	556	557	558	558	557	556	555	555	554	553	552	550	549	548	547	544	544	543	542	542	541	540	539	538	538	538	537	537	537	537	537	537	537	537	537	537	537	537	538	538	538	538	538	538	538	538	538	538	539	540	540	540	540	541	542	542	542	543	543	544	544	544	545	546	547	547	547	547	545	544	544	544	543	543	541	541	540	538	538	537	536	535	534	534	533	531	531	531	531	530	530	530	530	530	530	530	530	531	533	533	533	534	534	535	535	535	535	536	536	536	536	536	536	536	536	536	535	535	535	534	534	534	533	533	531	530	530	529	528	528	526	525	525	524	524	524	522	522	522	521	520	520	519	519	519	518	518	518	517	517	517	517	517	517	517	517	518	519	519	519	520	520	520	520	520	520	520	520	519	519	519	519	519	519	519	520	520	521	522	523	525	527	527	528	529	530	531	533	534	535	535	535	536	535	535	535	535	535	536	536	536	536	536	536	537	537	537	538	538	538	540	540	540	541	541	541	541	542	542	542	542	542	542	542	542	541	541	541	540	539	538	537	536	536	535	535	535	534	534	534	534	534	534	534	534	534	534	534	534	535	535	536	536	536	537	537	537	538	540	540	540	540	540	540	540	540	541	540	540	540	540	540	540	538	538	538	538	538	538	538	538	537	537	537	536	536	536	535	535	535	535	535	535	534	534	534	534	534	534	534	534	534	534	534	534	534	533	533	533	533	533	533	532	531	530	530	529	528	528	528	528	528	527	526	526	526	526	526	526	526	526	526	527	527	527	528	528	529	530	530	531	533	533	534	534	535	536	537	537	538	540	540	540	541	541	541	542	542	542	541	541	540	539	538	536	535	535	534	534	534	531	531	531	531	532	533	533	533	533	534	534	534	535	536	536	536	537	537	538	539	540	541	541	541	542	542	542	541	541	541	541	541	540	538	538	537	537	537	537	536	536	535	534	534	534	534	534	534	534	534	535	535	535	535	536	536	537	537	537	538	538	538	538	540	540	540	540	540	540	540	540	540	540	540	540	540	540	538	538	538	538	538	538	538	539	540	540	540	540	540	540	540	540	540	540	540	541	541	542	542	542	543	543	543	544	544	544	544	544	544	545	545	545	545	546	547	547	547	547	547	547	548	547	547	547	547	547	547	548	548	547	547	547	547	547	546	545	545	545	544	544	544	543	543	543	542	542
533	533	534	536	536	537	540	541	542	544	544	545	545	545	545	545	545	545	547	547	548	548	548	549	550	550	550	550	550	550	550	550	549	549	549	549	549	549	549	549	549	549	549	549	549	549	549	548	547	547	547	546	545	544	543	543	542	541	541	541	541	541	541	541	541	540	539	538	538	540	541	541	542	542	543	544	544	547	548	549	553	554	556	558	559	560	563	563	564	567	567	568	569	569	569	571	572	573	573	573	574	576	576	577	577	577	578	578	579	580	120	0	0	0	0	0	0	0	0	643	873	871	867	864	859	857	855	850	840	835	830	828	827	827	824	821	816	813	811	808	805	803	801	801	802	811	816	819	827	833	838	850	861	871	883	890	896	926	944	962	1008	1023	1038	1069	1083	1098	1122	1141	1165	1191	1195	1199	1199	1197	1193	1188	1187	1187	1183	1180	1176	1167	1165	1165	198	0	0	0	0	0	0	0	0	0	0	0	414	548	547	547	547	547	547	547	547	547	547	548	548	548	548	548	548	549	549	549	550	550	550	551	551	551	551	551	551	553	553	553	551	551	551	553	553	553	554	554	554	555	555	556	556	556	556	558	558	558	558	557	556	555	555	554	551	550	549	548	547	545	543	543	542	541	541	540	538	538	537	537	537	537	536	536	536	536	536	536	536	536	537	537	537	537	537	537	538	538	538	538	538	538	540	540	540	541	541	541	542	543	543	544	545	545	547	547	547	548	548	548	548	547	547	547	546	545	544	543	543	542	541	540	538	538	537	536	535	534	533	532	531	530	530	530	530	530	529	529	529	529	529	529	530	531	531	531	533	533	533	534	534	534	534	534	534	534	534	534	535	535	535	534	534	534	533	533	533	532	531	530	529	529	529	528	528	526	525	525	524	523	522	522	521	521	521	520	520	518	518	518	518	518	518	517	517	517	517	517	517	517	517	518	519	519	519	520	520	521	521	521	521	520	520	520	520	520	520	520	520	520	520	520	521	522	523	525	527	527	528	529	530	531	533	534	535	535	535	535	535	535	535	535	535	535	536	536	536	536	536	537	537	537	537	538	538	540	540	540	541	541	541	541	542	542	542	542	542	542	542	542	541	540	540	540	538	537	536	535	535	534	534	533	531	531	531	531	531	531	531	531	531	533	533	533	534	534	535	535	535	536	536	536	537	537	537	538	538	538	538	538	538	538	538	538	538	538	538	537	537	537	537	538	538	537	537	537	537	537	537	536	536	536	535	535	535	535	535	535	534	534	534	534	534	534	534	534	534	534	534	534	534	534	534	534	533	533	533	532	531	530	530	530	529	529	529	528	528	528	527	527	527	527	527	527	527	527	527	527	527	528	528	528	529	530	530	531	533	533	534	535	535	536	537	537	538	540	540	540	541	541	542	542	542	542	541	541	540	539	538	536	536	536	534	534	534	531	531	531	531	531	531	531	532	533	533	534	534	534	535	535	536	537	537	538	538	538	541	541	541	542	542	542	542	542	542	542	542	541	540	539	538	538	538	538	537	537	536	536	536	535	535	535	535	535	535	535	535	535	536	536	536	537	537	537	538	538	538	538	540	540	540	540	540	540	540	540	540	540	540	540	540	540	538	538	538	538	538	538	538	538	538	538	539	540	540	540	540	540	540	540	541	541	541	542	543	543	543	544	544	544	544	544	545	545	545	545	546	547	547	547	547	547	547	547	547	547	548	547	547	547	547	547	547	548	548	548	548	548	548	547	547	547	547	546	545	545	545	545	544	544	543	542
533	534	534	536	537	537	540	541	542	543	544	544	544	545	545	545	545	545	547	547	548	548	548	549	550	550	550	550	550	550	550	550	549	549	549	549	549	549	549	549	550	550	550	550	550	550	549	548	548	547	547	546	545	544	543	543	542	541	541	541	541	540	540	540	540	540	539	538	538	539	541	541	542	542	543	544	544	547	548	549	552	554	556	558	559	560	562	563	564	566	567	568	569	569	569	571	572	572	573	573	574	576	576	577	577	577	578	579	492	290	60	0	0	0	0	0	0	0	0	649	881	877	874	871	865	862	860	856	845	839	833	830	828	828	825	823	820	562	451	808	805	803	801	801	802	812	818	822	838	842	845	858	870	881	891	898	904	932	950	970	1010	1025	1040	1071	1083	1096	1121	1140	1162	1186	1191	1196	1196	1194	1190	1185	1183	1182	1177	1174	1170	1161	1160	1160	197	0	0	0	0	0	0	0	0	0	0	0	414	548	547	547	547	548	548	548	548	548	548	548	548	548	548	548	548	549	549	550	550	550	551	552	552	552	552	552	552	554	554	553	552	552	552	554	554	554	554	555	555	556	556	556	557	557	557	558	558	558	558	557	556	555	554	554	551	550	549	548	546	544	543	542	542	541	540	539	538	537	536	536	536	536	536	536	536	536	536	536	536	536	536	536	537	537	537	537	538	538	538	538	539	539	540	540	541	541	541	542	542	543	544	544	545	546	548	548	548	549	549	549	549	548	548	548	547	546	544	544	544	542	542	540	538	538	537	536	535	534	533	532	531	530	530	530	530	530	529	529	529	529	529	529	530	530	531	531	532	532	532	533	534	534	534	534	534	534	534	534	534	534	534	534	534	534	532	532	532	531	530	530	529	529	528	528	527	526	525	524	523	522	522	522	521	521	521	520	520	518	518	518	518	518	518	517	517	517	517	517	517	517	517	518	519	519	520	520	520	521	521	521	521	521	520	520	520	520	520	520	520	520	520	520	521	523	524	525	527	527	528	529	530	531	533	534	535	535	535	535	535	535	535	535	535	535	535	536	536	536	536	536	537	537	537	538	538	540	540	540	541	541	541	542	542	542	542	542	542	542	542	542	541	540	540	539	538	537	536	535	535	534	533	532	531	530	530	530	530	530	530	530	530	532	532	532	533	534	534	535	535	536	536	536	536	536	537	538	538	538	538	538	538	538	538	538	538	538	537	537	537	537	537	537	537	537	537	537	537	537	537	536	536	536	535	535	535	535	535	534	534	534	534	534	534	534	534	534	534	534	534	534	534	534	534	534	533	533	533	532	532	530	530	530	530	529	529	529	528	528	528	528	528	528	528	528	528	528	528	528	528	528	528	529	530	530	531	532	533	534	534	535	536	536	537	538	538	540	540	540	541	541	542	542	542	542	541	541	540	539	538	536	536	536	534	534	534	531	531	531	531	531	531	531	532	532	533	533	534	534	535	535	536	537	537	538	538	538	541	541	542	542	542	542	542	542	542	542	542	542	541	540	540	539	539	539	538	537	536	536	536	536	536	536	536	536	536	536	536	536	536	536	537	537	537	537	538	538	538	539	540	540	540	540	540	540	540	540	540	540	540	540	540	540	538	538	538	538	538	538	538	538	538	538	539	540	540	540	540	540	540	540	541	541	542	542	543	543	544	544	544	544	544	544	545	545	546	546	546	547	547	547	547	547	547	547	547	547	548	548	548	548	548	548	548	548	548	548	548	548	548	548	548	548	548	547	546	546	546	545	545	544	544	543
534	534	535	537	537	537	540	540	541	543	543	543	544	544	545	545	545	545	547	547	548	548	548	549	550	550	550	550	550	550	550	550	549	549	549	549	549	549	549	550	550	550	550	550	550	550	550	549	548	548	547	546	545	544	543	543	542	541	541	541	540	540	540	540	540	540	539	538	538	539	540	541	542	542	543	544	544	547	548	549	551	553	555	558	558	559	561	562	564	565	566	568	569	569	569	571	571	572	573	573	574	576	576	577	577	577	578	580	405	0	0	0	0	0	0	0	0	0	0	655	888	883	881	878	871	867	864	862	850	843	836	832	830	830	826	824	824	311	91	808	805	803	801	801	802	814	820	825	850	850	851	865	878	890	899	906	912	937	957	977	1012	1027	1043	1073	1083	1093	1121	1139	1160	1180	1187	1193	1193	1191	1187	1183	1180	1176	1172	1169	1165	1156	1154	1154	196	0	0	0	0	0	0	0	0	0	0	0	414	548	547	547	547	548	548	548	548	548	548	548	549	549	548	548	548	549	550	550	551	551	551	553	553	553	553	553	553	554	554	554	553	553	553	554	554	554	555	556	556	556	556	556	558	558	558	558	558	558	558	557	556	554	554	553	551	550	549	547	546	544	542	542	541	540	539	538	537	537	536	536	536	536	535	535	535	535	535	536	536	536	536	536	536	537	537	537	538	538	538	538	539	540	540	541	541	541	542	542	543	544	544	545	546	547	548	549	549	550	550	550	550	549	549	548	547	547	545	544	544	543	542	541	538	538	537	536	535	534	533	532	531	530	530	530	530	530	529	529	529	529	529	529	529	530	530	531	531	531	531	533	533	533	533	533	533	533	533	534	534	534	534	533	533	533	532	531	531	530	530	529	529	529	528	527	527	525	524	524	522	522	522	521	521	521	521	520	520	518	518	518	518	518	518	517	517	517	517	517	517	517	517	518	519	519	520	520	520	521	521	521	521	521	521	520	520	520	520	520	520	520	520	520	521	524	524	525	527	527	528	529	530	531	533	534	535	535	535	535	535	535	535	535	535	535	535	535	536	536	536	536	537	537	537	538	538	540	540	540	541	541	541	542	542	542	542	542	542	542	542	542	541	540	540	538	537	537	536	535	535	534	533	531	530	530	530	530	530	530	530	530	530	531	531	531	533	533	534	535	535	535	535	535	536	536	536	537	537	537	537	537	537	537	537	537	537	537	537	537	537	537	537	537	537	537	537	537	537	537	537	536	536	536	535	535	535	535	534	534	534	534	534	534	534	534	533	533	533	534	534	534	534	534	534	534	533	533	533	533	533	531	531	530	530	530	529	529	529	528	528	528	528	528	528	528	528	528	528	528	528	529	529	529	530	531	532	533	534	534	535	536	536	537	538	538	538	540	540	541	541	541	542	542	542	542	541	541	541	539	538	537	536	536	534	534	534	531	531	531	531	531	531	531	531	531	533	533	533	534	535	535	536	537	537	538	538	538	541	542	542	542	542	543	543	543	543	543	543	543	542	542	541	540	540	540	538	538	537	537	537	536	536	536	536	536	536	536	536	536	536	537	537	537	537	537	538	538	539	540	540	540	540	540	540	540	540	540	540	540	540	540	540	540	538	538	538	538	538	538	538	538	538	538	539	540	540	540	540	540	540	540	541	542	542	543	543	543	544	544	544	544	544	545	545	546	547	547	547	547	547	547	547	547	547	547	547	547	548	548	548	548	548	548	548	548	548	548	548	548	549	549	549	548	548	548	547	547	546	545	545	545	544	543
533	533	534	535	535	536	537	537	538	542	542	542	544	544	545	544	544	544	545	545	545	547	547	548	549	549	549	549	549	549	550	550	549	549	549	550	550	550	550	551	551	551	551	551	553	552	551	550	549	549	548	547	547	545	544	543	542	541	541	540	540	540	540	540	540	540	539	538	538	539	540	541	542	542	543	544	544	547	548	549	550	552	554	556	557	558	561	562	563	564	565	567	568	568	569	571	571	572	573	573	574	576	576	577	577	577	578	578	404	0	0	0	0	0	0	0	0	0	0	669	907	902	898	895	890	885	882	877	865	858	853	847	843	838	837	836	836	315	92	816	811	808	808	810	814	850	369	49	868	868	869	886	898	909	912	919	926	955	970	985	1016	1031	1047	1073	1083	1093	1121	1139	1160	1180	1184	1187	1182	1180	1176	1172	1171	1171	1161	1160	1160	1155	1154	1154	196	0	0	0	0	0	0	0	0	0	146	551	550	550	550	550	550	548	548	548	548	549	549	549	549	549	549	549	549	550	551	551	553	553	553	554	554	554	555	555	555	555	555	555	555	555	555	555	555	555	556	556	556	558	558	558	558	558	558	558	558	558	556	556	555	554	553	551	550	549	548	545	544	543	541	541	540	538	537	536	536	536	535	535	535	534	534	534	534	534	534	535	535	535	535	535	535	536	537	537	537	538	538	540	540	540	541	541	541	542	543	543	544	546	547	548	549	549	550	551	551	551	551	551	551	550	550	549	548	548	547	545	544	543	542	541	538	538	537	536	536	535	533	532	531	530	530	530	530	530	529	529	529	529	529	529	529	530	530	531	531	531	531	531	532	533	533	533	533	533	533	533	533	533	533	533	533	531	531	531	531	530	530	529	529	529	528	527	527	525	524	524	522	522	522	521	521	521	521	520	519	518	518	518	517	517	517	517	517	517	517	517	517	517	518	519	520	520	520	521	521	522	522	522	522	521	521	520	520	520	520	520	520	521	521	521	522	524	525	526	527	527	528	530	531	533	534	534	535	535	535	535	535	535	535	535	535	535	535	535	536	536	536	536	537	537	537	538	538	540	540	540	541	542	542	542	542	542	543	543	543	542	542	542	541	540	540	538	537	537	535	534	534	533	532	530	529	529	529	529	529	528	528	528	529	529	529	530	530	530	531	533	533	534	534	534	535	535	535	535	535	535	535	535	535	535	536	536	536	536	536	536	536	536	536	537	537	537	537	537	537	537	537	536	536	536	536	535	535	535	534	534	534	534	534	534	534	534	533	533	533	534	534	534	534	534	534	534	534	534	534	533	533	533	532	531	531	531	530	530	530	530	529	529	529	529	529	529	529	529	530	530	530	530	531	531	531	533	533	534	534	534	535	536	536	537	538	538	538	540	540	541	541	541	542	542	542	542	541	541	540	539	538	536	535	535	534	534	534	533	533	533	531	531	531	531	531	531	533	533	533	534	535	535	536	537	537	538	539	540	541	542	542	543	543	544	544	544	545	545	545	544	543	543	542	542	542	542	541	541	540	538	538	538	538	538	537	537	537	537	537	537	537	537	537	537	538	538	538	540	540	540	540	540	540	541	541	541	541	541	541	541	541	540	540	540	540	540	540	540	540	540	540	540	540	540	540	540	540	540	540	540	541	541	541	542	542	543	544	544	544	545	545	545	546	547	547	547	547	547	547	547	547	547	548	548	548	548	548	548	548	548	548	548	548	548	548	549	549	549	549	549	550	549	549	549	549	549	549	547	547	547	547	547	545	544
533	533	534	535	535	536	537	537	538	542	542	542	544	544	545	544	544	544	544	545	545	547	547	548	549	549	549	549	549	549	550	550	549	549	549	550	550	550	550	551	551	551	552	552	553	552	552	550	550	549	548	548	547	545	544	543	542	541	541	540	540	540	540	540	540	539	538	538	538	539	539	541	542	542	543	544	544	546	547	548	550	552	554	556	557	558	560	562	563	564	565	567	568	568	569	571	571	572	573	573	574	576	576	577	577	577	578	578	404	0	0	0	0	0	0	0	0	0	0	678	920	916	913	815	445	443	441	438	432	429	426	711	856	850	849	850	855	323	46	408	406	443	818	818	821	850	369	50	880	880	881	901	912	921	934	939	944	478	738	1008	1023	1037	1052	1076	1086	1098	1124	1140	1160	1178	1181	1184	1182	1179	1174	1169	1168	1168	1158	1156	1154	1147	1146	1146	195	0	0	0	0	0	0	0	0	0	146	551	551	550	550	550	550	549	549	549	549	549	550	550	550	550	550	550	550	550	551	552	554	554	554	554	554	555	555	555	556	556	556	555	555	555	555	556	556	556	557	557	557	558	558	558	558	558	558	558	558	557	556	555	554	554	552	551	550	549	548	545	544	543	541	540	539	537	536	536	535	535	534	534	534	534	534	534	534	534	534	534	534	534	534	535	535	536	536	536	536	537	538	539	540	540	541	541	541	542	543	543	544	546	547	548	549	549	550	551	551	552	551	551	551	550	550	549	549	548	547	546	544	543	542	542	539	538	538	537	536	535	534	533	532	531	530	530	530	530	529	529	529	529	529	529	530	530	530	530	530	530	530	530	531	532	532	532	532	532	532	532	532	532	532	532	532	531	531	531	531	530	530	529	529	529	528	527	527	525	524	524	522	522	522	521	521	521	521	520	519	518	518	518	517	517	517	517	517	517	517	517	517	517	518	519	520	520	520	521	521	522	522	522	522	522	521	520	520	520	520	520	521	521	521	522	522	524	525	526	527	527	528	530	531	533	534	534	535	535	535	535	535	535	536	535	535	535	535	535	536	536	536	536	537	537	537	538	538	540	540	541	541	542	542	542	542	543	543	543	543	542	542	542	541	540	540	538	537	537	535	534	534	532	531	530	529	529	528	528	528	528	528	528	528	528	529	530	530	530	530	532	532	532	533	534	534	534	534	534	534	535	535	535	535	535	535	536	536	536	536	536	536	536	536	536	537	537	537	537	537	537	537	536	536	536	536	535	535	535	535	534	534	534	534	534	534	534	534	534	534	534	534	534	534	534	534	534	534	534	534	534	534	534	533	532	532	532	532	532	531	530	530	530	530	530	530	530	530	530	530	530	530	530	532	532	532	533	534	534	535	535	536	536	537	538	538	538	539	540	540	541	541	541	542	542	542	542	541	541	540	539	538	536	535	535	534	534	534	533	533	533	531	531	531	531	532	532	533	533	534	534	535	535	536	537	537	538	539	540	542	542	542	544	544	544	545	546	546	546	545	544	544	544	543	543	543	542	542	541	541	540	539	539	539	539	538	538	538	538	538	538	538	538	538	538	539	539	539	540	540	540	540	540	540	541	542	542	542	542	542	542	541	540	540	540	540	540	540	540	540	540	540	540	540	540	540	540	540	540	540	540	541	541	542	542	543	544	544	544	544	545	545	546	546	547	547	548	548	548	548	548	548	548	548	548	548	548	548	548	548	548	548	548	548	548	548	549	549	550	550	550	550	550	550	550	550	549	549	548	548	548	548	547	546	546
533	533	534	535	535	536	537	537	538	542	542	542	544	544	545	544	544	544	544	544	545	547	547	548	549	549	549	549	549	549	550	550	549	549	549	550	550	550	550	551	551	551	552	553	553	553	553	551	550	550	549	548	548	545	544	543	542	541	541	540	540	540	540	540	540	538	538	538	538	538	538	541	542	542	543	544	544	545	546	548	550	552	554	556	557	558	560	561	563	564	565	567	568	568	569	571	571	572	573	573	574	576	576	577	577	577	577	578	404	0	0	0	0	0	0	0	0	0	0	687	932	929	929	736	0	0	0	0	0	0	0	575	870	862	862	864	874	330	0	0	0	78	827	827	829	850	369	51	893	893	894	916	925	933	955	959	962	0	505	1030	1030	1042	1056	1078	1090	1103	1127	1142	1160	1175	1178	1182	1182	1178	1171	1166	1165	1165	1155	1152	1149	1140	1138	1138	193	0	0	0	0	0	0	0	0	0	146	551	551	551	551	551	551	550	550	550	550	550	550	550	550	550	551	551	551	551	552	553	554	554	554	555	555	555	555	556	556	556	556	556	555	555	555	556	556	556	558	558	558	558	558	558	559	559	558	558	557	556	556	555	554	553	552	551	549	548	547	545	544	543	541	540	538	536	536	535	534	534	533	533	533	533	533	533	533	533	533	533	534	534	534	535	535	535	536	536	536	537	537	538	539	540	541	541	541	543	543	543	545	546	547	548	549	549	550	551	551	553	552	551	551	550	550	549	549	549	547	546	545	543	543	542	540	539	538	537	536	535	534	534	533	531	531	530	530	530	529	529	529	529	529	529	530	530	530	530	530	530	530	530	530	531	531	531	531	531	531	531	531	531	531	531	531	531	531	531	531	530	530	529	529	529	528	527	527	525	524	524	522	522	522	521	521	521	521	520	519	518	518	518	517	517	517	517	517	517	517	517	517	517	518	519	520	520	520	521	521	522	522	522	522	522	521	520	520	520	520	521	521	521	522	522	522	525	525	526	527	527	528	530	531	533	534	534	535	535	535	535	535	535	536	535	535	535	535	535	536	536	536	536	537	537	537	538	538	540	541	541	541	542	542	542	543	543	543	543	543	542	542	542	541	540	540	538	537	537	535	534	533	531	531	530	529	529	528	528	528	527	527	527	527	528	528	529	529	529	530	531	531	531	533	533	533	534	534	534	534	534	535	535	535	535	535	535	535	535	535	535	536	536	536	536	536	537	537	537	537	537	537	536	536	536	536	535	535	535	535	535	535	534	534	534	534	534	534	534	534	534	534	534	534	534	534	534	534	534	534	534	534	534	534	533	533	533	533	533	532	531	531	531	531	531	531	531	531	531	531	531	531	531	533	533	534	534	534	535	536	536	536	537	537	538	538	539	540	540	540	541	541	541	541	542	542	542	541	541	540	539	538	536	535	535	535	534	534	533	533	533	531	531	531	531	532	533	533	534	534	534	535	535	536	537	537	538	539	540	542	543	543	544	544	545	547	547	547	547	546	545	545	545	544	544	543	542	542	542	542	541	541	540	540	540	540	538	538	538	538	538	538	538	538	538	540	540	540	540	540	541	541	541	541	542	542	542	542	542	542	542	542	541	541	541	541	541	541	540	540	540	540	540	540	540	540	540	540	540	540	541	541	541	542	543	543	544	544	544	545	545	545	547	547	547	548	548	548	548	548	548	548	548	548	548	548	548	548	548	548	548	548	548	548	548	549	549	549	550	550	550	550	550	550	550	550	550	549	549	549	549	548	548	547	547
535	535	536	537	537	538	540	540	541	542	542	543	545	545	545	545	545	544	544	544	545	545	546	548	549	549	549	549	549	549	550	550	550	551	551	551	551	551	551	551	551	553	554	554	554	554	554	553	552	551	550	549	548	545	544	544	543	542	541	540	540	540	540	540	540	538	538	538	538	538	538	541	541	541	542	543	544	545	546	548	550	551	553	555	556	558	560	560	561	564	564	565	567	568	569	571	571	572	573	573	574	576	576	576	576	576	576	109	0	0	0	0	0	0	0	0	0	0	0	0	213	940	940	943	955	288	0	0	0	0	0	0	133	880	876	874	874	330	0	0	0	80	853	853	855	874	379	52	916	916	917	937	947	955	955	959	962	997	1009	1021	1047	1055	1065	1087	1097	1108	1132	1145	1160	1175	1178	1182	1177	1174	1171	1166	1163	1160	1155	1150	1144	1135	1133	1133	192	0	0	0	0	0	0	0	0	429	554	553	553	553	553	552	551	551	551	551	551	551	551	551	551	551	551	551	551	553	554	554	555	555	555	555	556	556	556	557	558	558	557	556	556	556	556	556	556	556	558	558	558	558	558	558	558	558	558	556	556	556	554	554	553	551	551	550	548	547	545	543	542	541	538	537	536	534	534	533	533	532	531	530	530	530	530	530	530	530	530	530	531	531	533	533	533	533	534	534	535	536	536	537	538	538	540	541	541	542	543	543	545	545	545	548	549	549	550	550	550	551	551	551	550	549	549	549	548	548	545	544	544	543	542	541	540	539	538	536	536	535	534	534	533	531	531	531	530	530	530	530	530	530	530	530	530	530	530	530	530	530	530	530	530	531	531	531	531	531	531	531	531	531	531	531	531	531	531	531	530	530	530	529	529	529	528	527	527	525	525	525	522	522	522	521	521	521	521	520	520	518	518	518	517	517	517	517	517	517	517	517	517	517	518	519	520	520	521	521	521	522	522	522	522	522	521	520	520	520	520	521	521	522	524	524	524	525	525	526	527	527	528	530	531	533	534	534	535	535	535	535	535	535	536	535	535	535	535	535	536	536	536	536	536	536	537	538	538	540	540	540	541	542	542	542	543	543	543	543	543	542	542	542	541	540	540	538	537	536	535	534	533	531	530	529	528	528	527	527	527	527	526	526	526	526	526	527	528	528	529	529	529	530	531	531	531	533	533	533	534	534	534	534	534	534	534	534	535	535	535	535	535	535	536	536	536	537	537	537	537	537	537	536	536	536	536	536	536	535	535	535	535	535	535	535	535	535	535	534	534	534	534	534	535	535	535	535	535	535	535	535	535	535	535	534	534	534	534	534	534	534	533	533	533	533	533	533	533	533	533	534	534	534	534	534	535	535	535	536	536	536	536	537	537	538	540	540	540	540	540	541	541	541	541	542	542	542	541	541	541	539	538	537	536	536	535	534	534	533	533	533	533	533	533	533	533	533	533	534	534	534	535	535	536	537	537	538	539	540	542	543	543	544	544	545	547	547	548	548	548	548	547	546	545	544	544	544	544	544	543	542	542	542	541	541	541	540	540	540	540	540	540	540	540	540	541	541	541	541	541	542	542	542	542	543	543	543	543	543	543	543	543	543	542	542	542	542	542	541	541	541	541	541	541	541	541	541	541	541	541	541	542	542	542	543	543	544	545	545	545	546	547	547	547	548	548	548	548	548	548	548	548	548	548	548	548	548	548	548	548	548	548	548	548	548	549	549	549	550	550	550	551	551	551	551	551	551	550	550	550	550	549	549	548	548
535	536	536	537	538	538	540	541	542	542	543	544	546	546	546	545	545	544	544	545	545	545	546	548	549	549	549	549	549	550	550	550	550	552	552	552	552	552	552	552	552	554	554	555	555	555	554	554	552	552	550	549	548	546	545	544	543	542	541	540	540	540	540	540	540	539	538	538	538	538	538	541	541	541	542	543	544	545	547	548	550	551	553	555	556	558	560	560	561	564	564	565	567	568	569	571	571	572	573	573	574	576	576	576	576	576	576	109	0	0	0	0	0	0	0	0	0	0	0	352	585	948	948	949	955	625	485	494	159	0	0	0	66	440	438	437	437	165	0	0	0	40	426	426	427	437	190	53	928	928	929	944	953	960	960	964	968	997	1009	1021	1047	1058	1070	1092	1101	1110	1134	1147	1162	1178	1180	1182	1177	1174	1171	1168	1165	1160	1155	1150	1144	1135	1133	1133	192	0	0	0	0	0	0	79	278	492	554	554	554	554	554	552	552	551	551	551	552	552	552	552	552	552	552	552	553	554	554	555	556	556	556	556	557	557	557	558	558	558	557	557	556	556	556	556	557	557	557	557	557	557	557	557	557	557	557	556	555	555	554	553	552	551	550	549	547	546	544	542	541	540	538	537	536	534	533	532	532	531	530	530	530	530	530	530	530	530	530	530	530	531	532	532	532	532	533	534	534	535	536	536	537	538	539	540	541	542	542	543	544	545	545	546	548	549	549	549	550	550	550	550	550	549	548	548	547	546	544	544	544	542	542	541	539	538	538	536	536	535	534	534	533	532	532	531	530	530	530	530	530	530	530	530	530	530	530	530	530	530	530	530	531	531	531	531	531	531	531	531	531	531	531	531	531	530	530	530	530	530	530	529	529	529	528	527	527	526	525	525	523	522	522	522	521	521	521	520	520	518	518	518	517	517	517	517	517	517	517	517	517	517	518	519	520	521	521	521	521	522	522	522	522	522	521	520	520	520	520	521	521	522	524	524	524	525	525	526	527	527	528	530	531	533	534	534	535	535	535	535	535	535	536	535	535	535	535	535	536	536	536	536	536	536	537	538	538	540	540	540	541	542	542	542	543	543	543	543	543	542	542	542	541	540	540	538	537	536	535	534	533	531	530	529	528	528	527	527	527	526	526	526	526	526	526	526	527	528	528	529	529	530	530	531	531	533	533	533	534	534	534	534	534	534	534	534	534	534	535	535	535	535	536	536	536	537	537	537	537	537	537	536	536	536	536	536	536	536	536	535	535	535	535	535	535	535	535	535	534	534	534	535	535	535	535	535	535	535	535	535	535	535	535	534	534	534	534	534	534	534	534	534	534	534	534	534	534	534	534	534	534	534	534	535	536	536	536	536	536	536	536	537	537	538	540	540	540	540	540	540	541	541	541	542	542	542	542	541	541	540	539	537	537	536	536	535	534	534	534	533	533	533	533	533	533	534	534	534	534	534	535	536	536	537	538	539	540	541	542	543	544	544	545	546	547	548	548	548	548	548	548	547	546	545	544	544	544	544	543	543	542	542	542	542	542	541	540	540	540	540	540	540	540	540	541	541	542	542	542	542	542	542	542	543	544	544	544	544	544	544	544	544	543	542	542	542	542	542	542	541	541	541	541	541	541	541	541	541	542	542	542	542	542	543	543	544	544	545	545	546	546	547	547	548	548	548	548	548	548	548	548	548	548	548	548	548	548	548	548	548	548	548	548	548	548	549	549	550	550	550	551	551	551	551	551	551	550	550	550	550	550	549	549	549
536	536	537	538	538	538	541	541	542	543	544	545	547	547	547	545	545	545	545	545	545	545	546	548	549	549	549	549	549	550	551	551	551	553	553	553	553	553	553	553	553	555	555	555	556	555	555	554	553	553	551	550	549	547	546	545	543	542	542	541	540	540	540	540	540	540	539	538	538	538	538	541	541	541	542	543	544	545	547	549	550	551	553	555	556	558	560	560	561	564	564	565	567	568	569	571	571	572	573	573	574	576	576	576	576	576	576	109	0	0	0	0	0	0	0	0	0	0	0	705	957	955	955	955	955	963	970	989	317	0	0	0	0	0	0	0	0	0	0	0	0	0	0	0	0	0	0	53	940	940	940	951	959	966	966	970	973	997	1009	1021	1047	1060	1074	1097	1105	1113	1137	1150	1165	1181	1182	1182	1177	1174	1171	1171	1167	1160	1155	1150	1144	1135	1133	1133	192	0	0	0	0	0	0	157	556	554	554	554	554	554	554	553	553	551	551	551	553	553	553	553	554	554	554	554	554	555	555	555	556	556	556	558	558	558	558	558	558	558	558	558	556	556	556	556	557	558	556	556	556	556	556	556	556	556	556	555	555	554	553	552	551	550	549	548	545	544	543	541	541	540	537	536	535	534	533	531	530	530	530	529	529	529	529	529	529	529	529	530	530	530	531	531	531	531	532	533	534	535	535	536	537	537	538	539	540	541	542	542	543	544	545	545	547	548	548	549	549	549	549	549	549	548	548	547	546	545	544	543	543	542	542	541	538	538	537	536	536	535	534	534	533	533	532	531	530	530	530	530	530	530	530	530	530	530	530	530	530	530	530	531	531	531	531	531	531	531	531	531	531	531	531	531	531	530	530	530	530	530	530	529	529	529	528	527	527	526	525	525	524	523	522	522	521	521	521	520	520	518	518	518	517	517	517	517	517	517	517	517	517	517	518	519	521	521	521	521	521	522	522	522	522	522	521	520	520	520	520	521	521	522	524	524	524	525	525	526	527	528	529	531	532	533	534	534	535	535	535	535	535	535	536	535	535	535	535	535	536	536	536	536	536	536	537	538	538	540	540	540	541	542	542	542	543	543	543	543	543	542	542	542	541	540	540	537	536	536	535	534	533	531	530	529	528	528	527	527	527	526	526	526	526	526	526	526	527	527	528	529	529	529	530	530	531	533	533	533	534	534	534	534	534	534	534	534	534	534	534	535	535	535	536	536	536	537	537	537	537	537	537	536	536	536	536	536	536	536	536	536	535	535	535	535	535	535	535	535	535	535	535	535	535	535	535	535	535	535	535	535	535	535	535	535	535	535	535	535	535	535	535	535	535	535	535	535	535	535	535	535	535	535	535	535	536	536	536	536	537	537	537	537	537	538	540	540	540	540	540	540	541	541	541	542	542	542	542	542	541	540	539	537	537	537	536	535	534	534	534	534	533	533	533	533	534	534	534	534	534	535	536	536	537	538	538	540	541	542	543	544	544	545	546	547	548	548	549	549	549	548	548	548	547	545	545	544	544	544	543	543	543	542	542	542	542	541	541	541	541	541	541	541	541	541	541	541	542	542	542	542	543	543	543	544	544	544	544	544	544	544	544	544	543	543	543	543	543	542	542	542	541	541	541	541	541	541	541	542	542	542	542	542	543	543	543	544	544	544	545	545	545	547	547	547	548	548	548	548	548	548	548	548	548	548	548	547	547	547	547	547	547	548	548	548	548	549	549	549	550	550	551	551	551	551	551	551	551	550	550	550	550	550	550	549
536	536	537	538	539	541	543	543	544	545	546	547	548	548	547	547	546	545	545	545	545	545	546	548	550	550	551	551	551	551	553	553	553	553	553	553	553	553	553	553	554	556	556	556	558	557	556	555	555	555	554	552	551	550	549	548	545	544	543	542	542	542	541	540	540	540	539	538	538	539	540	541	541	541	542	543	544	545	547	549	550	551	553	555	556	558	560	560	561	564	564	565	567	568	569	569	570	572	572	572	573	574	574	574	574	575	576	109	0	0	0	0	0	0	0	0	0	0	0	692	940	940	940	940	940	945	951	969	964	961	958	958	813	0	0	0	0	0	0	0	0	0	0	0	0	0	0	53	940	940	941	958	964	969	973	977	981	1001	1013	1026	1055	1067	1079	1102	1110	1118	1143	1153	1165	1181	1184	1187	1182	1180	1176	1172	1169	1165	1155	1150	1144	1144	755	0	0	0	0	0	0	0	0	157	556	555	555	554	554	554	554	554	554	554	553	553	553	554	554	555	555	555	556	556	556	556	557	558	558	558	558	558	558	558	558	559	559	558	558	558	556	556	556	556	556	556	556	556	556	555	555	555	555	555	554	554	554	553	551	550	549	548	548	547	543	542	541	540	539	537	535	535	534	531	531	530	529	529	529	528	528	528	528	528	528	528	528	529	529	529	529	530	530	531	531	531	533	534	534	535	536	536	536	537	538	538	540	541	542	543	543	544	545	545	547	547	547	547	547	547	547	547	547	545	545	545	544	543	543	542	541	540	538	538	537	536	536	535	534	534	533	533	532	531	531	531	531	530	530	530	530	530	530	531	531	531	531	531	531	531	531	531	531	531	531	531	531	531	531	531	531	531	531	530	530	530	530	530	530	529	529	529	528	527	527	526	525	525	524	523	522	522	522	522	522	521	520	518	518	518	518	518	518	517	517	517	517	517	517	518	519	520	521	521	521	521	521	522	522	522	522	522	521	520	520	520	520	521	521	522	525	525	525	526	526	527	528	528	529	531	532	533	534	534	535	535	535	536	536	536	536	535	535	535	535	535	536	536	536	536	537	537	537	538	538	540	540	540	541	542	542	542	543	543	543	543	543	542	542	542	540	539	538	537	536	536	535	534	533	531	530	529	528	528	527	526	526	525	525	525	525	525	525	525	526	526	527	528	528	528	529	529	530	531	532	533	534	534	534	534	534	534	534	534	534	534	534	535	535	535	536	536	536	536	536	536	537	537	537	537	537	537	537	536	536	536	536	536	536	536	536	536	536	536	536	535	535	535	535	535	535	535	535	535	536	536	536	536	536	536	536	536	536	536	536	536	536	536	536	536	536	536	536	536	536	536	536	536	536	536	537	537	537	537	537	537	537	537	538	538	538	538	540	540	540	540	540	540	541	541	541	542	542	542	543	543	543	543	543	541	541	541	540	539	538	537	537	537	536	536	536	536	536	536	536	537	537	537	538	538	538	539	540	541	542	543	544	545	545	547	547	548	549	549	549	549	549	549	548	548	547	545	545	545	544	544	544	544	544	543	543	543	543	542	542	542	542	542	542	542	542	542	542	542	542	542	542	543	543	543	544	544	544	545	545	545	545	544	544	544	544	544	544	543	543	543	542	542	542	542	542	542	542	542	542	542	542	542	542	542	543	543	543	544	544	544	544	545	545	547	547	547	548	548	548	548	548	548	548	548	547	547	547	547	547	547	547	547	547	547	547	547	548	548	548	549	549	549	550	551	551	551	551	551	551	551	551	551	551	551	550	550
535	536	536	537	539	540	542	543	544	544	545	546	547	547	546	546	545	544	544	544	544	544	546	548	549	550	551	552	552	552	553	553	553	553	553	553	552	552	552	552	552	554	554	555	556	555	555	554	554	554	554	553	552	550	549	548	546	544	543	542	542	542	541	540	540	540	539	539	539	540	540	541	541	542	542	543	544	545	547	549	550	551	553	555	556	558	560	560	561	564	565	566	567	568	569	569	570	572	572	572	573	574	574	574	574	574	575	341	200	0	0	0	0	0	0	0	0	0	0	685	932	932	938	940	940	945	951	969	964	961	958	958	813	0	0	0	0	0	0	0	0	0	0	0	36	472	472	499	942	942	943	958	964	969	975	979	983	1003	1015	1028	1055	1068	1082	1105	1113	1123	1145	1156	1168	1183	1186	1187	1185	1182	1179	1174	1169	1162	1153	1149	1144	1144	755	0	0	0	0	0	0	0	0	157	556	555	555	554	554	554	554	554	554	554	554	554	554	554	555	555	555	556	557	557	557	557	558	558	558	558	558	558	558	558	558	559	559	558	558	558	556	556	556	556	556	556	556	555	555	554	554	554	554	554	554	553	552	552	551	550	548	548	547	546	543	542	540	539	538	537	535	534	534	531	531	530	529	529	529	528	528	528	528	528	528	528	528	529	529	529	529	530	530	531	531	531	533	533	534	534	535	536	536	537	538	538	539	540	541	542	542	543	544	544	546	546	546	546	546	546	546	546	545	544	544	544	543	543	542	542	541	540	538	538	537	536	536	535	534	534	533	533	532	531	531	531	531	531	530	530	530	531	532	532	532	532	532	532	532	532	532	532	532	532	532	532	532	531	531	531	531	531	531	530	530	530	530	530	530	529	529	529	528	528	527	526	526	525	524	524	523	522	522	522	522	521	520	518	518	518	518	518	518	518	518	518	518	518	518	518	519	520	521	521	521	521	521	522	522	522	522	522	521	520	520	520	520	521	522	523	525	525	525	526	526	527	528	528	529	531	532	534	534	535	535	535	536	536	536	536	536	535	535	535	535	536	536	536	536	536	537	537	537	538	538	540	540	540	541	542	542	542	543	543	543	543	543	542	542	542	540	539	538	537	536	536	535	534	533	531	530	529	528	528	527	526	526	525	525	525	524	524	524	524	525	526	526	527	528	528	528	529	530	531	532	533	534	534	534	534	534	534	534	534	534	534	535	535	535	535	536	536	536	536	536	536	536	537	537	537	537	537	537	537	536	536	536	536	536	536	536	536	536	536	536	536	536	536	536	536	536	536	536	536	536	536	536	536	536	536	536	536	536	536	536	536	536	536	536	536	536	536	536	536	536	536	536	536	537	537	537	538	538	538	538	538	538	538	539	539	539	539	540	540	540	540	540	540	541	541	541	542	542	542	543	543	544	544	543	542	542	542	542	541	540	540	539	538	538	537	537	537	537	537	537	537	538	538	539	539	540	540	541	542	543	544	544	545	546	548	548	548	549	549	550	550	549	549	548	548	547	546	546	545	544	544	544	544	544	543	543	543	543	543	542	542	542	542	542	542	542	542	542	542	542	542	543	543	543	544	544	544	544	545	545	545	545	545	544	544	544	544	544	544	543	543	543	542	542	542	542	542	542	542	542	542	542	542	542	542	543	543	543	544	544	544	544	545	545	546	546	546	547	548	548	548	548	548	548	547	547	547	547	546	546	546	546	546	546	546	546	547	548	548	548	548	549	549	550	550	550	550	550	551	551	551	551	551	551	551	550	550
534	535	536	537	538	540	542	542	543	544	544	545	547	546	545	544	544	543	543	543	544	544	545	547	549	550	551	553	553	553	553	553	553	553	553	553	551	550	550	550	550	551	552	553	554	554	554	554	554	554	553	553	553	550	549	549	547	545	544	543	543	543	541	540	540	540	540	540	540	540	540	541	542	542	542	543	544	545	547	549	550	551	553	555	556	558	560	560	561	564	565	567	568	568	569	569	570	572	572	572	573	574	574	574	574	574	574	574	401	0	0	0	0	0	0	0	0	0	0	679	923	923	935	940	940	945	951	969	964	961	958	958	813	0	0	0	0	0	0	0	0	0	0	0	71	944	944	944	944	944	945	958	964	969	977	981	985	1005	1017	1030	1056	1069	1084	1107	1117	1128	1148	1159	1171	1186	1187	1187	1187	1185	1182	1177	1170	1160	1150	1147	1144	1144	755	0	0	0	0	0	0	0	0	157	556	555	555	554	554	554	554	554	554	555	555	555	555	555	555	555	556	556	558	558	558	558	558	558	559	559	559	559	559	559	559	559	559	558	558	558	556	556	556	556	556	556	555	554	554	554	554	554	554	554	553	551	551	550	550	549	548	547	546	544	542	541	540	538	538	537	535	534	533	531	531	530	529	529	529	528	528	528	528	528	528	528	528	529	529	529	529	530	530	531	531	531	533	533	533	534	535	535	535	536	537	538	538	538	540	541	541	542	543	543	544	544	544	545	545	545	545	544	544	544	543	543	542	542	542	541	541	540	538	538	537	536	536	535	534	534	533	533	532	531	531	531	531	531	531	531	531	532	533	533	533	533	534	534	534	534	534	534	534	534	533	533	532	531	531	531	531	531	531	531	530	530	530	530	530	529	529	529	529	528	528	527	526	525	525	524	524	522	522	522	522	521	521	518	518	518	518	518	518	518	518	518	518	518	518	519	519	520	521	521	521	521	521	522	522	522	522	522	521	520	520	520	520	521	522	524	525	525	525	526	526	527	528	528	529	532	533	534	535	535	535	536	536	536	536	536	536	535	535	535	536	536	536	536	536	536	537	537	537	538	538	540	540	540	541	542	542	542	543	543	543	543	543	542	542	542	540	539	538	537	536	536	535	534	533	531	530	529	528	528	527	526	526	525	525	525	524	524	524	524	525	525	526	527	527	528	528	529	530	531	532	533	534	534	534	534	534	535	535	535	535	535	535	535	535	535	536	536	536	536	536	536	536	537	537	537	537	537	537	537	537	536	536	536	536	536	536	536	536	536	536	536	536	536	536	536	536	536	536	536	536	536	536	537	537	537	537	537	537	537	537	537	537	537	537	537	537	537	537	537	537	537	537	537	537	538	538	538	538	538	538	538	538	539	540	540	540	540	540	540	540	540	540	540	541	541	541	542	542	542	543	543	544	544	544	544	543	543	543	542	542	542	541	540	540	539	538	538	538	538	538	538	538	540	540	540	541	542	542	543	544	544	545	546	547	548	548	549	549	549	550	550	550	549	548	548	547	547	546	545	544	544	544	544	544	543	543	543	543	543	543	543	543	543	543	543	543	543	543	543	543	543	543	543	544	544	544	544	544	545	545	545	545	545	545	545	545	545	544	544	544	543	543	543	542	542	542	542	542	542	542	542	542	542	542	542	543	543	543	543	544	544	544	545	545	545	545	545	547	547	547	547	547	547	547	547	547	547	546	545	545	545	545	545	545	545	545	546	547	548	548	548	549	549	549	550	550	550	550	550	551	551	551	551	551	551	551	550
533	534	535	535	536	537	541	541	541	543	543	544	544	544	543	543	543	543	543	543	543	544	545	547	549	550	551	553	553	553	553	553	553	551	551	551	549	549	549	549	549	549	550	550	550	551	551	551	551	551	550	550	550	549	548	548	547	545	544	543	543	543	542	541	540	540	540	540	540	541	541	541	542	542	543	544	544	547	548	549	551	552	554	555	556	558	560	561	563	564	565	567	568	568	569	571	571	571	572	572	573	574	574	574	574	574	574	574	401	0	0	0	0	0	0	0	0	0	0	679	923	923	261	0	0	0	0	0	0	0	0	0	0	0	0	0	0	0	0	0	0	0	0	0	71	944	944	944	951	955	958	966	966	966	973	979	985	1001	1013	1026	1052	1065	1079	1102	1114	1128	1153	1164	1176	1192	1195	1199	1188	1185	1182	1177	1170	1160	1150	1149	1149	173	0	0	0	0	0	0	0	0	0	158	558	556	556	555	555	555	555	555	555	555	555	555	556	556	556	556	557	558	559	559	559	559	559	559	559	559	559	559	559	559	559	559	559	558	557	556	556	556	556	555	555	555	554	554	554	554	554	553	553	552	551	550	550	549	548	548	547	544	544	543	541	540	538	537	537	536	534	534	533	531	531	530	529	529	529	528	528	528	528	528	528	528	528	529	529	529	530	530	530	531	531	531	531	532	533	534	534	534	535	536	536	537	538	538	538	539	540	541	542	542	542	543	543	543	543	543	543	543	543	543	543	543	542	541	541	541	541	540	538	538	537	536	536	535	534	534	534	533	533	533	533	533	533	531	531	531	533	533	533	534	534	535	536	536	536	536	536	536	535	535	534	534	534	534	533	533	531	531	531	531	531	531	531	530	530	530	529	529	529	528	528	527	526	526	525	524	524	524	524	524	524	522	521	519	519	519	519	518	518	518	518	518	518	519	519	519	520	521	522	522	522	522	522	522	524	523	522	522	521	520	520	520	520	521	522	524	525	525	526	526	527	528	528	528	529	532	533	534	535	535	536	536	536	536	536	536	536	536	536	536	536	536	536	536	536	537	537	537	537	538	538	538	539	540	540	541	541	542	542	542	542	542	542	542	541	541	541	540	540	538	537	536	535	534	534	531	530	529	528	528	527	526	526	525	524	524	524	524	524	524	524	524	525	526	526	527	528	528	529	530	531	533	533	533	534	535	535	535	535	535	535	535	535	535	536	536	536	536	536	536	536	536	536	537	537	537	537	537	537	537	537	537	537	537	537	537	537	537	537	537	537	537	537	537	537	537	537	537	537	537	537	537	537	537	537	537	537	537	537	537	537	537	537	537	537	537	537	537	537	538	538	538	538	538	538	538	538	539	540	540	540	540	540	540	540	540	540	540	540	540	540	540	540	541	541	541	541	542	542	543	544	544	544	545	545	547	547	547	547	546	545	544	543	543	543	542	542	542	542	542	542	542	542	542	542	542	543	544	544	544	545	545	547	548	548	549	549	550	550	550	550	549	549	549	548	548	547	547	546	545	545	545	545	544	544	544	544	544	544	543	543	543	543	543	543	544	544	544	544	544	544	544	544	544	544	544	545	545	545	545	545	545	545	545	545	545	545	545	545	544	544	544	543	543	543	543	543	542	542	542	542	542	542	542	542	542	542	543	543	543	543	543	544	544	544	545	545	545	545	545	545	547	547	547	547	546	545	545	545	545	545	545	545	545	545	545	545	545	545	545	546	547	547	547	548	549	549	549	549	549	549	549	549	550	550	550	550	550
532	533	534	535	536	537	540	541	541	543	543	544	544	543	543	543	542	542	542	543	543	544	545	547	549	550	552	553	554	554	554	553	553	551	550	550	549	549	548	548	548	548	549	550	550	550	550	550	550	550	550	550	549	548	548	548	546	545	544	543	543	543	542	541	540	540	540	540	540	541	541	541	542	542	543	544	544	547	548	550	551	552	554	555	557	558	560	562	563	564	566	567	568	569	569	571	571	571	572	572	573	574	574	574	574	574	574	341	200	0	0	0	0	0	0	0	0	109	443	783	804	462	131	0	0	0	0	0	0	0	0	0	0	0	0	0	0	0	0	0	0	0	0	276	508	944	944	944	949	952	955	960	961	962	968	973	979	997	1010	1024	1049	1062	1076	1102	1114	1128	1155	1167	1179	1195	1198	1202	1191	1188	1184	1177	1169	1157	1148	1145	1141	647	556	552	552	375	0	0	0	0	0	158	558	556	556	556	555	555	555	555	556	556	556	556	556	556	556	557	558	559	559	559	560	560	560	560	560	560	559	559	559	559	559	559	558	558	557	556	556	556	555	555	555	554	554	554	554	554	553	552	552	551	550	550	549	548	548	547	546	544	543	542	541	540	538	537	537	536	534	534	533	531	531	530	529	529	529	529	528	528	528	528	528	528	529	529	529	529	530	530	530	531	531	531	531	532	533	534	534	534	535	535	536	536	537	538	538	538	539	540	540	541	542	542	542	542	542	542	542	542	542	542	542	542	542	541	541	540	540	540	538	538	537	536	536	536	535	534	534	534	534	534	534	534	534	533	532	532	534	534	534	535	535	536	537	537	537	537	537	537	536	536	535	535	534	534	534	533	532	532	532	532	531	531	531	531	530	530	530	530	530	529	528	528	527	526	526	525	524	524	524	524	524	523	521	520	520	520	520	519	518	518	518	518	518	519	519	519	520	522	523	523	523	523	523	523	524	523	522	522	521	520	520	520	520	521	522	524	525	526	526	526	527	528	528	529	530	533	534	534	535	536	536	536	536	536	536	536	536	536	536	536	536	536	536	536	537	537	537	537	537	538	538	538	539	539	540	541	541	542	542	542	542	542	542	542	541	541	541	540	540	538	537	536	535	534	534	531	530	530	529	528	527	526	526	525	524	524	524	524	524	524	524	524	525	525	526	526	527	528	529	530	531	533	533	533	534	535	535	535	535	535	536	536	536	536	536	536	536	536	536	536	536	536	536	536	536	536	536	536	536	537	537	537	537	537	537	537	537	537	537	537	537	537	537	537	537	537	537	537	537	537	537	537	537	537	537	537	537	537	537	537	537	537	537	537	537	537	537	537	538	538	538	538	538	539	539	539	539	539	540	540	540	540	540	540	540	540	540	540	540	540	540	540	540	541	541	541	541	542	542	543	544	544	544	546	546	548	548	548	548	547	546	546	545	545	544	543	543	543	543	543	543	543	543	543	543	543	544	544	545	546	546	547	548	548	548	549	549	550	550	550	550	549	549	549	548	548	547	547	546	545	545	545	545	545	544	544	544	544	544	544	544	544	544	544	544	544	544	544	544	544	544	544	544	544	544	545	545	545	545	545	546	546	546	545	545	545	545	545	545	544	544	544	543	543	543	543	543	542	542	542	542	542	542	542	542	542	542	542	543	543	543	543	544	544	544	544	544	544	545	545	545	546	546	546	546	546	545	545	545	545	545	544	544	544	544	544	544	544	544	544	545	546	546	546	548	548	548	548	548	548	548	548	549	550	550	550	550	550
531	532	533	535	536	537	540	540	541	543	543	543	543	543	543	542	542	542	542	542	543	544	545	547	549	551	553	554	554	554	554	554	553	551	550	550	549	549	548	548	548	548	549	549	549	549	549	550	550	550	549	549	549	548	548	548	545	544	544	543	543	543	542	541	540	540	540	540	541	541	541	541	542	542	543	544	545	547	548	550	551	552	554	556	557	559	561	562	563	565	566	567	569	569	569	571	571	571	572	572	573	574	574	574	574	574	574	108	0	0	0	0	0	0	0	0	0	217	886	886	685	0	0	0	0	0	0	0	0	0	0	0	0	0	0	0	0	0	0	0	0	0	0	552	944	944	944	944	947	949	951	955	957	958	962	968	973	993	1007	1021	1047	1060	1074	1102	1114	1128	1158	1170	1182	1198	1201	1205	1194	1191	1187	1177	1168	1154	1145	1140	1133	1120	1113	1103	1103	749	0	0	0	0	0	158	558	556	556	556	555	555	555	556	556	556	556	556	556	556	556	558	559	559	559	560	560	560	560	560	560	560	560	559	559	559	559	558	558	558	557	556	556	555	555	555	554	554	553	553	553	553	552	551	551	551	550	549	549	548	547	546	545	544	543	542	541	540	538	537	537	536	534	534	533	531	531	530	529	529	529	529	529	529	528	528	528	529	529	529	529	529	530	530	530	531	531	531	531	532	533	534	534	534	535	535	535	536	537	537	537	537	537	538	539	540	541	541	541	541	542	542	542	542	542	542	542	542	542	541	541	540	540	540	538	538	537	536	536	536	535	535	535	535	535	534	534	534	534	534	534	534	535	535	536	536	536	537	538	538	538	538	538	538	537	537	536	535	535	534	534	534	533	533	533	533	532	531	531	531	531	530	530	530	530	529	529	528	527	527	526	525	525	525	525	525	525	523	522	520	520	520	520	519	519	519	519	519	519	519	519	519	520	522	524	524	524	524	524	524	524	523	522	522	521	520	520	520	521	522	523	524	526	526	527	527	527	528	529	529	530	533	534	535	536	536	536	536	536	536	536	536	536	536	536	536	536	536	536	537	537	537	537	537	537	538	538	538	538	538	540	541	541	541	542	542	542	542	542	542	541	541	541	540	540	538	537	537	535	534	534	531	531	530	529	528	527	526	526	525	524	524	524	524	524	524	524	524	525	525	525	526	527	528	529	530	531	533	533	533	534	535	535	535	535	535	536	536	536	536	536	536	536	536	536	536	536	536	536	536	536	536	536	536	536	537	537	537	537	537	537	537	537	537	537	537	537	537	537	537	537	537	537	537	537	537	537	537	537	537	537	537	537	537	537	537	537	537	537	537	537	537	537	538	538	538	538	538	538	540	540	540	540	540	540	540	540	540	541	541	541	541	541	541	540	540	540	540	540	541	541	541	541	542	542	543	544	544	545	546	547	548	548	548	548	547	547	547	547	547	545	544	544	544	544	544	544	544	544	544	544	544	545	545	545	547	548	548	548	549	549	549	549	550	550	550	550	549	549	549	548	548	547	547	546	545	545	545	545	545	545	545	544	544	544	544	544	544	544	544	544	545	545	544	544	544	544	544	544	544	545	545	545	545	545	545	546	547	547	546	545	545	545	545	545	544	544	544	543	543	543	543	543	543	542	542	542	542	542	542	542	542	542	542	542	543	543	543	543	544	544	544	544	544	545	545	545	545	545	545	545	545	545	545	545	545	544	544	544	544	544	544	544	544	544	544	544	544	545	546	547	547	547	547	547	547	548	548	548	549	549	549	549	549
530	531	533	534	535	537	538	539	540	542	542	542	542	542	541	540	540	540	541	542	543	545	546	548	550	552	554	555	555	555	554	554	553	551	550	549	548	548	547	547	547	547	547	547	548	548	548	548	548	548	548	547	547	547	546	545	544	543	543	542	542	542	542	541	540	540	540	540	541	541	541	542	542	542	544	545	545	548	549	551	553	554	555	558	559	560	563	564	565	567	567	568	569	570	571	571	571	572	572	572	573	574	574	574	574	574	574	108	0	0	0	0	0	0	0	0	648	858	856	856	855	853	853	852	847	843	840	838	838	839	841	838	836	836	837	838	838	316	0	0	0	0	0	548	937	937	937	937	937	939	940	944	946	947	951	959	966	985	997	1009	1042	1056	1070	1102	1117	1133	1163	1177	1193	1210	1211	1211	1200	1194	1187	1177	1168	1154	1145	1140	1133	1116	1108	1098	1098	746	0	0	0	0	0	0	0	0	147	556	556	556	556	556	556	556	556	556	556	556	556	558	558	558	559	559	559	560	560	560	560	560	560	559	559	559	559	558	558	558	557	556	556	555	555	555	554	554	553	553	553	553	552	551	550	550	549	548	548	547	545	545	544	543	543	542	540	539	538	537	537	536	534	534	533	533	532	530	530	530	530	529	529	529	529	529	529	530	530	530	530	530	531	531	531	531	532	533	533	534	534	534	534	534	535	535	535	535	536	536	536	537	537	537	537	537	538	538	538	540	540	540	541	541	541	541	541	541	541	541	541	540	540	540	538	538	537	537	537	536	536	536	535	535	535	534	534	534	535	535	535	536	536	536	537	538	539	540	541	541	541	541	541	540	538	538	537	536	536	535	535	535	534	533	533	533	533	533	531	531	531	531	530	530	530	529	529	528	527	527	526	526	526	526	525	525	525	523	522	520	520	520	520	520	520	520	520	520	520	520	520	521	522	524	525	525	524	524	524	524	524	524	524	522	522	521	521	521	521	522	523	525	526	526	527	527	527	528	529	529	530	533	534	535	536	536	537	537	537	537	537	537	537	537	537	537	536	536	536	536	536	536	537	537	537	537	537	538	538	538	538	539	540	541	541	541	541	541	541	541	541	541	541	540	540	538	537	537	536	535	535	534	533	531	529	529	528	527	527	526	525	525	524	524	524	524	524	524	524	525	525	526	527	528	529	530	531	533	534	534	535	535	535	536	536	536	536	536	536	536	536	536	536	536	536	536	536	536	536	536	536	536	536	536	536	536	536	537	537	537	537	537	537	537	537	537	537	537	537	537	537	537	537	538	538	538	537	537	537	537	537	537	537	537	537	537	537	537	537	537	537	537	537	538	538	538	538	538	538	540	540	540	540	540	540	540	540	541	541	541	541	541	541	541	541	541	541	541	541	541	542	542	542	543	543	543	544	545	547	547	547	549	549	549	549	549	549	549	548	548	548	547	547	547	547	547	547	546	545	545	545	545	547	547	547	548	548	548	548	549	549	550	550	550	550	550	549	549	549	548	548	548	548	547	546	545	545	545	545	545	545	545	545	545	545	545	545	545	545	545	545	545	545	545	545	545	545	545	545	545	545	545	545	545	545	545	545	545	545	545	545	545	545	545	545	545	545	544	544	544	543	543	543	543	542	542	542	542	542	542	542	542	542	542	542	542	543	543	543	543	543	544	544	544	544	544	545	545	545	545	545	545	545	545	545	545	544	544	544	543	543	543	543	543	543	543	543	544	544	544	544	545	545	545	547	547	547	547	547	547	548	548	548	548
529	531	533	534	535	536	538	539	540	541	541	541	541	541	540	540	540	540	541	542	542	544	546	548	551	553	554	555	555	554	554	553	552	550	549	548	548	547	546	546	546	546	546	546	546	546	546	546	546	546	546	546	546	546	545	544	544	543	542	542	542	542	542	541	540	540	540	540	541	541	541	542	542	542	544	545	545	548	549	551	553	554	556	558	559	560	563	565	566	567	568	568	570	570	571	571	572	572	572	573	573	574	574	574	574	482	287	54	0	0	0	0	0	0	0	0	640	846	843	841	839	838	836	834	828	823	820	818	818	818	820	818	817	817	818	818	820	309	0	0	0	0	0	540	923	923	925	927	930	932	933	936	938	940	944	950	956	979	992	1005	1036	1050	1066	1099	1115	1133	1166	1181	1199	1213	1214	1214	1203	1198	1193	1181	1171	1157	1150	1142	1130	1116	1106	1093	1082	903	530	100	0	0	0	0	0	0	73	278	489	557	557	557	557	557	556	556	556	556	556	557	557	557	558	558	559	559	559	560	560	560	559	559	559	559	559	558	558	558	557	556	556	555	555	555	554	554	553	553	553	553	552	551	550	550	549	548	548	547	545	545	544	543	543	542	540	539	538	537	537	536	535	534	534	533	532	530	530	530	530	530	530	530	530	530	530	530	530	530	530	531	532	532	532	532	533	534	534	534	534	534	534	535	535	535	535	535	536	536	536	536	536	536	537	537	538	538	538	539	540	540	540	540	541	541	541	541	541	541	541	540	540	540	538	538	538	537	537	536	536	536	535	535	535	534	534	535	535	535	536	536	536	537	538	539	540	540	541	542	542	542	541	540	539	539	538	537	536	536	535	535	534	534	534	534	533	533	532	532	532	531	531	530	530	530	529	528	528	527	526	526	526	526	526	526	526	523	522	520	520	520	520	520	520	520	520	520	520	520	520	521	522	524	525	525	524	524	524	524	524	524	524	523	522	521	521	521	522	523	524	525	526	526	527	528	528	528	529	529	530	533	534	535	536	536	537	537	537	537	537	537	537	537	537	537	536	536	536	536	536	536	536	537	537	537	537	538	538	538	538	539	539	540	540	541	541	541	541	541	541	541	541	540	540	538	538	537	536	536	535	534	533	532	530	529	528	528	527	526	526	525	524	524	524	524	524	524	524	525	525	526	527	528	529	530	531	533	534	534	536	536	536	536	536	536	536	536	536	536	536	536	536	536	536	536	536	536	536	536	536	536	536	536	536	536	536	536	537	537	537	537	537	537	537	537	537	537	538	538	538	538	538	538	538	538	538	537	537	537	537	536	536	536	536	536	536	536	536	536	537	537	537	537	538	538	538	538	538	539	539	539	540	540	540	540	540	540	541	541	541	541	541	541	541	542	542	542	542	542	542	542	542	543	543	544	544	545	547	547	548	549	549	550	550	550	550	550	549	548	548	548	548	548	548	548	548	547	546	546	546	546	547	547	548	548	548	548	548	549	549	550	550	550	550	549	549	549	549	548	548	548	548	547	546	545	545	545	545	545	545	545	546	546	546	546	546	546	546	546	546	546	546	546	546	546	545	545	545	545	545	545	545	545	545	545	545	545	545	545	545	545	545	545	545	545	545	544	544	544	544	543	543	543	543	542	542	542	542	542	542	542	542	542	542	542	543	543	543	543	543	544	544	544	544	544	545	545	545	545	545	545	545	545	545	544	544	544	544	543	543	542	542	542	542	542	543	543	543	544	544	544	544	544	545	546	546	546	546	546	547	548	548	548
529	531	533	534	535	536	538	539	540	541	541	540	540	540	540	540	540	540	541	541	542	544	545	548	552	554	555	556	555	554	553	552	550	548	548	547	547	547	545	544	544	544	544	544	545	545	545	545	545	545	545	544	544	544	544	544	543	542	542	541	541	541	541	540	540	540	540	540	541	541	541	541	542	542	544	545	545	548	549	551	554	555	556	559	560	561	564	565	567	568	568	569	571	571	571	572	572	572	573	573	573	574	574	574	574	390	0	0	0	0	0	0	0	0	0	0	631	835	830	826	824	822	820	817	808	803	800	798	798	798	798	798	798	798	798	798	801	302	0	0	0	0	0	532	909	909	913	916	923	925	926	929	931	933	937	942	947	973	987	1001	1029	1045	1061	1097	1114	1133	1169	1186	1205	1216	1217	1217	1206	1203	1199	1184	1174	1160	1155	1145	1128	1115	1105	1088	1066	1061	1061	200	0	0	0	0	0	0	0	0	421	558	558	558	558	558	557	556	555	555	555	556	556	556	556	557	558	558	559	559	559	559	559	559	559	559	559	558	558	558	557	556	556	555	555	555	554	554	553	553	553	553	552	551	550	550	549	548	548	547	545	545	544	543	543	542	540	539	538	537	537	536	535	535	535	533	532	531	531	531	531	531	531	531	531	531	531	531	531	531	531	531	533	533	533	534	534	534	534	534	534	534	535	535	535	535	535	535	536	536	536	536	536	536	537	537	538	538	538	538	539	540	540	540	540	541	541	541	541	541	541	540	540	540	538	538	538	537	537	537	536	536	535	535	535	535	535	535	535	536	536	536	537	537	538	540	540	541	542	542	542	542	542	541	540	539	538	537	537	536	535	535	534	534	534	534	533	533	533	533	533	531	531	531	531	530	529	529	528	528	527	526	526	526	526	526	526	524	522	521	521	521	521	521	521	521	521	521	521	521	521	521	522	524	525	525	525	524	524	524	524	524	524	524	523	521	521	521	522	524	524	525	526	526	527	529	529	529	529	530	531	533	534	535	536	536	537	537	537	537	537	537	537	537	537	537	536	536	536	536	536	536	536	536	537	537	537	537	538	538	538	538	538	540	540	540	541	541	541	541	541	541	541	540	540	538	538	538	537	536	535	534	534	533	530	530	529	528	528	527	526	526	525	524	524	524	524	524	524	525	525	526	527	528	529	530	531	533	534	535	536	536	536	537	537	537	537	537	537	537	537	537	537	536	536	536	536	536	536	536	536	536	536	536	536	536	536	536	537	537	537	537	537	537	537	537	537	538	538	538	538	538	538	538	538	538	538	538	537	537	537	536	536	536	536	536	536	536	536	536	537	537	537	537	537	537	538	538	538	538	538	538	540	540	540	540	540	540	541	541	541	541	541	541	542	542	542	542	542	542	542	542	542	543	543	544	545	545	547	548	548	549	550	550	550	550	550	550	549	549	549	549	549	549	548	548	548	547	547	547	547	547	547	548	548	548	548	548	549	549	549	549	549	549	549	549	549	549	549	548	548	548	548	547	546	545	545	545	545	545	545	545	547	547	547	547	547	547	547	547	547	547	547	547	547	546	545	545	545	545	545	545	545	545	545	545	545	545	545	545	545	545	545	545	545	545	545	544	544	544	544	543	543	543	543	543	542	542	542	542	542	542	542	542	542	542	543	543	543	543	543	544	544	544	544	544	545	545	545	545	545	545	545	545	545	544	544	544	543	543	543	542	542	542	542	542	542	542	543	543	543	543	543	543	544	544	544	545	545	545	547	547	547	547
528	529	530	533	533	534	536	536	536	538	538	537	537	537	537	537	537	537	538	539	541	543	544	547	549	550	551	553	552	551	549	549	548	547	546	545	543	543	543	542	542	542	542	542	543	543	543	543	542	542	542	542	542	542	541	541	540	540	540	540	540	540	540	539	538	538	539	540	540	541	541	541	542	542	542	543	544	547	548	550	554	555	556	560	561	563	565	566	567	568	568	569	571	571	572	572	572	572	573	573	573	574	574	574	574	390	0	0	0	0	0	0	0	0	0	0	620	821	819	819	817	808	807	804	798	791	788	788	788	788	788	788	790	798	798	798	801	302	0	0	0	0	0	516	883	883	889	894	902	906	909	916	920	923	923	928	933	958	973	989	1016	1034	1052	1087	1106	1128	1169	1186	1205	1222	1223	1223	1212	1206	1199	1188	1177	1160	1146	1131	1108	1088	1076	1061	1039	1034	1034	195	0	0	0	0	0	0	0	0	422	559	559	559	558	555	555	555	554	554	554	554	554	554	555	555	555	556	556	556	558	558	558	559	559	559	559	558	558	558	557	556	556	556	556	555	554	554	553	553	553	553	552	551	550	550	549	548	548	547	545	545	544	543	543	542	540	539	538	538	538	537	536	536	535	534	534	534	534	534	533	533	533	533	534	534	534	534	534	534	534	534	534	535	535	535	535	535	535	536	536	536	536	536	536	536	536	536	536	536	536	536	536	536	537	537	537	538	538	538	539	540	540	540	540	541	541	541	541	541	541	541	541	540	540	539	538	537	537	537	537	537	537	537	537	537	537	537	537	537	537	538	540	540	541	541	541	542	543	543	543	542	542	542	541	541	540	538	537	536	536	536	535	534	534	534	534	534	533	533	533	533	532	531	531	530	530	529	528	528	527	527	527	526	526	526	526	525	524	521	521	521	521	521	521	521	521	521	521	521	521	522	523	525	526	526	525	525	525	525	525	525	525	524	523	522	522	522	522	524	524	525	526	526	527	529	529	529	529	530	531	533	534	535	537	537	537	537	537	537	537	537	537	537	537	536	536	536	536	536	536	536	536	536	536	536	536	537	537	537	537	538	538	538	538	538	540	540	540	540	540	540	540	540	540	540	539	538	537	536	536	535	535	534	533	532	530	529	529	528	527	527	526	525	525	525	525	525	525	526	526	527	528	528	529	531	532	533	535	535	536	537	537	537	537	537	537	537	537	537	537	537	537	536	536	536	536	536	536	536	536	536	536	536	536	536	536	536	537	537	537	537	537	537	538	538	538	538	538	538	538	538	538	538	538	538	538	538	537	537	537	536	536	536	536	536	536	536	536	536	536	536	536	536	536	537	537	537	537	537	537	538	538	539	540	540	540	540	540	540	541	541	541	542	541	541	541	541	541	542	542	542	543	543	543	544	545	545	547	548	548	549	550	550	550	551	551	551	550	550	550	550	550	549	549	549	549	548	548	548	548	548	548	549	549	548	548	548	549	549	549	549	549	549	549	549	549	549	549	548	548	548	548	547	547	547	547	547	547	547	547	547	547	547	547	547	547	547	548	548	548	548	548	548	547	547	547	547	547	547	545	545	545	545	545	545	545	545	545	545	545	545	545	545	545	545	545	545	544	544	544	543	543	543	543	543	542	542	542	542	542	542	542	542	542	542	542	542	543	543	543	543	543	544	544	544	544	545	545	545	545	545	545	544	544	544	544	544	543	543	543	542	541	541	541	541	541	541	541	541	542	542	542	542	543	543	543	544	544	544	544	544	545	546
528	529	530	532	533	534	535	536	536	537	537	536	536	536	536	536	536	536	537	538	540	542	543	546	548	549	550	551	551	550	548	547	546	545	545	544	543	542	542	541	541	541	541	541	542	542	542	542	541	541	541	541	541	541	540	539	539	539	538	538	539	539	539	538	538	538	539	540	540	540	541	541	542	542	542	543	544	547	548	550	554	555	556	560	561	563	565	566	568	568	569	570	571	572	572	572	572	572	573	574	574	575	575	575	336	195	0	0	0	0	0	0	0	0	107	406	716	816	812	812	811	804	802	799	793	787	784	783	783	783	783	781	781	784	784	784	784	535	341	0	0	0	0	510	872	872	880	886	894	899	903	911	914	916	918	923	928	954	968	983	1012	1029	1048	1085	1104	1126	1166	1184	1205	1222	1222	1220	1212	1206	1199	1186	1174	1157	1141	1125	1100	1077	1065	1050	1037	1034	1034	195	0	0	0	0	0	0	0	0	422	560	560	559	558	555	555	554	554	553	552	552	552	553	554	554	554	555	555	556	556	557	557	558	559	559	559	558	558	558	557	556	556	556	556	555	555	554	554	553	553	553	552	551	550	550	549	548	548	547	545	545	544	543	543	542	541	540	539	539	538	538	537	537	536	536	535	535	535	535	534	534	535	535	535	536	536	536	536	536	536	536	536	536	536	536	536	536	536	536	536	536	536	536	536	536	536	536	536	536	536	536	536	536	537	537	537	538	538	538	539	540	540	540	541	541	541	541	541	541	541	541	541	540	540	540	539	539	538	538	538	538	538	537	537	537	537	537	537	537	538	538	540	540	541	541	542	542	543	543	543	542	542	542	541	541	540	538	537	536	536	536	535	535	534	534	534	534	534	533	533	533	532	531	531	530	530	529	528	528	527	527	527	526	526	526	526	525	524	521	521	521	521	521	521	522	522	522	522	522	522	523	524	526	526	526	526	526	526	526	525	525	525	525	524	523	522	522	522	524	524	525	526	527	528	529	529	529	529	530	531	533	534	536	537	537	537	537	537	537	537	537	537	537	536	536	536	536	536	536	536	536	536	536	536	536	536	536	537	537	537	537	538	538	538	538	538	539	539	539	539	539	540	540	540	540	539	538	538	537	536	536	535	534	533	532	532	530	530	529	528	527	526	526	526	526	526	526	526	526	527	528	528	529	530	531	532	534	535	535	536	537	537	538	538	538	538	538	537	537	537	537	537	536	536	536	536	536	536	536	536	536	536	536	536	536	536	536	537	537	538	538	538	538	538	538	539	539	539	539	539	539	539	538	538	538	538	538	537	537	537	536	536	536	536	536	536	536	536	536	536	536	536	536	536	536	536	536	536	537	537	538	538	538	539	539	539	540	540	540	541	541	541	542	541	541	541	541	541	542	542	543	543	543	543	544	544	545	546	547	548	548	549	550	550	550	550	550	550	550	550	550	550	550	550	549	549	549	548	548	548	548	548	549	549	548	548	548	548	548	548	549	549	549	549	549	549	549	549	548	548	548	548	548	547	547	547	547	547	547	547	547	547	547	548	548	548	548	548	548	548	548	548	548	548	547	547	547	547	547	545	545	545	545	545	545	545	545	545	545	545	545	545	545	545	545	545	545	544	544	544	544	543	543	543	543	542	542	542	542	542	542	542	542	542	542	542	542	543	543	543	543	543	544	544	544	544	545	545	545	545	545	545	544	544	544	544	543	543	543	542	542	541	541	540	540	540	540	540	541	541	541	542	542	542	542	542	543	544	544	544	544	544	546
528	528	529	531	532	534	535	535	535	536	536	536	536	536	535	535	535	535	536	537	538	541	542	544	546	548	549	550	550	549	547	546	544	543	543	542	542	542	542	541	540	540	540	540	541	541	541	540	540	540	540	540	540	540	539	538	538	537	537	537	538	538	538	538	538	538	539	540	540	540	540	541	542	542	542	543	544	547	548	550	554	555	556	560	561	563	565	566	568	569	570	571	572	572	573	573	573	573	574	574	574	576	576	576	98	0	0	0	0	0	0	0	0	0	214	811	811	810	806	806	805	801	797	794	788	782	780	778	778	778	778	775	773	771	771	771	768	768	681	0	0	0	0	504	862	862	870	878	886	891	896	906	908	909	912	918	923	951	964	977	1008	1025	1043	1082	1102	1123	1163	1182	1205	1222	1221	1217	1212	1206	1199	1184	1171	1154	1136	1119	1093	1066	1053	1038	1035	1034	1034	195	0	0	0	0	0	0	0	0	423	560	560	559	558	555	554	554	553	552	551	551	551	551	553	553	553	554	555	555	555	556	556	558	559	559	559	558	558	558	557	556	556	556	556	555	555	555	554	553	553	553	552	551	550	550	549	548	548	547	545	545	544	543	543	542	541	541	540	540	539	538	538	538	537	537	537	536	536	536	536	536	536	537	537	537	537	537	537	537	537	537	537	537	537	537	537	537	537	537	537	537	537	537	537	537	537	537	537	537	537	537	537	537	537	537	537	538	538	538	539	540	540	541	541	541	541	541	541	541	541	541	541	541	540	540	540	540	539	538	538	538	538	537	537	537	537	537	537	538	538	538	540	540	541	542	542	543	543	543	543	542	542	542	541	541	540	538	538	537	536	536	535	535	535	534	534	534	534	533	533	533	532	531	531	530	530	529	528	528	527	527	527	526	526	526	526	525	524	521	521	521	521	521	521	522	522	522	522	522	522	524	525	526	526	526	526	526	526	526	525	525	525	525	525	524	522	522	522	524	524	525	527	527	528	529	529	529	530	530	531	533	535	536	537	537	537	537	537	537	537	537	537	536	536	536	536	536	536	536	536	536	536	536	536	536	536	536	537	537	537	537	537	537	537	537	537	538	538	538	538	538	540	540	540	540	539	538	538	537	537	536	536	535	533	533	533	531	531	530	529	528	527	527	527	527	527	527	527	527	527	528	529	529	530	531	532	534	535	536	537	537	537	538	538	538	538	538	538	537	537	537	537	536	536	536	536	536	536	536	536	536	536	536	536	536	536	537	537	537	538	538	538	538	538	538	540	540	540	540	540	540	540	539	538	538	538	538	537	537	537	536	536	536	535	535	535	535	535	535	535	535	535	535	535	536	536	536	536	537	537	537	537	537	538	538	539	540	540	540	541	541	541	542	541	541	541	541	541	542	543	543	543	543	543	544	544	544	545	546	547	548	549	549	550	550	550	550	550	550	550	550	550	550	550	550	549	549	549	549	549	549	549	549	549	548	548	548	548	548	548	549	549	549	549	549	549	549	549	549	548	548	548	548	548	547	547	547	547	547	547	547	547	547	548	548	548	548	548	548	549	548	548	548	548	548	547	547	547	547	545	545	545	545	545	545	545	545	545	545	545	545	545	545	545	545	545	545	544	544	544	544	544	543	543	543	542	542	542	542	542	542	542	542	542	542	542	542	543	543	543	543	543	544	544	544	544	545	545	545	545	545	545	544	544	544	543	543	543	542	542	541	541	541	540	540	540	540	540	540	540	541	541	541	542	542	542	543	543	543	544	544	544	545
527	528	529	530	530	531	533	533	533	534	534	534	534	534	534	534	534	534	536	536	537	540	542	544	545	546	547	549	548	547	545	544	543	542	542	541	541	541	540	540	540	540	539	538	538	538	538	538	537	537	537	537	537	537	537	537	536	536	536	536	537	537	537	538	538	538	538	538	540	540	540	541	541	541	542	543	543	547	548	549	553	554	556	559	561	563	565	566	568	571	571	572	573	573	574	576	576	577	578	579	580	583	583	583	99	0	0	0	0	0	0	0	0	625	807	803	803	802	798	794	793	793	789	786	780	777	776	776	774	773	773	772	771	768	767	766	764	764	678	0	0	0	0	492	841	841	848	854	868	875	880	893	896	899	902	906	909	937	953	969	1000	1018	1038	1077	1099	1123	1163	1185	1211	1222	1221	1217	1212	1206	1199	1179	1162	1138	1108	1099	1093	1036	1026	1026	1036	705	0	0	0	0	0	0	0	449	577	567	564	562	560	559	558	554	553	553	551	550	549	549	549	549	550	550	550	551	552	553	554	555	555	556	557	558	559	558	558	558	558	558	558	557	556	556	555	555	555	554	554	553	553	553	550	550	549	548	548	547	545	545	544	544	544	543	542	542	541	541	541	541	541	541	540	540	540	540	540	540	540	540	540	540	541	541	541	541	541	540	540	540	540	541	541	541	541	541	541	541	541	540	540	540	538	538	538	538	537	537	537	537	537	537	537	537	537	538	538	538	539	540	540	541	541	541	541	541	542	542	542	542	542	542	541	541	541	541	541	540	540	539	538	538	538	538	538	538	538	538	538	538	540	540	541	541	541	542	543	543	543	542	542	541	540	540	540	538	538	537	536	536	535	535	535	534	534	534	534	534	534	533	532	531	531	530	530	529	528	528	527	527	527	526	526	526	526	525	524	522	522	522	522	522	522	522	522	522	522	522	522	524	525	526	527	527	527	527	527	526	526	526	525	525	525	524	524	524	524	525	525	526	527	527	528	529	530	531	531	531	531	533	534	535	536	536	537	537	537	537	537	537	536	536	536	536	536	536	536	536	536	536	536	536	536	536	536	536	536	536	536	536	536	536	536	536	537	537	537	537	537	537	538	538	538	538	538	538	538	538	538	537	537	536	535	535	535	534	534	533	531	531	530	529	529	529	529	529	529	529	529	529	530	530	531	533	534	535	536	536	537	538	538	538	538	538	538	538	538	537	537	537	537	536	536	536	536	536	536	536	536	536	536	536	536	537	537	537	538	538	538	539	540	540	540	540	540	541	541	541	540	540	540	540	540	540	539	538	537	537	537	536	536	536	535	535	535	535	535	534	534	534	534	535	535	535	535	535	536	536	536	536	537	537	537	538	538	538	540	540	541	541	541	542	542	542	542	542	542	543	543	543	543	543	543	544	544	544	545	545	545	547	547	547	548	549	549	549	549	549	549	549	549	549	549	549	548	548	548	548	548	548	548	548	548	547	547	547	547	548	548	548	548	548	548	548	548	548	548	548	548	548	548	548	548	548	548	548	548	548	548	548	548	548	548	548	548	548	548	548	548	548	548	548	548	548	547	547	547	547	547	547	545	545	545	545	545	545	547	547	547	547	547	547	547	546	545	545	544	544	544	544	544	543	542	542	542	541	541	541	541	541	541	541	541	542	542	542	543	543	543	543	543	544	544	544	545	545	545	545	545	545	545	544	544	544	543	543	542	542	542	541	540	540	540	538	538	538	538	538	538	538	539	540	541	541	541	542	542	542	543	543	543	544
526	527	528	529	530	530	533	533	533	534	534	534	534	534	534	534	534	534	535	536	536	311	364	544	545	546	547	549	548	546	545	544	542	542	541	540	540	539	539	539	538	538	538	538	538	537	537	537	537	536	536	536	536	536	536	536	536	535	535	535	536	536	536	537	538	538	538	538	540	540	540	540	541	541	542	542	543	546	547	548	552	554	556	559	560	562	564	566	568	571	571	572	573	573	574	576	577	578	581	582	584	586	587	588	352	206	0	0	0	0	0	0	0	622	803	800	799	797	796	792	790	789	785	782	776	774	773	772	770	770	770	768	767	766	764	762	760	760	718	383	387	390	396	647	825	832	839	846	860	867	873	886	891	895	898	901	904	932	947	964	996	1014	1034	1075	1095	1118	1160	1181	1205	1222	1221	1217	1212	1206	1199	1176	1159	1136	1107	1088	1062	1031	1026	1026	992	814	450	450	314	0	0	0	0	449	577	567	564	562	560	559	558	554	552	552	550	549	548	548	548	548	549	549	549	550	551	552	554	554	555	556	556	557	558	558	558	558	558	558	558	557	556	556	556	556	556	555	554	554	553	553	551	550	550	549	548	548	546	545	544	544	544	544	543	543	542	542	542	542	542	542	542	541	541	541	541	541	541	541	541	541	542	542	542	542	542	542	542	542	542	542	542	542	542	542	542	542	542	541	541	541	540	539	539	539	538	538	538	538	538	538	538	538	538	538	538	538	539	540	540	541	541	541	541	542	542	542	542	542	542	542	542	542	542	542	541	541	541	540	539	538	538	538	538	538	538	539	539	539	540	540	540	540	541	542	542	542	542	542	541	540	539	539	539	538	537	536	536	535	535	535	535	534	534	534	534	534	534	533	532	531	531	530	530	529	528	528	527	527	527	526	526	526	526	525	524	522	522	522	522	522	522	523	523	523	523	523	523	524	525	526	527	527	527	527	527	526	526	526	526	526	525	524	524	524	524	525	525	526	527	528	528	529	530	531	531	531	531	533	534	535	536	536	536	536	536	536	536	536	536	536	536	536	536	536	536	536	536	536	536	536	536	536	536	536	536	536	536	536	536	536	536	536	536	536	536	536	536	537	538	538	538	538	538	538	538	538	538	537	537	536	536	536	536	535	534	534	533	532	532	530	530	530	530	530	530	530	530	530	531	532	532	533	534	535	536	537	538	538	538	538	538	538	538	538	537	537	537	537	536	536	536	536	536	536	536	536	536	536	536	536	536	537	537	538	538	539	539	540	540	540	540	540	540	541	542	542	541	540	540	540	540	540	539	538	537	537	537	536	536	536	535	535	535	535	535	534	534	534	534	534	534	534	535	535	536	536	536	536	536	537	537	537	538	538	540	540	541	541	542	542	542	542	542	542	543	543	543	543	543	543	543	544	544	544	545	545	545	547	547	547	548	548	548	548	548	548	548	548	548	548	548	548	548	548	548	548	548	548	548	548	547	547	547	547	547	547	548	548	548	548	548	548	548	548	548	548	548	548	548	548	548	548	548	548	548	548	548	548	548	548	548	548	548	548	548	548	548	548	548	548	548	547	547	547	547	547	547	547	546	546	546	546	546	546	547	547	548	548	547	547	547	546	546	546	545	544	544	544	544	543	542	542	542	541	541	541	541	541	541	541	541	542	542	542	542	543	543	543	543	544	544	544	544	545	545	545	545	545	545	544	544	544	543	543	542	542	541	540	540	540	539	538	538	538	538	538	538	538	539	540	540	541	541	541	542	542	543	543	543	544
