0	0	0	0	0	0	0	0	0	0	0	1301	1301	1302	1302	1302	1305	1305	1307	1309	1309	1313	1317	1317	1321	1322	1314	1314	1314	1310	1307	1305	1305	1302	1301	1301	1300	1298	1298	1298	1297	1297	1297	1298	1298	1298	0	0	0	0	0	0	0	0	0	0	0	0	0	0	0	0	0	0	0	0	0	0	0	0	809	809	810	810	811	811	813	817	817	822	822	826	828	828	833	833	840	842	844	848	848	855	855	859	861	861	863	863	863	863	864	863	862	862	862	860	860	859	857	851	846	846	843	841	838	838	834	833	833	833	837	0	842	842	842	842	843	845	845	847	847	849	851	851	854	857	858	861	861	864	871	871	877	877	880	880	884	889	889	894	894	896	897	897	898	898	898	898	898	898	898	898	898	898	898	898	898	898	898	898	898	898	898	898	898	898	898	898	898	898	898	898	898	898	898	898	898	898	898	898	897	897	897	896	896	896	895	893	891	891	889	886	883	883	881	879	879	878	876	875	875	873	873	873	871	871	871	871	873	873	873	873	874	874	875	877	877	878	879	879	880	881	881	882	884	884	888	888	890	893	893	895	896	896	897	897	898	898	898	898	898	899	899	899	899	900	900	900	900	901	901	901	901	903	904	904	904	904	904	904	904	904	904	904	904	904	904	906	906	904	904	904	904	906	906	906	906	908	908	908	908	908	908	910	910	910	911	911	912	912	913	913	913	913	914	914	914	914	914	914	914	914	913	912	912	911	910	910	910	908	906	906	904	904	904	903	902	902	901	901	901	901	900	900	900	900	900	900	900	901	901	901	901	901	901	901	901	901	901	901	901	902	902	902	902	903	903	903	903	903	903	903	903	903	903	903	903	903	903	903	903	903	902	902	902	902	902	902	901	901	901	901	901	901	901	901	901	901	901	901	901	901	901	901	901	901	901	901	901	900	900	900	900	900	900	900	900	900	899	899	898	898	898	898	898	896	895	895	894	893	893	892	892	892	892	894	895	895	896	898	898	898	899	899	900	901	901	901	901	901	901	901	901	901	902	902	902	902	902	903	903	903	903	904	904	904	904	904	904	906	906	906	906	906	904	904	904	904	904	904	904	904	904	904	0	0	0	0	0	0	0	0	0	0	0	0	0	0	0	0	0	0	0	0	0	0	0	0	0	0	898	898	898	898	896	896	896	896	895	884	884	884	0	823	823	819	819	819	817	815	814	814	812	811	811	810	809	808	808	806	805	805	803	803	804	804	0	0	0	707	706	704	704	703	700	699	699	698	695	690	687	687	685	679	677	676	676	675	672	670	670	668	666	665	665	665	663	663	663	661	660	660	659	659	661	661	0	0	0	0	0	718	718	718	719	719	718	718	718	718	718	718	718	717	717	717	715	714	714	714	714	0	0	0	0	0	0	0	0	0	0	0	0	0	0	0	0	0	0	0	0	0	0	0	0	0	0	0	0	0	0	0	0	0	0	0	0	1965	1951	1942	1942	1933	1925	1925	1919	1916	1916	1913	1911	1911	1911	1908	1908	1908	1908	1908	1908	1908	1908	1908	1908	1908	1908	1908	1911	1911	1911	1913	1916	1916	1919	1919	1919	1919	1922	1922	1922	1925	1925	1925	1928	1928	1928	1933	1933	1933	1933	1936	1936
0	0	0	0	0	0	0	0	0	1301	1301	1301	1301	1302	1302	1302	1304	1304	1304	1306	1306	1307	1310	1310	1314	1317	1314	1314	1314	1310	1307	1305	1305	1302	1301	1301	1300	1298	1298	1298	1297	1297	1297	1298	1298	1298	0	0	0	0	0	0	0	0	0	0	0	0	0	0	0	0	0	0	0	0	0	0	0	0	0	0	0	0	0	813	813	817	817	822	822	826	828	828	833	833	840	844	844	848	848	855	855	859	861	861	863	863	863	863	864	863	862	862	862	860	860	859	857	851	846	846	843	841	838	838	834	833	833	833	0	0	842	842	843	843	845	845	848	849	849	852	854	854	857	857	859	861	861	864	871	871	877	877	880	880	884	889	889	894	894	896	897	897	898	898	898	898	898	898	898	898	898	898	898	898	898	898	898	898	898	898	898	898	898	896	896	896	896	897	897	897	897	897	897	897	897	897	896	896	896	896	896	895	895	895	894	892	890	890	888	886	883	883	881	880	880	879	878	878	877	876	875	875	875	875	875	875	875	875	875	876	877	877	878	879	879	880	881	881	881	882	882	884	884	886	889	889	890	892	892	894	895	895	896	896	896	896	897	897	898	898	898	898	898	898	898	899	899	900	900	900	901	0	0	0	904	904	904	904	904	904	904	904	679	679	679	679	679	679	679	679	679	679	680	681	681	682	682	683	685	685	685	685	685	686	686	686	686	686	686	686	686	686	687	0	0	0	0	0	0	0	0	912	912	911	910	910	910	908	906	906	904	903	903	901	901	901	900	900	900	899	899	899	899	899	899	899	899	899	899	899	899	900	900	900	900	900	900	900	900	900	901	901	900	900	900	900	900	900	901	901	901	901	901	901	901	901	900	900	900	900	900	900	900	900	900	900	900	900	900	900	900	900	900	900	900	900	900	900	900	900	900	900	900	900	900	900	900	899	899	899	899	899	899	898	898	898	898	898	897	897	896	895	895	894	892	892	891	890	890	890	890	890	892	892	894	894	895	896	896	898	898	898	899	900	900	900	900	900	900	901	901	901	901	901	901	901	901	901	902	902	902	902	902	903	903	903	903	903	903	903	903	902	902	902	902	901	901	901	901	901	901	901	0	0	0	0	0	0	0	0	0	0	0	0	0	0	0	0	0	0	0	0	0	0	0	0	0	0	898	898	898	898	896	896	896	896	895	884	884	884	0	0	824	821	821	821	819	817	815	815	813	811	811	810	810	810	809	808	807	807	806	804	804	804	0	0	0	0	706	704	704	703	700	699	699	698	695	690	687	687	685	679	677	677	676	675	672	670	670	668	666	665	665	665	664	664	663	662	662	661	661	661	661	661	0	0	0	0	0	718	718	718	719	719	718	718	718	718	718	718	718	717	717	717	715	714	714	714	714	0	0	0	0	0	0	0	0	0	0	0	0	0	0	0	0	0	0	0	0	0	0	0	0	0	0	0	0	0	0	0	0	0	0	0	0	0	1942	1933	1933	1928	1922	1922	1916	1913	1913	1911	1911	1911	1911	1908	1908	1908	1908	1908	1908	1908	1908	1908	1908	1908	1908	1908	1908	1911	1911	1911	1911	1911	1913	1916	1916	1916	1916	1916	1919	1919	1919	1919	1922	1922	1925	1925	1925	1925	1928	1928	1928
0	0	0	0	0	0	0	0	1304	1301	1301	1301	1302	1302	1302	1302	1302	1302	1304	1305	1305	1306	1307	1307	1309	1310	1309	1307	1307	1306	1302	1301	1301	1300	1298	1298	1297	1297	1297	1296	1296	1296	1296	1297	1297	1297	1297	0	0	0	0	0	0	0	0	0	0	0	884	883	883	883	883	882	882	882	882	0	0	0	0	0	0	0	0	813	813	817	817	821	821	825	827	827	828	833	834	840	840	843	843	846	851	851	855	855	859	859	859	859	859	857	855	853	853	851	847	844	844	843	840	836	836	832	829	828	828	828	830	833	834	840	840	842	843	843	845	845	848	849	849	852	854	854	857	857	859	861	861	864	869	869	875	875	879	879	881	885	885	890	890	892	895	895	895	896	896	896	897	897	897	897	897	896	896	896	896	896	896	896	896	896	896	896	896	896	896	896	896	897	897	897	897	897	897	897	897	897	896	896	896	896	896	895	895	895	894	892	890	890	888	886	883	883	881	881	881	880	879	879	878	878	878	877	877	877	877	877	878	878	878	878	879	879	880	880	880	881	882	882	883	883	884	886	886	888	890	890	891	892	892	894	895	895	896	896	896	896	897	897	898	898	898	898	898	898	898	899	899	900	900	900	901	0	0	0	0	0	0	0	0	0	0	0	679	679	679	679	679	679	679	679	679	679	680	681	681	682	682	683	685	685	685	685	685	686	686	686	686	686	686	686	686	686	687	0	0	0	0	0	0	0	0	0	0	0	0	0	0	0	906	906	903	901	901	900	899	899	899	898	898	898	898	898	898	898	898	898	898	898	898	898	898	898	898	898	898	898	898	898	898	898	898	898	898	899	899	898	898	898	898	898	898	898	898	898	899	899	899	899	899	899	899	899	899	898	898	898	898	899	899	899	899	899	899	899	899	898	898	898	898	898	898	898	898	898	898	898	898	898	898	898	898	898	898	898	897	896	896	895	895	895	893	892	892	890	890	889	889	889	888	888	888	889	890	890	892	892	894	895	895	897	898	898	898	899	899	899	900	900	900	900	900	900	900	900	901	901	901	901	901	901	901	901	901	901	901	901	901	901	901	901	901	901	901	900	900	900	900	900	900	899	899	899	0	0	0	0	0	0	0	0	0	0	0	0	0	0	0	896	896	896	0	0	0	0	896	896	896	897	898	898	897	897	896	895	895	895	892	884	884	884	828	828	824	821	821	821	819	817	815	815	813	811	811	810	810	810	809	808	807	807	806	804	804	804	0	0	0	0	704	703	703	701	700	698	698	697	692	689	687	687	683	678	677	677	676	675	672	670	670	668	666	665	665	665	664	664	663	662	662	661	661	661	661	661	0	0	0	0	0	718	717	717	717	716	716	716	717	717	716	716	716	716	715	715	714	713	712	712	712	711	711	711	0	0	0	0	0	0	0	0	0	0	0	0	0	0	0	0	0	0	0	0	0	0	0	0	0	0	0	0	0	0	0	0	0	0	1942	1933	1933	1928	1922	1922	1916	1913	1913	1911	1911	1911	1911	1908	1908	1908	1908	1908	1908	1908	1908	1908	1908	1908	1908	1908	1908	1911	1911	1911	1911	1911	1913	1916	1916	1916	1916	1916	1919	1919	1919	1919	1922	1922	1925	1925	1925	1925	1928	1928	1928
0	0	0	0	0	0	0	0	1304	1302	1302	1302	1302	1302	1302	1302	1302	1302	1304	1305	1305	1306	1306	1306	1307	1307	1306	1304	1302	1302	1301	1300	1300	1298	1297	1297	1296	1296	1296	1296	1296	1296	1296	1296	1296	1296	1297	0	0	0	0	0	0	0	0	883	883	883	883	883	883	882	881	881	881	881	881	881	881	881	0	0	0	0	0	0	817	817	817	821	821	824	826	826	827	828	828	832	832	837	841	841	843	843	844	845	845	845	845	845	844	844	844	843	842	842	840	837	833	833	829	827	826	826	826	826	826	826	830	834	834	840	840	843	843	845	848	848	852	853	853	855	855	857	859	859	860	862	862	864	866	869	875	875	879	879	881	883	883	886	889	889	890	890	892	894	894	894	895	895	895	895	895	895	895	894	894	894	894	894	894	894	894	894	894	894	895	895	895	895	895	895	895	896	896	896	896	896	895	895	895	894	894	893	893	891	891	890	889	889	887	885	883	883	881	881	881	880	879	879	878	878	878	877	877	877	877	877	878	878	878	878	879	879	880	880	880	881	882	882	883	883	884	886	886	888	890	890	890	891	891	892	893	893	894	894	894	895	895	895	895	896	896	897	898	898	898	898	898	899	899	899	901	0	0	0	0	0	0	0	0	679	679	679	679	679	679	679	678	678	678	678	679	679	679	681	681	682	682	683	684	684	685	685	685	685	685	685	685	685	685	686	686	686	686	686	686	687	0	0	0	0	0	0	0	0	0	0	0	0	0	0	903	901	901	900	899	899	899	898	898	898	898	898	898	898	898	898	898	898	898	898	898	898	898	898	898	898	898	898	898	898	898	898	898	899	899	898	898	898	898	898	898	898	898	898	899	899	899	899	899	899	899	899	899	898	898	898	898	899	899	899	899	899	899	899	899	898	898	898	898	898	898	898	898	898	898	898	898	898	898	898	898	898	898	898	897	896	896	895	895	895	893	892	892	890	890	889	889	889	888	888	888	889	890	890	892	892	894	895	895	897	898	898	898	899	899	899	900	900	900	900	900	900	900	900	901	901	901	901	901	901	901	901	901	901	901	901	901	901	901	901	901	901	901	900	900	900	900	900	900	898	898	898	0	0	0	0	0	0	0	0	0	0	0	0	890	890	891	891	892	896	893	893	895	895	894	894	894	896	896	896	896	896	895	895	895	895	892	892	892	0	828	828	824	823	822	822	821	819	819	816	814	812	812	811	810	810	810	809	809	809	808	806	806	806	0	0	703	703	702	701	701	700	699	697	697	694	690	687	685	681	681	677	677	677	676	675	673	670	670	668	666	666	665	665	664	664	664	663	663	662	662	662	662	662	664	664	665	0	0	0	717	717	712	712	713	713	714	714	714	714	714	714	713	713	713	712	712	712	711	710	710	710	0	0	0	0	0	0	0	0	0	0	0	0	0	0	0	0	0	0	0	0	0	0	0	0	0	0	0	0	0	0	0	0	0	0	1942	1925	1925	1925	1916	1916	1913	1911	1911	1911	1911	1911	1908	1908	1908	1908	1908	1908	1908	1908	1908	1908	1908	1908	1908	1908	1908	1911	1911	1911	1911	1911	1911	1913	1913	1913	1913	1913	1916	1916	1916	1916	1919	1919	1919	1922	1922	1922	1922	1922	1922
0	0	0	0	0	0	0	0	1304	1302	1302	1302	1302	1306	1305	1305	1306	1306	1305	1305	1305	1306	1306	1306	1307	1307	1306	1304	1302	1302	1301	1300	1300	1298	1297	1297	1296	1296	1296	1296	1296	1296	1296	1296	1296	1296	0	0	0	0	0	0	0	0	0	883	883	883	883	883	883	882	881	881	881	881	881	881	881	881	0	0	0	0	0	0	0	0	821	821	821	824	826	826	827	828	828	832	832	837	841	841	843	843	844	845	845	845	845	845	844	844	844	843	842	842	840	837	833	833	829	827	826	826	826	826	826	826	0	0	840	840	840	843	843	847	851	851	855	855	857	858	858	859	860	860	862	863	863	866	866	871	876	876	879	879	881	883	883	886	889	889	890	890	892	894	894	894	895	895	895	895	895	891	891	891	891	890	890	890	890	891	891	891	891	891	892	892	892	892	893	893	893	893	893	893	894	894	893	893	892	892	891	891	890	890	890	889	887	887	886	884	883	883	882	881	881	881	880	880	879	879	879	878	878	878	878	878	879	879	879	880	880	881	881	881	881	883	883	884	885	885	886	887	887	888	889	889	890	890	890	890	891	891	891	891	891	892	892	892	892	894	894	895	895	895	896	897	897	898	898	898	0	0	0	0	0	0	0	0	0	678	678	678	678	678	678	678	678	678	678	678	679	679	679	681	681	682	682	683	684	684	685	685	685	685	685	685	685	685	685	685	685	685	685	685	685	686	687	687	687	0	0	0	0	0	0	0	0	0	0	0	903	901	901	899	898	898	898	897	896	896	896	896	896	895	895	895	895	895	895	895	895	896	896	896	896	896	896	896	896	897	897	897	897	897	896	896	896	896	896	896	896	896	896	896	896	897	897	897	897	897	897	897	897	897	897	898	898	898	898	898	898	898	898	898	898	898	898	898	898	898	898	897	897	897	897	897	897	896	896	896	896	896	895	895	895	894	894	892	891	891	890	890	888	888	888	887	887	887	887	887	887	888	890	890	890	892	892	894	894	895	896	896	897	898	898	898	898	898	899	899	899	899	900	900	900	900	900	900	900	900	900	900	900	900	900	900	900	900	900	900	900	900	899	899	899	899	898	898	898	898	898	898	0	0	0	0	0	0	0	0	0	0	0	0	890	890	891	891	892	0	893	893	895	895	894	894	894	896	896	896	896	896	895	895	895	895	892	892	892	0	829	829	825	824	823	823	822	820	820	817	815	813	813	812	811	811	810	810	810	809	809	809	809	0	0	0	703	703	702	701	701	700	699	697	697	694	690	687	685	681	681	677	677	677	676	675	673	670	670	668	667	667	666	665	665	665	664	663	663	663	663	663	663	663	664	664	665	0	0	0	0	0	712	712	713	713	714	714	714	714	714	714	713	713	713	712	712	712	711	710	710	710	0	0	0	0	0	0	0	0	0	0	0	0	0	0	0	0	0	0	0	0	0	0	0	0	0	0	0	0	0	0	0	0	0	0	0	1925	1925	1925	1916	1916	1911	1911	1911	1911	1911	1911	1908	1908	1908	1908	1908	1908	1908	1908	1908	1908	1908	1908	1908	1908	1908	1908	1908	1911	1911	1911	1911	1911	1911	1911	1911	1911	1913	1913	1913	1913	1916	1916	1916	1919	1919	1919	1919	1919	1919
0	0	0	0	0	0	0	0	1309	1306	1306	1305	1305	1306	1305	1305	1306	1306	1305	1305	1305	1306	1306	1306	1307	1307	1306	1304	1302	1302	1301	1300	1300	1298	1297	1297	1296	1296	1296	1296	1296	1296	1296	1296	1296	1296	0	0	0	0	0	0	883	883	883	882	882	882	882	882	882	882	881	881	881	881	881	881	880	880	0	0	0	0	0	0	0	821	821	821	821	823	824	824	825	826	826	827	828	828	841	841	843	843	836	836	837	836	836	835	835	834	832	832	830	828	827	827	826	825	825	824	823	823	823	823	825	825	827	832	832	840	840	843	843	847	851	851	855	855	857	858	858	859	860	860	862	863	863	866	866	871	876	876	879	879	880	882	882	884	886	886	888	889	889	890	890	890	891	891	891	891	891	891	891	891	891	890	890	890	890	891	891	891	891	891	892	892	892	892	893	893	893	893	893	893	894	894	893	893	892	892	891	891	890	890	890	889	887	887	886	884	883	883	882	881	881	881	880	880	880	880	880	880	880	880	880	880	880	880	881	881	881	881	882	882	883	884	884	885	886	886	887	887	887	888	889	889	890	890	890	890	891	891	891	891	891	892	892	892	892	894	894	895	895	895	896	897	897	898	898	898	0	0	0	0	0	0	0	0	0	678	678	678	678	678	678	678	678	678	678	679	680	680	680	682	682	682	682	683	685	685	685	685	685	685	685	685	685	685	685	685	685	685	685	685	685	686	687	687	687	0	0	0	0	0	0	0	0	0	0	0	0	0	0	899	898	896	896	895	895	895	893	892	892	892	892	892	892	892	892	892	892	892	892	893	894	894	894	894	894	894	894	894	894	894	894	894	893	893	893	893	894	894	894	894	894	895	895	895	895	895	895	895	895	895	895	895	895	895	895	895	896	896	896	896	896	896	896	896	896	895	895	895	895	895	895	895	895	895	894	894	894	893	892	892	891	890	890	890	889	889	888	887	886	886	886	886	886	886	886	886	886	887	889	889	890	891	891	893	893	894	895	895	896	897	897	898	898	898	898	898	898	898	898	898	899	899	899	899	899	899	899	899	898	898	898	898	898	898	898	898	898	898	898	898	898	898	898	898	898	896	896	895	895	0	0	0	0	0	0	0	0	884	884	884	884	884	885	885	887	888	888	889	890	890	891	891	891	894	895	895	895	896	894	894	894	894	889	880	864	864	829	829	825	824	823	823	822	820	820	817	815	813	813	812	811	811	810	810	810	809	809	809	809	0	0	0	702	702	701	701	701	699	698	697	697	694	690	687	685	681	681	677	677	677	676	675	673	670	670	668	667	667	666	665	665	665	664	663	663	663	663	663	663	663	664	664	665	667	0	0	0	709	709	709	711	711	712	712	712	712	712	712	712	711	711	711	711	711	710	709	709	707	707	704	704	704	0	0	0	0	0	0	0	0	0	0	0	0	0	0	0	0	0	0	0	0	0	0	0	0	0	0	0	0	0	0	0	0	0	0	0	0	1911	1911	1911	1911	1911	1911	1908	1908	1908	1908	1908	1908	1908	1908	1908	1908	1908	1908	1908	1908	1908	1908	1908	1911	1911	1911	1911	1911	1911	1911	1911	1911	1913	1913	1913	1913	1916	1916	1916	1919	1919	1919	1919	1919	1919
0	0	0	0	0	0	0	0	1309	1309	1310	1310	1309	1309	1309	1309	1309	1309	1309	1309	1309	1309	1309	1309	1309	1309	1307	1305	1302	1302	1301	1300	1300	1298	1297	1297	1296	1296	1296	1296	1296	1296	1296	1296	0	0	0	0	0	0	0	0	882	881	881	881	881	881	881	881	881	881	881	881	881	881	880	880	880	880	880	880	0	0	0	0	0	821	821	821	821	821	823	823	823	823	823	824	824	824	825	825	825	826	826	826	826	826	826	826	826	826	825	824	824	823	822	822	820	819	817	817	817	819	819	819	822	822	826	832	832	840	840	844	844	849	854	854	857	857	859	860	860	860	862	862	863	864	864	868	868	873	876	876	878	878	880	881	881	883	884	884	884	886	886	887	888	888	889	889	889	889	889	889	889	889	889	889	889	888	888	889	889	889	889	889	889	890	890	890	890	890	890	890	890	890	890	890	890	890	890	890	889	889	888	888	888	886	884	884	884	883	882	882	881	881	881	881	880	880	880	880	880	880	880	880	880	880	880	880	881	881	881	881	882	882	883	884	884	884	885	885	886	886	886	887	887	887	887	888	888	888	889	889	888	888	888	888	888	888	890	890	890	890	892	892	894	895	895	896	898	898	0	0	0	0	0	0	0	0	678	678	678	678	678	678	678	678	678	678	678	679	680	680	680	681	681	682	682	683	684	684	685	685	685	685	685	685	685	685	685	685	685	685	685	685	685	686	686	686	686	686	686	686	0	0	0	0	0	0	0	0	0	0	0	0	0	896	896	895	895	895	893	892	892	892	892	892	892	892	892	892	892	892	892	893	894	894	894	894	894	894	894	894	894	894	894	894	893	893	893	893	894	894	894	894	894	895	895	895	895	895	895	895	895	895	895	895	895	895	895	895	896	896	896	896	896	896	896	896	896	895	895	895	895	895	895	895	895	895	894	894	894	893	892	892	891	890	890	890	889	889	888	887	886	886	886	886	886	886	886	886	886	887	889	889	890	891	891	893	893	894	895	895	896	897	897	898	898	898	898	898	898	898	898	898	899	899	899	899	899	899	899	899	898	898	898	898	898	898	898	898	896	896	896	897	897	897	897	897	896	895	895	893	890	888	888	885	883	882	882	881	881	882	881	881	883	883	883	884	884	884	885	885	888	888	889	890	890	891	893	893	894	894	893	893	893	893	888	880	864	864	830	830	826	825	825	825	823	821	821	819	817	814	814	813	812	812	811	811	811	811	810	810	810	0	0	0	701	701	701	700	700	699	697	695	692	692	689	687	685	681	681	678	677	677	676	675	673	673	671	669	667	667	666	666	665	665	665	664	664	664	664	664	664	664	665	665	667	667	680	680	0	709	709	706	706	711	711	711	711	711	711	711	711	711	711	710	709	709	708	707	705	705	704	703	703	702	702	0	0	0	0	0	0	0	0	0	0	0	0	0	0	0	0	0	0	0	0	0	0	0	0	0	0	0	0	0	0	0	0	0	0	0	1911	1911	1911	1911	1908	1908	1908	1908	1908	1908	1908	1908	1908	1908	1908	1908	1908	1908	1908	1908	1908	1908	1908	1911	1911	1911	1911	1911	1911	1911	1911	1911	1913	1913	1913	1913	1913	1913	1913	1916	1916	1916	1916	1916	1916
0	0	0	0	0	0	0	0	1314	1313	1313	1313	1313	1313	1313	1313	1314	1314	1313	1313	1313	1313	1313	1313	1313	1313	1309	1306	1304	1304	1301	1301	1301	1298	1298	1298	1297	1297	1297	1297	1297	1297	1297	0	0	0	0	0	0	0	0	0	882	881	881	881	881	881	881	881	881	881	881	881	881	881	880	880	880	880	880	880	0	0	0	0	0	823	821	821	821	821	823	823	823	823	823	824	824	824	825	825	825	826	826	826	826	826	826	826	826	826	825	824	824	823	822	822	820	819	817	817	817	819	819	819	822	822	826	0	840	840	840	844	844	851	855	855	857	857	859	860	860	862	863	863	864	866	866	871	871	874	877	877	878	878	880	881	881	883	884	884	883	883	883	884	884	884	885	886	885	885	886	886	886	886	886	886	886	885	885	885	885	885	886	886	886	886	887	887	887	887	887	888	888	888	888	888	888	887	887	887	886	886	885	885	885	884	883	882	882	882	881	881	881	881	881	881	880	880	880	880	880	880	880	880	880	881	881	881	881	881	881	881	882	882	883	883	883	884	884	884	884	884	884	885	885	885	885	885	885	885	886	886	885	885	886	886	886	886	886	887	888	888	889	889	890	895	895	896	0	0	0	0	0	677	677	677	677	677	677	677	678	678	678	678	678	678	678	679	679	679	679	679	680	681	681	682	682	682	683	683	684	684	684	684	684	684	685	685	684	684	685	684	684	685	685	685	685	685	685	685	685	685	685	685	0	0	0	0	0	0	0	0	0	0	0	896	896	893	891	891	890	890	888	888	888	889	889	889	888	888	888	889	890	890	890	890	890	890	890	890	890	890	890	890	890	890	890	890	890	890	890	890	890	890	890	890	890	890	890	890	890	891	891	891	891	892	892	892	892	892	893	893	893	893	893	893	894	894	893	893	892	892	892	892	892	891	891	891	890	890	890	890	890	890	889	888	888	887	886	885	885	885	885	885	884	884	884	884	884	885	885	886	887	887	888	890	890	890	892	892	893	893	894	895	895	895	896	896	896	897	897	897	897	897	898	898	898	898	898	898	898	898	898	897	897	897	897	898	898	898	896	896	896	897	897	897	897	897	896	895	895	893	890	888	888	885	883	882	882	881	881	882	881	881	883	883	883	884	884	884	885	885	888	888	889	890	890	891	893	893	894	894	893	893	893	893	888	880	880	880	843	834	826	826	826	825	824	823	823	821	819	819	817	814	813	813	812	811	811	811	810	810	810	0	0	0	701	701	701	700	700	699	697	695	692	692	689	687	685	681	681	678	677	677	676	675	674	674	672	670	669	669	667	666	666	666	665	665	665	664	664	664	664	665	666	666	669	669	680	680	0	0	0	706	706	711	711	711	711	711	711	711	711	711	711	710	709	709	708	707	705	705	704	703	703	702	702	0	0	0	0	0	0	0	0	0	0	0	0	0	0	0	0	0	0	0	0	0	0	0	0	0	0	0	0	0	0	0	0	0	0	0	1911	1911	1911	1911	1908	1908	1908	1908	1908	1908	1908	1908	1908	1908	1911	1911	1911	1911	1911	1911	1911	1911	1911	1911	1911	1911	1911	1913	1913	1913	1913	1913	1913	1913	1911	1911	1913	1913	1913	1913	1913	1913	1913	1913	1913
0	0	0	0	0	0	0	0	1314	1313	1313	1313	1313	1313	1313	1313	1314	1314	1313	1313	1313	1313	1313	1313	1313	1313	1309	1306	1304	1304	1301	1301	1301	1298	1298	1298	1297	1297	1297	1297	1297	1297	1297	0	0	0	0	0	0	0	881	881	881	881	881	881	881	881	881	881	881	881	881	881	881	880	879	879	879	878	878	878	877	877	877	0	0	823	819	819	819	819	819	819	817	817	817	817	817	817	817	817	817	817	817	815	815	815	816	816	815	814	814	814	814	814	813	813	813	813	813	813	813	813	815	815	821	822	826	0	839	839	839	844	844	851	855	855	857	857	859	860	860	862	863	863	864	866	866	871	871	874	877	877	878	878	880	881	881	881	882	882	883	883	883	884	884	884	885	886	885	885	886	886	886	886	886	886	886	885	885	885	885	885	886	886	886	886	887	887	887	887	887	888	888	888	888	888	888	887	887	887	886	886	885	885	885	884	883	882	882	882	881	881	881	881	881	881	880	880	880	880	880	880	880	881	881	881	881	881	881	881	881	881	882	882	883	883	883	884	884	884	884	884	884	885	885	885	885	885	885	885	886	886	885	885	886	886	886	886	886	887	888	888	889	889	890	0	0	0	0	0	0	0	0	677	677	677	677	677	677	677	678	678	678	678	678	678	678	679	679	679	679	679	680	681	681	682	682	682	683	683	684	684	684	684	684	684	685	685	684	684	683	683	683	683	683	683	683	683	683	683	683	683	682	682	682	0	0	0	0	0	0	0	0	0	0	0	0	893	889	887	887	887	886	886	885	885	885	885	884	884	884	885	886	886	886	887	886	886	887	887	887	887	887	887	887	887	886	886	886	886	886	886	887	887	887	887	888	888	888	888	888	888	888	888	888	889	889	889	890	890	890	890	890	890	890	890	890	890	890	890	890	890	890	889	889	889	888	888	888	887	887	887	886	885	885	884	884	884	884	883	883	883	883	884	884	884	884	884	884	884	884	885	886	886	887	888	888	888	890	890	890	890	890	892	892	892	893	894	894	895	895	895	895	895	895	895	896	896	896	896	896	895	895	895	895	895	895	896	896	895	895	895	895	895	896	896	895	895	895	892	890	890	888	885	885	883	882	881	881	881	881	881	881	881	881	881	881	883	883	883	884	884	886	886	888	888	888	890	892	892	893	893	892	891	891	891	885	878	878	880	843	834	826	826	826	825	824	823	823	821	819	819	817	814	813	813	812	811	811	811	810	810	810	0	0	0	700	700	700	700	698	698	697	695	691	691	688	687	685	681	681	678	677	677	676	675	674	674	672	670	669	669	667	666	666	666	665	665	665	664	664	664	664	665	666	666	669	669	680	680	692	692	692	699	699	707	707	709	710	710	710	710	710	709	709	709	707	707	706	706	704	704	702	701	701	701	701	0	0	0	0	0	0	0	0	0	0	0	0	0	0	0	0	0	0	0	0	0	0	0	0	0	0	0	0	0	0	0	0	0	0	0	0	1911	1911	1911	1911	1911	1911	1911	1911	1911	1911	1911	1911	1911	1913	1911	1911	1911	1911	1913	1913	1913	1913	1916	1916	1916	1913	1913	1913	1913	1913	1913	1913	1913	1911	1911	1913	1913	1913	1913	1913	1913	1913	1913	1913
0	0	0	0	0	0	0	1313	1313	1313	1314	1314	1314	1314	1314	1317	1317	1317	1317	1317	1317	1317	1317	1314	1314	1314	1310	1309	1309	1305	1302	1301	1301	1300	1298	1298	1298	1297	1297	1297	0	0	0	0	0	0	0	0	0	881	881	881	881	881	881	881	881	881	881	881	881	881	880	880	880	880	878	878	878	877	877	875	873	873	877	0	0	823	819	819	819	817	817	817	816	814	814	814	813	812	812	811	811	811	810	810	810	810	810	810	810	810	810	810	810	810	810	810	810	810	810	811	811	811	813	813	819	0	0	0	838	838	838	843	843	850	855	855	858	858	860	861	861	862	863	863	866	866	868	871	871	874	877	877	878	878	879	880	880	881	881	881	881	881	881	882	883	883	883	883	883	884	884	884	883	883	883	883	883	883	883	883	883	883	883	884	884	884	884	884	884	884	884	884	885	885	885	885	885	884	884	884	884	884	884	883	883	883	882	881	881	881	881	881	881	880	880	880	880	880	880	880	880	880	880	880	880	880	880	880	881	881	881	881	881	881	882	882	882	883	883	883	883	883	883	883	883	883	883	883	883	883	883	883	883	883	883	883	883	884	884	884	884	884	885	889	890	0	0	0	0	0	0	0	677	677	677	677	677	677	677	677	677	677	677	677	677	677	678	678	678	678	679	679	680	680	680	681	681	682	683	683	683	683	683	683	683	683	683	683	683	683	683	683	683	683	683	683	683	683	683	683	683	683	682	682	682	0	0	0	0	0	0	0	0	0	0	0	0	0	889	887	887	887	886	886	885	885	885	885	884	884	884	885	886	886	886	887	886	886	887	887	887	887	887	887	887	887	886	886	886	886	886	886	887	887	887	887	888	888	888	888	888	888	888	888	888	889	889	889	890	890	890	890	890	890	890	890	890	890	890	890	890	890	890	889	889	889	888	888	888	887	887	887	886	885	885	884	884	884	884	883	883	883	883	884	884	884	884	884	884	884	884	885	886	886	887	888	888	888	890	890	890	890	890	892	892	892	893	894	894	895	895	895	895	895	895	895	896	896	893	893	892	892	892	892	892	892	892	892	892	892	893	893	892	892	893	893	893	893	891	889	887	887	884	884	884	882	881	881	881	880	880	880	880	881	881	881	881	882	882	882	884	884	885	886	886	887	887	890	891	891	892	892	890	890	890	890	884	878	878	0	844	836	828	826	826	826	825	825	824	823	821	821	819	816	814	814	814	813	813	812	811	811	811	0	0	0	699	699	699	699	698	698	697	694	691	691	688	687	685	685	681	678	677	677	676	676	675	675	673	672	670	670	669	667	667	666	666	665	665	665	665	665	665	666	666	669	672	675	682	682	689	689	692	697	699	701	707	707	708	708	708	708	707	707	707	706	706	704	704	703	702	702	701	700	700	700	700	700	0	0	0	0	0	0	0	0	0	0	0	0	0	0	0	0	0	0	0	0	0	0	0	0	0	0	0	0	0	0	0	0	0	0	0	1911	1911	1911	1911	1911	1911	1911	1911	1911	1911	1911	1911	1911	1913	1911	1911	1911	1911	1913	1913	1913	1913	1916	1916	1916	1913	1913	1913	1913	1913	1913	1911	1911	1911	1911	1911	1911	1911	1911	1911	1911	1911	1911	1911
0	0	0	0	0	0	0	1313	1313	1313	1314	1314	1314	1318	1318	1318	1318	1318	1321	1321	1318	1318	1318	1318	1317	1317	1314	1310	1310	1307	1304	1302	1302	1301	1301	1301	1298	1298	1298	1298	0	0	0	0	0	0	0	0	0	881	881	881	881	881	881	881	881	881	881	881	881	881	880	880	880	880	878	878	878	877	877	875	873	873	0	0	0	823	819	819	819	817	817	817	816	814	814	814	813	812	812	811	811	811	810	810	810	810	810	810	810	810	810	810	810	810	810	810	810	810	810	811	811	811	813	813	819	0	0	0	838	838	838	843	843	850	855	855	858	858	860	861	861	862	864	864	866	866	869	871	871	874	876	876	878	878	878	879	879	880	880	880	881	881	881	881	881	881	881	881	881	881	882	882	882	882	882	882	882	882	881	881	881	881	881	882	882	882	882	882	882	882	882	882	883	883	883	883	883	883	883	883	882	882	882	881	881	881	881	881	881	880	880	880	880	880	880	880	880	880	880	880	880	880	880	880	880	880	880	880	880	881	881	881	881	881	881	881	881	881	881	881	881	882	882	882	882	882	881	881	881	881	881	881	881	881	882	881	881	882	882	882	883	883	885	0	0	0	0	0	0	0	676	676	676	676	676	676	676	676	676	676	676	677	677	677	677	677	677	677	677	678	678	678	679	680	680	681	681	681	682	682	682	682	682	682	682	682	682	682	682	682	682	682	682	682	683	683	682	682	682	682	682	681	681	681	681	681	0	0	0	0	0	0	0	0	0	0	0	0	885	884	884	884	884	884	883	883	884	883	883	883	883	883	883	883	884	884	884	884	884	884	884	884	884	884	884	884	884	884	884	884	884	884	884	884	884	884	884	884	884	884	885	885	885	885	885	885	886	886	886	886	886	887	887	887	887	887	886	885	885	885	885	886	885	885	885	885	884	884	884	884	884	884	884	883	883	883	883	883	882	882	882	882	882	883	883	883	883	883	883	883	883	884	884	884	885	885	885	886	887	887	887	888	888	889	890	890	890	890	890	891	891	891	891	891	891	891	892	892	893	893	892	892	892	892	892	892	892	892	892	892	893	893	892	892	893	893	893	893	891	889	887	887	884	884	884	882	881	881	881	880	880	880	880	881	881	881	881	882	882	882	884	884	885	886	886	887	887	890	891	891	892	892	890	890	890	890	884	884	0	0	0	839	830	828	828	827	826	826	825	823	822	822	821	817	817	816	815	814	814	813	813	0	0	0	0	0	699	699	699	699	698	698	697	694	691	691	688	687	685	685	681	678	677	677	676	676	675	675	674	673	673	672	670	669	669	668	667	667	666	666	665	665	665	667	667	672	672	677	0	0	689	689	697	697	701	701	707	707	708	708	708	708	707	707	707	706	706	704	704	703	702	702	700	700	700	700	699	699	0	0	0	0	0	0	0	0	0	0	0	0	0	0	0	0	0	0	0	0	0	0	0	0	0	0	0	0	0	0	0	0	0	0	0	0	0	1911	1911	1911	1911	1911	1911	1911	1911	1913	1911	1911	1913	1913	1913	1913	1913	1913	1916	1916	1919	1919	1919	1919	1919	1916	1916	1913	1913	1911	1911	1911	1911	1911	1911	1911	1911	1911	1911	1908	1908	1908	1908
0	0	0	0	0	0	1309	1309	1309	1310	1313	1313	1313	1317	1317	1318	1318	1318	1321	1321	1318	1318	1318	1318	1317	1317	1314	1310	1310	1307	1304	1302	1302	1301	1301	1301	1298	1298	1298	1298	0	0	0	0	0	0	0	881	881	881	880	880	880	881	881	881	880	880	880	880	880	880	880	879	879	878	878	878	877	875	873	873	868	860	860	0	0	823	819	819	819	817	817	817	814	813	812	812	811	811	811	810	809	809	809	808	808	808	808	808	808	808	808	808	808	809	809	809	809	809	809	810	810	810	812	813	817	0	0	0	837	837	837	843	843	848	854	854	858	858	860	861	861	862	864	864	866	866	869	871	871	874	876	876	878	878	878	879	879	880	880	880	881	881	881	881	881	881	881	881	881	881	882	882	882	882	882	882	882	882	881	881	881	881	881	882	882	882	882	882	882	882	882	882	883	883	883	883	883	883	883	883	882	882	882	881	881	881	881	881	881	880	880	880	880	880	880	880	880	880	880	880	880	880	880	880	880	880	880	880	880	881	881	881	881	881	881	881	881	881	881	881	881	882	882	882	882	882	881	881	881	881	881	881	881	881	882	881	881	882	882	882	883	883	0	0	0	0	0	0	0	0	676	676	676	676	676	676	676	676	676	676	676	677	677	677	677	677	677	677	677	678	678	678	679	680	680	681	681	681	682	682	681	681	681	681	681	681	681	681	681	681	680	680	680	681	681	681	681	681	680	680	680	680	679	679	679	679	679	0	0	0	0	0	0	0	0	0	0	0	885	883	883	882	881	881	881	881	881	881	881	881	881	881	881	881	881	883	882	882	883	883	883	883	883	883	882	882	882	882	882	882	882	882	882	882	883	883	883	883	883	883	883	883	883	883	883	883	883	883	884	884	884	884	884	884	884	884	883	883	883	883	883	883	883	882	882	882	882	882	882	882	882	882	882	882	882	881	881	881	881	881	881	881	881	881	881	881	882	882	882	883	883	883	883	883	884	884	884	884	884	884	884	885	885	886	886	886	886	886	886	887	887	887	887	888	888	888	888	888	889	890	889	889	889	889	889	889	889	890	890	890	890	890	890	890	890	890	889	889	889	886	884	884	883	882	881	881	880	880	880	880	880	880	880	880	880	880	880	881	881	881	883	883	884	884	884	885	887	889	890	890	890	890	889	888	887	887	882	877	877	0	845	839	830	828	828	827	826	826	825	823	822	822	821	817	817	816	815	814	814	813	813	0	0	0	0	0	699	699	698	698	697	697	695	693	690	690	688	687	685	685	681	678	677	677	676	676	675	675	674	673	673	672	670	669	669	668	667	667	666	666	665	665	665	667	667	672	672	677	0	0	688	688	695	695	700	700	704	704	706	706	706	707	706	705	704	704	703	703	703	701	701	701	700	700	700	700	699	699	0	0	0	0	0	0	0	0	0	0	0	0	0	0	0	0	0	0	0	0	0	0	0	0	0	0	0	0	0	0	0	0	0	0	0	0	0	0	1913	1913	1913	1913	1913	1913	1913	1913	1913	1913	1913	1913	1913	1913	1913	1916	1916	1916	1919	1919	1919	1919	1919	1916	1916	1913	1913	1911	1911	1911	1911	1911	1911	1911	1911	1911	1911	1908	1908	1908	1908
0	0	0	0	0	1304	1304	1305	1305	1307	1309	1309	1310	1313	1313	1318	1318	1321	1321	1321	1321	1321	1321	1321	1318	1318	1317	1313	1313	1307	1305	1304	1304	1302	1302	1302	1301	1301	0	0	0	0	0	0	0	0	0	880	880	879	879	880	879	879	879	880	880	879	879	879	879	879	878	878	878	877	875	875	875	873	871	871	866	860	860	0	0	824	820	819	819	817	817	817	814	813	812	812	811	811	811	810	809	809	809	808	808	808	807	807	807	807	807	807	807	808	808	808	809	809	809	810	810	810	812	815	817	0	831	831	831	837	837	843	843	848	854	854	858	858	860	861	861	862	864	864	866	866	868	871	871	873	875	875	877	877	878	878	878	879	879	879	880	880	880	880	880	881	881	881	881	881	881	881	881	881	881	881	881	881	881	881	881	881	881	881	881	881	881	881	881	881	881	881	881	881	881	881	881	881	881	881	881	881	881	881	880	880	880	880	880	880	880	880	880	880	880	879	879	879	879	879	879	879	880	880	880	880	880	880	880	880	880	880	880	880	880	881	881	881	881	881	881	881	881	881	881	881	881	881	881	881	881	881	881	881	881	880	880	881	881	881	881	881	0	0	0	0	0	0	676	676	676	676	676	676	676	676	676	676	676	676	676	676	676	676	676	676	676	677	677	677	677	677	678	679	679	680	681	681	681	681	681	681	681	681	681	681	681	681	681	681	680	680	680	681	681	681	681	681	680	680	680	680	679	679	679	679	679	0	0	0	0	0	0	0	0	0	0	0	0	883	883	882	881	881	881	881	881	881	881	881	881	881	881	881	881	883	882	882	883	883	883	883	883	883	882	882	882	882	882	882	882	882	882	882	883	883	883	883	883	883	883	883	883	883	883	883	883	883	884	884	884	884	884	884	884	884	883	883	883	883	883	883	883	882	882	882	882	882	882	882	882	882	882	882	882	881	881	881	881	881	881	881	881	881	881	881	882	882	882	883	883	883	883	883	884	884	884	884	884	884	884	885	885	886	886	886	886	886	884	884	884	884	884	884	884	884	884	885	885	885	885	884	884	885	885	886	886	886	886	886	886	886	886	886	886	886	886	885	885	884	884	884	882	881	881	881	880	880	880	880	880	880	879	879	880	880	880	880	880	881	881	881	883	883	883	884	887	887	888	888	890	890	888	887	885	885	881	876	876	0	845	845	834	829	829	828	826	826	826	824	822	822	821	819	819	817	817	815	815	814	814	0	0	0	0	0	698	698	698	698	697	697	694	692	689	689	688	687	685	685	681	678	677	677	676	676	675	675	675	674	674	673	672	670	670	669	668	668	667	666	666	666	666	670	670	675	675	0	0	0	688	688	693	693	698	698	701	701	703	703	703	704	704	703	702	702	701	701	701	700	700	700	700	699	699	699	699	698	698	698	698	0	0	0	0	0	0	0	0	0	0	0	0	0	0	0	0	0	0	0	0	0	0	0	0	0	0	0	0	0	0	0	0	0	0	0	1913	1913	1913	1913	1913	1913	1913	1913	1913	1911	1911	1911	1913	1913	1913	1916	1916	1916	1916	1916	1916	1916	1916	1913	1913	1911	1911	1911	1908	1908	1908	1908	1908	1908	1908	1908	1905	1905	1905	1902	1902
0	0	0	0	0	1304	1304	1305	1305	1307	1309	1309	1310	1313	1313	1318	1318	1321	1321	1321	1321	1321	1321	1321	1321	1321	1317	1313	1313	1309	1307	1305	1305	1305	1305	0	0	0	0	0	0	0	0	0	0	0	0	880	880	879	879	880	879	879	879	880	880	879	879	879	879	879	878	878	878	877	875	875	875	873	871	871	866	860	860	0	0	825	822	822	821	820	819	819	816	814	813	813	812	811	811	810	810	810	809	808	808	808	807	807	807	807	807	807	807	808	808	808	809	810	810	810	812	812	815	815	821	0	831	831	831	840	840	844	844	849	854	854	857	857	859	860	860	862	863	863	865	865	867	870	870	871	874	874	875	877	877	878	878	878	878	879	879	879	879	879	880	880	880	880	880	880	880	880	880	880	880	880	880	880	880	880	880	880	880	880	880	880	880	880	880	880	880	880	880	880	880	880	880	880	880	880	880	880	880	880	880	880	880	879	879	879	879	879	879	879	879	879	879	879	879	879	879	879	879	879	879	879	879	879	879	879	879	879	879	879	879	880	880	880	880	880	880	880	880	880	880	880	880	880	880	880	879	879	879	880	880	880	880	880	880	880	881	881	0	0	0	0	0	676	676	676	676	676	676	676	676	676	676	676	676	676	676	676	676	676	676	676	676	676	676	676	677	677	677	678	678	679	680	680	680	680	680	680	680	680	680	680	680	680	680	679	679	679	679	679	679	679	680	680	679	678	678	678	678	678	678	678	678	0	0	0	0	0	0	0	0	0	0	0	0	883	883	881	881	881	881	880	880	880	880	880	880	880	881	881	881	881	881	881	881	881	881	881	881	881	881	881	881	881	881	881	881	881	881	881	881	881	881	881	881	881	881	881	881	881	881	881	881	881	882	882	882	882	882	881	881	881	881	881	881	881	881	881	881	881	881	881	881	881	881	881	881	881	881	881	881	881	881	881	881	881	881	881	881	881	881	881	881	881	881	881	881	881	881	881	882	882	882	882	883	883	883	883	883	883	883	883	883	883	883	884	884	884	884	884	884	884	884	885	885	885	885	884	884	885	885	886	886	886	886	886	886	886	886	886	886	886	886	885	885	884	884	0	882	881	881	881	880	880	880	880	880	880	879	879	880	880	880	880	880	881	881	881	883	883	883	884	887	887	888	888	890	890	888	887	885	885	881	876	876	0	0	0	836	836	832	829	827	827	826	825	823	823	822	820	820	817	817	817	816	815	815	0	0	0	0	0	698	698	698	698	697	697	694	692	689	689	688	687	685	685	681	678	677	677	676	676	676	676	675	674	674	674	673	673	671	670	669	669	668	667	667	667	667	670	670	675	675	0	0	0	688	688	693	693	698	698	701	701	703	703	703	702	702	701	701	701	700	700	700	700	699	699	699	698	698	698	698	697	697	697	697	697	697	0	0	0	0	0	0	0	0	0	0	0	0	0	0	0	0	0	0	0	0	0	0	0	0	0	0	0	0	0	0	0	0	0	0	0	1913	1913	1913	1911	1911	1911	1911	1911	1911	1911	1911	1911	1911	1911	1911	1911	1911	1911	1911	1911	1911	1911	1911	1908	1908	1908	1905	1905	1902	1902	1902	1902	1902	1902	1900	1900	1900	1900	1897
0	0	0	0	0	1301	1301	1302	1302	1304	1306	1306	1309	1313	1313	1314	1318	1318	1321	1321	1318	1318	1318	1318	1318	1318	1317	1313	1313	1309	1307	1305	1305	1305	1305	0	0	0	0	0	0	0	0	0	0	0	0	878	878	878	879	878	878	878	878	878	878	878	878	878	878	878	877	877	877	875	874	873	873	871	870	864	864	860	850	850	0	825	822	822	821	820	819	819	816	814	813	813	812	811	811	810	810	810	809	808	808	808	807	807	807	807	807	807	807	808	808	808	809	810	810	810	812	812	815	815	821	824	831	831	831	840	840	844	844	849	853	853	857	857	859	860	860	862	863	863	865	865	867	870	870	871	874	874	875	877	877	878	878	878	878	879	879	879	879	879	880	880	880	880	880	880	880	880	880	880	880	880	880	880	880	880	880	880	880	880	880	880	880	880	880	880	880	880	880	880	880	880	880	880	880	880	880	880	880	880	880	880	880	879	879	879	879	879	879	879	879	879	879	879	879	879	879	879	879	879	879	879	879	879	879	879	879	879	879	879	879	880	880	880	880	880	880	880	880	880	880	880	880	880	880	880	879	879	879	880	880	880	880	880	880	880	0	0	0	0	0	0	0	676	676	676	676	676	676	676	676	676	676	676	676	676	676	676	676	676	676	676	676	676	676	676	676	676	677	677	677	678	678	678	679	679	679	679	679	679	679	679	678	678	678	678	678	678	678	678	678	678	677	677	677	677	677	677	677	677	677	677	677	677	677	0	0	0	0	0	0	0	0	0	0	0	0	881	880	880	880	880	880	880	879	879	879	879	880	880	880	880	880	880	880	880	880	881	881	881	881	881	881	881	881	881	880	880	880	880	880	880	880	881	880	880	880	880	880	880	880	881	881	881	880	880	880	880	880	880	880	880	880	880	880	880	880	880	880	880	880	880	880	880	880	880	880	880	880	880	880	880	880	880	880	880	880	880	880	880	880	880	880	880	880	881	881	881	881	881	881	881	881	881	881	881	881	881	881	881	881	881	881	881	881	881	881	881	881	881	881	881	881	882	882	882	882	882	882	882	882	883	883	883	883	883	883	883	883	883	883	883	883	883	883	882	881	881	881	881	880	880	880	879	879	879	879	879	878	878	879	879	879	880	880	880	881	881	882	883	883	884	885	885	887	887	888	886	886	885	883	883	880	875	864	864	847	843	836	836	832	829	827	827	826	825	823	823	822	820	820	817	817	817	816	815	815	817	0	0	0	0	697	697	697	697	695	695	693	691	689	689	688	687	685	685	681	678	677	677	676	676	676	676	675	674	674	674	673	673	671	670	669	669	668	667	667	667	667	670	670	675	675	678	678	0	687	687	691	691	698	698	700	700	701	701	701	702	702	701	701	701	700	700	700	700	699	699	699	698	698	698	698	697	697	697	697	697	697	0	0	0	0	0	0	0	0	0	0	0	0	0	0	0	0	0	0	0	0	0	0	0	0	0	0	0	0	0	0	0	0	0	0	0	1916	1913	1913	1911	1911	1911	1911	1911	1911	1911	1911	1911	1911	1911	1911	1911	1911	1911	1911	1911	1911	1911	1911	1908	1908	1908	1905	1905	1902	1902	1902	1902	1902	1902	1900	1900	1900	1900	1897
0	0	1296	1296	0	1298	1298	1301	1301	1302	1304	1304	1305	1307	1307	1310	1314	1314	1317	1317	1314	1314	1317	1317	1317	1318	1317	1313	1313	1309	1307	1307	1307	1306	1306	0	0	0	0	0	0	0	0	0	0	0	878	878	878	878	878	878	878	878	877	877	877	876	876	876	875	875	875	875	875	873	871	870	870	869	866	863	863	860	850	843	837	827	825	825	824	822	821	821	819	817	817	815	813	812	812	811	810	810	810	809	809	809	808	808	808	808	808	808	808	809	809	809	810	811	811	812	812	814	819	819	824	824	829	834	834	841	841	844	844	848	851	851	855	855	859	860	860	862	863	863	864	865	866	868	868	870	871	871	874	875	875	876	877	877	878	878	878	878	878	878	878	879	879	879	879	879	879	879	879	879	879	879	879	879	879	878	878	878	878	878	878	878	878	878	878	878	878	878	878	879	879	879	879	879	879	879	879	879	879	879	878	878	878	878	878	878	878	878	878	878	878	878	878	878	878	878	878	878	878	878	878	878	878	878	878	878	878	878	878	878	878	878	878	878	878	878	878	878	878	878	878	878	878	878	878	878	878	878	878	878	878	878	878	878	878	880	0	0	0	0	0	0	0	676	675	675	675	675	675	675	675	675	675	675	675	675	675	675	675	675	675	675	675	675	675	676	676	676	677	677	677	678	678	678	679	679	679	679	679	679	679	679	678	678	678	678	678	678	678	678	678	678	677	677	677	677	677	677	677	677	677	677	677	677	677	0	0	0	0	0	0	0	0	0	0	0	0	0	880	880	880	880	880	880	879	879	879	879	880	880	880	880	880	880	880	880	880	881	881	881	881	881	881	881	881	881	880	880	880	880	880	880	880	881	880	880	880	880	880	880	880	881	881	881	880	880	880	880	880	880	880	880	880	880	880	880	880	880	880	880	880	880	880	880	880	880	880	880	880	880	880	880	880	880	880	880	880	880	880	880	880	880	880	880	880	881	881	881	881	881	881	881	881	881	880	880	880	880	880	880	880	880	880	880	880	880	879	879	879	879	879	879	880	880	880	880	881	880	880	881	881	881	881	881	881	881	881	881	881	881	881	881	881	881	881	881	881	880	880	880	879	879	879	878	878	878	878	878	878	878	878	878	878	878	878	880	880	880	881	881	881	883	884	884	885	886	886	884	884	883	881	881	879	874	864	859	847	843	843	841	834	830	828	828	827	825	825	824	823	821	821	820	819	819	817	817	817	817	0	0	0	0	695	695	695	695	694	694	692	690	688	688	687	687	685	685	681	679	677	677	676	676	676	676	675	675	675	674	674	674	672	671	670	670	669	668	668	668	668	672	672	675	675	677	678	682	687	687	690	690	695	695	699	699	700	700	700	700	700	700	700	700	700	699	699	699	699	698	698	698	697	697	696	696	697	696	696	696	696	0	0	0	0	0	0	0	0	0	0	0	0	0	0	0	0	0	0	0	0	0	0	0	0	0	0	0	0	0	0	0	0	0	0	0	1916	1913	1913	1908	1905	1905	1905	1905	1905	1905	1905	1908	1908	1908	1908	1908	1908	1908	1908	1908	1908	1908	1908	1905	1905	1902	1902	1902	1900	1900	1900	1900	1897	1897	1897	1897	1897	1897	1894
0	0	1296	1296	0	1298	1298	1301	1301	1302	1304	1304	1305	1307	1307	1310	1314	1314	1317	1317	1314	1314	1317	1317	1317	1318	1317	1314	1314	1309	1307	1307	1307	1309	0	0	0	0	0	0	0	0	0	0	0	0	878	878	878	878	878	878	878	878	877	877	877	876	876	876	875	875	875	875	875	873	871	870	870	869	866	863	863	863	850	843	837	829	826	826	826	825	825	824	822	821	821	819	816	814	814	812	811	811	810	810	810	810	809	809	809	809	809	809	809	810	810	810	811	811	813	814	814	819	823	823	826	826	829	831	835	841	841	844	844	847	849	849	854	854	858	860	860	861	862	862	863	864	864	866	866	867	870	870	871	873	873	875	875	875	876	877	877	877	877	877	877	877	877	878	878	878	878	878	878	878	878	878	878	878	877	877	877	877	877	877	877	877	877	877	877	877	877	877	877	877	877	877	878	877	877	878	878	878	878	878	878	878	878	878	878	877	877	877	877	877	877	877	877	877	877	877	877	877	877	877	877	877	877	877	877	877	877	876	876	877	877	877	877	877	877	877	877	877	877	877	877	877	877	877	877	877	877	877	877	877	877	877	877	877	877	0	0	0	0	0	0	0	0	675	675	675	675	675	675	675	674	674	674	673	673	673	673	673	673	673	673	673	674	674	674	675	675	675	676	676	676	677	677	677	678	678	678	678	678	678	677	677	677	677	677	677	677	676	676	676	676	676	676	676	676	676	676	676	676	676	676	676	676	676	676	676	0	0	0	0	0	0	0	0	0	0	0	0	878	878	878	878	878	878	878	878	878	878	878	878	878	879	879	879	879	879	879	880	880	880	880	880	880	880	880	880	880	880	880	879	879	879	879	879	879	879	879	879	879	879	879	879	880	879	879	879	879	879	879	879	879	878	878	878	878	878	878	878	878	878	878	879	879	879	879	879	879	879	879	879	879	879	879	879	879	879	879	879	879	879	879	879	880	880	880	880	880	880	880	880	880	880	880	880	880	880	880	880	880	880	880	880	880	880	880	880	879	879	879	879	879	879	880	880	880	880	881	880	880	881	881	881	881	881	881	881	881	881	881	881	881	881	881	881	881	881	881	880	880	880	879	879	879	878	878	878	878	878	878	878	878	878	878	878	878	880	880	880	881	881	881	883	884	884	885	886	886	884	884	883	881	881	879	874	874	859	848	844	844	841	837	833	829	829	827	826	826	825	824	822	822	821	821	821	819	819	819	819	0	0	0	0	695	695	695	695	694	694	692	690	688	688	687	687	685	685	681	679	677	677	676	676	676	676	676	675	675	675	674	674	673	672	672	671	670	669	669	669	669	672	672	675	675	677	682	682	687	687	690	690	694	694	698	698	699	700	700	700	700	700	699	699	699	699	698	698	698	697	697	696	696	696	695	695	695	694	694	694	694	0	0	0	0	0	0	0	0	0	0	0	0	0	0	0	0	0	0	0	0	0	0	0	0	0	0	0	0	0	0	0	0	0	0	0	0	0	0	1908	1900	1900	1900	1900	1900	1900	1900	1902	1902	1902	1902	1902	1902	1902	1905	1905	1902	1902	1902	1902	1902	1900	1900	1900	1897	1897	1897	1894	1894	1894	1891	1889	1889	1886	1886
0	0	1296	1295	1295	1295	1296	1298	1298	1298	1301	1301	1302	1304	1304	1306	1307	1307	1309	1310	1310	1310	1313	1313	1313	1314	1314	1313	1313	1309	1307	1307	1307	1309	0	0	0	0	0	0	0	0	0	878	878	878	877	877	877	877	875	875	876	875	875	875	875	874	874	873	873	873	873	871	871	871	869	868	868	866	864	862	862	857	850	843	837	829	826	826	826	825	825	824	822	821	821	819	816	814	814	812	811	811	810	810	810	810	809	809	809	809	809	809	809	810	810	810	811	811	813	814	814	819	823	823	827	827	831	831	837	841	841	844	844	847	849	849	854	854	858	860	860	861	862	862	863	864	864	866	866	867	870	870	871	873	873	875	875	875	876	877	877	877	877	877	877	877	877	878	878	878	878	878	878	878	878	878	878	878	877	877	877	877	877	877	877	877	877	877	877	877	877	877	877	877	877	877	878	877	877	878	878	878	878	878	878	878	878	878	878	877	877	877	877	877	877	877	877	877	877	877	877	877	877	877	877	877	877	877	877	877	877	876	876	877	877	877	877	877	877	877	877	877	877	877	877	877	877	877	877	877	877	877	877	877	877	877	877	877	877	0	0	0	0	0	0	0	0	675	675	675	675	675	675	675	674	674	674	671	671	672	671	671	671	671	671	671	671	672	673	673	674	674	675	676	676	676	676	676	677	677	677	677	677	677	677	677	676	676	676	676	676	676	676	676	675	675	675	675	675	675	675	675	675	676	676	676	676	676	676	676	0	0	0	0	0	0	0	0	0	0	0	0	877	877	877	877	877	877	877	877	877	877	877	878	878	878	878	878	878	878	878	878	878	878	879	879	879	879	879	879	878	878	878	878	878	878	878	878	878	878	878	878	878	878	878	878	878	878	878	878	878	878	877	877	877	877	877	877	877	877	877	877	877	877	877	878	878	878	878	878	878	878	878	878	878	878	878	878	878	878	878	878	878	878	878	878	878	878	878	878	878	878	879	879	879	879	879	879	879	879	878	878	878	878	878	878	878	878	878	878	878	878	878	878	878	878	878	878	878	879	879	879	879	879	879	880	880	880	880	880	880	880	880	880	880	880	880	880	880	880	880	880	880	879	879	879	878	878	878	878	878	878	877	877	878	878	878	878	878	879	880	880	881	881	881	881	883	883	883	884	883	883	883	881	880	877	877	874	864	859	848	844	844	841	837	833	829	829	827	826	826	825	824	822	822	821	821	821	819	819	819	819	0	0	0	0	695	694	694	693	692	692	692	690	688	688	687	686	685	685	681	679	677	677	676	676	676	676	676	675	675	675	674	674	673	672	672	671	670	669	669	669	669	672	672	675	675	677	682	682	687	687	689	689	694	694	698	698	699	700	700	700	700	700	699	699	699	699	698	698	698	697	697	696	696	696	695	695	695	694	694	694	694	0	0	0	0	0	0	0	0	0	0	0	0	0	0	0	0	0	0	0	0	0	0	0	0	0	0	0	0	0	0	0	0	0	0	0	0	0	0	0	1900	1900	1900	1900	1900	1900	1900	1902	1902	1902	1902	1902	1902	1902	1905	1905	1902	1902	1902	1902	1902	1900	1900	1900	1897	1897	1897	1894	1894	1894	1891	1889	1889	1886	1886
1281	1281	1286	1286	1289	1289	1292	1296	1296	1297	1298	1298	1300	1301	1301	1302	1304	1304	1305	1306	1305	1305	1307	1307	1309	1310	1310	1309	1309	1309	1309	1310	1310	0	0	0	0	0	0	0	0	878	878	877	877	876	876	875	875	875	875	873	873	873	873	873	871	871	871	871	870	869	869	869	867	867	866	866	866	864	863	860	860	857	857	0	840	833	828	828	827	826	826	826	825	825	824	822	820	820	817	815	814	814	813	812	812	811	811	811	811	811	811	811	811	811	811	812	813	813	816	819	819	823	823	825	827	827	831	831	837	841	841	843	843	845	848	848	853	853	857	859	859	860	861	861	862	863	863	864	866	866	867	867	869	870	870	871	873	873	873	874	874	875	875	875	875	875	875	875	875	875	875	876	875	875	875	875	875	875	875	875	875	875	875	875	875	874	874	874	874	874	875	875	875	875	875	875	875	875	875	875	875	876	876	876	876	876	876	876	876	876	876	877	877	877	877	877	877	877	876	876	875	875	875	875	875	875	875	875	875	875	875	875	875	875	875	875	875	875	875	875	875	875	875	874	874	874	874	874	874	874	874	874	874	874	874	874	874	877	877	0	0	0	0	0	0	675	675	675	674	674	674	674	674	674	673	673	672	671	671	672	671	671	671	671	671	671	671	672	673	673	674	674	675	676	676	676	676	676	677	677	677	677	677	677	677	677	676	676	676	676	676	676	676	676	675	675	675	675	675	675	675	675	675	676	676	676	676	676	676	676	0	0	0	0	0	0	0	0	0	0	0	0	877	877	877	877	877	877	877	877	877	877	877	878	878	878	878	878	878	878	878	878	878	878	879	879	879	879	879	879	878	878	878	878	878	878	878	878	878	878	878	878	878	878	878	878	878	878	878	878	878	878	877	877	877	877	877	877	877	877	877	877	877	877	877	878	878	878	878	878	878	878	878	878	878	878	878	878	878	878	878	878	878	878	878	878	878	878	877	877	877	877	878	878	878	878	878	878	878	878	877	877	877	877	877	877	877	877	877	876	876	876	876	876	876	876	877	877	877	877	877	877	878	878	878	878	878	878	878	878	878	878	878	878	878	879	879	879	879	879	879	879	879	878	878	878	878	878	878	878	877	877	877	877	878	878	878	878	878	879	880	880	880	880	880	881	881	881	881	881	881	880	880	880	878	875	875	869	863	860	851	845	845	843	840	835	830	830	828	826	826	825	825	823	823	823	822	822	821	820	820	820	0	0	0	0	0	693	693	692	692	690	690	689	688	688	687	686	685	685	682	679	677	677	677	676	676	676	676	675	675	675	675	675	674	673	673	672	671	669	669	669	670	671	673	675	675	677	680	680	685	685	687	687	690	694	695	698	698	699	699	699	699	699	699	698	698	698	697	697	697	696	696	695	695	695	695	693	693	693	692	692	694	0	0	0	0	0	0	0	0	0	0	0	0	0	0	0	0	0	0	0	0	0	0	0	0	0	0	0	0	0	0	0	0	0	0	0	0	0	0	0	1900	1889	1889	1889	1891	1891	1891	1897	1897	1897	1897	1900	1900	1900	1900	1900	1900	1900	1897	1897	1897	1897	1894	1894	1891	1889	1889	1886	1883	1883	1883	1880	1880	1875	1872
1281	1281	1286	1286	1289	1289	1292	1296	1296	1297	1298	1298	1300	1301	1301	1302	1304	1304	1305	1306	1305	1305	1307	1307	1309	1310	1310	1309	1309	1309	1309	0	0	0	0	0	0	0	0	0	0	878	878	877	877	876	876	875	875	875	875	873	873	873	873	873	871	871	871	871	870	869	869	869	867	867	866	866	866	864	863	860	860	857	857	0	842	837	837	831	829	828	828	827	826	826	826	825	825	824	822	821	821	819	817	815	815	814	813	813	813	813	813	813	813	814	814	815	817	817	819	822	822	825	825	826	828	828	832	832	837	841	841	843	843	845	847	847	851	853	854	857	857	859	860	860	861	862	862	863	863	863	864	866	866	867	867	868	869	869	870	871	871	871	871	871	873	873	873	873	873	873	873	873	873	873	873	873	871	871	873	873	871	871	871	871	871	871	871	871	871	871	873	871	871	873	873	873	873	873	873	874	874	874	874	874	874	875	875	875	875	875	875	875	875	875	875	875	875	875	875	875	874	874	874	874	874	873	873	873	873	873	873	871	871	871	871	871	871	871	873	873	873	871	871	871	871	871	871	871	871	871	871	871	871	871	870	870	870	0	0	0	0	0	0	0	0	675	675	674	674	674	674	674	674	672	671	670	670	669	669	669	668	668	668	668	668	669	669	670	670	670	671	673	673	674	674	675	676	676	676	676	676	676	676	676	676	676	676	675	675	675	675	674	674	674	674	674	673	673	674	674	674	674	674	674	674	674	675	675	675	675	0	0	0	0	0	0	0	0	0	0	0	0	876	875	875	875	876	876	876	875	875	875	875	876	876	877	877	877	877	877	877	878	878	878	878	878	878	878	878	878	878	878	877	877	877	877	876	876	876	876	876	876	876	876	877	877	876	876	875	875	876	875	875	875	875	875	875	875	874	874	874	874	875	875	875	875	875	876	877	877	877	877	877	877	878	877	877	877	877	877	877	877	877	877	877	877	877	877	877	877	877	877	878	878	878	878	878	878	878	878	877	877	877	877	877	877	877	877	877	876	876	876	876	876	876	876	877	877	877	877	877	877	878	878	878	878	878	878	878	878	878	878	878	878	878	879	879	879	879	879	879	879	879	878	878	878	878	878	878	878	877	877	877	877	878	878	878	878	878	879	880	880	880	880	880	881	881	881	881	881	881	880	880	880	878	875	875	869	863	860	852	846	846	843	841	837	837	832	829	827	827	826	825	825	824	823	823	823	821	821	821	821	0	0	0	0	0	693	693	692	692	690	690	689	688	688	687	686	685	685	682	680	678	678	677	676	676	676	676	676	676	675	675	675	674	673	673	673	672	672	671	671	671	671	673	675	675	676	679	679	683	683	687	687	688	692	692	696	696	697	698	698	698	698	698	697	697	697	696	696	695	695	695	694	693	692	692	692	691	691	690	690	690	690	0	0	0	0	0	0	0	0	0	0	0	0	0	0	0	0	0	0	0	0	0	0	0	0	0	0	0	0	0	0	0	0	0	0	0	0	0	0	0	1889	1889	1872	1872	1875	1875	1883	1883	1883	1886	1891	1891	1891	1891	1891	1891	1891	1891	1889	1889	1886	1886	1886	1883	1880	1880	1875	1875	1875	1872	1867	1864	1864	1862
1265	1269	1276	1276	1282	1288	1288	1291	1291	1295	1296	1296	1297	1298	1298	1300	1301	1301	1301	1301	1301	1302	1304	1304	1305	1307	1307	1307	1309	1309	1309	0	0	0	0	0	0	0	878	878	878	877	877	877	876	874	874	873	873	873	873	871	871	870	870	869	869	868	867	867	866	866	866	866	865	865	864	863	863	863	862	859	855	855	855	0	842	837	837	831	829	828	828	827	826	826	826	825	825	824	822	821	821	819	817	815	815	814	813	813	813	813	813	813	817	819	819	819	819	821	823	823	825	826	826	828	831	831	835	835	840	842	842	843	843	845	847	847	851	854	854	857	857	859	860	860	861	862	862	863	863	863	864	866	866	867	867	868	869	869	870	871	871	871	871	871	873	873	873	873	873	873	873	873	873	873	873	873	871	871	873	873	871	871	871	871	871	871	871	871	871	871	873	871	871	873	873	873	873	873	873	874	874	874	874	874	874	875	875	875	875	875	875	875	875	875	875	875	875	875	875	875	874	874	874	874	874	873	873	873	873	873	873	871	871	871	871	871	871	871	873	873	873	871	871	871	871	871	871	871	871	871	871	871	871	871	870	870	870	0	0	0	0	0	0	0	0	674	674	673	672	672	672	672	670	670	669	668	668	667	667	667	667	666	666	666	666	667	667	667	668	668	669	670	670	671	674	674	674	675	675	675	675	675	675	675	675	674	674	674	673	673	673	672	672	671	671	671	671	671	671	671	671	672	673	672	672	673	673	673	673	674	0	0	0	0	0	0	0	0	0	0	0	0	875	873	873	873	874	874	874	875	875	875	875	875	875	875	875	875	876	876	876	877	877	877	877	877	877	877	877	876	876	876	876	875	875	875	874	874	875	874	874	874	874	874	874	874	874	874	874	873	873	873	873	873	873	873	873	871	871	871	871	871	873	873	873	874	874	874	875	875	875	875	875	875	876	876	875	875	875	875	875	875	875	875	875	875	875	876	876	876	876	876	876	876	876	876	876	876	876	876	876	876	876	876	875	875	875	875	875	875	875	875	875	875	875	875	875	875	875	875	876	876	876	877	877	877	877	877	877	877	877	877	877	878	878	878	878	878	878	878	878	878	878	878	878	878	878	877	877	877	877	877	877	877	877	877	878	878	878	879	879	879	879	879	879	879	880	880	880	880	879	878	878	878	875	871	866	866	863	860	852	846	846	843	841	837	837	832	829	827	827	826	825	825	824	823	823	823	821	821	821	821	0	0	0	0	692	692	691	691	691	690	690	689	688	688	687	686	685	685	682	680	678	678	677	676	676	676	676	676	676	675	675	675	674	673	673	673	672	672	671	671	671	671	673	675	675	676	679	679	683	683	687	687	688	692	692	696	696	697	698	698	698	698	698	697	697	697	696	696	695	695	695	694	693	692	692	692	691	691	690	690	690	690	0	0	0	0	0	0	0	0	0	0	0	0	0	0	0	0	0	0	0	0	0	0	0	0	0	0	0	0	0	0	0	0	0	0	0	0	0	0	0	0	0	1872	1872	1875	1875	1883	1883	1883	1886	1891	1891	1891	1891	1891	1891	1891	1891	1889	1889	1886	1886	1886	1883	1880	1880	1875	1875	1875	1872	1867	1864	1864	1862
1263	1263	1268	1268	1276	1282	1282	1289	1289	1291	1293	1293	1296	1296	1296	1297	1298	1298	1298	1297	1297	1297	1297	1298	1298	1298	1298	1298	1309	1309	0	0	0	0	0	0	0	878	878	878	877	876	875	875	873	871	871	871	869	869	869	867	866	866	866	866	866	865	865	865	864	864	864	864	863	863	863	863	862	862	860	858	853	853	853	845	843	843	840	835	833	833	830	829	828	828	827	826	826	826	825	825	824	823	821	821	820	819	819	817	817	817	817	817	817	819	819	819	819	821	823	823	825	826	826	828	831	831	835	835	840	842	842	843	843	845	846	846	849	853	853	855	855	858	859	859	860	861	861	862	862	862	863	864	864	864	865	865	866	866	866	867	867	867	868	868	868	868	869	869	868	868	868	868	868	868	868	868	868	868	868	868	868	868	868	868	868	868	868	868	868	868	868	868	869	869	869	870	870	870	871	871	871	871	871	871	871	873	873	873	873	873	873	873	873	873	873	873	873	873	873	873	871	871	871	871	871	871	871	871	870	869	869	869	869	869	869	869	869	869	869	869	869	869	868	868	867	867	867	867	867	867	867	866	866	866	866	866	866	866	0	0	0	0	0	0	0	674	674	673	672	672	672	672	670	670	669	668	668	667	667	667	667	666	666	666	666	667	667	667	668	668	669	670	670	671	674	674	674	675	675	675	675	675	675	675	675	674	674	674	673	673	673	672	672	671	671	671	671	671	671	671	671	672	673	672	672	673	673	673	673	674	0	0	0	0	0	0	0	0	0	0	0	0	875	873	873	873	874	874	874	875	875	875	875	875	875	875	875	875	876	876	876	877	877	877	877	877	877	877	877	876	876	876	876	875	875	875	874	874	875	874	874	874	874	874	874	874	874	874	874	873	873	873	873	873	873	873	873	871	871	871	871	871	873	873	873	874	874	874	875	875	875	875	875	875	876	876	875	874	874	874	874	874	874	873	873	873	873	873	873	873	873	873	873	874	874	874	874	874	874	875	875	875	875	875	874	874	874	874	874	873	873	874	873	873	873	873	873	874	874	874	874	874	874	875	875	875	875	875	875	875	875	875	875	876	876	876	877	877	877	877	877	877	877	877	877	877	876	876	876	875	875	875	875	875	875	875	876	876	876	877	878	878	877	877	877	877	878	878	878	878	877	875	874	874	871	867	864	864	862	859	853	847	847	844	842	840	840	834	830	828	828	827	826	826	825	825	825	824	824	824	0	0	0	0	0	0	691	691	690	690	690	690	690	689	688	688	687	686	685	685	682	680	678	678	677	676	676	676	676	676	676	675	675	675	674	674	674	673	672	672	671	671	671	671	673	675	675	676	678	678	682	682	686	686	688	690	690	694	694	695	697	697	697	697	696	695	695	695	694	694	694	693	692	692	691	691	691	690	689	689	689	688	688	688	0	0	0	0	0	0	0	0	0	0	0	0	0	0	0	0	0	0	0	0	0	0	0	0	0	0	0	0	0	0	0	0	0	0	0	0	1841	1841	1846	1846	1846	1854	1854	1856	1856	1864	1867	1867	1867	1872	1872	1875	1880	1880	1880	1880	1880	1875	1875	1875	1872	1872	1867	1867	1864	1864	1862	1862	1862	1856	1854	1854	1849
1263	1263	1268	1268	1276	1282	1282	1289	1289	1291	1293	1293	1296	1296	1296	1297	1298	1298	1298	1297	1297	1297	1297	1298	1298	1298	1298	1298	0	0	0	0	0	0	0	0	0	878	878	878	877	876	875	875	873	871	871	871	869	869	869	867	866	866	866	866	866	865	865	865	864	864	864	864	863	863	863	863	862	862	860	858	853	853	853	845	843	843	841	837	837	837	834	833	830	830	829	828	828	827	826	826	826	825	825	825	824	823	823	822	821	821	821	821	821	821	822	823	823	824	825	825	826	827	827	829	831	833	836	836	840	842	842	843	843	844	846	846	848	851	851	854	854	857	858	858	859	860	860	861	861	861	862	862	862	863	863	863	863	864	864	864	864	864	864	864	864	864	864	864	864	864	864	864	864	864	864	864	864	864	864	864	865	865	865	865	865	865	865	865	865	865	866	866	866	866	866	866	867	868	868	868	868	868	868	868	868	869	870	870	870	870	870	870	871	871	871	871	871	871	871	870	869	869	869	869	869	868	868	867	867	867	866	866	866	866	866	866	866	866	866	866	866	866	865	865	864	864	864	864	864	864	864	863	863	863	863	863	863	863	0	0	0	0	0	0	0	673	673	672	671	671	671	670	669	669	667	667	667	666	666	666	666	665	665	665	665	665	666	666	666	666	666	667	669	669	671	671	672	673	673	673	674	674	674	674	673	672	672	671	671	670	670	669	669	669	668	668	668	668	668	669	669	669	671	671	671	672	672	672	673	673	0	0	0	0	0	0	0	0	0	0	0	0	875	873	873	873	873	873	873	873	873	873	873	873	873	873	874	874	874	874	874	875	875	875	875	875	875	875	875	874	873	873	873	873	871	871	871	871	871	871	871	871	871	871	871	871	871	871	871	871	871	871	870	870	870	870	870	870	870	869	869	869	870	871	871	871	873	873	873	873	873	873	873	873	874	874	874	874	874	874	874	874	874	873	873	873	873	873	873	873	873	873	873	874	874	874	874	874	874	875	875	875	875	875	874	874	874	874	874	873	873	874	873	873	873	873	873	874	874	874	874	874	874	875	875	875	875	875	875	875	875	875	875	876	876	876	877	877	877	877	877	877	877	877	877	877	876	876	876	875	875	875	875	875	875	875	876	876	876	877	878	878	877	877	877	877	878	878	878	878	877	875	874	874	871	867	864	864	862	859	853	848	848	845	843	843	840	836	832	829	829	827	826	826	826	825	825	825	824	824	0	0	0	0	0	0	691	691	690	690	690	690	690	689	688	688	687	686	685	685	682	680	678	678	677	676	676	676	676	676	676	675	675	675	675	674	674	673	673	673	672	671	671	671	673	675	675	676	677	677	681	681	685	685	687	688	688	691	691	694	695	695	695	695	695	694	694	693	692	692	692	691	690	690	690	689	689	688	688	688	688	688	688	688	688	0	0	0	0	0	0	0	0	0	0	0	0	0	0	0	0	0	0	0	0	0	0	0	0	0	0	0	0	0	0	0	0	0	0	0	1828	1828	1828	1828	1830	1836	1836	1836	1846	1846	1849	1849	1849	1854	1856	1856	1862	1862	1864	1864	1864	1862	1862	1862	1862	1856	1856	1856	1854	1854	1849	1849	1849	1846	1846	1846	1841
1261	1261	1263	1268	1272	1279	1279	1286	1289	1289	1291	1291	1292	1295	1295	1295	1296	1296	1296	1292	1292	1286	1286	1286	1286	1286	1298	1298	0	0	0	0	0	0	0	879	879	878	877	877	877	875	873	873	873	871	871	869	867	866	866	865	864	864	864	863	863	863	863	863	863	863	863	863	863	862	862	862	861	861	860	857	853	853	848	845	843	843	841	837	837	837	834	833	830	830	829	828	828	827	827	828	827	827	827	826	826	826	825	825	825	825	824	824	824	824	825	825	825	826	826	826	827	829	829	831	831	834	837	837	840	842	842	843	843	844	846	846	848	851	851	854	854	857	858	858	859	860	860	861	861	861	862	862	862	863	863	863	863	864	864	864	864	864	864	864	864	864	864	864	864	864	864	864	864	864	864	864	864	864	864	864	865	865	865	865	865	865	865	865	865	865	866	866	866	866	866	866	867	868	868	868	868	868	868	868	868	869	870	870	870	870	870	870	871	871	871	871	871	871	871	870	869	869	869	869	869	868	868	867	867	867	866	866	866	866	866	866	866	866	866	866	866	866	865	865	864	864	864	864	864	864	864	863	862	862	862	862	863	863	0	0	0	0	0	0	673	672	672	670	670	670	670	669	667	667	666	666	666	666	665	665	665	665	665	665	665	665	665	665	665	665	665	666	666	666	668	668	669	670	670	670	671	671	671	671	670	669	668	668	668	667	667	667	666	666	666	666	666	666	666	666	666	667	668	668	669	670	670	671	671	671	0	0	0	0	0	0	0	0	0	0	0	0	871	871	871	871	871	871	871	871	871	871	871	871	871	871	871	871	871	871	871	871	871	871	871	871	871	871	871	871	870	869	869	869	869	869	867	867	868	868	868	868	868	868	868	868	869	868	868	867	867	867	867	867	867	867	867	867	867	867	867	867	867	868	868	869	870	870	870	870	870	870	870	870	871	871	871	871	871	871	871	871	871	871	871	871	870	870	870	870	870	870	871	871	871	871	871	871	871	871	871	873	873	873	873	873	873	873	873	873	873	871	871	871	871	873	873	873	873	871	871	873	873	873	873	873	873	873	873	873	873	873	873	873	873	874	874	874	874	875	875	875	875	875	874	874	874	874	874	873	873	873	873	871	871	873	873	873	873	874	874	874	873	873	873	873	873	873	873	873	873	869	867	866	866	864	862	862	860	858	853	848	848	845	843	843	840	836	832	829	829	827	826	826	826	825	825	825	824	824	825	825	825	825	0	0	691	691	690	690	690	690	690	688	688	688	687	686	685	685	682	680	678	678	677	676	676	676	676	676	676	676	675	675	675	674	674	674	673	673	672	672	672	672	673	675	675	676	677	677	681	681	685	685	687	688	688	691	691	694	695	695	695	695	695	694	694	693	692	692	692	691	690	690	690	689	689	688	688	688	688	688	688	688	688	0	0	0	0	0	0	0	0	0	0	0	0	0	0	0	0	0	0	0	0	0	0	0	0	0	0	0	0	0	0	0	0	0	0	0	1828	1828	1828	1828	1830	1836	1836	1836	1846	1846	1849	1849	1849	1854	1856	1856	1862	1862	1864	1864	1864	1862	1862	1862	1862	1856	1856	1856	1854	1854	1849	1849	1849	1846	1846	1846	1841
1261	1261	1263	1269	1269	1279	1279	1284	1286	1286	1289	1291	1291	1292	1293	1293	1292	1292	1291	1284	1284	1279	1277	1273	1273	1273	0	0	0	0	0	0	0	0	0	878	878	877	876	876	875	873	871	871	868	866	866	866	864	863	863	863	863	863	862	862	862	862	862	862	862	862	862	862	862	861	861	860	860	860	859	857	853	853	848	846	844	844	842	840	840	840	837	836	836	834	832	830	830	829	828	828	827	827	827	826	826	826	825	825	825	825	824	824	824	824	825	825	825	826	826	826	827	829	829	831	831	834	837	837	840	841	842	843	843	844	845	845	847	850	850	853	853	855	857	857	858	859	859	860	860	860	861	861	861	862	862	862	862	862	862	862	862	862	862	862	862	862	862	862	862	862	862	862	862	862	862	862	862	862	862	863	863	863	863	863	863	863	863	863	863	863	864	864	863	863	864	864	864	865	865	866	866	865	865	865	865	866	866	866	866	866	866	866	866	866	866	867	867	867	867	866	866	866	866	866	866	866	866	865	865	865	864	864	864	864	864	864	864	864	864	864	864	863	863	863	863	863	862	862	862	862	862	862	862	862	862	862	0	0	0	0	0	0	0	0	673	672	672	670	670	670	670	669	667	667	666	666	666	666	665	665	665	665	665	665	665	665	665	665	665	665	665	666	666	666	668	668	669	670	670	670	671	671	671	671	670	669	668	668	668	667	667	667	666	666	666	666	666	666	666	666	666	667	668	668	669	670	670	671	671	671	0	0	0	0	0	0	0	0	0	0	0	0	871	871	871	871	871	871	871	871	871	871	871	871	871	871	871	871	871	871	871	871	871	871	871	871	871	871	871	871	870	869	869	869	869	869	867	867	868	868	868	868	868	868	868	868	869	868	868	867	867	867	867	867	867	867	867	867	867	867	867	867	867	868	868	869	870	866	866	866	866	866	867	867	868	868	868	867	867	867	867	867	867	867	867	867	866	866	866	866	866	867	867	867	867	867	868	869	869	869	870	870	870	871	871	871	871	871	871	871	871	871	871	870	870	870	870	870	870	870	870	870	870	871	871	871	871	871	870	870	870	870	870	871	871	871	871	871	871	871	871	871	871	871	871	871	871	871	869	869	869	869	869	869	869	870	869	869	870	870	869	869	869	869	870	870	869	869	869	868	868	866	866	866	866	863	862	862	860	858	853	848	848	845	843	843	842	838	834	830	830	828	828	828	826	826	826	826	825	825	825	825	825	825	0	0	0	0	690	690	690	689	689	688	688	688	687	686	685	685	682	680	678	678	677	677	677	676	676	676	676	676	675	675	675	674	674	674	673	673	672	672	672	672	673	674	674	675	677	677	679	679	683	685	686	687	687	689	691	691	692	692	694	694	692	692	691	691	690	690	690	689	689	689	688	688	688	688	687	687	687	687	687	687	687	687	0	0	0	0	0	0	0	0	0	0	0	0	0	0	0	0	0	0	0	0	0	0	0	0	0	0	0	0	0	0	0	0	0	0	1823	1823	1823	1823	1823	1825	1825	1825	1830	1830	1836	1836	1836	1838	1841	1841	1846	1846	1846	1849	1849	1849	1849	1849	1849	1849	1849	1846	1846	1846	1841	1841	1841	1838	1838	1838	1838
1261	1261	1263	1269	1269	1279	1279	1284	1286	1286	1289	1291	1291	1292	1293	1293	1292	1292	1291	1284	1284	1279	1277	1273	1273	1273	0	0	0	0	0	0	0	0	0	878	878	877	876	876	875	873	871	871	868	866	866	866	864	863	863	863	863	863	862	862	862	862	862	862	862	862	862	862	862	861	861	860	860	860	859	857	853	853	850	847	845	845	843	842	842	841	840	839	839	837	835	835	834	833	830	830	829	829	829	828	827	827	827	827	827	826	826	826	826	826	826	827	827	827	828	828	829	829	831	834	834	837	839	839	841	841	842	843	843	844	845	845	847	848	848	851	853	853	855	855	857	858	858	859	860	860	860	860	860	860	860	860	860	860	860	860	860	860	860	860	860	860	860	860	860	860	860	860	860	860	860	860	860	860	860	860	860	860	860	860	860	860	860	860	861	861	861	861	861	862	862	862	862	863	863	863	863	863	863	863	863	863	863	863	863	863	863	864	864	864	864	864	864	864	864	864	864	864	864	863	863	863	863	863	863	863	863	863	863	863	863	863	863	863	862	862	862	862	862	862	862	861	861	861	861	861	861	860	860	860	860	860	0	0	0	0	0	0	0	0	671	670	669	669	669	668	668	667	666	666	666	665	665	665	665	664	664	664	664	664	664	664	664	664	664	665	665	665	665	665	666	666	666	667	667	667	668	668	668	667	667	667	666	666	666	666	666	665	665	665	665	665	665	665	665	665	666	666	667	667	667	668	668	669	671	671	0	0	0	0	0	0	0	0	0	0	0	0	870	870	870	870	870	868	868	868	868	868	868	868	868	868	868	868	868	868	868	868	868	868	867	866	866	866	866	866	866	865	865	865	865	864	864	864	865	865	865	865	866	866	866	866	866	865	865	865	865	865	865	865	865	865	865	865	865	865	865	865	866	866	866	866	866	866	866	866	866	866	867	867	868	868	868	867	867	867	867	867	867	867	867	867	866	866	866	866	866	867	867	867	867	867	868	869	869	869	870	870	870	871	871	871	871	871	871	871	871	871	871	870	870	870	870	870	870	870	870	870	870	871	871	871	871	871	870	870	870	870	870	871	871	871	871	871	871	871	871	871	871	871	871	871	871	871	869	869	869	869	869	869	869	870	869	869	870	870	869	869	869	869	870	870	869	869	869	868	868	866	866	866	866	863	862	862	860	858	853	853	849	846	844	844	842	840	836	836	833	830	829	829	828	827	827	826	826	826	826	825	825	825	0	0	0	0	690	690	690	689	689	688	688	688	687	686	685	685	683	681	679	679	677	677	677	676	676	676	676	676	675	675	675	675	675	674	674	674	673	672	672	672	673	674	674	675	676	676	678	678	681	685	685	687	687	688	689	689	690	691	691	690	690	690	690	690	689	688	688	688	688	688	688	687	687	687	687	687	687	687	687	687	687	687	0	0	0	0	0	0	0	0	0	0	0	0	0	0	0	0	0	0	0	0	0	0	0	0	0	0	0	0	0	0	0	0	0	0	1818	1818	1818	1818	1820	1823	1823	1823	1825	1825	1825	1828	1828	1833	1833	1833	1836	1838	1838	1838	1838	1838	1838	1838	1838	1841	1841	1841	1838	1838	1838	1836	1836	1836	1836	1836	1833
1261	1261	1263	1269	1269	1277	1277	1284	1284	1284	1288	1288	1288	1289	1289	1288	1288	1288	1282	1277	1269	1269	1269	1273	1273	1273	0	0	0	0	0	0	0	0	878	877	877	876	875	873	873	871	869	869	866	864	863	863	863	862	862	862	861	861	861	860	860	860	860	860	860	860	860	860	860	860	860	860	859	859	858	855	853	853	849	847	845	845	844	843	843	843	842	842	841	840	839	839	837	836	836	834	834	832	832	830	830	830	829	829	829	828	828	828	828	828	828	828	828	829	829	830	831	831	834	836	836	838	840	840	842	842	842	843	843	844	845	845	847	848	848	851	853	853	855	855	857	858	858	859	860	860	860	860	860	860	860	860	860	860	860	860	860	860	860	860	860	860	860	860	860	860	860	860	860	860	860	860	860	860	860	860	860	860	860	860	860	860	860	860	861	861	861	861	861	862	862	862	862	863	863	863	863	863	863	863	863	863	863	863	863	863	863	864	864	864	864	864	864	864	864	864	864	864	864	863	863	863	863	863	863	863	863	863	863	863	863	863	863	863	862	862	861	861	860	860	860	860	860	860	860	859	859	859	859	859	859	859	859	859	0	0	0	0	0	0	671	670	668	668	667	667	667	666	665	665	665	665	664	664	664	663	663	663	662	662	662	663	663	663	663	663	663	664	664	664	665	665	665	665	666	666	666	666	666	666	666	666	665	665	665	665	665	665	664	664	664	664	664	664	664	664	665	665	665	666	666	666	667	667	0	0	0	0	0	0	0	0	0	0	0	0	0	0	868	867	867	868	867	867	867	866	866	866	866	865	865	865	865	865	865	864	864	864	864	864	864	863	863	863	863	863	863	863	863	863	863	863	863	863	863	863	863	863	863	863	863	863	863	863	863	863	863	863	863	863	863	863	863	863	863	863	863	863	863	864	864	864	864	864	864	864	864	864	864	864	865	865	865	865	865	865	865	864	864	864	864	864	864	864	864	864	864	864	864	864	864	864	865	866	866	866	866	866	867	868	868	868	868	868	868	868	868	868	869	868	868	868	868	868	868	867	867	867	867	867	867	867	866	866	866	866	866	866	866	867	867	867	867	868	867	867	867	867	868	868	867	867	867	866	866	866	866	866	866	866	866	866	866	866	866	866	866	866	866	866	866	866	866	866	866	865	864	864	863	863	863	862	861	861	860	857	853	853	849	846	844	844	842	840	836	836	833	830	829	829	828	827	827	826	826	826	826	825	825	825	0	0	0	0	690	690	689	689	689	688	688	688	687	686	685	685	682	681	679	679	677	677	677	677	676	676	676	676	676	676	675	675	675	674	674	674	673	673	673	673	673	674	674	675	676	676	678	678	681	685	685	687	687	688	689	689	690	691	691	690	690	690	690	690	689	688	688	688	688	688	688	687	687	687	687	687	687	687	687	687	687	687	0	0	0	0	0	0	0	0	0	0	0	0	0	0	0	0	0	0	0	0	0	0	0	0	0	0	0	0	0	0	0	0	0	0	1818	1818	1818	1818	1820	1823	1823	1823	1825	1825	1825	1828	1828	1833	1833	1833	1836	1838	1838	1838	1838	1838	1838	1838	1838	1841	1841	1841	1838	1838	1838	1836	1836	1836	1836	1836	1833
1261	1261	1263	1269	1269	1276	1276	1282	1282	1282	1284	1284	1282	1282	1282	1279	1277	1272	1272	1266	1266	1269	1269	0	1255	1255	1251	1251	0	0	0	0	0	0	878	877	877	875	873	870	870	867	865	863	863	862	862	862	861	860	860	860	860	860	860	860	860	860	860	860	860	860	860	860	859	859	859	858	858	858	855	853	851	851	848	847	845	845	844	843	843	843	842	842	841	840	839	839	837	836	836	834	834	832	832	830	830	830	829	829	829	828	828	828	828	828	828	828	828	829	829	830	831	831	834	836	836	838	840	840	842	842	842	843	843	844	845	845	846	848	848	849	852	852	853	855	855	857	857	857	858	858	858	859	859	858	858	858	858	859	859	859	858	858	858	858	858	858	858	858	858	857	857	857	855	855	855	854	853	853	853	853	853	853	853	854	854	854	855	855	857	857	858	859	859	859	860	860	860	860	860	861	861	861	861	861	861	862	862	862	862	862	862	862	862	862	862	862	862	862	862	862	862	862	862	862	862	862	862	862	862	862	862	862	862	862	862	861	861	861	861	861	861	861	860	860	860	860	860	860	860	859	859	859	859	859	859	859	859	859	0	0	0	0	0	0	0	0	668	668	667	667	667	666	665	665	665	665	664	664	664	663	663	663	662	662	662	663	663	663	663	663	663	664	664	664	665	665	665	665	666	666	666	666	666	666	666	666	665	665	665	665	665	665	664	664	664	664	664	664	664	664	665	665	665	666	666	666	667	667	0	0	0	0	0	0	0	0	0	0	0	0	0	0	868	867	867	868	867	867	867	866	866	866	866	865	865	865	865	865	865	864	864	864	864	864	864	863	863	863	863	863	863	863	863	863	863	863	863	863	863	863	863	863	863	863	863	863	863	863	863	863	863	863	863	863	863	863	862	862	862	862	862	862	862	862	862	862	863	863	863	863	863	863	863	863	863	863	863	863	863	863	863	863	863	863	863	863	862	862	862	862	862	863	863	863	863	863	863	864	864	864	865	865	866	866	866	866	867	867	867	867	866	866	866	866	866	866	866	866	866	865	865	865	865	865	864	864	864	864	864	863	863	863	863	864	864	863	863	864	863	863	863	863	864	864	863	863	863	863	863	863	863	863	863	863	863	863	863	863	864	864	864	864	864	864	864	864	864	863	863	863	863	863	862	862	862	861	860	860	859	857	853	853	849	847	844	844	843	841	838	838	835	832	830	830	829	828	828	827	827	827	827	827	827	827	0	0	0	690	690	690	689	688	688	688	687	687	687	686	685	685	682	680	679	679	677	677	677	677	676	676	676	676	676	676	675	675	675	674	674	674	673	673	673	673	673	673	673	674	676	676	677	678	679	682	682	685	685	687	688	688	688	689	689	689	689	688	688	688	688	688	688	687	687	687	687	687	687	687	687	686	686	686	686	686	686	686	0	0	0	0	0	0	0	0	0	0	0	0	0	0	0	0	0	0	0	0	0	0	0	0	0	0	0	0	0	0	0	0	0	0	1815	1815	1815	1815	1818	1818	1818	1818	1823	1823	1823	1825	1825	1825	1828	1828	1830	1830	1830	1833	1833	1833	1836	1836	1836	1836	1836	1836	1836	1836	1836	1833	1833	1833	1833	1833	1833
0	1263	1263	1269	1269	1276	1276	1282	1282	1282	1284	1284	1282	1282	1282	1279	1277	1272	1272	1266	1266	0	0	0	1255	1255	1251	1251	0	0	0	0	0	0	0	877	877	875	873	870	870	867	865	863	863	862	862	862	861	860	860	860	860	860	860	860	860	860	860	860	860	860	860	860	859	859	859	857	855	853	853	852	849	849	848	847	845	845	844	844	844	843	843	843	842	842	842	841	840	839	839	837	836	836	835	834	833	833	832	831	831	831	830	830	830	830	830	830	831	832	832	833	834	834	836	837	837	840	840	841	842	842	843	843	843	844	845	845	845	847	847	848	850	850	852	853	853	854	855	855	855	857	857	857	857	857	855	855	855	855	855	855	855	855	855	855	855	854	854	854	852	850	849	849	848	847	847	845	845	845	845	845	845	845	845	845	846	846	847	847	849	852	852	853	855	855	857	857	857	858	859	859	860	860	860	860	860	860	860	860	860	860	860	860	860	860	860	860	860	860	860	860	860	860	861	860	860	861	861	860	860	860	860	860	860	860	860	860	860	860	860	860	860	860	859	859	859	858	858	858	858	858	858	857	857	857	857	857	857	857	857	0	0	0	0	0	0	0	667	667	666	666	666	665	665	665	665	664	664	664	663	663	663	661	661	661	661	661	661	661	661	661	661	661	662	662	663	664	664	664	664	664	665	665	665	665	665	664	664	664	664	664	663	663	663	663	663	663	663	663	663	663	664	664	665	665	665	666	666	666	667	667	0	0	0	0	0	0	0	0	0	0	0	0	868	866	866	866	866	865	865	864	864	864	864	863	863	863	863	863	863	862	862	862	862	862	862	862	862	862	861	861	861	861	861	861	861	861	861	861	861	862	862	862	862	862	862	862	862	862	862	862	862	862	862	862	862	862	862	862	862	862	862	862	862	862	862	862	863	863	863	863	863	863	863	863	863	863	863	863	863	863	863	863	863	863	863	863	862	862	862	862	862	863	863	863	863	863	863	864	864	864	865	865	866	866	866	866	867	867	867	867	866	866	866	866	866	866	866	866	866	865	865	865	865	865	864	864	864	864	864	863	863	863	863	864	864	863	863	864	863	863	863	863	864	864	863	863	863	863	863	863	863	863	863	863	863	863	863	863	864	864	864	864	864	864	864	864	864	863	863	863	863	863	862	862	862	861	860	860	859	857	853	853	849	847	845	845	843	842	842	840	837	834	834	832	830	829	829	828	828	828	827	827	0	0	0	0	0	690	690	690	689	688	688	688	687	687	687	686	683	683	682	680	679	679	678	677	677	677	676	676	676	676	676	676	675	675	675	674	674	674	674	673	673	673	673	673	673	674	676	676	677	677	678	681	681	683	685	686	687	687	687	688	688	688	688	688	687	687	687	687	687	687	687	687	686	686	686	686	686	685	685	685	685	685	685	685	0	0	0	0	0	0	0	0	0	0	0	0	0	0	0	0	0	0	0	0	0	0	0	0	0	0	0	0	0	0	0	0	0	0	1815	1815	1815	1815	1815	1818	1818	1818	1818	1818	1820	1820	1820	1823	1823	1823	1825	1825	1825	1828	1828	1828	1830	1830	1830	1833	1833	1833	1833	1833	1833	1833	1833	1830	1830	1830	1830
1261	1261	1263	1268	1268	1276	1276	1279	1279	1279	1279	1279	1277	1276	1276	1272	1268	1268	1272	1266	1266	0	0	1251	1245	1245	1243	1243	0	0	0	0	0	0	876	874	871	871	869	866	864	864	863	862	862	860	860	860	860	859	859	859	858	858	858	858	858	858	858	858	858	858	858	858	858	857	857	857	855	853	853	852	849	849	848	847	845	845	845	844	844	844	843	843	843	843	843	842	842	842	841	840	839	839	838	837	837	836	835	834	834	834	834	834	834	834	834	834	834	834	834	835	837	837	838	840	840	841	841	842	842	842	843	843	843	844	845	845	845	847	847	848	850	850	852	853	853	854	855	855	855	857	857	857	857	857	855	855	855	855	855	855	855	855	855	855	855	854	854	854	852	850	849	849	848	847	847	845	845	845	845	845	845	845	845	845	846	846	847	847	849	852	852	853	855	855	857	857	857	858	859	859	860	860	860	860	860	860	860	860	860	860	860	860	860	860	860	860	860	860	860	860	860	860	861	860	860	861	861	860	860	859	859	859	859	859	859	859	859	859	859	858	858	858	857	857	857	857	857	857	855	855	855	854	854	854	854	854	855	857	857	0	0	0	0	0	0	0	666	666	666	666	666	665	665	664	664	664	664	664	663	662	662	661	660	659	659	659	659	659	659	659	659	659	659	660	660	661	662	662	663	663	663	663	663	663	663	663	663	663	663	662	662	662	661	661	661	661	661	661	661	662	663	663	664	665	665	665	665	665	666	667	0	0	0	0	0	0	0	0	0	0	0	0	0	866	864	864	863	863	863	863	862	862	862	862	862	862	862	862	861	860	860	860	860	860	860	860	860	860	860	859	859	859	859	859	859	859	860	860	860	860	860	860	860	860	860	860	860	860	860	860	860	860	860	860	861	861	861	861	861	861	861	861	861	861	861	861	861	861	861	861	861	861	861	862	862	862	862	862	861	861	861	861	861	861	861	861	861	861	861	861	861	861	861	861	861	861	862	862	862	863	863	863	864	865	865	865	866	866	866	866	866	866	866	865	864	864	864	864	864	864	863	863	863	863	863	863	862	862	862	862	862	862	862	862	862	862	862	862	862	862	862	862	862	862	862	861	861	861	861	862	861	861	862	862	862	862	862	862	862	863	863	863	863	863	863	863	863	863	863	862	862	862	861	860	860	860	859	859	858	855	853	853	849	847	845	845	843	842	842	840	837	834	834	832	830	829	829	828	828	828	827	827	828	828	0	0	0	690	690	690	689	688	688	688	687	687	687	686	683	683	682	680	679	679	678	677	677	677	677	677	676	676	676	676	675	675	675	675	674	674	674	673	673	673	673	674	674	674	676	676	677	677	678	681	681	683	686	686	687	687	687	688	688	688	688	688	687	687	687	687	687	687	687	687	686	686	686	686	686	685	685	685	685	685	685	685	0	0	0	0	0	0	0	0	0	0	0	0	0	0	0	0	0	0	0	0	0	0	0	0	0	0	0	0	0	0	0	0	0	0	1815	1815	1815	1815	1815	1818	1818	1818	1818	1818	1820	1820	1820	1823	1823	1823	1825	1825	1825	1828	1828	1828	1830	1830	1830	1833	1833	1833	1833	1833	1833	1833	1833	1830	1830	1830	1830
1261	1261	1263	1265	1268	1276	1276	1277	1277	1276	1276	1276	1272	1269	1266	1266	1263	1261	1261	1261	0	0	0	1251	1245	1245	1243	1243	0	0	0	0	0	0	876	871	867	867	865	864	862	862	861	860	860	859	858	858	857	857	857	857	855	855	855	855	855	855	855	855	855	855	855	855	855	855	855	854	853	852	852	849	848	848	847	846	845	845	845	844	844	844	843	843	843	843	843	842	842	842	841	840	839	839	838	837	837	836	835	834	834	834	834	834	834	834	834	834	834	834	834	835	837	837	838	840	840	841	841	842	842	842	843	843	843	844	845	845	845	847	847	847	848	848	850	851	851	852	853	853	853	853	853	854	854	853	853	853	853	853	853	853	853	853	852	852	850	850	848	847	847	845	844	844	843	843	842	842	841	841	841	841	841	842	842	842	843	843	843	844	844	845	847	847	849	849	851	852	852	854	855	855	857	857	857	857	857	857	858	858	858	858	858	858	858	859	859	859	859	859	859	859	859	859	859	859	859	859	859	859	859	859	859	859	859	859	859	859	859	859	859	858	858	858	857	857	857	857	857	857	855	855	855	854	854	854	854	854	855	0	0	0	0	0	0	0	0	0	666	666	666	666	666	665	665	664	664	664	664	664	663	662	662	661	660	659	659	659	659	659	659	659	659	659	659	660	660	661	662	662	663	663	663	663	663	663	663	663	663	663	663	662	662	662	661	661	661	661	661	661	661	662	663	663	664	665	665	665	665	665	666	0	0	0	0	0	0	0	0	0	0	0	0	0	0	0	864	864	863	863	863	863	862	862	862	862	862	862	862	862	861	860	860	860	860	860	860	860	860	860	860	859	859	859	859	859	859	859	860	860	860	860	860	860	860	860	860	860	859	859	859	859	860	860	860	860	860	860	860	860	860	860	860	860	860	860	860	860	860	860	860	860	860	860	860	860	860	860	860	860	860	860	860	860	860	860	860	860	860	859	859	859	859	860	860	860	860	860	860	861	861	862	862	862	863	863	863	864	864	864	864	864	864	864	864	864	863	863	863	863	863	863	863	862	862	862	861	861	861	861	861	860	860	860	860	860	860	860	860	860	860	860	860	860	860	860	860	860	860	860	860	860	860	860	860	860	860	860	861	861	861	861	861	862	862	862	862	862	862	862	862	861	861	861	860	860	860	859	858	858	857	853	852	852	850	847	845	845	844	843	843	842	840	837	837	835	833	830	830	829	829	829	828	828	828	828	0	0	0	0	0	0	689	688	688	688	687	687	686	685	683	683	682	680	679	679	678	677	677	677	677	677	676	676	676	676	675	675	675	675	674	674	674	673	673	673	673	673	673	674	675	675	676	677	677	679	679	682	684	684	686	686	687	687	687	687	687	687	687	687	686	686	686	686	685	685	685	685	685	685	685	684	684	684	684	684	684	685	0	0	0	0	0	0	0	0	0	0	0	0	0	0	0	0	0	0	0	0	0	0	0	0	0	0	0	0	0	0	0	0	0	0	1813	1813	1813	1813	1815	1815	1815	1815	1815	1815	1818	1818	1818	1818	1820	1820	1823	1823	1823	1825	1825	1825	1825	1828	1828	1828	1828	1828	1830	1830	1830	1830	1830	1830	1830	1830	1830
