0	0	0	0	0	0	0	0	0	0	0	0	0	0	0	0	140	140	141	141	141	141	141	142	142	142	142	142	142	142	143	143	143	143	143	143	143	143	144	144	144	144	144	145	145	145	145	145	145	145	145	146	0	0	0	0	0	0	0	0	0	0	0	152	151	151	151	150	149	149	149	149	149	0	0	0	0	0	0	0	0	0	0	0	0	0	0	0	0	146	146	146	146	146	146	146	146	146	146	146	146	146	146	146	146	0	0	0	0	0	0	0	0	0	0	0	0	0	0	0	0	0	0	0	0	0	0	128	128	128	128	128	127	127	127	127	127	127	127	127	127	127	127	127	128	128	128	128	128	128	128	128	128	128	128	128	128	128	128	128	129	129	129	129	129	129	129	129	129	129	130	130	130	130	130	130	130	130	131	131	131	131	131	0	0	0	0	0	0	0	0	0	0	0	0	0	0	0	0	0	0	0	0	0	0	0	0	0	0	0	0	0	0	0	0	0	0	0	0	0	0	0	0	0	0	0	0	0	0	0	0	0	0	0	0	0	0	0	0	0	0	0	0	0	0	0	163	162	162	162	162	162	162	162	162	162	162	162	163	163	163	0	0	165	165	165	166	166	166	166	166	166	166	165	165	165	165	165	165	165	165	165	165	165	166	166	168	168	169	169	170	170	170	170	171	171	0	0	0	0	0	0	0	0	0	0	0	0	0	0	0	0	0	242	241	241	240	240	239	239	239	239	238	238	238	238	238	237	237	237	238	0	0	0	0	0	0	0	0	0	0	0	0	0	0	0	0	0	0	0	0	0	0	0	0	0	0	0	0	0	2058	2036	2036	2025	2025	2014	2014	2003	1993	1982	1982	1982	1982	1982	1982	1993	2003	2014	2014	2025	2025	2036	2036	2036	2025	2014	2003	1993	1982	1972	1961	1931	1921	1921	1911	1902	1892	1892	1892	0	0	0	0	0	0	0	0	0	0	0	0	0	0	0	0	0	0	0	0	0	0	0	0	0	0	0	0	0	0	0	0	0	0	0	0	0	0	0	0	0	0	0	0	0	0	0	0	0	0	0	0	0	0	0	0	0	0	0	0	0	0	0	0	0	0	0	0	0	0	0	0	0	0	0	0	0	0	0	0	0	0	0	0	0	0	0	0	0	0	0	0	0	0	0	0	0	0	1854	1854	1854	1854	1854	1864	1873	1873	1873	1882	1892	1911	1941	1961	1982	2003	2014	2025	2025	2025	2025	2036	2025	2025	2025	2014	2003	1993	1972	1951	1931	1911	1892	1873	1864	1854	1845	1845	1836	1836	1827	1818	1810	1792	1775	1767	1767	1750	1750	1711	1711	0	1665	1658	1650	1650	1650	1650	1665	0	0	0	0	0	0	0	0	1931	1931	0	0	0	0	0	0	0	1902	1902	1951	1982	1982	2014	2047	2081	2104	2128	2153	2178	2191	2204	2217	2217	2217	2204	2191	2178	2153	2116	2070	2036	2003	1961	1941	1911	1882	1854	1854	0	0	0	0	1972	1972	1993	2025	2047	2070	2104	2116	2128	2141	2153	2153	2153	2153	2153	2153	2153	2141	2141	2153	2153	2153	2153	2165	2178	2191	2230	2243	2270	2284	2284	2298	2298	2298	2312	2298	2298	2298	2298	2284	2284	2270	2257	2257	2243	2243	2243	2230	2230	2230	2230	2230	2230	2230	2230	2230	2230	2230	2243	2243	2243	2243	2243	2243	2230	2230	2217	2204	2191	2178	2153	2141	2104	2081	2036	2003	1993	1982	1972	1972	1972	1972	1982	1993	2025	2047	2081	2116	2141	2153	2165	2191	2204	2230	2243	2270	2284	2312	2341	2356	2371	2386	2386	2386	2401	2401	2401	2401	2401	2401	2401	2401	2401	2386	2371	2371	2371	2371	2371	2356	2356	2356	2341	2341	2327	2298	2284	2243	2243	2270	2284	2312	2312	2327	2356	2386	2417	2448	2497	2514	2548	2566	2566	2583	2583	2583	2583	2566	2514	2481	2464	2432	2417	2401	2386	2371	2356	2327	2298	2257	2230	2178	2128	2081	2025	1972	1931	1911	1882	1864	1836	1818	1801	1801	0	0	0	0	0	0	0	0	0	0	0	0	0	0	0	0	0	0	0	0	0	0	0	0
0	0	0	0	0	0	0	0	0	0	0	0	0	0	0	0	140	140	140	141	141	141	141	141	142	142	142	142	142	142	142	142	143	143	143	143	143	143	144	144	144	144	144	145	145	145	145	145	145	145	145	146	146	0	0	0	0	0	0	0	0	0	152	152	152	151	151	151	150	150	149	149	149	149	0	0	0	0	0	0	0	0	0	0	0	0	0	0	0	146	146	146	146	146	146	146	146	146	146	146	146	146	146	146	146	0	0	0	0	0	0	0	0	0	0	0	0	0	0	0	0	0	0	0	0	0	0	128	128	128	128	128	127	127	127	127	127	127	127	127	127	127	127	127	127	128	128	128	128	128	128	128	128	128	128	128	128	128	128	128	128	128	129	129	129	129	129	129	129	129	129	130	130	130	130	130	130	130	130	131	131	131	131	0	0	0	0	0	0	0	0	0	0	0	0	0	0	0	0	0	0	0	0	0	0	0	0	0	0	0	0	0	0	0	0	0	0	0	0	0	0	0	0	0	0	0	0	0	0	0	0	0	0	0	0	0	0	0	0	0	0	0	0	0	0	0	162	162	162	162	162	162	162	162	162	162	162	163	163	163	163	164	164	165	165	165	166	166	166	166	166	166	166	166	166	166	166	166	165	165	165	166	166	166	166	167	168	168	169	170	170	170	171	171	171	171	0	0	0	0	0	0	0	0	0	0	0	0	0	0	0	0	0	242	242	241	240	239	239	239	238	238	238	237	237	237	237	237	237	237	0	0	0	0	0	0	0	0	0	0	0	0	0	0	0	0	0	0	0	0	0	0	0	0	0	0	0	0	0	0	2058	2047	2047	2036	2036	2014	2014	2003	1993	1982	1982	1972	1972	1972	1982	1982	1982	1993	2003	2003	2014	2025	2025	2025	2014	2003	1993	1982	1982	1972	1951	1931	1921	1921	1911	1902	1892	1892	1892	1882	1882	1882	1892	0	1911	1911	0	0	0	0	0	0	0	0	0	0	0	0	0	0	0	0	0	0	0	0	0	0	0	0	0	0	0	0	0	0	0	0	0	0	0	0	0	0	0	0	0	0	0	0	0	0	0	0	0	0	0	0	0	0	0	0	0	0	0	0	0	0	0	1718	1711	1703	1695	1687	1680	1665	1665	1650	1643	1629	1622	1615	1615	0	0	0	0	0	0	0	0	0	0	0	0	0	0	1818	1818	1818	1827	1827	1836	1836	1845	1845	1864	1873	1902	1931	1961	1982	2003	2025	2036	2047	2047	2058	2058	2058	2047	2047	2036	2025	2003	1982	1961	1941	1921	1892	1873	1864	1854	1827	1827	1827	1818	1818	1810	1792	1775	1759	1750	1750	1750	1718	1695	1672	1658	1658	1650	1636	1622	1622	1622	1622	1636	1672	0	0	0	0	0	0	0	0	0	0	0	0	0	0	1892	1892	1902	1951	1982	2003	2025	2058	2081	2104	2128	2153	2178	2191	2204	2217	2217	2217	2217	2217	2191	2153	2116	2070	2036	2003	1961	1941	1911	1882	1854	1854	0	0	0	0	1972	1972	1993	2025	2047	2070	2104	2128	2141	2141	2153	2153	2165	2153	2153	2153	2153	2153	2153	2153	2153	2153	2165	2165	2191	2204	2230	2243	2270	2270	2284	2284	2298	2298	2298	2284	2284	2270	2270	2270	2257	2257	2257	2243	2243	2230	2230	2217	2217	2217	2217	2217	2230	2230	2230	2230	2230	2230	2230	2243	2243	2243	2243	2243	2230	2230	2217	2204	2191	2178	2153	2141	2104	2081	2036	2003	1993	1982	1972	1972	1972	1972	1982	2003	2025	2058	2081	2128	2153	2165	2178	2204	2217	2230	2257	2270	2298	2312	2341	2371	2386	2401	2401	2417	2417	2417	2401	2401	2401	2401	2386	2386	2371	2356	2341	2341	2341	2356	2356	2356	2341	2341	2341	2341	2327	2298	2284	2270	2270	2284	2298	2298	2298	2312	2327	2341	2371	2386	2432	2448	2481	2481	2481	2497	2497	2497	2497	2464	2448	2401	2386	2371	2341	2327	2298	2284	2257	2217	2191	2165	2128	2093	2058	2014	1972	1931	1902	1882	1864	1836	1810	1792	1767	1750	1734	1726	1711	1703	1695	1695	0	0	0	0	0	0	0	0	0	0	0	0	0	0	0	0	0	0
0	0	0	0	0	0	0	0	0	0	0	0	0	0	0	0	140	140	140	141	141	141	141	141	141	142	142	142	142	142	142	142	142	143	143	143	143	143	144	144	144	144	145	145	145	145	145	145	145	146	146	146	146	0	0	0	0	153	153	153	153	153	152	152	152	152	152	151	151	151	150	150	149	149	0	0	0	0	0	0	0	0	0	0	0	0	0	0	0	0	0	146	146	146	146	146	146	146	146	146	146	146	146	146	146	0	0	0	0	0	0	0	0	0	0	0	0	0	0	0	0	0	0	0	0	0	0	128	128	128	128	128	127	127	127	127	127	127	127	127	127	127	127	127	127	128	128	128	128	128	128	128	128	128	128	128	128	128	128	128	128	128	128	129	129	129	129	129	129	129	129	129	130	130	130	130	130	130	130	131	131	131	131	0	0	0	0	0	0	0	0	0	0	0	0	0	0	0	0	0	0	0	0	0	0	0	0	0	0	0	0	0	0	0	0	0	0	0	0	0	0	0	0	0	0	0	0	0	0	0	0	0	0	0	0	0	0	0	0	0	0	0	0	0	162	162	162	162	162	162	162	162	162	162	162	163	163	163	163	163	163	164	164	165	165	165	165	166	166	166	166	166	166	166	166	166	166	166	166	166	166	166	166	166	166	167	0	169	169	170	170	171	171	171	171	171	0	0	0	0	0	0	0	0	0	0	0	0	0	0	0	0	0	242	241	240	240	239	239	239	238	237	237	237	237	237	236	236	236	236	236	0	0	0	0	0	0	0	0	0	0	0	0	0	0	0	0	0	0	0	0	0	0	0	0	0	0	0	2093	2081	2081	2070	2047	2047	2036	2036	2014	2003	1993	1982	1982	1972	1972	1972	1972	1972	1982	1982	1993	2003	2003	2014	2014	2014	2003	1993	1982	1982	1972	1972	1951	1941	1931	1921	1921	1911	1902	1892	1892	1882	1882	1882	1892	1902	1911	1911	1921	0	0	0	0	0	0	0	0	0	0	0	0	0	0	0	0	0	0	0	0	0	0	0	0	0	0	0	0	0	0	0	0	0	0	0	0	0	0	0	0	0	0	0	0	0	0	0	0	0	0	0	0	0	0	0	0	0	1818	1810	1792	1767	1759	1718	1711	1695	1687	1680	1665	1658	1643	1636	1629	1615	1615	1608	1601	1587	1587	0	0	0	0	0	0	0	0	0	0	0	0	1792	1792	1810	1810	1810	1818	1827	1836	1836	1845	1873	1892	1931	1961	1993	2014	2036	2058	2070	2070	2081	2081	2081	2081	2070	2058	2047	2025	2003	1982	1951	1931	1902	1873	1854	1845	1827	1818	1818	1818	1810	1801	1784	1759	1750	1742	1734	1726	1711	1695	1672	1658	1658	1643	1629	1622	1615	1615	1615	1636	1672	0	0	0	0	0	0	0	0	0	0	0	0	0	0	1892	1892	1931	1972	1993	2003	2036	2058	2093	2104	2141	2165	2178	2204	2217	2230	2243	2243	2230	2217	2204	2165	2128	2081	2047	2014	1982	1951	1931	1902	1882	1864	1864	0	0	0	1982	1982	2014	2036	2058	2081	2116	2141	2141	2153	2153	2153	2165	2153	2153	2153	2153	2153	2153	2153	2153	2165	2165	2178	2191	2204	2230	2257	2257	2270	2270	2270	2270	2270	2270	2270	2270	2257	2257	2243	2243	2243	2230	2230	2230	2217	2217	2217	2217	2217	2217	2217	2217	2217	2230	2230	2230	2230	2230	2243	2243	2243	2243	2243	2243	2230	2217	2204	2191	2178	2165	2141	2116	2081	2047	2025	2003	1993	1982	1982	1993	1993	2003	2014	2047	2081	2116	2141	2178	2191	2217	2230	2243	2257	2284	2298	2327	2341	2356	2386	2401	2417	2417	2417	2432	2432	2401	2401	2401	2401	2386	2386	2371	2356	2327	2327	2341	2341	2341	2341	2327	2327	2341	2341	2327	2312	2298	2284	2284	2284	2298	2298	2298	2312	2327	2327	2341	2371	2386	2417	2417	2417	2432	2432	2432	2432	2432	2401	2386	2356	2327	2312	2284	2257	2230	2204	2178	2141	2116	2093	2058	2036	2003	1972	1941	1911	1892	1873	1854	1827	1801	1775	1750	1734	1726	1711	1703	1687	1687	1695	0	0	0	0	0	0	0	0	0	0	0	0	0	0	0	0	0	0
0	0	0	0	0	0	0	0	0	0	0	0	0	0	140	140	140	140	140	140	140	141	141	141	141	141	141	142	142	142	142	142	142	142	143	143	143	143	143	144	144	144	144	145	145	145	145	145	145	146	146	146	0	0	0	0	0	153	153	153	153	153	153	153	152	152	152	152	152	0	0	150	150	0	0	0	0	0	0	0	0	0	0	0	0	0	0	0	0	0	0	0	0	146	146	146	146	146	146	146	146	146	146	146	146	0	0	0	0	0	0	0	0	0	0	0	0	0	0	0	0	0	0	0	0	128	128	128	128	128	128	128	127	127	127	127	127	127	127	127	127	127	127	127	127	128	128	128	128	128	128	128	128	128	128	128	128	128	128	128	128	128	128	128	128	129	129	129	129	129	129	129	129	130	130	130	130	130	130	130	131	131	0	0	0	0	0	0	0	0	0	0	0	0	0	0	0	0	0	0	0	0	0	0	0	0	0	0	0	0	0	0	0	0	0	0	0	0	0	0	0	0	0	0	0	0	0	0	0	0	0	0	0	0	0	0	0	0	0	0	0	0	0	0	161	161	161	161	162	162	162	162	162	162	162	163	163	163	163	163	164	164	164	165	165	165	165	166	166	166	166	166	166	166	166	166	166	166	166	166	166	166	166	166	166	167	0	169	169	170	170	171	171	171	171	171	0	0	0	0	0	0	0	0	0	0	0	0	0	0	0	0	0	242	241	240	240	238	238	237	237	237	237	236	236	236	236	236	236	236	236	0	0	0	0	0	0	0	0	0	0	0	0	0	0	0	0	0	0	0	0	0	0	0	0	0	2116	2116	2093	2081	2081	2081	2070	2058	2047	2036	2025	2014	1993	1982	1982	1972	1972	1972	1972	1972	1972	1982	1993	1993	1993	2003	2003	2003	2003	1993	1982	1982	1972	1972	1961	1941	1931	1931	1931	1921	1911	1902	1902	1892	1892	1892	1902	1902	1911	1921	1921	1931	0	0	0	0	0	0	0	0	0	0	0	0	0	0	0	0	0	0	0	0	0	0	0	0	0	0	0	0	0	0	0	0	0	0	0	0	0	0	0	0	0	0	0	0	0	1921	1921	0	0	0	0	0	0	0	0	0	1818	1810	1792	1767	1759	1742	1711	1695	1687	1672	1658	1643	1636	1622	1615	1608	1594	1594	1587	1587	1587	0	0	0	0	0	0	0	0	0	0	1750	1750	1767	1775	1784	1784	1792	1801	1810	1818	1818	1836	1864	1892	1931	1961	2003	2036	2058	2081	2093	2104	2104	2116	2104	2104	2104	2093	2070	2047	2014	1993	1972	1941	1911	1882	1854	1845	1827	1818	1818	1818	1810	1775	1759	1742	1726	1718	1711	1711	1703	1687	1672	1672	1658	1643	1629	1622	1615	1615	1615	0	0	0	0	0	0	0	0	0	0	0	0	0	0	0	0	0	1951	1951	1982	2003	2025	2047	2070	2093	2116	2141	2165	2178	2204	2217	2230	2243	2243	2230	2230	2204	2178	2128	2093	2058	2025	1993	1961	1941	1911	1882	1864	1864	0	0	0	2003	2003	2036	2058	2081	2093	2128	2141	2153	2153	2165	2165	2165	2165	2165	2165	2165	2165	2165	2178	2178	2178	2191	2204	2204	2230	2243	2257	2257	2270	2270	2257	2257	2257	2257	2257	2257	2243	2243	2230	2230	2230	2230	2217	2217	2217	2217	2217	2217	2217	2217	2217	2217	2217	2217	2230	2230	2230	2230	2230	2243	2243	2243	2243	2243	2243	2217	2217	2204	2191	2165	2141	2116	2093	2058	2036	2025	2014	2014	2014	2014	2014	2036	2058	2081	2128	2153	2191	2204	2230	2243	2257	2284	2298	2327	2327	2356	2371	2386	2417	2432	2432	2448	2448	2432	2432	2417	2417	2401	2401	2386	2386	2371	2356	2327	2327	2327	2327	2341	2341	2327	2327	2341	2341	2341	2327	2312	2298	2284	2284	2298	2298	2298	2312	2327	2327	2341	2356	2386	2386	2401	2401	2417	2417	2401	2401	2386	2371	2356	2327	2298	2270	2243	2217	2191	2153	2128	2093	2070	2047	2025	1993	1972	1941	1921	1902	1873	1854	1836	1818	1784	1759	1742	1726	1711	1695	1680	1672	1665	1665	0	0	0	0	0	0	0	0	0	0	0	0	0	0	0	0	0	0
0	0	0	0	0	0	0	0	0	0	0	0	0	0	140	140	140	140	140	140	140	140	141	141	141	141	141	141	141	142	142	142	142	142	142	143	143	143	143	144	144	144	144	145	145	145	145	145	145	146	146	146	149	149	150	152	153	153	153	153	153	153	153	153	153	153	153	153	152	152	0	0	0	0	0	0	0	0	155	155	155	156	156	156	156	156	156	156	157	157	157	0	0	0	0	0	0	0	0	0	0	0	0	0	0	0	0	0	0	0	0	0	0	0	0	0	0	0	0	0	0	0	0	0	0	128	128	128	128	128	128	128	127	127	127	127	127	127	127	127	127	127	127	127	127	128	128	128	128	128	128	128	128	128	128	128	128	128	128	128	128	128	128	128	128	128	129	129	129	129	129	129	129	129	129	130	130	130	130	130	131	131	0	0	0	0	0	0	0	0	0	0	0	0	0	0	0	0	0	0	0	0	0	0	0	0	0	0	0	0	0	0	0	0	0	0	0	0	0	0	0	0	0	0	0	0	0	0	0	0	0	0	0	0	0	0	0	0	0	0	0	0	0	0	161	161	161	161	162	162	162	162	162	162	162	163	163	163	163	163	164	164	164	165	165	165	166	166	166	166	166	166	166	166	166	166	166	166	166	166	166	166	166	166	166	167	168	0	0	170	170	171	171	171	171	0	0	0	0	0	0	0	0	0	0	0	0	0	0	0	0	0	0	0	0	239	239	238	238	237	237	236	236	236	236	236	236	236	235	235	235	0	0	0	0	0	0	0	0	0	0	0	0	0	0	0	0	0	0	0	0	0	0	0	0	0	2116	2116	2104	2104	2093	2093	2081	2070	2058	2047	2036	2025	2003	1993	1993	1982	1972	1972	1972	1972	1972	1982	1993	1993	1993	1993	2003	2003	2003	1993	1982	1972	1972	1972	1972	1951	1951	1941	1941	1931	1921	1911	1911	1911	1911	1911	1911	1921	1931	1931	1931	1931	0	0	0	0	0	0	0	0	0	0	0	0	0	0	0	0	0	0	0	0	0	0	0	0	0	0	0	0	0	0	0	0	0	0	0	0	0	0	0	0	0	0	0	0	0	1911	1911	1911	1911	0	0	0	0	1873	1864	1854	1854	0	0	0	0	1742	1718	1703	1703	1672	1658	1643	1636	1622	1615	1608	1594	1594	1587	1587	1581	1581	0	0	0	0	0	0	0	0	0	1742	1742	1759	1775	1775	1775	1784	1784	1792	1810	1810	1836	1854	1902	1931	1972	2014	2047	2070	2093	2116	2128	2128	2141	2141	2128	2128	2116	2093	2070	2036	2014	1982	1951	1921	1892	1864	1845	1827	1827	1818	1818	0	1759	1734	1711	1703	1695	1687	1687	1680	1672	1672	1672	1658	1658	1643	1636	1636	1636	1636	0	0	0	0	0	0	0	0	0	0	0	0	0	0	0	0	0	1972	1972	1993	2014	2036	2047	2070	2093	2116	2141	2165	2178	2204	2217	2217	2243	2243	2243	2230	2204	2178	2141	2104	2070	2036	1993	1972	1941	1921	1902	1882	1882	0	0	0	2047	2047	2070	2093	2093	2116	2141	2153	2165	2178	2165	2165	2178	2178	2178	2178	2178	2178	2178	2191	2191	2204	2217	2230	2243	2243	2257	2270	2270	2270	2270	2257	2243	2243	2243	2243	2243	2230	2230	2230	2217	2217	2217	2217	2217	2217	2217	2217	2217	2217	2217	2217	2217	2217	2217	2230	2230	2230	2230	2230	2243	2243	2243	2243	2243	2243	2230	2217	2204	2191	2165	2153	2128	2093	2070	2058	2047	2047	2047	2047	2047	2058	2070	2116	2165	2204	2243	2257	2298	2298	2327	2356	2356	2371	2386	2401	2417	2432	2432	2448	2464	2481	2448	2448	2448	2448	2432	2417	2401	2401	2401	2386	2371	2341	2327	2312	2312	2327	2327	2341	2327	2327	2341	2356	2341	2341	2341	2327	2327	2327	2327	2327	2327	2327	2341	2341	2356	2356	2386	2386	2401	2401	2401	2401	2401	2401	2386	2356	2327	2298	2270	2243	2217	2191	2153	2116	2093	2070	2036	2014	1993	1961	1941	1921	1902	1882	1864	1854	1836	1818	1784	1759	1742	1718	1703	1695	1680	1672	1665	1658	1643	1643	1643	0	0	0	0	0	0	0	0	0	0	0	0	0	0	0
0	0	0	0	0	0	0	0	0	0	0	0	140	140	140	140	140	140	140	140	140	140	140	141	141	141	141	141	141	141	142	142	142	142	142	143	143	143	143	144	144	144	144	145	145	145	145	145	145	146	146	147	148	149	150	152	153	153	153	153	153	153	153	153	153	153	153	153	152	152	153	153	153	154	154	154	155	155	155	155	155	156	156	156	156	156	156	156	157	157	157	157	157	0	0	0	0	0	0	0	0	0	0	0	0	0	0	0	0	0	0	0	0	0	0	0	0	0	0	0	0	0	0	0	0	0	128	128	128	128	128	128	127	127	127	127	127	127	127	127	127	127	127	127	127	128	128	128	128	128	128	128	128	128	128	128	128	128	128	128	128	128	128	128	128	128	128	129	129	129	129	129	129	129	129	129	130	130	130	130	0	0	0	0	0	0	0	0	0	0	0	0	0	0	0	0	0	0	0	0	0	0	0	0	160	160	160	160	0	0	0	0	0	0	0	0	0	0	0	0	0	0	0	0	0	0	0	0	0	0	0	0	0	0	0	0	0	0	0	0	0	0	0	0	161	161	161	162	162	162	162	162	162	162	163	163	163	163	163	164	164	164	165	165	165	166	166	166	166	166	166	166	166	166	166	166	166	166	166	166	166	166	166	166	166	167	168	0	169	169	170	171	171	171	0	0	0	0	0	0	0	0	0	0	0	0	0	0	0	0	0	0	0	0	0	239	237	237	0	236	236	236	236	236	236	235	235	235	235	235	235	0	0	0	0	0	0	0	0	0	0	0	0	0	0	0	0	0	0	0	0	0	0	0	0	0	2128	2116	2116	2116	2104	2104	2104	2093	2081	2070	2058	2036	2025	2014	2003	1993	1982	1982	1972	1972	1982	1982	1993	1993	1993	1993	1993	1993	1993	1982	1972	1972	1972	1972	1982	1972	1972	1961	1961	1951	1941	1941	1931	1921	1921	1921	1931	1941	1941	1941	1951	1951	0	0	0	0	0	0	0	0	0	0	0	0	0	0	0	0	0	0	0	0	0	0	0	0	0	0	0	0	0	0	0	0	0	0	0	0	0	0	0	0	0	0	0	0	0	1902	1902	1902	1902	1902	1892	1882	1873	1864	1854	1845	1845	0	0	0	0	0	1726	1726	0	1672	1658	1636	1629	1622	1608	1601	1594	1594	1594	1587	1581	1581	0	0	0	0	0	0	0	0	0	1734	1734	1750	1767	1767	1767	1775	1775	1792	1801	1801	1827	1854	1902	1951	1993	2036	2070	2093	2128	2141	2165	2165	2165	2165	2165	2165	2141	2116	2093	2058	2036	2003	1961	1931	1902	1882	1854	1827	1818	1801	1792	1759	1742	1718	1695	1687	1680	1680	1672	1672	1665	1665	1665	1658	1658	1643	1636	1636	1636	1636	0	0	0	0	0	0	0	0	0	0	0	0	0	0	0	0	1993	1993	1993	2014	2025	2036	2058	2081	2093	2128	2141	2165	2178	2204	2204	2217	2243	2243	2243	2230	2204	2178	2153	2104	2070	2036	2003	1982	1951	1931	1902	1882	1882	0	0	0	2081	2081	2093	2116	2128	2141	2165	2178	2178	2191	2191	2191	2191	2191	2191	2191	2191	2191	2204	2217	2217	2230	2243	2257	2270	2284	2284	2284	2284	2270	2270	2257	2243	2243	2243	2230	2230	2217	2217	2217	2217	2217	2217	2217	2217	2217	2217	2217	2217	2217	2217	2217	2217	2217	2217	2230	2230	2230	2230	2230	2243	2243	2243	2243	2243	2243	2230	2217	2204	2191	2178	2153	2141	2104	2081	2081	2081	2081	2081	2081	2104	2128	2153	2204	2257	2298	2341	2386	2417	2432	2448	2464	2464	2464	2464	2464	2481	2481	2497	2497	2481	2481	2481	2481	2481	2464	2448	2432	2417	2417	2401	2386	2371	2341	2327	2312	2312	2312	2327	2327	2327	2327	2356	2371	2386	2386	2371	2371	2371	2371	2371	2371	2356	2356	2371	2371	2371	2386	2386	2386	2401	2386	2386	2386	2386	2386	2371	2341	2312	2284	2257	2230	2191	2165	2141	2104	2070	2047	2025	1993	1972	1951	1921	1902	1882	1864	1845	1827	1810	1801	1767	1750	1726	1711	1703	1695	1680	1672	1665	1658	1643	1643	1643	0	0	0	0	0	0	0	0	0	0	0	0	0	0	0
0	0	0	0	0	0	0	0	0	0	0	140	140	140	140	140	140	140	140	140	140	140	140	140	141	141	141	141	141	141	142	142	142	142	142	143	143	143	144	144	144	144	144	145	145	145	145	145	146	146	147	148	148	149	151	152	153	153	153	154	154	154	154	153	153	153	153	153	153	153	153	153	153	154	154	154	154	155	155	155	156	156	156	156	156	156	156	157	157	157	157	157	157	157	157	157	0	0	0	0	0	0	0	0	0	0	0	0	0	0	0	0	0	0	0	0	0	0	0	0	0	0	0	0	0	0	0	128	128	128	128	127	127	127	127	127	127	127	127	127	127	127	127	127	128	128	128	128	128	128	128	128	128	128	128	128	128	128	128	128	128	128	128	128	128	128	128	129	129	129	129	129	129	129	129	129	130	0	0	0	0	0	0	0	0	0	0	0	0	0	0	0	0	0	0	0	0	0	0	0	0	0	0	160	160	160	160	160	160	0	0	0	0	0	0	0	0	0	0	0	0	0	0	0	0	0	0	0	0	0	0	0	0	0	0	0	0	0	0	0	0	0	0	0	161	161	162	162	162	162	162	162	163	163	163	163	164	164	164	164	164	165	165	165	165	166	166	166	166	166	166	166	166	166	166	166	166	166	166	166	166	166	167	167	167	167	168	168	169	169	170	171	171	0	0	0	0	0	0	0	0	0	0	0	0	0	0	0	0	0	0	0	0	0	0	236	236	236	236	236	236	236	235	235	235	235	235	235	235	235	235	235	0	0	0	0	0	0	0	0	0	0	0	0	0	0	0	0	0	0	0	0	0	0	0	2141	2128	2128	2128	2128	2128	2116	2116	2104	2093	2093	2081	2058	2047	2036	2025	2003	2003	1993	1982	1982	1982	1993	1993	1982	1982	1982	1982	1982	1972	1972	1961	1951	1951	1961	1972	1982	1972	1972	1972	1961	1951	1951	1951	1931	1931	1931	1941	1951	1951	1951	1961	1961	0	0	0	0	0	0	0	0	0	0	0	0	0	0	0	0	0	0	0	0	0	0	0	0	0	0	0	0	0	0	0	0	0	0	0	0	0	0	0	0	0	0	0	0	1892	1892	1892	1892	1902	1892	1892	1882	1873	1864	1854	1845	1845	1836	1810	1810	0	1750	1726	1703	1703	1665	1643	1622	1615	1608	1601	1594	1587	1587	1587	1587	1581	1581	0	0	0	0	0	0	0	0	0	1734	1734	1750	1767	1767	1767	1767	1775	1792	1801	1801	1827	1864	1911	1961	2014	2047	2093	2116	2153	2165	2178	2191	2191	2191	2178	2178	2165	2141	2116	2081	2058	2025	1982	1951	1931	1902	1873	1845	1818	1801	1784	1750	1726	1703	1680	1672	1665	1665	1665	1658	1658	1658	1658	1658	1658	1650	1643	1636	1636	1636	1658	1665	0	0	0	0	0	0	0	0	0	0	0	0	0	0	1993	1993	2036	2047	2070	2081	2093	2104	2128	2141	2153	2178	2191	2204	2204	2230	0	0	2298	2298	2356	2284	2257	2141	2081	2047	2014	2014	2014	2058	2116	2116	0	0	0	0	2386	2165	2153	2153	2165	2165	2178	2204	2204	2204	2204	2204	2204	2204	2204	2204	2204	2217	2217	2230	2243	2257	2270	2284	2284	2298	2312	2298	2284	2284	2270	2257	2257	2243	2230	2230	2230	2217	2217	2217	2217	2217	2217	2217	2217	2217	2217	2217	2217	2217	2217	2217	2217	2217	2217	2230	2230	2230	2230	2230	2243	2243	2243	2243	2243	2243	2230	2217	2217	2204	2191	2178	2165	2141	2128	2128	2128	2128	2141	2153	2165	2191	2243	2284	2341	2417	2448	2481	2531	2531	2548	2548	2548	2548	2531	2531	2531	2531	2497	2497	2497	2497	2497	2497	2497	2481	2464	2448	2432	2417	2401	2401	2371	2327	2327	2312	2312	2312	2327	2327	2327	2341	2356	2371	2401	2417	2417	2417	2432	2432	2432	2432	2432	2432	2417	2417	2417	2401	2401	2401	2401	2386	2386	2386	2371	2356	2341	2327	2298	2257	2230	2230	2178	2141	2116	2081	2047	2025	1993	1972	1951	1931	1902	1873	1854	1845	1818	1810	1792	1775	1742	1726	1703	1687	1680	1672	1665	1658	1650	1650	1643	1636	1629	1629	0	0	0	0	0	0	0	0	0	0	0	0	0	0
0	0	0	0	0	0	0	0	0	0	140	140	140	140	140	140	140	140	140	140	140	140	140	140	140	141	141	141	141	141	141	142	142	142	142	143	143	143	144	144	144	144	145	145	145	145	145	145	146	146	147	149	149	150	152	153	153	153	154	154	154	154	154	154	154	154	154	154	154	154	153	153	153	154	154	154	154	155	155	155	156	156	156	156	156	156	157	157	157	157	157	157	157	157	157	157	157	157	157	0	0	0	0	0	0	0	0	0	0	0	0	0	0	0	0	0	0	0	0	0	0	0	0	0	0	0	128	128	128	128	127	127	127	127	127	127	127	127	127	127	127	127	127	127	127	128	128	128	128	128	128	128	128	128	128	128	128	128	128	128	128	128	128	128	128	128	128	128	129	129	129	129	129	129	129	129	129	0	0	0	0	0	0	0	0	0	0	0	0	0	0	0	0	0	0	0	0	0	0	0	0	0	0	160	160	160	160	160	160	0	0	0	0	0	0	0	0	0	0	0	0	0	0	0	0	0	0	0	0	0	0	0	0	0	0	0	0	0	0	0	0	0	0	0	0	162	162	162	162	163	163	163	163	163	163	164	164	164	164	164	165	165	165	165	166	166	166	166	166	166	166	166	166	166	166	166	166	166	166	166	167	167	167	167	167	167	168	168	0	170	170	0	0	0	0	0	0	0	0	0	0	0	0	0	0	0	0	0	0	0	0	0	0	0	0	236	236	236	236	236	236	236	235	235	235	235	235	235	235	235	235	235	0	0	0	0	0	0	0	0	0	0	0	0	0	0	0	0	0	0	0	0	0	0	2104	2104	2116	2116	2116	2128	2116	2116	2116	2116	2104	2104	2081	2070	2058	2047	2036	2025	2014	2003	1993	1993	1993	1993	1993	1982	1972	1972	1961	1961	1951	1941	1941	1941	1941	1951	1961	1982	1982	1982	1982	1982	1972	1972	1972	1961	1961	1961	1961	1972	1972	1972	1972	1972	0	0	0	0	0	0	0	0	0	0	0	0	0	0	0	0	0	0	0	0	0	0	0	0	0	0	0	0	0	0	0	0	0	0	0	0	0	0	0	0	0	0	0	1892	1892	1892	1892	1892	1892	1892	1892	1882	1873	1873	1864	1854	1845	1836	1810	1801	1792	1750	1726	1703	1680	1665	1643	1622	1615	1608	1594	1594	1587	1587	1587	1587	1581	1581	0	0	0	0	0	0	0	0	0	1734	1734	1750	1759	1767	1767	1767	1775	1792	1801	1810	1836	1882	1931	1982	2036	2070	2116	2141	2165	2178	2178	2191	2178	2178	2178	2178	2165	2153	2128	2093	2070	2036	2003	1972	1941	1911	1864	1810	1810	1734	1734	1750	1658	1658	1636	1629	1629	1636	1636	1636	1636	1643	1643	1650	1658	1650	1650	1643	1643	1650	1658	1665	0	0	0	0	0	0	0	0	0	0	0	0	0	0	2025	2025	2058	2081	2093	2104	2104	2128	2153	2165	2165	2178	2191	2204	0	0	0	0	0	0	0	0	2566	2481	2371	2298	2141	2141	2217	0	0	0	0	0	0	0	2386	2284	2178	2178	2191	2191	2217	2217	2230	2230	2217	2217	2217	2217	2217	2230	2230	2230	2243	2243	2270	2284	2284	2298	2298	2312	2327	2312	2298	2284	2270	2257	2257	2243	2230	2230	2230	2230	2230	2230	2230	2230	2230	2230	2230	2230	2230	2230	2230	2230	2230	2230	2217	2217	2230	2230	2230	2230	2230	2230	2243	2243	2243	2243	2243	2243	2230	2230	2217	2204	2191	2191	2178	2165	2153	2153	2165	2191	2204	2217	2230	2257	2312	2386	2432	2497	2531	2566	2583	2620	2620	2620	2601	2601	2601	2583	2531	2531	2531	2531	2531	2531	2531	2514	2514	2497	2481	2464	2448	2432	2432	2401	2371	2327	2327	2312	2312	2327	2327	2327	2341	2356	2371	2401	2432	2448	2481	2497	2497	2514	2531	2531	2531	2514	2497	2481	2464	2448	2432	2417	2401	2386	2386	2386	2371	2356	2341	2327	2298	2257	2230	2230	2165	2128	2104	2058	2036	2003	1972	1941	1921	1902	1873	1854	1836	1827	1801	1784	1767	1750	1718	1703	1695	1680	1665	1665	1658	1650	1650	1643	1636	1636	1629	1629	0	0	0	0	0	0	0	0	0	0	0	0	0	0
0	0	0	0	0	0	0	0	0	0	140	140	140	140	140	140	140	140	140	140	140	140	140	140	140	140	141	141	141	141	141	142	142	142	142	143	143	143	144	144	144	144	145	145	145	145	145	145	146	147	147	149	149	151	152	153	153	154	154	154	154	154	154	154	154	154	154	154	154	153	153	154	154	154	154	154	154	155	155	155	156	156	156	156	156	156	156	156	157	157	157	157	157	157	156	156	156	156	156	156	0	0	0	0	0	0	0	0	0	0	0	0	0	0	0	0	0	0	0	0	0	0	0	0	0	0	128	128	128	127	127	127	127	127	127	127	127	127	127	127	127	127	127	127	127	128	128	128	128	128	128	128	128	128	128	128	128	128	128	128	128	128	128	128	128	128	128	128	128	129	129	129	129	129	129	129	129	0	0	0	0	0	0	0	0	0	0	0	0	0	0	0	0	0	0	0	0	0	0	0	0	0	160	160	160	160	160	160	160	160	0	0	0	0	0	0	0	0	0	0	0	0	0	0	0	0	0	0	0	0	0	0	0	0	0	0	0	0	0	0	0	0	0	0	0	0	163	163	163	163	164	164	164	164	164	164	165	165	165	165	165	165	165	165	166	166	166	166	166	166	166	166	166	166	166	166	166	167	167	167	167	167	167	167	167	167	168	168	0	170	170	0	0	0	0	0	0	0	0	0	0	0	0	0	0	0	0	0	0	0	0	0	0	0	0	0	236	236	236	236	236	236	236	236	236	236	236	235	235	235	235	235	0	0	0	0	0	0	0	0	0	0	0	0	0	0	0	0	0	0	0	0	0	0	2104	2070	2070	2070	2093	2104	2104	2116	2104	2104	2104	2093	2081	2081	2070	2058	2047	2036	2025	2014	2003	1993	1993	1982	1982	1972	1961	1951	1951	1941	1931	1921	1921	1921	1921	1921	1941	1961	1972	1993	1993	1993	1993	1982	1982	1982	1982	1982	1982	1982	1993	1993	2003	0	0	0	0	0	0	0	0	0	0	0	0	0	0	0	0	0	0	0	0	0	0	0	0	0	0	0	0	0	0	0	0	0	0	0	0	0	0	0	0	0	0	0	0	1882	1882	1892	1892	1892	1892	1892	1892	1882	1882	1873	1873	1864	1854	1845	1827	1801	1792	1759	1734	1703	1680	1665	1643	1622	1615	1608	1594	1594	1594	1594	1587	1587	1587	1587	0	0	0	0	0	0	0	0	0	0	0	1759	1759	1767	1767	1767	1784	1792	1810	1827	1864	1902	1951	2003	2058	2093	2128	2153	2165	2178	2178	2165	2165	2165	2165	2165	2153	2141	2116	2104	2070	2047	2025	1972	1931	1882	1827	1810	1810	1734	1734	0	1658	1658	1554	1554	1567	1587	1587	1594	1608	1622	1636	1636	1643	1658	1658	1650	1650	1650	1658	1665	0	0	0	0	0	0	0	0	0	0	0	0	0	0	0	2058	2058	2104	2116	2116	2116	2141	2165	0	0	0	0	0	0	0	0	0	0	0	0	0	0	0	0	0	0	0	0	0	0	0	0	0	0	0	0	0	2217	2217	2217	2217	2230	2230	2230	2230	2230	2230	2230	2230	2230	2243	2243	2243	2257	2270	2284	2298	2312	2312	2327	2327	2341	2327	2312	2298	2284	2270	2270	2257	2257	2257	2243	2243	2243	2243	2243	2243	2243	2243	2257	2257	2257	2243	2243	2243	2243	2243	2230	2230	2230	2230	2230	2230	2230	2230	2243	2243	2243	2243	2243	2243	2243	2230	2217	2204	2191	2191	2178	2178	2165	2165	2178	2191	2204	2217	2243	2284	2341	2417	2481	2548	2583	2620	2657	2676	2676	2657	2657	2638	2601	2583	2583	2566	2566	2566	2566	2566	2548	2548	2548	2531	2514	2497	2464	2464	2448	2401	2386	2341	2327	2327	2327	2327	2327	2341	2341	2371	2417	2448	2481	2514	2548	2566	2601	2620	2638	2657	2620	2601	2583	2548	2531	2497	2464	2448	2432	2401	2386	2386	2371	2356	2341	2327	2298	2257	2257	0	2165	2128	2104	2058	2036	2003	1972	1941	1921	1902	1873	1854	1836	1827	1801	1784	1767	1750	1718	1703	1680	1680	1665	1665	1658	1650	1650	1643	1636	1636	1636	1636	0	0	0	0	0	0	0	0	0	0	0	0	0	0
0	0	0	0	0	0	0	0	0	0	140	140	140	140	140	140	140	140	140	140	140	140	140	140	140	140	141	141	141	141	141	142	142	142	143	143	143	143	144	144	144	144	145	145	145	145	145	146	146	147	149	149	150	152	152	153	153	154	154	154	154	154	154	154	154	154	154	154	154	153	153	153	154	154	154	154	154	155	155	155	156	156	156	156	156	156	156	156	156	156	156	156	156	156	156	156	156	156	155	155	155	0	0	0	0	0	0	0	0	0	0	0	0	0	0	0	0	0	0	0	0	0	0	0	0	0	127	127	127	127	127	127	127	127	127	127	127	127	127	127	127	127	127	127	127	128	128	128	128	128	128	128	128	128	128	128	128	128	128	128	128	128	128	128	128	128	128	128	128	128	129	129	129	129	129	129	129	129	0	0	0	0	0	0	0	0	0	0	0	0	0	0	0	0	0	0	0	0	0	0	0	0	160	160	160	160	160	160	160	160	0	0	0	0	0	0	0	0	0	0	0	0	0	0	0	0	0	0	0	0	0	0	0	0	0	0	0	0	0	0	0	0	0	0	0	0	0	0	165	165	165	165	165	164	164	165	165	165	165	165	165	165	165	166	166	166	166	166	166	166	166	166	166	166	166	166	167	167	167	167	167	167	167	167	167	167	168	168	168	0	0	0	0	0	0	0	0	0	0	0	0	0	0	0	0	0	0	0	0	0	0	0	0	0	0	0	236	236	236	236	236	236	236	236	236	236	236	236	236	236	236	236	0	0	0	0	0	0	0	0	0	0	0	0	0	0	0	0	0	0	0	0	0	0	0	1993	1993	2025	2047	2070	2070	2081	2081	2081	2070	2070	2070	2058	2058	2047	2036	2025	2025	2003	1993	1993	1982	1982	1972	1961	1951	1951	1941	1921	1911	1902	1902	1892	1892	1902	1911	1931	1961	1972	1993	2003	2003	2014	2003	2003	2003	2003	2003	2014	2014	2014	2025	0	0	0	0	0	0	0	0	0	0	0	0	0	0	0	0	0	0	0	0	0	0	0	0	0	0	0	0	0	0	0	0	0	0	0	0	0	0	0	0	0	0	0	0	1882	1882	1882	1892	1892	1892	1892	1892	1892	1882	1882	1873	1864	1864	1854	1836	1818	1801	1775	1742	1711	1687	1672	1650	1636	1629	1622	1608	1608	1615	1608	1608	1608	1608	0	0	0	0	0	0	0	0	0	0	0	0	1767	1767	1775	1775	1775	1792	1801	1827	1845	1892	1921	1982	2036	2081	2104	2128	2141	2153	2153	2153	2153	2153	2153	2141	2141	2128	2116	2104	2093	2058	2047	2014	1961	1892	1882	1827	1827	0	0	0	0	0	0	1510	1510	1523	1587	1587	1548	1548	1554	1636	1587	1587	1594	1601	1601	1601	1615	1615	1672	0	0	0	0	0	0	0	0	0	0	0	0	0	0	0	2058	2058	2058	2104	2141	2141	2165	2191	2341	0	0	0	0	0	0	0	0	0	0	0	0	0	0	0	0	0	0	0	0	0	0	0	0	0	0	0	0	2191	2191	2204	2204	2217	2230	2230	2230	2230	2230	2230	2230	2243	2243	2243	2257	2270	2284	2298	2312	2327	2327	2341	2341	2341	2327	2312	2298	2298	2284	2270	2270	2257	2257	2257	2243	2243	2257	2257	2257	2270	2270	2270	2270	2270	2270	2270	2257	2257	2243	2243	2243	2243	2230	2230	2230	2230	2230	2243	2243	2243	2243	2243	2243	2230	2230	2217	2204	2191	2191	2178	2165	2165	2165	2165	2178	2191	2204	2230	2270	2327	2386	2448	2514	2566	2601	2657	2657	2657	2657	2657	2638	2638	2620	2620	2601	2601	2620	2583	2583	2583	2583	2583	2566	2548	2514	2497	2497	0	0	0	0	0	0	0	2356	2356	2356	2356	2386	2417	2481	2514	2548	2601	2638	2657	2695	2714	2734	2734	2695	2676	2657	2620	2601	2583	2548	2514	2481	2464	2448	2448	2417	2417	0	0	0	0	0	0	0	0	0	0	2128	2104	2104	0	0	0	0	0	0	0	0	0	0	0	0	1680	1680	0	0	0	0	0	0	0	0	0	0	0	0	0	0	0	0	0	0	0	0	0	0	0	0
0	0	0	0	0	0	0	0	140	140	140	140	140	140	140	140	140	140	140	140	140	140	140	140	140	140	141	141	141	141	141	142	142	142	143	143	143	143	144	144	144	144	145	145	145	145	145	146	146	147	148	149	151	152	153	153	154	154	154	154	154	154	154	154	154	154	154	154	154	154	153	153	153	154	154	154	154	155	155	155	156	156	156	156	156	156	156	156	156	156	156	156	156	156	156	156	156	155	155	154	154	0	0	0	0	0	0	0	0	0	0	0	0	0	0	0	0	0	0	0	0	0	0	0	0	0	127	127	127	127	127	127	127	127	127	127	127	127	127	127	127	127	127	127	127	127	127	128	128	128	128	128	128	128	128	128	128	128	128	128	128	128	128	128	128	128	128	128	128	128	129	129	129	129	129	129	129	129	0	0	0	0	0	0	0	0	0	0	0	0	0	0	0	0	0	0	0	0	0	160	160	160	160	160	160	160	160	160	160	0	0	0	0	0	0	0	0	0	0	0	0	0	0	0	0	0	0	0	0	0	0	0	0	0	0	0	0	0	0	0	0	0	0	0	0	0	0	165	165	165	165	165	165	165	165	165	165	165	165	165	165	166	166	166	166	166	166	166	166	166	166	166	166	166	167	167	167	167	167	167	167	167	168	168	168	168	168	168	168	0	0	0	0	0	0	0	0	0	0	0	0	0	0	0	0	0	0	0	0	0	0	0	0	0	0	0	236	236	236	236	236	236	236	236	236	236	236	236	236	236	236	236	0	0	0	0	0	0	0	0	0	0	0	0	0	0	0	0	0	0	0	0	0	0	0	1993	1972	1972	2003	2036	2047	2058	2058	2047	2047	2047	2036	2036	2025	2025	2014	2014	2003	1993	1993	1982	1972	1972	1961	1951	1951	1941	1921	1921	1902	1892	1882	1873	1873	1892	1911	1931	1951	1961	1993	2003	2025	2025	2036	2036	2036	2036	2036	2036	2036	2047	2047	2025	2025	0	0	0	0	0	0	0	0	0	0	0	0	0	0	0	0	0	0	0	0	0	0	0	0	0	0	0	0	0	0	0	0	0	0	0	0	0	0	0	0	0	0	1882	1882	1882	1882	1892	1892	1892	1892	1892	1892	1892	1882	1873	1864	1854	1845	1827	1801	1775	1742	1718	1687	1672	1665	1643	1636	1636	1629	1629	1629	1636	1636	1629	1629	0	0	0	0	0	0	0	0	0	0	0	0	1775	1775	1784	1784	1801	1801	1827	1854	1873	1921	1972	2014	2058	2093	2116	2141	2141	2141	2128	2128	2128	2116	2116	2116	2116	2116	2104	2093	2081	2047	2036	2014	1941	1892	1892	0	0	0	0	0	0	0	0	1510	1510	1523	0	0	1548	1469	1469	0	1587	1587	1594	1601	1542	1542	1615	1615	0	0	0	0	0	0	0	0	0	0	0	0	0	0	0	0	0	2058	2058	2104	2153	2165	2191	2204	2341	0	0	0	0	0	0	0	0	0	0	0	0	0	0	0	0	0	0	0	0	0	0	0	0	0	0	0	0	2191	2153	2153	2165	2191	2204	2217	2230	2230	2230	2230	2230	2243	2243	2257	2257	2270	2284	2298	2312	2327	2341	2341	2341	2356	2327	2312	2312	2298	2284	2284	2270	2270	2270	2270	2270	2270	2270	2270	2284	2284	2298	2298	2298	2298	2298	2284	2284	2270	2270	2257	2243	2243	2243	2243	2230	2230	2243	2243	2230	2230	2243	2243	2230	2230	2230	2217	2204	2191	2178	2178	2165	2165	2165	2165	2165	2178	2191	2217	2243	2284	2356	2401	2464	2514	2548	2583	2601	2620	2657	2638	2638	2620	2620	2601	2601	2601	2601	2601	2601	2601	2601	2601	2601	2583	2583	2548	2548	0	0	0	0	0	0	0	0	2371	2371	2386	2401	2417	2448	2481	2531	2566	2620	2657	2676	2714	2734	2754	2754	2714	2695	2676	2676	2620	2583	2548	2548	0	0	0	0	0	0	0	0	0	0	0	0	0	0	0	2128	2104	2104	0	0	0	0	0	0	0	0	0	0	1718	1703	1703	1687	1687	1687	1680	1680	0	0	0	0	0	0	0	0	0	0	0	0	0	0	0	0	0	0	0	0
0	0	0	0	0	0	0	139	139	139	140	140	140	140	140	140	140	140	140	140	140	140	140	140	140	140	141	141	141	141	142	142	142	142	143	143	143	143	144	144	144	144	145	145	145	145	145	146	147	148	148	150	151	153	153	153	154	154	154	154	154	154	154	154	154	154	154	154	154	153	153	153	153	154	154	154	154	155	155	156	156	156	156	156	156	156	156	156	156	156	156	156	156	156	156	155	155	155	154	154	153	153	0	0	0	0	0	0	0	0	0	0	0	0	0	0	0	0	0	0	0	0	0	0	127	127	127	127	127	127	127	127	127	127	127	127	127	127	127	127	127	127	127	127	127	127	127	127	127	127	128	128	128	128	128	128	128	128	128	128	128	128	128	128	128	128	128	128	128	128	128	129	129	129	129	129	129	0	0	0	0	0	0	0	0	0	0	0	0	0	0	0	0	0	0	0	0	0	0	159	159	159	160	160	160	160	160	160	160	0	0	0	0	0	0	0	0	0	0	0	0	0	0	0	0	0	0	0	0	0	0	0	0	0	0	0	0	0	0	0	0	0	0	0	0	0	0	165	165	165	165	165	165	165	165	166	166	166	166	166	166	166	166	166	166	166	166	166	167	167	167	167	167	167	167	167	167	167	167	168	168	168	168	168	168	168	168	168	168	169	0	0	0	0	0	0	0	0	0	0	0	0	0	0	0	0	0	0	0	0	0	0	0	0	0	0	0	236	236	236	236	236	236	237	237	237	237	237	236	236	236	236	0	0	0	0	0	0	0	0	0	0	0	0	0	0	0	0	0	1622	1622	1643	0	0	1854	1854	1902	1941	1961	1993	2014	2014	2025	2014	2014	2014	2014	2003	2003	2003	1993	1993	1982	1982	1982	1972	1961	1961	1951	1941	1941	1931	1921	1911	1892	1892	1873	1873	1873	1882	1902	1931	1951	1961	1993	2025	2036	2070	2070	2081	2081	2093	2104	2104	2104	2093	2058	2025	2025	0	0	0	0	0	0	0	0	0	0	0	0	0	0	0	0	0	0	0	0	0	0	0	0	0	0	0	0	0	0	0	0	0	0	0	0	0	0	0	0	0	0	1873	1873	1873	1882	1882	1882	1892	1892	1892	1892	1892	1882	1882	1873	1864	1854	1836	1810	1784	1750	1726	1726	1711	1711	1711	1703	1703	1687	1687	1695	1695	1695	1695	1775	0	0	0	0	0	0	0	0	0	0	0	0	1810	1801	1801	1810	1818	1836	1864	1902	2003	2025	2025	2058	2104	2128	2128	2141	2128	2128	2116	2104	2104	2104	2104	2104	2093	2093	2093	2081	2070	2036	2025	2003	1931	1845	1767	1767	1581	1492	1492	1398	1377	1377	0	1367	1367	1377	1393	1393	1393	1393	1393	0	0	0	0	1441	1441	1446	1458	0	0	0	0	0	0	0	0	0	0	0	0	0	0	0	0	0	0	0	0	0	0	0	0	0	0	0	0	0	0	0	0	0	0	0	0	0	0	0	0	0	0	0	0	0	0	0	0	0	0	0	0	0	0	0	2093	2093	2116	2153	2178	2204	2217	2217	2217	2217	2230	2230	2243	2257	2257	2270	2284	2298	2312	2327	2327	2341	2341	2341	2327	2312	2312	2298	2284	2284	2284	2270	2270	2270	2270	2270	2270	2284	2298	2298	2312	2312	2327	2327	2312	2298	2298	2284	2270	2270	2257	2243	2243	2243	2230	2230	2230	2243	2230	2230	2230	2230	2230	2217	2217	2217	2204	2191	2178	2178	2165	2165	2153	2153	2165	2165	2178	2191	2217	2270	2327	2371	2432	2464	2514	2548	2601	2620	2620	2601	2601	2583	2566	2566	2566	2566	2566	2548	2548	2566	2548	2548	2548	2548	2531	2497	2497	0	0	0	0	0	0	0	0	0	0	2401	2401	2417	2448	2481	2481	2514	2566	2601	2638	2676	2695	2714	2734	2714	2714	2695	2695	2676	2638	2638	0	0	0	0	0	0	0	0	0	0	0	0	0	0	0	0	0	0	0	0	0	0	0	0	0	0	0	0	0	1718	1703	1703	1687	1687	1687	1680	1680	1703	1703	1703	0	0	0	0	0	0	0	0	0	0	0	0	0	0	0	0	0
0	0	0	0	0	0	139	139	139	139	139	139	139	139	140	140	140	140	140	140	140	140	140	140	140	140	141	141	141	141	142	142	142	143	143	143	143	144	144	144	144	144	145	145	145	145	146	146	147	149	149	150	152	152	153	153	153	154	154	154	154	154	154	154	154	154	154	154	153	153	153	153	153	153	153	154	154	155	155	156	156	156	156	156	157	156	156	156	156	156	155	155	155	155	155	155	155	155	154	154	153	153	0	151	150	150	0	0	0	0	0	0	0	0	0	0	0	0	0	0	0	0	0	0	127	127	127	127	127	127	127	127	127	127	127	127	127	127	127	127	127	127	127	127	127	127	127	127	127	127	127	127	127	127	127	127	128	128	128	128	128	128	128	128	128	128	128	128	128	128	128	0	128	128	128	128	128	0	0	0	0	0	0	0	0	0	0	0	0	0	0	0	0	0	0	0	0	0	0	159	159	159	159	160	0	0	0	0	0	0	0	0	0	0	0	0	0	0	0	0	0	0	0	0	0	0	0	0	0	0	0	0	0	0	0	0	0	0	0	0	0	0	0	0	0	0	0	166	166	166	166	166	166	166	166	166	166	166	166	166	166	167	167	167	167	167	167	167	167	167	167	167	167	167	167	167	167	168	168	168	168	168	168	168	168	168	169	169	169	169	0	0	0	0	0	0	0	0	0	0	0	0	0	0	0	0	0	0	0	0	0	0	0	0	0	0	0	0	236	236	236	236	237	237	237	237	237	237	237	237	237	0	0	0	0	0	0	0	0	0	0	0	0	0	0	0	0	0	1629	1622	1622	1643	1680	1734	1775	1827	1873	1902	1931	1951	1972	1982	1982	1982	1982	1972	1972	1972	1972	1972	1972	1972	1972	1961	1961	1961	1951	1951	1941	1941	1931	1931	1911	1902	1892	1882	1873	1873	1882	1882	1902	1931	1961	1993	2025	2047	2070	2104	2128	2141	2217	2165	2165	2165	2165	0	0	0	0	0	0	0	0	0	0	0	0	0	0	0	0	0	0	0	0	0	0	0	0	0	0	0	0	0	0	0	0	0	0	0	0	0	0	0	0	0	0	0	0	0	0	1873	1873	1873	1873	1882	1882	1882	1882	1892	1892	1892	1882	1882	1873	1873	1854	1836	1836	0	1759	1742	1726	1711	1711	1711	1703	1703	1718	1734	1750	1759	1759	1767	1775	0	0	0	0	0	0	0	0	0	0	0	0	1810	1810	1827	1836	1854	1864	1911	1961	2003	2058	2081	2116	2141	2141	2153	2128	2116	2104	2104	2093	2093	2093	2081	2081	2081	2081	2070	2070	2058	2025	2003	1982	1892	1810	1767	1767	1548	1452	1382	1367	1347	1338	1338	1338	1338	1343	1352	1352	1347	1343	1343	0	0	0	0	1382	1382	1387	1458	0	0	0	0	0	0	0	0	0	0	0	0	0	0	0	0	0	0	0	0	0	0	0	0	0	0	0	0	0	0	0	0	0	0	0	0	0	0	0	0	0	0	0	0	0	0	0	0	0	0	0	0	0	0	0	2093	2058	2058	2104	2141	2178	2191	2204	2217	2217	2217	2217	2230	2243	2257	2257	2270	2298	2298	2312	2327	2327	2341	2341	2327	2312	2312	2298	2284	2284	2284	2284	2284	2284	2284	2284	2284	2298	2312	2312	2312	2327	2341	2327	2327	2312	2312	2298	2284	2270	2257	2243	2243	2243	2230	2230	2230	2243	2230	2230	2230	2230	2230	2217	2217	2217	2204	2191	2178	2178	2165	2165	2153	2153	2165	2165	2165	2178	2217	2243	2284	2327	2386	2432	2514	2548	2566	2583	2583	2566	2548	2548	2548	2548	2548	2531	2531	2531	2531	2514	2514	2514	2514	2497	2481	2448	2448	0	0	0	0	0	0	0	0	0	0	0	0	0	0	2432	2432	2464	2514	2548	2583	2620	2657	2676	2695	2695	2695	2695	2695	2695	2676	2676	2695	2695	0	0	0	0	0	0	0	0	0	0	0	0	0	2341	2312	2284	2270	2270	0	0	0	0	0	0	0	0	0	1726	1726	1718	1711	1711	1711	1711	1703	1703	1703	1703	0	0	0	0	0	0	0	0	0	0	0	0	0	0	0	0	0
0	0	0	0	0	0	139	139	139	139	139	139	139	139	139	139	139	140	140	140	140	140	140	140	140	140	141	141	141	142	142	142	142	143	143	143	143	144	144	144	144	144	145	145	145	145	146	147	147	149	149	151	152	152	152	153	153	153	153	153	154	154	154	154	154	154	154	154	153	153	153	153	153	153	153	154	154	0	0	0	0	0	0	0	0	156	156	156	156	155	155	155	155	155	155	155	154	154	154	153	153	152	151	151	150	150	150	0	0	0	0	0	0	0	0	0	0	0	0	0	0	0	0	0	127	127	127	127	127	127	127	127	127	127	127	126	126	126	126	126	126	126	127	127	127	127	127	127	127	127	127	127	127	127	127	127	127	127	127	128	128	128	128	128	128	128	128	128	128	0	0	0	128	128	128	128	128	0	0	0	0	0	0	0	0	0	0	0	0	0	0	0	0	0	0	0	0	0	159	159	159	159	159	160	0	0	0	0	0	0	0	0	0	0	0	0	0	0	0	0	0	0	0	0	0	0	0	0	0	0	0	0	0	0	0	0	0	0	0	0	0	0	0	0	0	0	0	0	0	0	0	166	166	166	166	166	166	166	166	167	167	167	167	167	167	167	167	167	167	167	167	167	167	167	167	168	168	168	168	168	168	169	169	169	169	169	169	169	169	169	170	0	0	0	0	0	0	0	0	0	0	0	0	0	0	0	0	0	0	0	0	0	0	0	0	0	0	0	0	237	237	237	237	237	237	237	237	237	237	0	0	0	0	0	0	0	0	0	0	0	0	0	0	0	0	0	1629	1629	1629	1629	1636	1650	1680	1726	1759	1801	1836	1873	1902	1921	1931	1951	1951	1951	1941	1941	1941	1941	1941	1941	1941	1951	1951	1951	1951	1951	1951	1941	1941	1931	1931	1921	1911	1902	1892	1882	1873	1873	1882	1882	1902	1931	1961	1993	2036	2070	2093	2128	2178	2204	2217	2217	2217	2217	2217	0	0	0	0	0	0	0	0	0	0	0	0	0	0	0	0	0	0	0	0	0	0	0	0	0	0	0	0	0	0	0	0	0	0	0	0	0	0	0	0	0	0	0	0	0	0	0	1873	1873	1873	1882	1882	1882	1882	1892	1892	1892	1892	1882	1882	1873	1864	1864	0	0	0	0	1726	1718	1718	1718	1726	1726	1750	1775	1801	1810	1818	1827	1845	0	0	0	0	0	0	0	0	0	0	0	0	1827	1827	1854	1873	1902	1921	1972	2036	2081	2128	2141	2153	2165	2153	2141	2128	2104	2093	2081	2081	2070	2070	2070	2070	2070	2070	2058	2058	2036	2014	1993	1961	1873	1784	1784	1601	1517	1441	1377	1362	1347	1338	1333	1333	1333	1333	1338	1333	1324	1319	1319	1319	1328	1338	1343	1343	1343	1352	1367	1372	1372	0	1352	1347	1347	0	0	0	0	0	0	0	0	0	0	0	0	0	0	0	0	0	0	0	0	0	0	0	0	0	0	0	0	0	0	0	0	0	0	0	0	0	0	0	0	0	0	0	0	0	0	1792	1792	1845	1902	1961	2003	2058	2104	2141	2165	2191	2204	2204	2204	2204	2217	2230	2243	2257	2270	2270	2284	2312	2312	2312	2327	2327	2327	2327	2312	2298	2298	2298	2298	2298	2298	2298	2298	2312	2312	2312	2312	2327	2341	2341	2341	2341	2341	2327	2312	2312	2298	2284	2270	2257	2243	2243	2230	2230	2230	2230	2230	2230	2230	2230	2230	2217	2217	2217	2204	2191	2178	2178	2178	2178	2165	2165	2165	2165	2165	2178	2204	2230	2257	2298	2386	2432	2464	2514	2514	2514	2514	2514	2514	2514	2514	2497	2497	2497	2497	2481	2481	2464	2464	2464	2464	2464	2432	2401	2371	2371	0	0	0	2217	2217	0	0	0	0	0	0	0	0	2371	2371	2417	2448	2497	2531	2531	2566	2601	2620	2638	2638	2638	2638	2695	2695	2714	2695	2695	0	0	0	0	0	0	0	0	0	0	0	0	0	2341	2217	2204	2191	2191	0	0	0	0	0	0	0	0	0	0	0	1767	1742	1734	1734	1734	1734	1742	1742	1750	0	0	0	0	0	0	0	0	0	0	0	0	0	0	0	0	0
0	0	0	0	0	0	139	139	139	139	139	139	139	139	139	139	139	139	139	139	140	140	140	140	140	141	141	141	141	142	142	142	143	143	143	143	143	144	144	144	144	144	145	145	145	145	146	147	0	0	151	151	151	152	152	152	152	152	153	153	154	154	154	154	154	0	0	0	0	0	0	0	0	0	0	0	0	0	0	0	0	0	0	0	0	0	0	0	0	155	155	154	154	154	154	154	154	154	154	153	152	152	151	151	150	150	150	0	0	0	0	0	0	0	0	0	0	0	0	0	0	0	0	0	127	127	127	127	127	127	127	127	127	127	127	126	126	126	126	126	126	126	126	127	127	127	127	127	127	127	127	127	127	127	127	127	127	127	127	127	127	127	128	128	128	128	128	128	128	0	0	0	128	128	127	127	127	0	0	0	0	0	0	0	0	0	0	0	0	0	159	159	159	159	159	159	159	159	159	159	159	159	159	160	160	160	160	160	160	160	0	0	0	0	0	0	0	0	0	0	0	0	0	0	0	0	0	0	0	0	0	0	0	0	0	0	0	0	0	0	0	0	0	0	0	0	0	0	0	0	0	0	166	166	166	166	167	167	167	167	167	168	168	168	168	168	168	168	167	167	167	167	168	168	168	168	168	168	168	168	168	169	169	169	169	169	169	170	170	170	170	170	0	0	0	0	0	0	0	0	0	0	0	0	0	0	0	0	0	0	0	0	0	0	0	0	0	0	0	237	237	237	237	238	238	238	238	238	238	0	0	0	0	0	0	0	0	0	0	0	0	0	0	0	0	0	1629	1629	1629	1636	1650	1665	1687	1711	1742	1784	1810	1836	1864	1882	1902	1911	1911	1911	1911	1911	1911	1911	1911	1921	1921	1931	1931	1931	1931	1941	1941	1941	1931	1931	1931	1921	1911	1902	1892	1882	1882	1882	1882	1892	1902	1931	1961	1993	2036	2081	2116	2165	2217	2243	2270	2270	2284	2284	2298	2243	2191	2093	2047	1982	1854	1854	0	0	0	0	0	0	0	0	0	0	0	0	0	0	0	0	0	0	0	0	0	0	0	0	0	0	0	0	0	0	0	0	0	0	0	0	0	0	0	0	0	1873	1873	1882	1882	1882	1882	1892	1892	1892	1892	1892	1882	1882	1882	0	0	0	0	0	1742	1742	0	1836	1836	1845	1827	1827	1931	1873	1873	1882	1892	1993	0	0	0	0	0	0	0	0	0	0	0	1836	1836	1864	1892	1921	1961	2014	2081	2128	2178	2178	2178	2165	2153	2128	2104	2093	2081	2070	2070	2058	2058	2058	2047	2047	2047	2047	2036	2025	2003	1982	1941	1854	1759	1759	1601	1517	1441	1377	1362	1347	1343	1333	1333	1333	1333	1338	1328	1324	1314	1310	1310	1310	1314	1319	1343	1319	1319	1338	1357	1362	0	1352	1347	1347	0	1382	1382	1387	1387	1377	1377	0	0	0	0	0	0	0	0	0	0	0	0	0	0	0	0	0	0	0	0	0	0	0	0	0	0	0	0	0	0	0	0	0	0	0	0	0	0	0	1726	1726	1775	1818	1892	1941	2003	2070	2116	2141	2165	2178	2191	2191	2204	2204	2217	2230	2257	2257	2270	2284	2298	2298	2312	2327	2327	2327	2327	2327	2312	2312	2312	2312	2312	2312	2312	2312	2312	2312	2327	2341	2341	2341	2356	2356	2356	2356	2327	2327	2312	2298	2284	2270	2257	2243	2243	2230	2230	2230	2230	2230	2230	2230	2230	2230	2217	2217	2204	2204	2191	2191	2191	2191	2191	2165	2165	2165	2165	2178	2191	2204	2217	2257	2298	2341	2386	2417	2432	2448	2448	2464	2481	2481	2464	2464	2464	2464	2464	2464	2464	2448	2448	2432	2432	2432	2417	2401	2371	2356	2312	2284	2257	2230	2217	2204	2204	2204	2204	2217	2217	2230	2243	2270	2371	2356	2356	2386	2432	2448	2464	2497	2531	2531	2548	2566	2601	2620	2657	2676	0	0	0	0	0	0	0	0	0	0	0	0	0	0	0	0	0	2141	2116	2116	2093	2081	2047	2014	1993	1972	1931	1902	1873	1845	1818	1792	1767	1750	1750	1750	1750	1750	1750	1750	1750	0	0	0	0	0	0	0	0	0	0	0	0	0	0	0	0	0
0	0	0	0	0	139	139	139	139	139	139	139	139	139	139	139	139	139	139	139	139	140	140	140	140	141	141	141	142	142	142	142	143	143	143	143	143	144	144	144	144	144	145	145	145	145	146	147	149	149	150	150	151	151	151	152	152	152	152	152	152	152	0	0	0	152	152	152	152	0	0	0	0	0	0	0	0	0	0	0	0	0	0	0	0	0	0	0	154	154	154	154	154	154	154	154	154	154	153	153	152	151	151	151	150	150	150	150	0	0	0	0	0	0	0	0	0	0	0	0	0	0	0	0	127	127	127	127	127	127	127	127	127	127	127	126	126	126	126	126	126	126	126	126	126	127	127	127	127	127	127	127	127	127	127	127	127	127	127	127	127	127	127	127	127	127	127	128	128	0	0	0	0	0	127	127	127	0	0	0	0	0	0	0	0	0	0	0	0	0	159	159	159	159	159	159	159	159	159	159	159	159	159	159	159	160	160	160	160	160	0	0	0	0	0	0	0	0	0	0	0	0	0	0	0	0	0	0	0	0	0	0	0	0	0	0	0	0	0	0	0	0	0	0	0	0	0	0	0	0	0	0	166	166	166	167	167	167	167	168	168	168	168	168	168	168	168	168	168	168	168	168	168	168	168	168	168	168	168	168	169	169	169	169	169	169	170	170	170	170	170	170	171	0	0	0	0	0	0	0	0	0	0	0	0	0	0	0	0	0	0	0	0	0	0	0	0	0	0	237	237	237	238	238	238	238	238	238	238	0	0	0	0	0	0	0	0	0	0	0	0	0	0	0	0	0	1636	1636	1643	1650	1658	1665	1687	1711	1734	1767	1801	1818	1836	1864	1873	1882	1882	1882	1882	1882	1882	1892	1892	1902	1902	1902	1911	1921	1931	1931	1941	1941	1931	1931	1931	1931	1921	1902	1902	1892	1882	1882	1882	1902	1911	1941	1972	2014	2058	2116	2153	2204	2243	2298	2312	2341	2327	2312	2298	2243	2191	2093	2047	1982	1845	1734	1734	1561	1523	1498	1475	1475	0	0	0	0	0	0	0	0	0	0	0	0	0	0	0	0	0	0	0	0	0	0	0	0	0	0	0	0	0	0	0	0	0	0	0	0	0	0	1892	1892	1892	1892	1902	1902	1902	1902	1902	1902	1902	0	0	0	0	0	0	0	0	1836	1836	1845	1882	1911	1931	1941	1941	1951	1961	1993	0	0	0	0	0	0	0	1810	1801	1801	0	1836	1836	1864	1892	1931	1961	2036	2093	2141	2153	2153	2128	2116	2104	2093	2070	2058	2047	2047	2047	2047	2047	2047	2047	2036	2036	2036	2025	2025	1993	1961	1931	1845	1759	1759	0	1517	1452	1403	1382	1367	1352	1343	1343	1343	1338	1338	1328	1324	1314	1310	1310	1310	1314	1319	1319	1314	1314	1333	1357	1362	0	1372	1372	1377	0	1382	1382	1387	1387	1377	1377	1393	1393	0	0	0	0	0	0	0	0	0	0	0	0	0	0	0	0	0	0	0	0	0	0	0	0	0	0	0	0	0	0	0	0	0	0	0	0	0	1687	1687	1734	1775	1845	1902	1961	2025	2070	2116	2153	2165	2178	2191	2204	2204	2217	2230	2243	2257	2270	2284	2298	2298	2312	2327	2327	2327	2327	2327	2327	2327	2312	2312	2312	2312	2312	2312	2327	2327	2327	2341	2341	2356	2356	2371	2356	2356	2341	2327	2312	2298	2298	2270	2257	2243	2243	2230	2230	2230	2230	2230	2230	2230	2230	2217	2217	2217	2204	2204	2204	2204	2204	2204	2191	2191	2178	2178	2178	2178	2191	2204	2217	2243	2270	2298	2341	2371	2386	2386	2401	2401	2417	2432	2417	2417	2432	2432	2432	2432	2417	2417	2417	2401	2401	2401	2386	2371	2356	2327	2312	2284	2257	2230	2217	2204	2204	2204	2204	2217	2217	2230	2243	2257	2284	2298	2312	2341	2371	2371	2401	2417	2432	2464	2481	2514	2548	2566	2638	2638	2657	2676	0	0	0	0	0	0	0	0	0	0	0	0	0	0	2093	2093	2081	2081	2070	2058	2025	2003	1982	1961	1931	1902	1873	1845	1818	1792	1775	1759	1759	1750	1750	1750	1750	1750	1759	0	0	0	0	0	0	0	0	0	0	0	0	0	0	0	0	0
0	0	0	0	139	139	139	139	139	139	139	139	139	139	139	139	139	139	139	139	139	140	140	140	140	141	141	141	142	142	142	143	143	143	143	143	143	144	144	144	144	144	145	145	145	146	146	147	148	149	150	150	151	151	151	151	151	151	151	151	151	151	151	151	151	151	151	151	151	151	151	151	152	152	152	152	152	152	0	0	0	0	0	0	0	154	154	154	154	154	154	154	154	154	154	154	154	154	153	153	152	151	151	150	150	150	150	150	150	0	0	0	0	0	0	0	0	0	0	0	0	0	0	0	127	127	127	127	127	127	127	127	127	127	127	126	126	126	126	126	126	126	126	126	126	0	127	126	126	126	126	126	127	127	127	127	127	127	127	127	127	127	127	127	127	127	127	128	128	0	0	0	0	127	127	127	127	127	0	0	0	0	0	0	0	0	0	0	0	0	159	159	159	159	159	159	159	159	159	159	159	159	159	159	159	160	160	160	160	0	0	0	0	0	0	0	0	0	0	0	0	0	0	0	0	0	0	0	0	0	0	0	0	0	0	0	0	0	0	0	0	0	0	0	0	0	0	0	0	0	0	0	0	166	166	167	168	168	168	168	168	168	168	168	168	168	168	168	168	168	168	168	168	168	168	168	168	168	168	168	169	169	169	169	169	169	170	170	170	170	170	170	171	171	0	0	0	0	0	0	0	0	0	0	0	0	0	0	0	0	0	0	0	0	0	0	0	0	0	237	237	238	238	238	238	238	239	239	239	0	0	0	0	0	0	0	0	0	0	0	0	0	0	0	0	0	1658	1650	1650	1658	1665	1672	1695	1711	1734	1750	1784	1810	1827	1845	1854	1864	1864	1864	1864	1864	1864	1873	1873	1892	1902	1902	1911	1911	1921	1931	1941	1941	1941	1941	1941	1941	1931	1921	1911	1902	1902	1902	1902	1911	1931	1961	1993	2036	2081	2141	2191	2257	2298	2341	2371	2386	2371	2356	2341	2298	2230	2128	2128	2014	1845	1726	1726	1561	1523	1498	1475	1475	1481	0	0	0	0	0	0	0	0	0	0	0	0	0	0	0	0	0	0	0	0	0	0	0	0	0	0	0	0	0	0	0	0	0	0	0	0	0	0	0	1902	1902	1902	1902	1911	1911	0	0	0	0	0	0	0	0	0	0	0	0	0	0	0	0	1982	1982	1993	2014	2014	0	0	0	1951	1951	0	0	1845	1810	1801	1801	1801	1836	1836	1864	1892	1931	1961	2014	2058	2093	2104	2093	2093	2081	2070	2058	2047	2047	2036	2036	2036	2036	2036	2036	2036	2036	2036	2036	2025	2014	1993	1961	1931	1845	1759	1687	1615	1535	1475	1424	1403	1387	1372	1367	1357	1357	1347	1343	1338	1328	1319	1314	1314	1314	1314	1319	1319	1314	1314	1333	1357	1367	0	1398	1398	0	1435	1403	1403	1408	1403	1403	0	1393	1393	0	0	0	0	0	0	0	0	0	0	0	0	0	0	0	0	0	0	0	0	0	0	0	0	0	0	0	0	0	0	0	0	0	0	0	0	0	1658	1658	1695	1750	1810	1873	1941	1993	2047	2104	2141	2165	2178	2191	2191	2204	2217	2230	2243	2257	2270	2284	2298	2298	2312	2327	2341	2327	2327	2341	2327	2327	2327	2312	2312	2312	2312	2327	2327	2341	2341	2341	2356	2356	2371	2371	2371	2356	2356	2327	2327	2312	2298	2270	2270	2243	2243	2230	2230	2230	2230	2230	2230	2230	2217	2217	2217	2217	2217	2204	2204	2204	2204	2204	2204	2191	2191	2191	2191	2191	2191	2204	2217	2230	2257	2270	2298	2327	2341	2341	2341	2356	2371	2371	2386	2386	2401	2401	2417	2401	2386	2386	2371	2371	2356	2356	2356	2341	2327	2312	2298	2270	2257	2230	2217	2217	2217	2217	2217	2217	2217	2230	2243	2257	2257	2270	2284	2298	2312	2327	2327	2341	2371	2386	2417	2432	2464	2481	2566	2601	2601	2676	0	0	0	0	0	0	0	0	0	0	0	2036	2036	2047	2047	2047	2036	2025	2025	2014	1982	1972	1941	1921	1911	1892	1882	1864	1836	1818	1801	1784	1775	1767	1759	1759	1759	1759	1767	0	0	0	0	0	0	0	0	0	0	0	0	0	0	0	0	0
0	0	0	139	139	138	138	138	138	138	139	139	139	139	139	139	139	139	139	139	139	140	140	140	140	141	141	141	142	142	142	143	143	143	143	143	144	144	144	144	144	144	145	145	145	146	147	148	148	149	150	150	150	150	151	151	151	151	151	150	150	150	150	150	150	150	150	151	151	151	151	151	151	151	151	151	152	152	0	0	0	0	0	0	0	154	154	154	154	154	154	154	154	154	154	154	154	154	153	152	152	151	151	150	150	150	150	150	150	0	0	0	0	0	0	0	0	0	0	0	0	0	0	0	127	127	127	127	127	127	127	127	127	127	127	126	126	126	126	126	126	126	126	126	0	0	0	126	126	126	126	126	126	126	126	126	127	127	127	127	127	127	127	127	127	127	127	127	0	0	127	127	127	127	127	126	126	126	126	0	0	0	0	0	0	0	0	0	0	0	159	159	159	159	159	159	159	159	159	159	159	159	159	159	160	160	160	160	160	0	0	0	0	0	0	0	0	0	0	0	0	0	0	0	0	0	0	0	0	0	0	0	0	0	0	0	0	0	0	0	0	0	0	0	0	0	0	0	0	0	0	0	0	0	0	168	168	168	168	168	168	169	169	169	169	169	169	169	168	168	168	168	168	168	168	168	168	169	169	169	169	169	169	169	169	170	170	170	170	170	170	170	171	171	0	0	0	0	0	0	0	0	0	0	0	0	0	0	0	0	0	0	0	0	0	0	0	0	0	0	0	0	0	0	239	238	238	238	0	0	0	0	0	0	0	0	0	0	0	0	0	0	0	0	0	1658	1650	1650	1658	1658	1665	1680	1695	1711	1726	1750	1775	1792	1810	1827	1836	1845	1845	1845	1854	1854	1854	1864	1873	1882	1902	1902	1911	1911	1921	1941	1951	1951	1961	1961	1961	1961	1951	1941	1931	1921	1921	1921	1921	1941	1951	1972	2014	2070	2116	2178	2230	2284	2327	2386	2386	2401	2401	2371	2341	2298	2230	2116	2058	1982	1827	1711	1711	0	1535	1504	1481	1481	1481	1481	0	0	0	0	0	0	0	0	0	0	0	0	0	0	0	0	0	0	0	0	0	0	0	0	0	0	0	0	0	0	0	0	0	0	0	0	0	0	0	0	0	0	0	0	0	0	0	0	0	0	0	0	0	0	0	0	2025	2025	2058	2058	0	2047	2047	2058	0	0	0	0	1951	1892	1864	1854	1845	1810	1801	1801	1801	1836	1836	1864	1882	1911	1941	1993	2025	2047	2058	2058	2047	2036	2036	2025	2025	2014	2014	2014	2025	2025	2036	2036	2036	2036	2036	2036	2025	2014	1993	1972	1931	1854	1775	1687	1615	1548	1492	1441	1414	1398	1382	1377	1372	1367	1357	1352	1347	1343	1333	1324	1324	1319	1319	1324	1324	1328	1328	1347	1367	1382	0	0	0	0	1435	1430	1430	1424	1424	0	0	0	0	0	0	0	0	0	0	0	0	0	0	0	0	0	0	0	0	0	0	0	0	0	0	0	0	0	0	0	0	0	0	0	0	0	0	0	0	0	1643	1643	1680	1726	1784	1845	1921	1972	2036	2093	2141	2165	2178	2191	2191	2204	2217	2230	2243	2257	2270	2284	2298	2298	2312	2327	2341	2327	2327	2341	2327	2327	2312	2312	2312	2312	2312	2327	2327	2341	2341	2341	2356	2356	2371	2371	2371	2371	2356	2341	2327	2312	2298	2284	2270	2257	2243	2230	2230	2230	2230	2230	2230	2230	2217	2217	2217	2217	2217	2217	2204	2204	2204	2217	2217	2217	2204	2191	2191	2191	2204	2217	2217	2217	2230	2243	2257	2284	2284	2284	2298	2312	2327	2341	2341	2356	2356	2371	2386	2371	2356	2356	2341	2327	2327	2327	2327	2312	2298	2298	2284	2270	2257	2243	2230	2217	2217	2230	2230	2243	2243	2243	2257	2257	2257	2270	2270	2284	2284	2284	2298	2327	2327	2356	2371	2401	2417	2432	2464	2481	2497	2514	0	0	0	0	0	0	0	0	0	0	0	1961	1961	1972	1972	1972	1982	1972	1961	1951	1941	1921	1902	1892	1882	1864	1854	1845	1836	1827	1810	1792	1784	1784	1775	1767	1767	1767	1767	0	0	0	0	0	0	0	0	0	0	0	0	0	0	0	1818	1801
0	0	0	138	138	138	138	138	138	138	138	139	139	139	139	139	139	139	139	139	139	139	140	140	140	141	141	141	142	142	142	143	143	143	143	143	143	144	144	144	144	144	145	145	146	146	147	148	149	149	149	150	150	150	150	150	150	150	150	150	150	150	150	150	150	150	150	151	151	150	150	151	151	151	151	151	152	152	0	0	0	0	0	0	0	0	0	154	154	154	154	154	154	154	154	154	154	154	153	152	152	151	150	150	150	150	150	150	150	0	0	0	0	0	0	0	0	0	0	0	0	0	0	128	127	127	127	127	127	127	127	127	127	127	127	126	126	126	126	126	126	126	126	126	126	126	126	126	126	126	126	126	126	126	126	126	126	126	126	126	127	127	127	127	127	127	127	127	0	0	127	127	127	126	126	126	126	126	126	0	0	0	0	0	0	0	0	0	0	0	159	159	159	159	159	159	159	159	159	159	159	159	159	159	160	160	160	160	160	160	0	0	0	0	0	0	0	0	0	0	0	0	0	0	0	0	0	0	0	0	0	0	0	0	0	0	0	0	0	0	0	0	0	0	0	0	0	0	0	0	0	0	0	0	0	0	168	168	168	169	169	169	169	169	169	169	169	169	169	169	169	169	169	169	169	169	169	169	169	169	169	169	169	169	169	170	170	170	170	170	170	171	171	171	0	0	0	0	0	0	0	0	0	0	0	0	0	0	0	0	0	0	0	0	0	0	0	0	0	0	0	0	0	0	0	236	236	236	0	0	0	0	0	0	0	0	0	0	0	0	0	0	0	0	1636	1636	1643	1650	1650	1658	1672	1680	1695	1711	1726	1759	1775	1792	1810	1818	1827	1845	1845	1845	1845	1854	1854	1864	1873	1882	1902	1911	1911	1921	1931	1951	1961	1972	1972	1982	1982	1982	1982	1972	1972	1961	1961	1961	1961	1982	2014	2036	2070	2116	2165	2217	2270	2327	2356	2386	2401	2401	2386	2356	2327	2284	2204	2116	2047	1961	1818	1711	1711	0	1529	1504	1481	1481	1481	1481	0	0	0	0	0	0	0	0	0	0	0	0	0	0	0	0	0	0	0	0	0	0	0	0	0	0	0	0	0	0	0	0	0	0	0	0	0	0	0	0	0	0	0	0	0	0	0	0	0	0	0	0	0	0	0	0	2025	2025	2025	2025	2036	2036	2025	2025	2036	0	0	0	0	1892	1864	1854	1845	1818	1810	1810	1810	1827	1836	1864	1882	1911	1931	1961	1993	2014	2025	2014	2003	2003	2003	2003	1993	1993	1993	2003	2014	2025	2036	2036	2036	2036	2036	2036	2036	2025	2003	1982	1941	1873	1801	1726	1658	1601	1542	1487	1452	1430	1408	1398	1387	1377	1367	1362	1357	1347	1343	1338	1333	1333	1333	1333	1333	1338	1347	1362	0	0	0	1475	1469	1469	1441	1441	1441	1441	1452	0	0	0	0	0	0	0	0	0	0	0	0	0	0	0	0	0	0	0	0	0	0	0	0	0	0	0	0	0	0	0	0	0	0	0	0	0	0	0	0	0	1629	1629	1665	1711	1767	1836	1911	1972	2025	2093	2141	2165	2178	2191	2191	2204	2217	2230	2243	2257	2270	2284	2298	2298	2312	2327	2341	2327	2327	2341	2327	2312	2312	2312	2312	2312	2312	2312	2327	2341	2341	2341	2356	2371	2371	2371	2371	2371	2356	2356	2327	2312	2298	2284	2270	2257	2243	2230	2230	2230	2230	2230	2230	2230	2217	2217	2217	2217	2217	2217	2217	2217	2217	2230	2230	2217	2204	2204	2217	2217	2217	2217	2217	2217	2230	2230	2243	2257	2257	2257	2257	2270	2298	2298	2312	2312	2327	2341	2341	2327	2312	2312	2298	2284	2284	2270	2270	2270	2257	2257	2257	2257	2257	2243	2230	2230	2230	2243	2257	2257	2270	2270	2270	2257	2257	2270	2270	2284	2284	2284	2298	2312	2327	2327	2356	2371	2371	2386	2401	2386	2371	2371	0	0	0	0	0	0	0	0	0	0	0	1921	1921	1931	1931	1931	1931	1921	1911	1902	1892	1882	1873	1864	1845	1827	1827	1818	1810	1801	1801	1801	1792	1784	1775	1775	1775	1775	1775	0	0	0	0	0	0	0	0	0	0	0	0	0	0	0	1818	1801
0	0	0	138	138	138	138	138	138	138	138	138	138	138	139	139	139	139	139	139	139	139	140	140	140	141	141	141	142	142	142	142	143	143	143	143	143	144	144	144	144	144	145	145	146	147	147	148	149	149	149	150	150	150	150	150	150	150	150	150	150	150	150	150	150	150	150	150	150	150	150	150	150	150	150	150	0	0	0	0	0	0	0	0	0	0	0	0	0	154	154	154	154	154	154	154	154	153	153	152	152	151	150	150	150	150	150	150	150	0	0	0	0	0	0	0	0	0	0	0	0	0	0	128	128	128	127	127	127	127	127	127	127	127	127	126	126	126	126	126	126	126	126	126	126	126	126	126	126	126	126	126	126	126	126	126	126	126	126	126	126	126	127	127	127	127	127	127	127	127	127	127	127	126	126	126	126	126	126	0	0	0	0	0	0	0	0	0	0	0	159	159	159	159	159	159	159	159	159	159	159	159	159	159	160	160	160	160	160	160	0	0	0	0	0	0	0	0	0	0	0	0	0	0	0	0	0	0	0	0	0	0	0	0	0	0	0	0	0	0	0	0	0	0	0	0	0	0	0	0	0	0	0	0	0	0	168	168	169	169	169	169	169	169	169	169	169	169	169	169	169	169	169	169	169	169	169	169	169	169	169	169	169	169	169	170	170	170	171	171	171	171	171	171	0	0	0	0	0	0	0	0	0	0	0	0	0	0	0	0	0	0	0	0	0	0	0	0	0	0	0	0	0	0	0	236	234	234	0	0	0	0	0	0	0	0	0	0	0	0	0	0	1608	1608	1622	1622	1636	1643	1643	1658	1672	1687	1703	1718	1734	1759	1775	1792	1810	1818	1827	1836	1845	1845	1845	1854	1864	1873	1873	1892	1902	1911	1911	1931	1951	1961	1972	1972	1982	1993	1993	2003	2003	2003	2003	2003	2003	2003	2014	2036	2058	2093	2128	2178	2217	2257	2298	2341	2356	2386	2386	2386	2371	2341	2327	2284	2204	2116	2047	1961	1818	1818	0	0	1529	1498	1481	1475	1475	1475	0	0	0	0	0	0	0	0	0	0	0	0	0	0	0	0	0	0	0	0	0	0	0	0	0	0	0	0	0	0	0	0	0	0	0	0	0	0	0	0	0	0	0	0	0	0	0	0	0	0	0	0	0	0	0	0	0	2025	1961	1961	1972	1982	1982	1982	1982	1993	1993	0	0	0	1873	1864	1854	1836	1818	1818	1818	1827	1836	1854	1873	1892	1911	1931	1961	1972	1972	1972	1972	1961	1961	1972	1972	1972	1982	1993	2003	2014	2025	2036	2036	2036	2036	2036	2036	2025	2003	1993	1961	1902	1836	1767	1711	1658	1608	1548	1510	1481	1452	1435	1419	1398	1387	1377	1372	1367	1362	1357	1352	1352	1357	1362	1367	1367	1377	1393	1446	0	1492	1475	1469	1469	1463	1463	1458	1452	1452	1463	0	1463	1463	1463	1469	0	0	0	0	0	0	0	0	0	0	0	0	0	0	0	0	0	0	0	0	0	0	0	0	0	0	0	0	0	0	0	0	0	0	0	1629	1629	1665	1695	1759	1827	1902	1972	2025	2093	2141	2165	2178	2191	2204	2217	2217	2230	2257	2270	2270	2284	2284	2298	2312	2327	2327	2327	2327	2327	2312	2312	2298	2298	2298	2312	2312	2312	2327	2327	2341	2341	2356	2371	2371	2371	2386	2371	2371	2356	2327	2327	2298	2284	2270	2257	2243	2230	2230	2230	2230	2230	2230	2230	2230	2230	2217	2217	2217	2217	2217	2217	2217	2230	2230	2230	2217	2217	2217	2230	2230	2230	2217	2217	2230	2230	2243	2257	2257	2257	2257	2270	2298	2298	2312	2312	2327	2341	2341	2327	2312	2284	2270	2257	2257	2243	2243	2230	2230	2230	2230	2243	2243	2243	2243	2243	2257	2257	2270	2284	2284	2284	2284	2284	2284	2298	2298	2298	2298	2298	2298	2312	2312	2327	2341	2341	2341	2341	2341	2312	2312	2371	0	0	0	0	0	0	0	0	0	0	0	1921	1902	1902	1911	1911	1911	1892	1882	1873	1864	1854	1845	1827	1810	1810	1801	1792	1784	1784	1792	1801	0	1784	1784	1784	1784	1784	1784	0	0	0	0	0	0	0	0	0	0	0	0	0	0	0	1827	1810
0	0	0	138	138	138	138	138	138	138	138	138	138	138	138	138	139	139	139	139	139	139	140	140	140	141	141	141	142	142	142	142	143	143	143	143	143	144	144	144	144	144	145	146	146	147	148	148	149	149	149	149	150	150	150	150	150	150	150	150	150	150	150	150	150	150	150	150	150	150	150	150	150	150	150	150	0	0	0	0	0	0	0	0	0	0	0	0	0	0	0	154	154	154	0	154	154	153	153	0	0	150	150	150	150	150	150	150	150	0	0	0	0	0	0	0	0	0	0	0	0	0	129	128	128	128	128	128	127	127	127	127	127	127	127	126	126	126	126	126	126	126	126	126	126	126	126	126	126	126	126	126	126	126	126	126	126	126	126	126	126	126	126	126	126	127	127	127	127	127	127	127	127	127	127	126	126	126	126	0	0	0	0	0	0	0	0	0	0	0	159	159	159	159	159	159	159	159	159	159	159	160	160	0	0	0	0	0	160	160	0	0	0	0	0	0	0	0	0	0	0	0	0	0	0	0	0	0	0	0	0	0	0	0	0	0	0	0	0	0	0	0	0	0	0	0	0	0	0	0	0	0	0	0	0	0	169	169	169	169	169	169	170	170	169	169	169	169	169	169	169	169	169	169	169	169	169	169	169	169	0	169	169	169	169	170	170	171	171	171	172	172	0	0	0	0	0	0	0	0	0	0	0	0	0	0	0	0	0	0	0	0	0	0	0	0	0	0	0	0	0	0	0	0	0	0	234	234	0	0	0	0	0	0	0	0	0	0	0	0	1594	1594	1594	1601	1608	1622	1629	1636	1643	1658	1672	1687	1703	1718	1742	1759	1775	1792	1810	1818	1827	1836	1845	1845	1845	1854	1864	1873	1892	1902	1911	1931	1941	1941	1951	1972	1982	1993	2003	2014	2014	2025	2025	2025	2025	2036	2036	2047	2058	2081	2104	2141	2178	2217	2257	2270	2298	2341	2356	2371	2371	2371	2356	2341	2327	2298	2217	2128	2128	0	1827	1687	1687	0	1523	1492	1475	1475	1469	1469	0	0	0	0	0	0	0	0	0	0	0	0	0	0	0	0	0	0	0	0	0	0	0	0	0	0	0	0	0	0	0	0	0	0	0	0	0	0	0	0	0	0	0	0	0	0	0	0	0	0	0	0	0	0	0	0	0	0	1931	1931	1941	1941	1941	1931	1931	1931	1941	0	0	0	1873	1873	1864	1845	1827	1827	1827	1827	1836	1845	1854	1873	1882	1902	1921	1921	1931	1931	1931	1931	1931	1941	1951	1961	1972	1982	2003	2014	2025	2036	2036	2036	2036	2036	2036	2036	2014	1993	1961	1921	1864	1801	1801	1711	1658	1608	1567	1535	1510	1487	1463	1441	1419	1408	1403	1393	1387	1382	1382	1382	1382	1387	1398	1403	1414	1424	1446	1498	1492	1492	1492	1487	1481	1481	1475	1469	1463	1463	1458	1458	1458	1452	1452	0	0	0	0	0	0	0	0	0	0	0	0	0	0	0	0	0	0	0	0	0	0	0	0	0	0	0	0	0	0	0	0	0	0	0	0	0	1695	1695	1759	1827	1902	1972	2036	2093	2141	2165	2178	2191	2204	2217	2230	2243	2257	2270	2270	2284	2284	2298	2298	2298	2312	2327	2312	2312	2298	2298	2284	2284	2298	2298	2298	2298	2298	2312	2327	2341	2341	2356	2371	2371	2386	2371	2371	2356	2341	2327	2298	2284	2270	2257	2243	2230	2230	2230	2230	2230	2230	2230	2230	2230	2230	2217	2217	2217	2217	2230	2230	2230	2230	2243	2243	2243	2243	2243	2243	2230	2230	2230	2230	2243	2257	2257	2257	2257	2270	2284	2298	2298	2298	2312	2327	2327	2341	2327	2312	2284	2270	2243	2243	2230	2230	2217	2204	2204	2217	2217	2230	2243	2257	2257	2270	2284	2298	2312	2327	2327	2312	2312	2327	2312	2298	2298	2312	2298	2298	2312	2312	2327	2312	2312	2312	2298	2284	2257	2257	0	0	0	0	0	0	0	0	0	0	0	1902	1892	1892	1892	1892	1892	1882	1873	1864	1854	1845	1836	1827	1818	1801	1792	1784	1784	1784	1775	1767	1767	0	0	0	0	0	0	0	0	0	0	0	0	0	0	0	0	0	0	0	0	0	0	1854	1836
0	0	138	138	138	138	138	138	138	138	138	138	138	138	138	138	138	139	139	139	139	139	140	140	140	141	141	141	142	142	142	142	142	143	143	143	143	143	144	144	144	144	145	146	147	147	149	149	149	149	149	149	149	149	149	149	149	149	150	150	150	150	150	150	150	150	150	150	150	150	150	150	150	150	150	150	0	0	0	0	0	0	0	0	0	0	0	0	0	0	0	0	0	0	0	154	154	154	0	0	150	150	150	150	150	150	150	150	150	0	0	0	0	0	0	0	0	0	0	0	0	129	129	128	128	128	128	128	128	127	127	127	127	127	127	126	126	126	126	126	126	126	126	126	126	126	126	126	126	126	126	126	126	126	126	126	126	126	126	126	126	126	126	126	126	126	127	127	127	127	127	127	127	127	127	126	126	126	126	0	0	0	0	0	0	0	0	0	0	0	0	159	159	159	159	159	159	159	160	160	160	160	160	0	0	0	0	0	160	160	0	0	0	0	0	0	0	0	0	0	0	0	0	0	0	0	0	0	0	0	0	0	0	0	0	0	0	0	0	0	0	0	0	0	0	0	0	0	0	0	0	0	0	0	0	0	169	169	169	170	170	170	170	170	170	170	170	170	169	169	169	169	169	169	169	169	169	169	169	169	0	0	169	169	169	170	171	172	172	172	172	0	0	0	0	0	0	0	0	0	0	0	0	0	0	0	0	0	0	0	0	0	0	0	0	0	0	0	0	0	229	229	231	231	231	231	0	0	0	0	0	0	0	0	0	0	0	0	0	0	1594	1594	1594	1594	1608	1622	1629	1636	1643	1658	1680	1695	1711	1726	1750	1759	1775	1792	1810	1818	1827	1836	1845	1854	1854	1864	1873	1882	1892	1911	1921	1931	1951	1961	1961	1982	1993	2003	2014	2025	2025	2036	2036	2047	2058	2058	2058	2070	2093	2116	2153	2165	2217	2243	2270	2284	2312	2327	2341	2341	2356	2341	2341	2327	2312	2298	2230	2153	2093	2093	1818	1687	1687	0	1510	1487	1475	1469	1469	1469	1463	1463	0	0	0	0	0	0	0	0	0	0	0	0	0	0	0	0	0	0	0	0	0	0	0	0	0	0	0	0	0	0	0	0	0	0	0	0	0	0	0	0	0	0	0	0	0	0	0	0	0	0	0	0	0	0	0	0	1911	1911	1911	1911	1911	1892	1892	1892	1892	0	0	0	0	1882	1873	1854	1854	1836	1836	1836	1836	1845	1845	1845	1854	1873	1873	1882	1892	1892	1902	1902	1902	1921	1931	1941	1961	1972	1993	2014	2025	2025	2036	2036	2036	2036	2036	2036	2014	1993	1972	1931	1892	1845	1801	1759	1759	1672	1636	1608	1574	1548	1523	1498	1475	1458	1446	1435	1430	1419	1419	1419	1419	1424	1435	1441	1452	1463	1481	1498	1510	1517	1517	1510	1504	1492	1487	1475	1469	1463	1458	1458	1458	1452	1452	0	0	0	0	0	0	0	0	0	0	0	0	0	0	0	0	0	0	0	0	0	0	0	0	0	0	0	0	0	0	0	0	0	0	0	0	1665	1665	1718	1759	1836	1921	1972	2036	2104	2153	2178	2191	2191	2204	2217	2230	2243	2257	2257	2257	2270	2284	2284	2284	2298	2298	2298	2298	2270	2257	2257	2257	2257	2257	2257	2270	2270	2270	2284	2312	2327	2327	2341	2356	2356	2356	2356	2356	2356	2341	2327	2298	2284	2270	2257	2243	2243	2230	2230	2230	2230	2230	2230	2230	2230	2230	2217	2217	2217	2217	2230	2230	2230	2230	2230	2243	2243	2243	2243	2243	2230	2230	2230	2243	2243	2243	2243	2257	2257	2257	2257	2270	2270	2284	2284	2298	2298	2298	2298	2270	2257	2243	2217	2191	2191	2165	2153	2153	2141	2141	2165	2178	2204	2230	2243	2270	2312	2341	2356	2371	2356	2356	2356	2356	2341	2341	2341	2327	2312	2312	2327	2327	2327	2312	2298	2298	2270	2243	2217	2165	2165	0	0	0	0	1951	1931	1921	1921	1902	1902	1892	1882	1873	1873	1873	1873	1854	1845	1836	1827	1818	1810	1792	1784	1775	1767	1767	1759	1759	1759	1759	1750	1750	0	0	0	0	0	0	0	0	0	0	0	0	0	0	0	0	0	0	0	0	0	1902	1882
0	138	138	138	138	138	138	138	138	138	138	138	138	138	138	138	138	138	139	139	139	139	139	140	140	140	141	141	141	142	142	142	142	142	143	143	143	143	144	144	144	145	145	0	0	149	149	149	149	149	149	149	149	149	149	149	149	149	149	150	150	149	149	150	150	150	150	150	150	150	150	150	149	149	149	149	149	149	0	0	0	0	0	0	0	0	0	0	0	0	0	0	0	0	0	0	0	0	0	0	150	150	150	150	150	150	150	150	0	0	0	0	0	0	0	0	0	0	0	0	129	129	129	129	129	128	128	128	128	127	127	127	127	127	127	126	126	126	126	126	126	126	126	126	126	126	126	126	126	126	126	126	126	126	126	126	126	126	126	126	126	126	126	126	126	126	127	127	127	127	127	127	127	127	127	127	126	126	0	0	0	0	0	0	0	0	0	0	0	0	0	0	0	0	0	160	160	160	160	160	160	160	0	0	0	0	0	0	0	0	0	0	0	0	0	0	0	0	0	0	0	0	0	0	0	0	0	0	0	0	0	0	0	164	164	0	0	0	0	0	0	0	0	0	0	0	0	0	0	0	0	0	0	0	0	0	0	170	170	170	170	170	170	170	170	170	170	170	170	169	169	169	169	169	169	169	169	169	169	169	0	0	0	169	169	170	171	172	173	173	173	174	0	0	0	0	0	0	0	0	0	0	0	0	0	0	0	0	0	0	0	0	0	0	0	0	0	0	0	0	229	229	229	230	230	230	0	0	0	0	0	0	0	0	0	0	0	0	0	0	1594	1594	1594	1594	1608	1615	1622	1636	1643	1650	1672	1687	1718	1734	1750	1767	1792	1801	1818	1827	1836	1845	1854	1864	1873	1882	1892	1902	1911	1921	1931	1941	1961	1982	1982	1993	2003	2014	2014	2025	2036	2047	2058	2070	2070	2081	2093	2104	2128	2153	2178	2191	2217	2257	2270	2298	2312	2312	2327	2327	2327	2327	2312	2312	2312	2298	2230	2178	2093	1972	1818	1672	1581	1529	1498	1481	1469	1463	1463	1463	1458	1458	1458	1452	1452	0	0	0	0	0	0	0	0	0	0	0	0	0	0	0	0	0	0	0	0	0	0	0	0	0	0	0	0	0	0	0	0	0	0	0	0	0	0	0	0	0	0	0	0	0	0	0	0	0	0	0	0	1882	1882	1882	1892	1892	1882	1873	1864	1864	1854	1854	1854	1854	1854	1854	1864	1864	1854	1845	1836	1836	1836	1845	1845	1845	1854	1854	1864	1873	1873	1882	1882	1882	1892	1902	1921	1931	1951	1972	1982	2003	2014	2025	2025	2036	2036	2025	2025	2025	2014	2003	1982	1951	1921	1892	1854	1818	1784	1734	1703	1703	1650	1615	1587	1561	1535	1510	1492	1475	1463	1458	1452	1452	1452	1452	1469	1469	1481	1498	1510	1523	1529	1535	1529	1523	1517	1510	1504	1492	1481	1475	1469	1463	1458	1452	1452	1452	0	0	0	0	0	0	0	0	0	0	0	0	0	0	0	0	0	0	0	0	0	0	0	0	0	0	0	0	0	0	0	0	0	1608	1608	1629	1665	1718	1775	1845	1921	1982	2047	2104	2153	2178	2191	2191	2204	2204	2217	2230	2243	2257	2243	2243	2257	2257	2257	2257	2270	2270	2270	2243	2230	2230	2217	2217	2217	2230	2230	2243	2257	2257	2284	2298	2312	2312	2327	2341	2341	2341	2356	2341	2327	2312	2298	2284	2270	2257	2243	2243	2230	2230	2230	2230	2230	2230	2230	2230	2230	2217	2217	2217	2217	2217	2230	2230	2230	2230	2230	2230	2243	2243	2230	2217	2217	2217	2217	2230	2217	2217	2217	2230	2230	2230	2243	2257	2257	2270	2270	2270	2284	2270	2243	2230	2204	2178	2165	2153	2128	2116	2093	2093	2093	2104	2128	2141	2178	2204	2243	2312	2356	2386	2401	2401	2401	2401	2401	2371	2371	2356	2356	2356	2341	2327	2327	2327	2298	2298	2270	2243	2217	2178	2153	2153	2070	2025	2003	1972	1951	1931	1921	1921	1902	1892	1882	1873	1864	1864	1854	1845	1836	1827	1818	1810	1792	1775	1775	1759	1750	1742	1742	1742	1742	1742	1742	1742	1750	0	0	0	0	0	0	0	0	0	0	0	0	0	0	0	0	0	0	0	0	0	0	1911
0	138	138	138	138	138	138	138	138	138	138	138	138	138	138	138	138	138	139	139	139	139	139	140	140	140	141	141	141	141	142	142	142	142	142	143	143	143	143	144	144	145	0	0	149	149	149	149	149	149	149	149	149	149	149	149	149	149	149	150	150	149	149	150	150	150	150	150	150	150	150	149	149	149	149	149	149	149	149	0	0	0	0	0	0	0	0	0	0	0	0	0	0	0	0	0	0	0	0	150	150	150	150	150	150	150	150	150	0	0	0	0	0	0	0	0	0	0	0	0	129	129	129	129	129	129	129	128	128	128	127	127	127	127	127	126	126	126	126	126	126	126	126	126	126	126	126	126	126	126	125	125	125	125	125	125	125	125	126	126	126	126	126	126	126	126	127	127	127	127	127	127	127	127	127	127	126	126	0	0	0	0	0	0	0	0	0	0	0	0	0	0	0	0	160	160	160	160	160	160	160	160	160	160	160	160	160	0	0	0	0	0	0	0	0	0	0	0	0	0	0	0	0	0	0	0	0	0	0	0	0	0	0	164	164	0	0	0	0	0	0	0	0	0	0	0	0	0	0	0	0	0	0	0	0	0	0	0	0	170	170	170	170	170	170	170	170	170	170	170	170	170	169	169	169	169	169	169	0	0	0	0	0	0	0	0	0	0	0	0	174	174	0	0	0	0	0	0	0	0	0	0	0	0	0	0	0	0	0	0	0	0	0	0	0	0	0	0	0	229	229	229	229	229	229	229	230	0	0	0	0	0	0	0	0	0	0	0	0	0	1587	1587	1587	1594	1601	1608	1615	1622	1629	1643	1658	1680	1718	1734	1767	1784	1801	1810	1827	1836	1845	1864	1864	1873	1882	1892	1902	1911	1921	1931	1951	1961	1972	1982	1993	1993	2003	2014	2025	2036	2047	2058	2070	2070	2081	2081	2104	2116	2141	2153	2191	2217	2230	2270	2270	2284	2298	2312	2312	2298	2298	2298	2298	2284	2270	2270	2204	2128	2093	1972	1775	1672	1548	1504	1487	1469	1463	1458	1458	1452	1446	1446	1446	1446	1446	1446	1452	0	0	0	0	0	0	0	0	0	0	0	0	0	0	0	0	0	0	0	0	0	0	0	0	0	0	0	0	0	0	0	0	0	0	0	0	0	0	0	0	0	0	0	0	0	0	0	0	1845	1845	1845	1854	1854	1864	1864	1864	1845	1845	1836	1836	1845	1845	1845	1845	1845	1864	1864	1854	1845	1845	1845	1845	1845	1845	1845	1854	1854	1864	1873	1873	1873	1882	1882	1892	1902	1921	1931	1951	1972	1982	2003	2014	2025	2025	2025	2025	2025	2014	2003	2003	2003	1993	1972	1951	1921	1902	1873	1836	1801	1775	1742	1718	1687	1650	1615	1587	1561	1542	1523	1504	1498	1492	1487	1487	1492	1492	1498	1510	1523	1535	1542	1548	1554	1554	1548	1535	1529	1523	1517	1504	1492	1487	1481	1475	1469	1452	1452	0	0	0	0	0	0	0	0	0	0	0	0	0	0	0	0	0	0	0	0	0	0	0	0	0	0	0	0	0	0	0	0	0	1601	1601	1622	1672	1726	1784	1854	1941	1993	2058	2116	2153	2178	2191	2191	2191	2204	2217	2217	2230	2230	2230	2230	2230	2230	2230	2230	2243	2243	2243	2217	2204	2191	2191	2191	2191	2204	2204	2204	2230	2230	2257	2270	2284	2284	2298	2312	2327	2327	2327	2327	2312	2298	2284	2270	2257	2257	2243	2243	2230	2230	2230	2230	2230	2230	2230	2230	2230	2217	2217	2217	2217	2217	2217	2230	2217	2217	2217	2230	2230	2230	2204	2204	2191	2191	2191	2178	2178	2178	2178	2178	2178	2191	2204	2217	2217	2230	2230	2243	2243	2230	2217	2191	2165	2141	2116	2104	2081	2058	2047	2036	2036	2047	2081	2116	2165	2178	2243	2312	2371	2417	2432	2432	2432	2432	2432	2432	2417	2401	2386	2371	2356	2341	2341	2327	2298	2270	2257	2230	2191	2153	2128	2093	2058	2025	2003	1972	1961	1931	1921	1911	1902	1892	1882	1873	1864	1854	1845	1827	1827	1810	1801	1784	1775	1767	1750	1750	1734	1734	1734	1742	1742	1742	1742	1742	1742	1750	0	0	0	0	1759	1759	0	0	0	0	0	0	0	0	0	0	0	0	0	0	0	0
137	137	138	138	138	138	138	138	138	138	138	138	138	138	138	138	138	138	138	139	139	139	139	140	140	140	141	141	141	141	141	142	142	142	142	143	143	143	143	144	144	145	0	0	149	149	149	149	149	149	149	149	149	149	149	149	149	150	150	150	150	150	150	150	150	150	150	150	150	150	150	149	149	149	149	149	149	149	149	0	0	0	0	0	149	149	149	149	0	0	0	0	0	0	0	0	0	0	0	149	149	149	149	149	150	150	150	150	0	0	0	0	0	0	0	0	0	0	0	0	129	129	129	129	129	129	129	128	128	128	128	127	127	127	127	126	126	126	126	126	126	126	126	126	126	126	126	126	126	125	125	125	125	125	125	125	125	125	125	125	126	126	126	126	126	126	126	127	127	127	127	127	127	127	127	127	0	0	0	0	0	0	0	0	0	0	0	0	0	0	0	0	0	0	160	160	160	160	160	160	160	160	160	160	160	160	160	0	0	0	0	0	0	0	0	0	0	0	0	0	0	0	0	0	0	0	0	0	0	0	0	0	0	165	165	0	0	0	0	0	0	0	0	0	0	0	0	0	0	0	0	0	0	0	0	0	0	0	0	0	0	0	170	170	170	170	170	170	170	170	170	170	170	170	170	0	0	0	0	0	0	0	0	0	0	0	0	0	0	0	177	177	178	0	0	0	0	0	0	0	0	0	0	0	0	0	0	0	0	0	0	0	0	0	0	0	0	0	229	229	229	229	229	229	229	229	230	0	0	0	0	0	0	0	0	0	0	0	0	0	1587	1581	1581	1581	1587	1594	1594	1594	1608	1622	1643	1665	1711	1742	1775	1792	1810	1827	1836	1845	1854	1864	1873	1882	1892	1902	1911	1921	1931	1941	1951	1961	1972	1982	1993	2003	2003	2003	2014	2025	2036	2036	2047	2058	2070	2081	2093	2116	2141	2153	2191	2217	2243	2270	2270	2284	2298	2298	2270	2270	2257	2243	2230	2230	2217	2217	2204	2128	2093	1972	1775	1775	1548	1504	1475	1463	1452	1452	1446	1446	1441	1435	1435	1435	1435	1435	1435	0	0	0	0	0	0	0	0	0	0	0	0	0	0	0	0	0	0	0	0	0	0	0	0	0	0	0	0	0	0	0	0	0	0	0	0	0	0	0	0	0	0	0	0	0	0	0	0	1845	1845	1836	1836	1836	1836	1836	1836	1836	1827	1827	1827	1836	1836	1836	1845	1845	1864	1864	1854	1854	1845	1845	1854	1854	1854	1854	1854	1864	1873	1873	1873	1873	1882	1882	1892	1911	1921	1931	1951	1972	1982	1993	2003	2014	2014	2014	2014	2003	2003	1993	1993	1982	1982	1972	1961	1951	1931	1911	1882	1854	1827	1801	1767	1734	1703	1665	1629	1601	1581	1561	1548	1535	1529	1523	1523	1523	1529	1535	1542	1548	1561	1567	1567	1574	1574	1567	1561	1561	1548	1542	1529	1517	1510	1504	1504	1492	1481	1481	0	0	0	0	0	0	0	0	0	0	0	0	0	0	0	0	0	0	0	0	0	0	0	0	0	0	0	0	0	0	0	0	0	1601	1601	1622	1672	1734	1801	1882	1961	2014	2058	2116	2153	2165	2178	2178	2178	2191	2191	2204	2217	2204	2204	2204	2204	2217	2217	2217	2217	2217	2217	2191	2165	2165	2165	2165	2165	2165	2165	2178	2191	2204	2217	2230	2257	2270	2270	2284	2298	2298	2298	2298	2298	2298	2284	2270	2257	2257	2243	2243	2230	2230	2230	2230	2230	2230	2230	2230	2217	2217	2217	2204	2204	2204	2217	2217	2204	2204	2204	2204	2217	2204	2191	2178	2153	2153	2141	2141	2141	2128	2128	2141	2141	2165	2165	2191	2191	2191	2204	2204	2217	2204	2178	2153	2128	2104	2081	2070	2047	2025	1993	1993	1993	1993	2014	2047	2093	2116	2165	2257	2341	2448	2464	2464	2481	2481	2481	2464	2448	2448	2417	2417	2386	2371	2356	2327	2298	2270	2243	2204	2178	2141	2116	2081	2058	2025	2003	1972	1961	1941	1921	1911	1911	1892	1882	1873	1854	1845	1836	1827	1818	1801	1792	1775	1767	1759	1742	1742	1726	1726	1734	1734	1734	1742	1742	1742	1742	1750	1759	1759	1759	1767	1759	1759	0	0	0	0	0	0	0	0	0	0	0	0	0	0	0	0
137	137	137	138	138	138	138	138	138	138	138	138	138	138	138	138	138	138	138	139	139	139	139	140	140	140	141	141	141	141	141	142	142	142	142	142	143	143	143	144	144	0	0	0	149	149	149	149	149	149	149	149	149	149	149	150	150	150	150	150	150	150	150	150	150	150	150	150	150	150	150	149	149	149	149	149	149	149	149	149	149	149	150	149	149	149	149	149	149	0	149	149	148	148	149	148	148	149	149	149	149	149	149	149	149	150	150	150	0	0	0	0	0	0	0	0	0	0	0	0	129	129	129	129	129	129	129	129	128	128	128	127	127	127	127	126	126	126	126	126	126	126	126	126	126	126	126	125	125	125	125	125	125	125	125	125	125	125	125	125	126	126	126	126	126	126	126	127	127	127	127	127	127	127	127	0	0	0	0	0	0	0	0	0	0	0	0	0	0	0	0	0	0	0	0	160	160	160	160	160	160	160	160	160	160	160	0	0	0	0	0	0	0	0	0	0	0	0	0	0	0	0	0	0	0	0	0	0	0	0	0	0	0	165	165	0	0	0	0	0	0	0	0	0	0	0	0	0	0	0	0	0	0	0	0	0	0	0	0	0	0	0	170	170	170	170	170	170	170	170	170	170	0	0	0	0	0	0	0	0	0	0	0	0	0	0	0	0	0	0	177	177	178	0	0	0	0	0	0	0	0	0	0	0	0	0	0	0	0	0	0	0	0	0	0	0	0	0	229	229	229	229	229	229	229	229	0	0	0	0	0	0	0	0	0	0	0	0	0	0	1561	1561	1561	1581	1587	1594	1594	1594	1608	1622	1643	1665	1711	1742	1775	1801	1818	1827	1836	1845	1854	1864	1873	1873	1892	1902	1911	1921	1931	1941	1951	1961	1972	1972	1982	1993	1993	1993	2003	2014	2025	2036	2047	2047	2058	2070	2093	2104	2141	2153	2191	2217	2230	2270	2270	2284	2284	2270	2257	2243	2230	2204	2204	2204	2217	2217	2204	2128	2128	0	0	0	0	0	1469	1452	1441	1435	1435	1441	1435	1430	1430	1430	1430	1430	1430	1430	0	0	0	0	0	0	0	0	0	0	0	0	0	0	0	0	0	0	0	0	0	0	0	0	0	0	0	0	0	0	0	0	0	0	0	0	0	0	0	0	0	0	0	0	0	0	0	0	0	1818	1818	1818	1827	1827	1818	1818	1818	1818	1818	1818	1827	1827	1845	1845	1864	1864	1864	1854	1854	1854	1854	1864	1864	1864	1873	1882	1882	1892	1892	1892	1892	1902	1902	1911	1921	1941	1951	1972	1982	1993	1993	1993	2003	1993	1993	1993	1982	1982	1972	1972	1961	1951	1951	1941	1931	1921	1902	1882	1854	1836	1810	1775	1742	1711	1680	1643	1629	1601	1587	1574	1567	1567	1567	1567	1574	1581	1581	1587	1594	1601	1601	1594	1594	1587	1587	1587	1581	1574	1561	1548	1542	1542	1535	1535	1535	1535	0	0	0	0	0	0	0	0	0	0	0	0	0	0	0	0	0	0	0	0	0	0	0	0	0	0	0	0	0	0	0	0	0	1608	1608	1636	1680	1742	1801	1873	1961	2025	2070	2104	2141	2153	2165	2165	2165	2165	2178	2178	2191	2191	2191	2191	2191	2191	2191	2191	2191	2191	2191	2178	2153	2141	2128	2128	2128	2128	2128	2128	2141	2153	2178	2191	2204	2230	2230	2243	2257	2270	2270	2284	2284	2284	2270	2257	2257	2243	2243	2243	2230	2230	2230	2230	2230	2230	2230	2217	2217	2217	2217	2204	2204	2204	2204	2204	2191	2191	2191	2191	2191	2178	2153	2141	2128	2116	2116	2104	2104	2104	2104	2104	2116	2128	2141	2165	2165	2165	2178	2178	2178	2165	2141	2116	2104	2081	2058	2036	2014	1982	1951	1921	1911	1911	1941	1961	1993	2116	2165	2257	2341	2448	2481	2481	2514	2514	2514	2497	2497	2481	2464	2464	2417	2386	2356	2327	2298	2257	2230	2191	2153	2128	2093	2070	2047	2025	2003	1982	1961	1951	1931	1911	1911	1902	1882	1873	1854	1845	1836	1827	1818	1801	1792	1775	1767	1759	1742	1742	1726	1726	1734	1734	1734	1742	1742	1742	1759	1759	1759	1759	1759	1767	1767	1767	0	0	0	0	0	0	0	0	0	0	0	0	0	0	0	0
137	137	137	137	137	137	138	138	138	138	138	138	138	138	138	138	138	138	138	139	139	139	139	140	140	140	141	141	141	141	141	141	142	142	142	142	143	143	143	144	144	0	0	149	149	149	150	150	150	149	149	149	149	150	150	150	150	150	150	150	150	150	150	150	150	150	150	150	150	150	150	149	149	149	149	149	149	149	149	149	149	149	150	149	149	149	149	149	149	149	149	149	148	148	148	148	148	149	149	149	149	149	149	149	149	149	150	150	0	0	0	0	0	0	0	0	0	0	0	0	130	129	129	129	129	129	129	129	128	128	128	128	127	127	127	126	126	126	126	126	126	125	125	125	125	125	125	125	125	125	125	125	125	125	125	125	125	125	125	125	125	125	126	126	126	126	126	127	127	127	127	127	127	127	0	0	0	0	0	0	0	0	0	0	0	0	0	0	0	0	0	0	0	0	0	160	160	160	160	160	160	160	160	160	160	0	0	0	0	0	0	0	0	0	0	0	0	0	0	0	0	0	0	0	0	0	0	0	0	0	0	0	0	0	165	165	0	0	0	0	0	0	0	0	0	0	0	0	0	0	0	0	0	0	0	0	0	0	0	0	0	0	170	170	171	171	171	171	171	171	0	0	0	0	0	0	0	0	0	0	0	0	0	0	0	0	0	0	0	181	180	180	180	0	0	0	181	181	0	0	0	0	0	0	0	0	0	0	0	0	0	0	0	0	0	0	0	229	229	229	229	229	229	229	229	229	0	0	0	0	0	0	0	0	0	0	0	0	0	0	1561	1561	1561	0	0	0	0	0	0	0	0	0	0	0	0	1801	1801	1818	1827	1845	1845	1864	1864	1873	1882	1892	1911	1921	1921	1931	1941	1951	1961	1972	1972	1982	1993	1993	1993	2003	2014	2014	2025	2036	2047	2058	2070	2104	2128	2141	2165	2191	2230	2243	2257	2270	2270	2257	2230	2230	2230	2204	2204	2204	2217	2217	0	0	0	0	0	0	0	0	1452	1441	1435	1430	1430	1430	1424	1424	1424	1424	1424	1424	1424	1430	0	0	0	0	0	0	0	0	0	0	0	0	0	0	0	0	0	0	0	0	0	0	0	0	0	0	0	0	0	0	0	0	0	0	0	0	0	0	0	0	0	0	0	0	0	0	0	0	1810	1810	1810	1810	1818	1818	1818	1810	1810	1810	1818	1818	1827	1827	1845	1845	1864	1864	1864	1864	1864	1864	1864	1882	1882	1892	1892	1902	1911	1911	1911	1911	1911	1911	1921	1931	1941	1951	1961	1972	1972	1982	1982	1982	1982	1982	1972	1972	1961	1961	1951	1951	1951	1941	1931	1921	1911	1902	1892	1882	1864	1854	1836	1810	1775	1750	1711	1687	1665	1643	1629	1622	1615	1608	1608	1615	1615	1622	1622	1629	1629	1636	1629	1629	1622	1615	1615	1608	1608	1594	1587	1581	1574	1574	1574	1574	1581	1636	0	0	0	0	0	0	0	0	0	0	0	0	0	0	0	0	0	0	0	0	0	0	0	0	0	0	0	0	0	0	0	1561	1561	1587	1608	1643	1687	1742	1801	1873	1961	2025	2058	2093	2128	2141	2141	2153	2153	2153	2165	2165	2165	2165	2165	2178	2178	2178	2178	2178	2178	2165	2165	2153	2141	2116	2116	2104	2104	2104	2104	2104	2104	2116	2128	2153	2165	2191	2204	2204	2230	2230	2257	2257	2257	2257	2257	2243	2243	2243	2230	2230	2230	2230	2230	2230	2230	2230	2230	2217	2217	2217	2217	2204	2204	2204	2191	2191	2178	2178	2165	2165	2153	2141	2128	2104	2093	2081	2081	2070	2070	2070	2070	2081	2093	2116	2128	2141	2153	2153	2153	2153	2153	2128	2116	2093	2058	2036	2014	1993	1961	1941	1892	1882	1873	1873	1882	1961	1993	0	0	0	0	2514	2514	2514	2531	2548	2531	2531	2514	2514	2497	2464	2417	2386	2341	2298	2270	2243	2204	2165	2141	2116	2081	2058	2036	2025	1993	1972	1961	1951	1931	1911	1902	1902	1892	1873	1854	1845	1827	1827	1810	1801	1792	1784	1775	1767	1750	1750	1742	1742	1742	1750	1750	1750	1750	1750	1759	1767	1767	1767	1767	1767	1767	1767	1767	0	0	0	0	0	0	0	0	0	0	0	0	0	0	0
137	137	137	137	137	137	137	137	137	138	138	138	138	138	138	138	138	138	138	139	139	139	139	140	140	140	140	141	141	141	141	141	142	142	142	142	143	143	143	144	0	0	149	149	149	150	150	150	150	150	150	150	150	150	150	150	150	150	150	150	150	150	150	150	150	150	150	150	150	150	150	149	149	149	149	149	149	149	149	149	149	149	150	149	149	149	149	149	149	149	149	149	148	148	148	148	148	149	149	149	149	149	149	149	149	149	150	150	0	0	0	0	0	0	0	0	0	0	129	129	129	129	129	129	129	129	129	129	129	128	128	128	127	127	127	126	126	126	126	125	125	125	125	125	125	125	125	125	125	125	125	125	125	125	125	125	125	125	125	125	125	125	125	126	126	126	126	127	127	127	127	0	0	0	0	0	0	0	0	0	0	0	0	0	0	0	0	0	0	0	0	0	0	0	0	0	160	160	160	160	160	160	160	160	0	0	0	0	0	0	0	0	0	0	0	0	0	0	0	0	0	0	0	0	0	0	0	0	0	0	0	0	0	0	165	165	0	0	0	0	0	0	0	0	0	0	0	0	0	0	0	0	0	0	0	0	0	0	0	0	0	0	0	0	171	171	171	171	171	171	173	0	0	0	0	0	0	0	0	0	0	0	0	0	0	0	0	0	0	181	181	181	181	181	0	181	181	181	181	0	0	0	0	0	0	0	0	0	0	0	0	0	0	0	0	0	0	229	229	229	229	229	229	228	228	229	0	0	0	0	0	0	0	0	0	0	0	0	0	0	0	0	0	0	0	0	0	0	0	0	0	0	0	0	0	1792	1792	1810	1827	1836	1845	1845	1854	1864	1873	1882	1892	1902	1911	1931	1931	1941	1951	1961	1972	1972	1982	1993	1993	1993	2003	2014	2025	2025	2036	2047	2070	2093	2116	2141	2153	2178	2204	2243	2243	2243	2243	2230	2230	2230	0	0	0	0	0	0	0	0	0	0	0	0	0	1446	1435	1424	1419	1419	1419	1419	1414	1414	1414	1414	1414	1414	1414	1414	0	0	0	0	0	0	0	0	0	0	0	0	0	0	0	0	0	0	0	0	0	0	0	0	0	0	0	0	0	0	0	0	0	0	0	0	0	0	0	0	0	0	0	0	0	0	0	0	1810	1810	1810	1810	1810	1810	1810	1801	1801	1801	1801	1810	1818	1827	1827	1845	1854	1864	1873	1873	1873	1873	1882	1902	1902	1902	1911	1921	1921	1921	1921	1921	1921	1931	1931	1941	1951	1951	1961	1972	1972	1972	1972	1972	1961	1961	1951	1951	1941	1941	1931	1931	1931	1921	1921	1911	1902	1892	1882	1864	1854	1845	1827	1818	1792	1767	1742	1718	1695	1680	1665	1658	1650	1650	1650	1658	1658	1658	1665	1665	1665	1665	1665	1658	1658	1650	1650	1643	1643	1636	1629	1622	1615	1615	1658	0	1636	1636	0	1726	1726	1750	0	0	0	0	0	0	0	0	0	0	0	0	0	0	0	0	0	0	0	0	0	0	0	0	0	0	1535	1535	1561	1587	1622	1650	0	0	1873	1873	1961	2014	2058	2081	2116	2128	2128	2128	2128	2141	2141	2141	2141	2153	2153	2153	2153	2165	2165	2165	2165	2153	2153	2128	2116	2093	2093	2081	2070	2070	2070	2070	2070	2081	2093	2104	2128	2141	2165	2165	2178	2204	2217	2230	2230	2230	2230	2243	2243	2243	2230	2230	2230	2230	2230	2230	2230	2230	2217	2217	2217	2217	2217	2204	2191	2191	2191	2178	2165	2153	2153	2141	2128	2116	2093	2070	2070	2047	2047	2058	2047	2047	2058	2058	2081	2104	2116	2141	2141	2141	2141	2141	2141	2128	2104	2081	2047	2014	1993	1961	1931	1902	1854	1854	1873	1873	1882	0	0	0	0	0	0	0	2514	2514	2548	2548	2548	2531	2531	2514	2497	2481	2417	2371	2327	2298	2257	2230	2191	2165	2128	2104	2081	2058	2036	2014	1993	1972	1961	1941	1931	1911	1892	1892	1882	1864	1854	1836	1827	1818	1810	1801	1792	1792	1775	1775	1759	1759	1750	1750	1750	1750	1750	1750	1750	1759	1767	1767	1767	1767	1767	1767	1759	1759	1759	0	0	0	0	0	0	0	0	0	0	0	0	0	0	0
137	137	137	137	137	137	137	137	137	137	138	138	138	138	138	138	138	138	138	139	139	139	139	140	140	140	140	141	141	141	141	141	141	142	142	142	142	143	143	144	0	148	148	149	149	150	150	150	150	150	150	150	150	150	150	150	150	150	150	150	150	150	150	150	150	150	150	150	150	150	150	150	149	149	149	149	149	149	149	150	150	150	150	149	149	149	149	149	149	149	149	149	149	149	148	148	148	149	149	149	149	149	149	149	149	149	150	0	0	0	0	0	0	0	0	0	0	0	129	129	129	129	129	129	129	129	129	129	129	128	128	128	127	127	127	126	126	126	125	125	125	125	125	125	125	125	125	125	125	125	125	125	125	125	125	125	125	125	125	125	125	125	125	125	125	126	126	126	127	0	0	0	0	0	0	0	0	0	0	0	0	0	0	0	0	0	0	0	0	0	0	0	0	0	0	0	160	160	160	160	160	160	160	0	0	0	0	0	0	0	0	0	0	0	0	0	0	0	0	0	0	0	0	0	0	0	0	0	0	0	0	0	0	0	0	0	0	0	0	0	0	0	0	0	0	0	0	0	0	0	0	0	0	0	0	0	0	0	0	0	0	0	0	0	0	0	172	172	172	172	173	175	0	0	0	0	0	0	0	0	0	0	0	0	0	0	0	0	0	181	181	0	181	181	0	181	181	181	181	0	0	0	0	0	0	0	0	0	0	0	0	0	0	0	0	0	0	229	229	229	229	0	229	228	228	228	0	0	0	0	0	0	0	0	0	0	0	0	0	0	0	0	0	0	0	0	0	0	0	0	0	0	0	1734	1734	1784	1784	1810	1818	1827	1836	1845	1854	1854	1864	1873	1882	1902	1911	1921	1921	1941	1951	1961	1961	1972	1982	1982	1982	1993	2003	2014	2014	2025	2036	2047	2058	2081	2104	2116	2141	2178	2204	2243	2243	2243	2243	2230	2230	0	0	0	0	0	0	0	0	0	0	0	0	0	0	1419	1414	1408	1403	1403	1403	1403	1398	1398	1398	1398	1398	1398	1398	1387	1387	0	0	0	0	0	0	0	0	0	0	0	0	0	0	0	0	0	0	0	0	0	0	0	0	0	0	0	0	0	0	0	0	0	0	0	0	0	0	0	0	0	0	0	0	0	0	0	1801	1801	1801	1801	1810	1801	1801	1792	1792	1801	1801	1810	1810	1818	1827	1827	1845	1864	1873	0	1873	1873	1892	1902	1902	1911	1921	1921	1931	1931	1921	1921	1931	1931	1931	1941	1941	1951	1961	1961	1961	1961	1951	1951	1951	1941	1941	1931	1931	1921	1921	1911	1911	1911	1902	1892	1892	1882	1873	1864	1854	1836	1827	1818	1801	1784	1759	1742	1718	1711	1695	1687	1687	1687	1687	1687	1687	1695	1695	1695	1695	1695	1687	1687	1687	1687	1687	1680	1672	1665	1665	1658	1658	1658	1658	1703	1680	1680	1726	1726	1726	1750	0	0	0	0	0	0	0	0	0	0	0	0	0	0	0	0	0	0	0	0	0	0	0	0	0	0	1535	1535	1567	1601	1629	1665	1726	1784	1836	1882	1961	2014	2047	2081	2104	2116	2116	2116	2116	2116	2128	2128	2141	2141	2141	2141	2153	2153	2153	2153	2153	2153	2141	2128	2104	2093	2081	2070	2058	2047	2047	2047	2047	2058	2070	2081	2093	2116	2128	2153	2153	2165	2178	2191	2204	2217	2217	2230	2230	2230	2230	2230	2230	2230	2230	2230	2230	2230	2217	2217	2217	2217	2217	2204	2191	2191	2191	2165	2153	2141	2128	2128	2104	2093	2070	2047	2036	2025	2025	2036	2036	2036	2036	2058	2070	2093	2116	2128	2141	2141	2141	2141	2141	2116	2104	2081	2047	2014	1993	1961	1931	1902	1854	1854	0	0	1767	1767	1775	1792	0	0	0	0	0	0	2566	2566	2548	2548	2531	2531	2514	2481	2417	2371	2327	2298	2257	2217	2191	2165	2128	2104	2070	2047	2025	2003	1982	1972	1951	1931	1921	1902	1882	1873	1873	1854	1845	1827	1818	1801	1801	1801	1801	1801	1801	1784	1784	1784	1775	1775	1775	1775	1767	1767	1767	1767	1767	1767	1759	1759	1759	1759	1759	1759	1759	0	0	0	0	0	0	0	0	0	0	0	0	0	0	0
137	137	137	137	137	137	137	137	137	137	137	138	138	138	138	138	138	138	138	139	139	139	140	140	140	140	140	141	141	141	141	141	141	142	142	142	142	142	143	144	0	148	148	149	150	150	150	150	150	150	150	150	150	150	150	150	150	150	150	150	150	150	150	150	150	150	150	150	150	150	150	150	150	150	149	149	150	150	150	150	150	150	150	149	149	149	149	149	149	149	149	149	149	149	149	149	149	149	149	149	149	149	149	149	149	149	0	0	0	0	0	0	0	0	0	0	0	0	129	129	129	129	129	129	129	129	129	129	129	128	128	128	127	127	127	126	126	126	125	125	125	125	125	125	125	125	125	125	125	125	125	125	125	125	125	125	0	124	124	124	124	124	125	125	125	125	125	126	0	0	0	0	0	0	0	0	0	0	0	0	0	0	0	0	0	0	0	0	0	0	0	0	0	0	0	0	0	0	160	160	160	160	0	0	0	0	0	0	0	0	0	0	0	0	0	0	0	0	0	0	0	0	0	0	0	0	0	0	0	0	0	0	0	0	0	0	0	0	0	0	0	0	0	0	0	0	0	0	0	0	0	0	0	0	0	0	0	0	0	0	0	0	0	0	0	175	174	174	174	174	174	175	0	0	0	0	0	0	0	0	0	0	0	0	185	183	183	182	182	182	182	182	182	182	182	182	182	182	182	0	0	0	0	0	0	0	0	0	0	0	0	0	0	0	0	0	0	229	229	229	229	229	229	228	228	228	0	0	0	0	0	0	0	0	0	0	0	0	0	0	0	0	0	0	0	1535	1535	1535	1548	1554	1574	1587	1636	1687	1726	1767	1784	1801	1810	1818	1827	1836	1836	1845	1854	1864	1873	1892	1902	1911	1921	1931	1941	1951	1961	1972	1982	1982	1982	1993	2003	2003	2003	2014	2025	2036	2047	2070	2081	2104	2116	0	0	0	0	0	0	0	0	0	0	0	0	0	0	0	0	0	0	0	0	0	0	1419	1398	1398	1393	1387	1387	1382	1382	1377	1377	1377	1377	1377	1377	1387	1387	0	0	0	0	0	0	0	0	0	0	0	0	0	0	0	0	0	0	0	0	0	0	0	0	0	0	0	0	0	0	0	0	0	0	0	0	0	0	0	0	0	0	0	0	0	0	0	1801	1801	1801	1801	1801	1801	1792	1792	1792	1792	1792	1801	1810	1810	1818	1827	1845	1864	1873	0	0	1892	1892	1902	1911	1911	1921	1931	1931	1931	1921	1921	1921	1931	1931	1931	1941	1941	1951	1951	1951	1941	1941	1931	1931	1931	1921	1921	1911	1911	1902	1902	1892	1892	1892	1892	1882	1873	1864	1854	1854	1836	1827	1810	1792	1775	1767	1750	1734	1726	1718	1711	1711	1711	1711	1711	1711	1711	1718	1718	1718	1718	1718	1718	1718	1718	1718	1718	1711	1703	1703	1703	1695	1695	1703	1703	1703	1711	1726	1726	1750	1759	1810	0	0	0	0	0	0	0	0	0	0	0	0	0	0	0	0	0	0	0	0	0	0	0	0	0	0	1567	1567	1594	1636	1672	1726	1784	1836	1892	1972	2025	2047	2081	2104	2104	2104	2104	2104	2116	2116	2116	2128	2128	2141	2141	2141	2153	2153	2153	2153	2153	2141	2128	2104	2093	2070	2070	2047	2047	2036	2036	2036	2036	2047	2070	2081	2093	2116	2128	2128	2141	2165	2165	2191	2191	2191	2204	2217	2217	2230	2230	2230	2230	2230	2230	2230	2230	2230	2217	2217	2217	2217	2204	2191	2191	2178	2165	2141	2116	2104	2093	2081	2047	2036	2014	2003	2003	2003	2014	2014	2014	2036	2047	2070	2081	2104	2128	2141	2141	2141	2141	2141	2116	2104	2081	2047	2025	1993	1961	1961	0	0	0	0	0	1672	1672	1775	1792	0	0	0	0	0	0	0	2566	2566	2566	2566	2548	2531	2514	2432	2386	2341	2298	2257	2217	2178	2153	2128	2104	2070	2047	2014	1993	1972	1951	1931	1921	1892	1873	1864	1845	1845	1827	1810	1801	1784	1775	1775	1775	1775	1775	1775	1784	1784	1775	1767	1759	1759	1750	1750	1750	1750	1742	1742	1750	1742	1742	1742	1734	1734	1734	0	0	0	0	0	0	0	0	0	0	0	0	0	0	0	0
137	137	137	137	137	137	137	137	137	137	137	137	138	138	138	138	138	138	138	139	139	139	140	140	140	140	140	141	141	141	141	141	141	141	142	142	142	142	143	144	0	148	148	149	150	150	150	150	150	150	150	150	150	150	150	150	150	150	150	150	150	150	150	150	150	150	150	150	150	150	150	150	150	150	150	150	150	150	150	150	150	150	150	149	149	149	149	149	149	149	149	149	149	149	149	149	149	149	149	149	149	149	149	149	149	0	0	0	0	0	0	0	0	0	0	0	0	0	129	129	129	129	129	129	129	129	129	129	128	128	128	128	127	127	127	126	126	126	125	125	125	125	125	125	125	125	125	124	124	124	124	125	125	125	125	125	0	124	124	124	124	124	124	0	125	125	125	0	0	0	0	0	0	0	0	0	0	0	0	0	0	0	0	0	0	0	0	0	0	0	0	0	0	0	0	0	0	0	0	0	0	0	0	0	0	0	0	0	0	0	0	0	0	0	0	0	0	0	0	0	0	0	0	0	0	0	0	0	0	0	0	0	0	0	0	0	0	0	0	0	0	0	0	0	0	0	0	0	0	0	0	0	0	0	0	0	0	0	0	0	0	0	0	0	0	175	175	175	176	176	176	177	0	0	0	0	0	0	0	0	0	0	0	185	184	183	182	182	182	182	182	182	182	182	182	182	182	182	182	0	0	0	0	0	0	0	0	0	0	0	0	0	0	0	0	0	0	0	229	229	229	229	229	228	228	228	0	0	0	0	0	0	0	0	0	0	0	0	0	0	0	0	0	1535	1535	1535	1535	1535	1548	1554	1574	1587	1636	1680	1718	1750	1775	1792	1801	1810	1818	1827	1827	1836	1845	1854	1864	1882	1892	1902	1911	1931	1941	1951	1961	1972	1982	1982	1993	1993	2003	2003	2003	2014	2014	2025	2036	2058	2058	2104	2116	0	0	0	0	0	0	0	0	0	0	0	0	0	0	0	0	0	0	0	0	0	0	0	1398	1382	1377	1372	1372	1367	1367	1362	1362	1362	1362	1362	1362	0	0	0	0	0	0	0	0	0	0	0	0	0	0	0	0	0	0	0	0	0	0	0	0	0	0	0	0	0	0	0	0	0	0	0	0	0	0	0	0	0	0	0	0	0	0	0	0	0	0	1801	1801	1801	1801	1801	1792	1792	1792	1792	1792	1801	1810	1810	1818	1827	0	0	0	0	1864	1864	1892	1902	1902	1902	1911	1911	1911	1911	1902	1902	1911	1911	1921	1921	1931	1931	1931	1931	1931	1931	1931	1921	1921	1921	1911	1911	1902	1902	1892	1892	1882	1882	1892	1882	1882	1873	1864	1854	1854	1836	1827	1810	1792	1775	1767	1750	1742	1734	1734	1726	1726	1726	1734	1734	1734	1734	1742	1742	1742	1742	1742	1742	1742	1742	1750	1750	1750	1750	1750	1750	1750	1750	1750	1750	1759	1759	1767	1767	1775	1784	1810	0	0	0	0	0	0	0	0	0	0	0	0	0	0	0	0	0	0	0	0	0	0	0	0	0	0	1567	1567	1594	1643	1687	1742	1801	1864	1921	1982	2036	2058	2081	2104	2104	2104	2104	2104	2104	2104	2116	2116	2128	2128	2141	2141	2141	2153	2153	2153	2153	2153	2141	2116	2093	2070	2070	2047	2047	2036	2025	2025	2036	2047	2047	2070	2070	2093	2116	2116	2128	2141	2153	2165	2178	2191	2191	2217	2217	2217	2217	2230	2230	2230	2230	2230	2230	2230	2217	2217	2217	2217	2204	2191	2191	2178	2153	2128	2104	2081	2070	2058	2036	2014	2003	1993	1993	1993	2003	2014	2014	2036	2036	2058	2081	2104	2128	2141	2141	2141	2141	2141	2116	2104	2081	2047	2025	1993	1993	0	0	0	0	0	0	1672	1672	0	0	0	0	0	0	0	0	0	0	0	0	0	2583	2548	2531	2448	2386	2386	2312	2257	2217	2178	2153	2116	2093	2070	2047	2014	1982	1961	1941	1921	1902	1882	1854	1827	1810	1810	1792	1775	1750	1734	1726	1726	1726	1726	1726	1726	1734	1734	1734	1726	1726	1726	1726	1718	1718	1726	1726	1718	1718	1718	1711	1711	1703	1695	1687	1680	1680	0	0	0	0	0	0	0	0	0	0	0	0	0	0
