1663	1664	1667	1670	1673	1676	1678	1681	1683	1686	1687	1689	1690	1691	1693	1694	1696	1696	1696	1696	1694	1693	1691	1687	1684	1680	1677	1673	1670	1667	1663	1663	1663	1663	0	1666	0	1670	1671	1674	1677	1678	1683	1683	1687	1690	1693	1693	1694	1694	1694	1694	1690	1687	1686	1681	1680	1677	1674	1671	1669	1666	1664	1662	1660	1656	1655	1653	1652	1649	1646	1646	1646	1645	1645	1645	1645	1645	1644	1645	1645	1645	1644	1645	1645	1645	1644	1645	1645	1645	1645	1644	1644	1644	1645	1646	1648	1648	1649	1652	1653	1655	1656	1657	1657	1657	1657	1656	1655	1652	1650	1649	1646	1645	1644	1644	1641	1642	1644	1645	1646	1649	0	1652	1655	1657	1659	1660	1662	1663	1664	1666	1666	1667	0	1667	1667	1667	1667	1666	1666	1664	1663	1663	1662	1662	1660	1660	1659	1657	1656	1655	1655	1653	1652	1652	1652	1652	1652	1652	1652	1652	1652	1652	1653	1653	1653	1655	1657	1660	1662	1663	1666	1669	1673	1676	1680	1683	1684	1686	1687	1689	1690	1689	1689	1690	1691	1693	1696	1700	1705	1707	1713	1716	1719	1724	1727	1727	1727	1727	1727	1724	1721	1718	1713	1710	1705	1691	1684	0	1669	1660	1656	1652	1649	1646	1646	1645	1646	1648	1648	1649	1649	1649	1649	1649	1648	1646	1645	1644	1644	1644	1642	1642	1644	1645	1646	1646	1648	1649	1649	1650	1652	1652	1652	1649	1649	1649	1649	1649	1648	1646	1645	1645	1644	1642	1641	1639	1638	1637	1637	1634	1633	1633	1631	1633	1634	1633	1634	1634	1634	1634	1634	1634	1635	1635	1637	1639	1641	1642	1642	1645	1645	1646	1646	1648	1648	1648	1649	1649	1649	1649	1648	1648	1648	1648	1648	1646	1646	1646	1648	1649	1649	1649	1650	1650	1650	1650	1649	1648	1648	1645	1642	1642	1641	1639	1638	1638	1641	1641	1642	1642	1642	1644	1645	1646	1648	1648	1648	1649	1649	1649	1649	1649	1650	1650	1650	1650	1650	1649	1648	1646	1645	1642	1641	1641	1639	1638	1637	1637	1637	1637	1637	1638	1639	1642	1644	1646	1650	1653	1657	1660	1663	1664	1667	1667	1669	1670	1670	1670	1669	1669	1669	1667	1669	1669	1669	1669	1669	1669	1669	1667	1666	1666	1663	1662	1660	1659	1657	1657	1656	1655	1655	1655	1653	1652	1650	1650	1652	1652	1652	1652	1652	1652	1652	1650	1650	1650	1650	1650	1650	1649	1649	1648	1646	1646	1645	1644	1642	1642	1641	1641	1641	1641	1641	1641	1642	1642	1642	1644	1644	1645	1645	1645	1645	1646	1646	1646	1648	1648	1648	1648	1646	1648	1646	1645	1645	1644	1642	1638	1635	1634	1630	1626	1623	1619	1618	1615	1615	1615	1617	1618	1619	1622	1627	1631	1635	1637	1639	1641	1641	1641	1641	1641	1639	1639	1638	1637	1637	1634	1634	1633	1634	1634	1634	1634	1634	1635	1637	1637	1638	1638	1639	1639	1639	1639	1639	1638	1638	1638	1638	1638	1639	1641	1641	1642	1642	1642	1645	1644	1646	1646	1648	1649	1650	1650	1652	1652	1653	1653	1653	1653	1652	1653	1655	1655	1656	1656	1656	1656	1656	1655	1655	1653	1652	1650	1650	1650	1649	1649	1649	1649	1648	1646	1646	1645	1644	1642	1639	1638	1638	1637	1635	1635	1635	1635	1635	1635	1637	1638	1638	1638	1639	1639	1641	1641	1642	1644	1644	1645	1646	1648	1649	1649	1650	1650	1652	1652	1653	1652	1652	1653	1653	1653	1653	1653	1653	1653	1653	1653	1653	1649	1645	1645	1642	1642	1639	1639	1639	1639	1641	1642	1644	1645	1645	1646	1648	1648	1648	1648	1648	1648	1648	1648	1648	1646	1646	1645	1645	1645	1644	1644	1644	1644	1644	1644	1644	1644	1645	1645	1646	1648	1648	1648	1649	1649	1649	1650	1650	1650	1652	1652	1652	1652	1650	1652	1652	1652	1652	1652	1650	1652	1650	1650	1652	1650	1650	1650	1650	1652	1652	1652	1650	1649
1657	1660	1662	1664	1667	1670	1673	1676	1680	1681	1683	1684	1684	1686	1689	1691	1691	1691	1693	1693	1693	1691	1691	1687	1684	1681	1678	1674	1671	1667	1666	1663	1663	1664	0	1666	0	1670	1671	1673	1676	1677	1680	1681	1684	1686	1689	1689	1690	1689	1687	1687	1684	1683	1680	1677	1676	1674	1670	1667	1666	1663	1660	1659	1657	1653	1652	1649	1648	1646	1645	1645	1644	1644	1644	1644	1644	1644	1644	1644	1644	1644	1644	1644	1644	1644	1644	1644	1644	1644	1644	1644	1644	1644	1645	1645	1646	1646	1648	1650	1652	1652	1653	1653	1655	1653	1655	1653	1650	1649	1648	1646	1644	1642	1639	1638	1638	1639	1639	1641	1642	1645	1648	1650	0	1655	1657	1659	1660	1662	1663	1663	1666	1666	1667	1667	1667	1667	1666	1666	1663	1662	1662	1660	1660	1659	1657	1657	1656	1655	1655	1653	1653	1652	1652	1652	1650	1650	1650	1650	1652	1650	1650	1650	1650	1650	1650	1652	1653	1655	1656	1657	1660	1663	1666	1669	1673	1676	1678	1680	1681	1683	1683	1681	1683	1684	1684	1686	1690	1693	1699	1702	1707	1712	1716	1719	1724	1724	1725	1722	1721	1716	1712	1707	1694	1687	1678	1671	0	1657	1650	1646	1644	1642	1642	1642	1642	1644	1645	1646	1646	1646	1648	1648	1646	1645	1644	1642	1641	1641	1641	1639	1639	1639	1641	1642	1644	1644	1645	1646	1646	1646	1648	1648	1646	1646	1645	1645	1644	1644	1642	1641	1641	1639	1639	1638	1635	1634	1634	1634	1633	1631	1630	1629	1629	1630	1630	1630	1631	1630	1630	1630	1631	1631	1631	1633	1635	1637	1639	1641	1642	1642	1645	1646	1646	1646	1648	1648	1648	1649	1648	1648	1648	1646	1646	1646	1646	1645	1645	1644	1645	1645	1646	1646	1646	1646	1646	1646	1645	1645	1644	1642	1641	1641	1639	1638	1637	1637	1638	1638	1638	1638	1639	1641	1642	1644	1645	1646	1646	1648	1649	1649	1649	1649	1650	1650	1652	1650	1650	1649	1648	1646	1645	1642	1641	1639	1638	1638	1637	1635	1635	1635	1635	1637	1638	1641	1642	1646	1650	1655	1656	1660	1662	1664	1666	1666	1667	1667	1666	1667	1666	1664	1664	1664	1664	1664	1666	1666	1666	1667	1667	1667	1667	1666	1666	1663	1662	1662	1660	1659	1659	1657	1656	1655	1653	1652	1650	1649	1649	1649	1649	1646	1646	1646	1645	1645	1645	1645	1645	1645	1645	1645	1644	1644	1644	1644	1642	1641	1639	1641	1639	1639	1639	1639	1639	1639	1639	1639	1641	1641	1642	1642	1642	1642	1644	1644	1645	1645	1644	1645	1645	1645	1645	1645	1644	1645	1642	1642	1638	1635	1633	1630	1627	1623	1621	1617	1614	1613	1613	1613	1613	1614	1617	1619	1625	1629	1633	1635	1638	1639	1641	1641	1642	1641	1641	1639	1639	1637	1637	1635	1634	1633	1633	1633	1633	1633	1634	1634	1635	1635	1637	1637	1638	1638	1637	1637	1637	1637	1635	1635	1637	1637	1637	1638	1638	1639	1639	1639	1641	1642	1642	1644	1646	1646	1648	1649	1650	1650	1652	1652	1652	1652	1652	1652	1653	1653	1653	1653	1653	1655	1653	1652	1652	1649	1649	1646	1646	1646	1645	1646	1646	1645	1645	1644	1644	1642	1641	1639	1638	1637	1637	1635	1635	1635	1635	1635	1635	1635	1637	1637	1638	1638	1639	1639	1641	1641	1642	1642	1642	1644	1644	1645	1646	1648	1648	1649	1649	1650	1650	1650	1650	1650	1650	1652	1650	1650	1650	1652	1650	1650	1649	1646	1645	1642	1641	1639	1638	1638	1638	1638	1639	1641	1641	1642	1644	1644	1645	1646	1646	1646	1646	1646	1645	1645	1645	1644	1644	1644	1644	1642	1641	1641	1641	1641	1641	1642	1642	1642	1644	1644	1645	1644	1646	1646	1648	1648	1648	1649	1650	1650	1650	1652	1652	1652	1652	1652	1652	1653	1653	1653	1652	1652	1650	1650	1650	1650	1649	1650	1650	1650	1649	1649	1648	1646
1653	1655	1657	1660	1662	1664	1667	1670	1673	1674	1676	1677	1677	1678	1681	1681	1684	1686	1687	1689	1689	1689	1689	1686	1683	1678	1677	1673	1670	1667	1664	1664	1663	1664	0	1666	1667	1670	1671	1673	1674	0	1677	1678	1680	1683	1681	1681	1681	1681	1681	1678	1677	1676	1674	1673	1671	1670	1667	1664	1662	1659	1656	1655	1652	1650	1649	1648	1646	1645	1644	1644	1644	1644	1644	1642	1642	1642	1644	1642	1642	1642	1642	1642	1644	1642	1642	1642	1644	1644	1642	1642	1642	1642	1644	1644	1645	1645	1646	1648	1649	1650	1649	1650	1650	1650	1650	1650	1649	1648	1645	1642	1641	1637	1635	1634	1635	1635	1637	1637	1639	1642	1644	1648	1652	0	1656	1657	1659	1660	1662	1663	1664	1666	1666	1666	1666	1664	1664	1663	1662	1660	1659	1659	1657	1656	1656	1655	1655	1653	1653	1652	1652	1652	1650	1650	1650	1650	1650	1650	1650	1649	1649	1649	1649	1648	1648	1649	1649	1649	1650	1652	1653	1656	1659	1662	1666	1669	1670	1671	1674	1676	1676	1676	1676	1677	1678	1678	1683	1686	1690	1694	1699	1702	1707	1710	1713	1715	1715	1713	1710	1706	1702	1690	1684	1678	1671	1664	1659	1655	1649	1645	1644	1642	1642	1644	1644	1645	1645	1645	1645	1646	1645	1645	1644	1642	1641	1639	1638	1637	1637	1637	1637	1638	1638	1639	1642	1642	1644	1644	1644	1644	1645	1645	1644	1642	1642	1639	1639	1638	1637	1635	1635	1634	1633	1631	1630	1629	1627	1627	1625	1623	1622	1623	1625	1625	1626	1627	1626	1627	1627	1629	1629	1630	1630	1631	1634	1635	1638	1641	1642	1644	1644	1645	1646	1646	1646	1648	1648	1648	1648	1648	1646	1646	1646	1646	1645	1645	1645	1644	1645	1645	1645	1646	1646	1646	1646	1646	1645	1645	1644	1641	1639	1638	1637	1637	1635	1634	1634	1635	1635	1635	1637	1637	1638	1642	1642	1644	1645	1646	1648	1649	1649	1649	1649	1650	1650	1650	1649	1648	1646	1645	1644	1642	1639	1638	1637	1637	1635	1634	1634	1634	1634	1635	1637	1639	1642	1646	1650	1655	1656	1660	1662	1663	1664	1664	1664	1664	1663	1663	1662	1660	1660	1660	1660	1660	1662	1663	1664	1666	1667	1669	1669	1667	1667	1666	1664	1663	1662	1660	1659	1657	1657	1656	1655	1652	1649	1648	1648	1646	1645	1645	1644	1644	1642	1641	1641	1641	1641	1641	1642	1641	1641	1641	1641	1641	1641	1639	1638	1638	1638	1637	1637	1637	1638	1638	1637	1638	1638	1639	1638	1639	1639	1641	1641	1642	1642	1642	1644	1644	1644	1644	1644	1644	1644	1642	1642	1638	1635	1634	1630	1627	1625	1622	1618	1614	1613	1611	1610	1611	1611	1613	1615	1617	1621	1626	1630	1633	1637	1638	1639	1641	1642	1641	1641	1639	1639	1638	1637	1635	1635	1634	1634	1634	1634	1633	1633	1634	1634	1635	1635	1635	1635	1637	1637	1635	1634	1634	1634	1633	1633	1633	1633	1634	1634	1635	1635	1637	1637	1638	1639	1641	1642	1645	1645	1648	1649	1649	1649	1649	1650	1650	1650	1650	1652	1652	1652	1652	1650	1650	1650	1649	1649	1646	1645	1644	1642	1642	1642	1642	1642	1641	1639	1639	1639	1638	1638	1637	1635	1635	1635	1634	1634	1635	1634	1635	1635	1635	1635	1637	1637	1638	1638	1638	1639	1641	1641	1642	1644	1644	1645	1646	1646	1648	1649	1649	1649	1650	1649	1649	1649	1649	1649	1648	1648	1649	1648	1648	1648	1649	1648	1646	1642	1641	1639	1638	1637	1637	1637	1637	1637	1639	1639	1641	1641	1642	1644	1644	1644	1644	1644	1645	1645	1644	1642	1642	1642	1641	1641	1639	1639	1639	1639	1639	1639	1639	1639	1639	1641	1642	1642	1642	1644	1644	1645	1645	1646	1648	1648	1649	1650	1650	1650	1652	1650	1652	1653	1653	1653	1653	1653	1652	1650	1650	1650	1649	1649	1649	1649	1649	1649	1649	1648	1646
1650	1652	1653	1655	1656	1659	1662	1663	1667	1669	1669	1670	1670	1671	1674	1676	1677	1678	1681	1681	1683	1683	1683	1680	1678	1676	1674	1670	1669	1666	1663	1662	1663	1663	1664	1666	1666	1667	1669	1669	1670	1671	1671	1673	1674	1676	1674	1674	1674	1673	1673	1671	1670	1670	1669	1667	1667	1664	1663	1660	1657	1655	1653	1652	1650	1648	1646	1646	1645	1644	1644	1642	1642	1642	1642	1642	1642	1642	1642	1642	1642	1642	1642	1641	1642	1642	1642	1642	1644	1644	1642	1642	1642	1642	1642	1644	1644	1645	1645	1646	1646	1648	1648	1648	1648	1648	1648	1648	1646	1645	1642	1641	1637	1634	1633	1631	1631	1631	1631	1633	1634	1637	1639	1644	1648	1650	1655	1656	1657	1660	1660	1663	1663	1664	1664	1663	1663	1663	1663	1662	1660	1657	1657	1656	1655	1653	1653	1652	1652	1650	1650	1650	1650	1649	1649	1649	1649	1649	1649	1649	1649	1648	1648	1648	1646	1646	1646	1645	1646	1646	1646	1648	1649	0	1652	1653	1659	1660	1662	1664	1667	1667	1669	1669	1669	1670	1671	1671	1674	1677	1680	1683	1687	1691	1694	1699	1702	1702	1702	1700	1697	1694	1684	1678	1674	1669	1663	1657	1653	1649	1645	1644	1644	1645	1644	1644	1645	1645	1646	1646	1645	1645	1644	1642	1641	1638	1637	1637	1634	1634	1635	1635	1635	1637	1637	1639	1641	1642	1644	1644	1642	1644	1644	1642	1641	1639	1638	1637	1635	1634	1633	1633	1631	1630	1629	1627	1626	1625	1622	1621	1618	1618	1615	1617	1617	1618	1619	1621	1621	1622	1623	1626	1627	1629	1629	1630	1633	1635	1637	1639	1639	1642	1642	1644	1644	1645	1645	1645	1645	1645	1646	1646	1645	1644	1645	1645	1644	1645	1645	1645	1645	1645	1646	1646	1646	1646	1646	1645	1645	1644	1642	1639	1638	1637	1635	1634	1633	1631	1631	1631	1633	1633	1634	1635	1637	1638	1641	1641	1644	1645	1646	1648	1648	1648	1648	1649	1649	1649	1648	1645	1645	1644	1642	1639	1638	1637	1634	1635	1634	1633	1633	1634	1633	1635	1635	1639	1644	1646	1650	1655	1656	1660	1662	1662	1662	1662	1662	1660	1660	1659	1657	1656	1656	1656	1656	1656	1657	1660	1662	1664	1666	1669	1669	1669	1667	1669	1667	1666	1664	1663	1662	1660	1659	1656	1655	1652	1648	1648	1646	1646	1645	1642	1641	1641	1639	1639	1638	1638	1638	1639	1639	1638	1638	1638	1639	1639	1638	1637	1637	1635	1635	1635	1635	1635	1635	1635	1637	1637	1637	1637	1638	1638	1638	1639	1639	1641	1641	1642	1642	1642	1642	1644	1644	1644	1642	1644	1641	1639	1635	1633	1630	1627	1625	1621	1618	1615	1613	1611	1611	1611	1611	1613	1614	1617	1621	1623	1627	1631	1633	1635	1638	1639	1641	1641	1641	1641	1641	1639	1638	1637	1635	1635	1635	1634	1634	1634	1633	1633	1634	1634	1634	1634	1634	1634	1634	1633	1631	1631	1630	1630	1630	1630	1630	1630	1631	1631	0	1633	1634	1635	0	1637	1639	1641	1644	1645	1646	1648	1648	1649	1649	1649	1649	1649	1649	1649	1649	1648	1648	1646	1646	1645	1642	1641	1641	1638	1638	1638	1637	1637	1637	1637	1635	1635	1634	1634	1634	1633	1633	1633	1633	1633	1633	1633	1634	1634	1634	1634	1635	1635	1635	1637	1637	1637	1638	1639	1639	1641	1642	1642	1644	1645	1645	1646	1648	1648	1648	1648	1648	1648	1646	1646	1646	1646	1645	1645	1645	1644	1645	1645	1645	1644	1641	1639	1639	1638	1635	1635	1635	1635	1637	1637	1638	1638	1638	1641	1641	1641	1641	1641	1641	1641	1641	1641	1641	1641	1639	1638	1638	1638	1637	1638	1637	1637	1635	1637	1637	1637	1638	1638	1638	1639	1639	1641	1641	1641	1642	1645	1645	1646	1648	1649	1649	1650	1650	1652	1653	1655	1655	1655	1653	1652	1652	1650	1650	1650	1649	1649	1648	1648	1648	1649	1646	1645
1648	1649	1650	1650	1652	1655	1655	1657	1659	1660	1662	1664	1664	1664	1667	1669	1671	1671	1674	1674	1676	1676	1676	1674	1673	1670	1670	1667	1666	1663	1662	1660	1662	1663	1663	1663	1664	1663	1664	1666	1666	1667	1669	1667	1667	1667	1667	1667	1669	1667	1666	1666	1666	1666	1664	1663	1662	1660	1657	1655	1653	1650	1649	1648	1646	1645	1645	1644	1642	1642	1642	1642	1642	1642	1642	1642	1642	1641	1642	1642	1641	1641	1641	1641	1641	1641	1642	1642	1642	1642	1642	1642	1642	1642	1642	1642	1642	1644	1644	1645	1646	1646	1646	1646	1646	1646	1646	1646	1645	1644	1642	1639	1635	1633	1630	1629	1629	1629	1629	1629	1630	1631	1634	1637	1644	1646	1650	1652	1655	1657	1659	1660	1663	1663	1663	1663	1663	1662	1660	1659	1657	1656	1655	1653	1652	1652	1650	1650	1649	1648	1648	1648	1648	1648	1646	1648	1646	1648	1648	1648	1646	1646	1646	1646	1645	1644	1644	1642	1642	1644	1644	1644	1645	1648	1649	1650	1653	1656	1657	1659	1660	0	1662	1662	1663	1664	1664	1666	1667	1670	1673	0	1676	1680	1683	1686	1687	1689	1687	1684	1681	1678	0	1669	1664	1659	1655	1650	1648	1645	1644	1642	1642	1644	1644	1645	1645	1645	1645	1645	1645	1641	1639	1638	1637	1635	1634	1633	1631	1631	1633	1633	1634	1635	1635	1638	1639	1641	1642	1642	1641	1641	1641	1639	1638	1637	1635	1634	1633	1631	1630	1630	1630	1627	1627	1626	1623	1621	1619	1618	1615	1614	1613	1611	1611	1613	1613	1614	1615	1618	1621	1622	1625	1626	1627	1630	1631	1634	1637	1638	1639	1639	1641	1642	1641	1642	1642	1639	1639	1639	1641	1641	1641	1641	1642	1642	1642	1642	1644	1644	1644	1645	1645	1645	1645	1646	1645	1644	1644	1644	1641	1639	1638	1637	1634	1633	1631	1630	1629	1630	1629	1630	1631	1631	0	1635	1637	1639	1641	1642	1646	1646	1646	1646	1646	0	1648	1646	1645	1642	1642	1641	1641	1638	1637	1635	1634	1633	1633	1631	1631	1631	1631	1633	1634	1638	1642	1645	1649	1652	1655	1657	1659	1659	1659	1659	1659	1657	1656	1655	1655	1652	1652	1650	1652	1653	1655	1656	1660	1662	1664	1667	1669	1669	1670	1669	1670	1669	1667	1666	1663	1662	1660	1657	1655	1652	1649	1648	1646	1645	1644	1642	1641	1639	1638	1637	1635	1635	1637	1635	1635	1637	1635	1635	1637	1637	1637	1635	1635	1635	1635	1635	1635	1635	1635	1635	1635	1635	1635	1635	1635	1637	1637	1638	1639	1639	1641	1641	1641	1642	1642	1642	1642	1642	1642	1642	1641	1639	1635	1634	1630	1627	1625	1622	1619	1617	1614	1613	1613	1613	1613	1614	1615	1617	1619	1622	1626	1629	1631	1634	1637	1638	1639	1641	1641	1641	1641	1641	1638	1638	1637	1637	1635	1635	1634	1633	1631	1631	1633	1631	1631	1631	1630	1630	1630	1630	1629	1627	1627	1629	1629	1627	1626	1627	1627	1629	1629	1630	1631	1633	1634	1637	0	1639	1642	1644	1645	1646	1648	1648	1648	1648	1648	1646	1646	1646	1645	1644	1642	1642	1642	1639	1638	1637	1635	1634	1633	1633	1631	1631	1633	1631	1631	1630	1631	1629	1630	1630	1630	1630	1630	1630	1631	1631	1631	1633	1633	1633	1633	1633	1634	1634	1634	1634	1635	1637	1637	1638	1639	1641	1641	1642	1644	1644	1645	1645	1645	1645	1645	1645	1644	1644	1642	1642	1641	1641	1641	1641	1641	1641	1641	1638	1638	1637	1635	1635	1634	1634	1634	1634	1635	1637	1637	1637	1637	1638	1639	1639	1639	1639	1639	1639	1639	1639	1638	1638	1638	1637	1637	1637	1635	1635	1635	1634	1633	1634	1634	1634	1634	1634	1634	1634	1635	1637	1637	1637	1639	1641	1642	1644	1644	1646	1646	1648	1649	1650	1652	1653	1653	1653	1653	1653	1652	1652	1650	1649	1649	1649	1649	1649	1648	1646	1645	1644
1646	1646	1645	1646	1646	1648	1648	1649	1650	1652	1655	1656	1657	1659	1660	1663	1664	1666	1667	1669	1670	1670	1670	1667	1667	1664	1664	1663	1662	1659	1659	1659	1659	1659	1659	1659	1659	1660	1660	1662	1662	1663	1663	1663	1663	1663	1663	1663	1663	1663	1663	1663	1663	1662	1660	1659	1659	1656	1653	1652	1649	1648	1646	1645	1644	1644	1642	1641	1641	1641	1641	1641	1641	1641	1642	1642	1641	1641	1641	1641	1639	1639	1639	1639	1639	1641	1641	1641	1641	1642	1642	1641	1642	1642	1642	1642	1642	1644	1644	1645	1645	1645	1645	1645	1646	1645	1645	1645	1645	1644	1642	1639	1635	1633	1630	1627	1627	1626	1626	1626	1627	1630	1631	1634	1639	1642	1646	1649	1653	1656	1657	1659	1660	1660	1660	1660	1660	1659	1657	1657	1655	1653	1652	1650	1650	1649	1648	1648	1646	1645	1646	1645	1645	1644	1644	1644	1645	1645	1645	1645	1645	1644	1644	1644	1642	1642	1641	1641	1641	1639	1641	1642	1644	1645	1646	1648	1649	1650	1652	1653	1655	1656	1656	1655	1656	1656	1656	1659	1659	1660	1663	1664	1667	1670	1671	1673	1673	1673	1671	1669	1667	0	1660	1656	1652	1649	1645	1645	1644	1641	1641	1642	1642	1644	1644	1644	1644	1644	1644	1644	1639	1638	1635	1634	1633	1631	1630	1629	1627	1629	1629	1630	1631	1633	1634	1637	1638	1639	1641	1641	1641	1641	1638	1638	1637	1634	1634	1631	1630	1629	1629	1629	1629	1627	1626	1625	1623	1619	1618	1617	1614	1613	1611	1610	1610	1610	1610	1611	1613	1615	1618	1619	1621	1625	1626	1629	1631	1634	1635	1637	1638	1637	1637	1638	1637	1638	1638	1637	1637	1638	1638	1638	1639	1638	1641	1639	1641	1641	1641	1642	1644	1644	1644	1644	1644	1645	1645	1644	1644	1641	1641	1639	1638	1637	1634	1633	1631	1629	1629	1627	1627	1626	1629	1630	1631	1634	1635	1637	0	1641	1642	1645	1645	1644	1644	1644	1644	1644	1642	1641	1639	1638	1638	1637	1635	1634	1634	1633	1631	1630	1630	1630	1630	1631	1634	1637	1641	1644	1648	1650	1653	1655	1655	1656	1656	1655	1655	1655	1653	1652	1650	1649	1649	1648	1648	1649	1650	1653	1656	1659	1662	1666	1667	1669	1670	1670	1670	1669	1667	1666	1664	1663	1660	1657	1655	1652	1648	1648	1645	1644	1644	1641	1639	1638	1637	1635	1634	1633	1633	1634	1634	1633	1633	1634	1634	1635	1635	1634	1634	1634	1634	1634	1635	1634	1634	1634	1634	1634	1633	1634	1634	1635	1635	1637	1637	1638	1639	1641	1641	1642	1642	1641	1641	1642	1642	1641	1639	1637	1635	1633	1630	1627	1625	1622	1619	1618	1617	1615	1617	1617	1617	1617	1618	1618	1619	1623	1625	1626	1629	1630	1633	1635	1637	1638	1639	1641	1641	1641	1641	1639	1638	1638	1635	1635	1634	1631	1630	1630	1630	1629	1629	1627	1627	1629	1627	1627	1627	1626	1625	1625	1623	1623	1623	1623	1623	1625	1625	1626	1627	1629	1631	1634	1637	1638	0	1641	1644	1644	1646	1646	1646	1646	1645	1645	1644	1642	1641	1641	1638	1637	1635	1634	1633	1633	1631	1630	1629	1629	1629	1627	1627	1627	1627	1627	1627	1626	1626	1626	1627	1627	1627	1629	1629	1630	1630	1630	1630	1630	1630	1630	1631	1631	1631	1633	1633	1634	1634	1635	1637	1637	1638	1639	1639	1641	1641	1642	1642	1641	1641	1641	1639	1638	1638	1638	1638	1637	1637	1635	1637	1637	1635	1633	1631	1631	1630	1630	1630	1631	1631	1633	1634	1635	1634	1635	1635	1637	1637	1637	1637	1637	1637	1638	1638	1638	1637	1637	1635	1635	1635	1634	1634	1633	1633	1633	1631	1630	1630	1630	1630	1630	1630	1630	1631	1633	1631	1633	1634	1635	1638	1639	1641	1644	1644	1645	1645	1646	1648	1650	1652	1652	1652	1652	1650	1650	1650	1649	1649	1648	1648	1648	1646	1648	1645	1642
1645	1644	1644	1642	1642	1642	1644	1644	1645	1646	1648	1649	1650	1652	1655	1657	1659	1660	1662	1662	1662	1663	1662	1662	1660	1657	1657	1656	1653	1653	1652	1653	1655	1653	1653	1653	1655	1655	1655	1656	1656	1657	1657	1657	1659	1657	1659	1659	1659	1659	1659	1659	1659	1657	1657	1656	1655	1653	1650	1648	1646	1644	1642	1641	1641	1639	1639	1639	1639	1639	1638	1639	1641	1641	1641	1639	1639	1639	1639	1639	1639	1639	1639	1638	1639	1639	1641	1641	1641	1641	1641	1642	1641	1642	1642	1642	1642	1644	1644	1644	1645	1645	1645	1646	1646	1645	1645	1645	1645	1644	1642	1641	1635	1634	1631	1629	1629	1626	1626	1626	1626	1627	1629	1631	1635	1639	1642	1646	1649	1652	1655	1656	1657	1657	1659	1657	1656	1656	1655	1653	1650	1648	1646	1646	1645	1645	1644	1642	1642	1641	1642	1641	1641	1641	1641	1642	1642	1642	1644	1644	1644	1644	1642	1642	1641	1639	1638	1638	1638	1638	1638	1638	1639	1641	1644	1645	1645	1648	1648	1649	1650	1650	1649	1649	1650	1650	1650	1652	1650	1652	1653	1653	1656	1657	1659	1660	1660	1659	0	1655	1653	1650	1648	1644	1639	1639	1639	1638	1639	1638	1639	1641	1641	1642	1642	1642	1642	1642	1639	1638	1637	1634	1633	1630	1629	1627	1626	1625	1625	1625	1626	1627	1630	1631	1633	1635	1637	1638	1639	1639	1639	1638	1637	1637	1634	1633	1631	1631	1629	1629	1627	1627	1627	1627	1626	1625	1623	1623	1619	1618	1614	1613	1611	1611	1610	1610	1610	1611	1613	1614	1617	1618	1621	1623	1625	1626	1629	1631	1633	1634	1635	1635	1635	1637	1635	1634	1635	1634	1635	1634	1635	1635	1637	1637	1638	1638	1639	1639	1639	1641	1641	1641	1642	1642	1642	1642	1642	1642	1641	1641	1639	1638	1637	1635	1634	1633	1631	1629	1627	1627	1626	1626	1627	1627	1630	1631	1633	1635	1637	1639	1641	1642	1641	1641	1641	1641	1641	1641	1639	1638	1637	1637	1637	1635	1634	1633	1633	1631	1630	1629	1629	1629	1630	1630	1633	1635	1638	1642	1646	1648	1649	1650	1652	1652	1653	1652	1652	1650	1650	1649	1648	1646	1646	1645	1646	1646	1648	1650	1653	1655	1659	1662	1663	1664	1664	1667	1667	1666	1666	1664	1663	1660	1659	1656	1653	1652	1648	1646	1645	1644	1642	1641	1638	1637	1634	1633	1633	1631	1631	1631	1631	1631	1630	1631	1631	1633	1634	1633	1633	1633	1633	1634	1634	1634	1633	1633	1633	1633	1633	1633	1633	1633	1634	1635	1637	1637	1638	1639	1641	1641	1641	1641	1641	1641	1641	1639	1639	1635	1634	1633	1629	1626	1625	1623	1621	1621	1619	1618	1619	1619	1619	1621	1621	1621	1621	1623	1623	1626	1626	1629	1630	1633	1635	1637	1638	1639	1639	1641	1641	1639	1638	1637	1635	1634	1633	1630	1627	1627	1626	1626	1625	1625	1625	1625	1623	1625	1623	1623	1622	1622	1622	1621	1619	1621	1619	1621	1622	1622	1623	1626	1629	1633	1635	1637	1639	0	1641	1644	1644	1645	1645	1644	1642	1642	1641	1639	1638	1635	1633	1633	1631	1630	1629	1627	1627	1626	1626	1626	1626	1625	1625	1625	1623	1623	1623	1623	1623	1623	1625	1625	1625	1626	1626	1627	1627	1629	1629	1629	1629	1629	1629	1629	1629	1629	1629	1630	1630	1631	1633	1634	1634	1635	1637	1637	1637	1638	1638	1638	1638	1635	1635	1634	1634	1634	1633	1633	1631	1630	1630	1633	1631	1630	1629	1629	1629	1629	1630	1630	1630	1631	1633	1633	1634	1634	1634	1634	1634	1634	1634	1635	1635	1635	1635	1634	1635	1635	1635	1634	1633	1633	1633	1633	1631	1630	1630	1629	1627	1626	1626	1626	1625	1626	1626	1627	1627	1629	1630	1631	1634	1635	1637	1638	1639	1639	1641	1642	1644	1645	1646	1648	1648	1648	1648	1648	1648	1648	1648	1646	1646	1646	1646	1645	1644	1642
1641	1641	1639	1639	1638	1638	1638	1638	1639	1641	1644	1645	1646	1648	1650	1652	1653	1655	1656	1656	1656	1656	1656	1655	1650	1650	1649	1648	1646	1645	1645	1646	1646	1648	1648	1648	1649	1649	1649	1650	1650	1652	1652	1652	1652	1652	1653	1655	1655	1656	1655	1656	1655	1655	1653	1653	1650	1648	1646	1644	1642	1639	1639	1637	1638	1637	1638	1637	1637	1637	1638	1638	1638	1638	1638	1638	1638	1638	1638	1638	1638	1638	1638	1638	1639	1639	1639	1639	1641	1641	1641	1642	1642	1642	1642	1644	1644	1645	1645	1645	1646	1646	1646	1646	1646	1646	1646	1646	1646	1645	1644	1642	1639	1635	1633	1630	1629	1627	1626	1625	1626	1626	1629	1630	1631	1635	1638	1641	1645	1648	1649	1652	1653	1653	1655	1655	1655	1653	1650	1649	1648	1644	1642	1641	1639	1639	1638	1638	1638	1637	1638	1638	1638	1638	1638	1638	1639	1641	1642	1642	1642	1641	1642	1641	1639	1638	1637	1637	1637	1638	1637	1638	1639	1639	1642	1642	1644	1645	1645	1645	1645	1645	1645	1645	1645	1644	1644	1644	1644	1644	1645	1645	1645	1646	1646	1646	1646	1645	1644	1642	1641	1638	1637	1634	1633	1633	1634	1635	1635	1635	1638	1638	1641	1641	1641	1641	1639	1638	1637	1635	1633	1630	1627	1626	1625	1623	1621	1621	1621	1622	1623	1626	1627	1629	1631	1634	1635	1637	1638	1638	1638	1635	1635	1634	1634	1631	1630	1630	1629	1627	1627	1627	1627	1627	1626	1626	1626	1625	1623	1619	1617	1615	1613	1613	1611	1611	1611	1611	1611	1614	1614	1618	1617	1619	1622	1625	1627	1629	1631	1633	1634	1634	1634	1634	1634	1633	1631	1633	1633	1633	1633	1633	1634	1634	1635	1637	1637	1638	1638	1639	1639	1641	1641	1641	1641	1642	1641	1641	1639	1639	1638	1637	1637	1635	1635	1633	1631	1630	1629	1627	1627	1626	1626	1626	1629	1629	1630	1631	1633	1637	1638	1639	1638	1638	1638	1639	1638	1639	1637	1637	1635	1635	1635	1635	1634	1633	1631	1630	1629	1629	1629	1627	1627	1629	1630	1631	1635	1638	1641	1644	1645	1646	1648	1648	1648	1648	1648	1648	1646	1645	1645	1644	1644	1642	1642	1644	1645	1646	1649	1652	1655	1659	1659	1660	1662	1663	1663	1663	1662	1660	1659	1659	1656	1655	1652	1646	1645	1645	1644	1642	1641	1638	1638	1635	1634	1631	1631	1630	1630	1630	1629	1629	1629	1630	1630	1631	1631	1630	1630	1630	1630	1631	1631	1631	1631	1631	1631	1631	1630	1630	1631	1631	1633	1634	1634	1635	1637	1638	1638	1639	1639	1639	1639	1639	1639	1638	1638	1635	1634	1631	1629	1626	1625	1623	1622	1621	1621	1621	1621	1621	1622	1622	1622	1623	1622	1623	1625	1625	1625	1626	1627	1630	1633	1634	1635	1637	1637	1638	1638	1637	1634	1634	1633	1630	1627	1626	1625	1622	1623	1622	1621	1619	1621	1619	1621	1619	1619	1619	1619	1619	1618	1618	1618	1617	1618	1618	1619	1619	1621	1625	1626	1630	1633	1635	1638	1639	0	1642	0	1644	1642	1641	1641	1639	1638	1637	1634	1633	1631	1630	1627	1627	1625	1625	1623	1623	1623	1623	1622	1622	1622	1622	1622	1621	1621	1621	1621	1621	1622	1622	1623	1623	1625	1625	1626	1626	1626	1626	1625	1625	1626	1626	1625	1625	1625	1626	1626	1627	1629	1629	1630	1631	1633	1633	1634	1634	1634	1634	1634	1633	1633	1631	1631	1630	1630	1629	1629	1627	1627	1629	1629	1629	1627	1627	1627	1629	1629	1630	1630	1630	1631	1633	1633	1633	1633	1634	1634	1634	1634	1633	1634	1633	1633	1633	1633	1633	1633	1633	1631	1631	1631	1630	1629	1627	1626	1625	1623	1623	1622	1621	1621	1621	1622	1622	1622	1623	1625	1627	1629	1631	1631	1634	1634	1634	1635	1638	1639	1639	1641	1641	1641	1642	1642	1642	1641	1641	1641	1641	1641	1641	1641	1641	1639	1637
1638	1637	1635	1635	1634	1635	1635	1634	1637	1637	1638	1641	1641	1644	1646	1648	1649	1652	1650	1652	1652	1650	1649	1646	1645	1642	1642	1641	1639	1638	1638	1639	1641	1642	1642	1644	1642	1644	1645	1645	1645	1645	1646	1646	1646	1648	1648	1649	1649	1652	1650	1652	1652	1650	1649	1648	1646	1644	1642	1639	1638	1635	1634	1634	1634	1635	1635	1635	1635	1635	1637	1637	1637	1637	1637	1637	1637	1637	1637	1637	1637	1637	1638	1638	1638	1639	1641	1641	1641	1641	1642	1642	1642	1642	1644	1644	1645	1645	1646	1646	1648	1648	1648	1649	1648	1649	1649	1649	1649	1648	1646	1645	1642	1639	1635	1633	1631	1629	1629	1627	1627	1627	1627	1629	1630	1631	1634	1637	1639	1644	1645	1646	1649	1650	1652	1650	1650	1649	1648	1645	1642	1639	1638	1637	1637	1635	1634	1634	1634	1634	1634	1634	1635	1635	1635	1637	1638	1638	1638	1639	1639	1641	1639	1639	1638	1638	1637	1637	1638	1638	1638	1639	1639	1639	1642	1642	1644	1644	1644	1644	1644	1642	1641	1641	1639	1639	1638	1638	1638	1638	1637	1637	1637	1637	1635	1635	1634	1633	1631	1630	1630	1629	1626	1626	1626	1627	1630	1630	1633	1634	1635	1637	1638	1638	1638	1638	1637	1635	1634	1631	1629	1626	1623	1622	1621	1619	1618	1618	1618	1619	1621	1623	1625	1627	1630	1633	1634	1635	1635	1635	1635	1635	1634	1633	1631	1630	1629	1629	1627	1627	1626	1627	1627	1627	1627	1627	1627	1627	1626	1622	1621	1618	1615	1617	1615	1614	1613	1613	1611	1615	1617	1618	1618	1621	1621	1625	1627	1627	1630	1631	1631	1633	1633	1631	1631	1630	1630	1629	1630	1629	1630	1630	1631	1631	1633	1634	1635	1635	1637	1638	1638	1638	1639	1638	1638	1638	1639	1638	1638	1638	1637	1637	1635	1635	1634	1634	1631	1630	1629	1627	1626	1626	1626	1625	1627	1629	1630	1630	1631	1633	1635	1635	1635	1637	1637	1637	1638	1638	1637	1637	1637	1635	1635	1635	1634	1633	1631	1630	1629	1627	1626	1626	1625	1626	1626	1629	1630	1631	1634	1637	1638	1639	1641	1642	1642	1642	1642	1642	1641	1641	1641	1639	1639	1638	1639	1641	1641	1642	1645	1648	1650	1653	1652	1653	1655	1657	1657	1657	1656	1656	1655	1655	1653	1650	1646	1645	1644	1642	1642	1641	1639	1638	1637	1635	1633	1631	1630	1629	1629	1627	1626	1626	1626	1627	1627	1627	1629	1627	1627	1627	1629	1629	1630	1630	1630	1630	1630	1629	1629	1629	1629	1630	1630	1631	1633	1633	1634	1635	1637	1637	1637	1637	1635	1637	1637	1637	1635	1634	1633	1630	1629	1626	1623	1623	1623	1622	1622	1623	1623	1625	1625	1625	1625	1623	1623	1623	1623	1623	1623	1625	1626	1627	1629	1630	1631	1633	1634	1634	1633	1633	1631	1630	1627	1627	1625	1622	1621	1619	1618	1617	1617	1615	1615	1615	1617	1615	1615	1615	1615	1617	1617	1617	1615	1614	1615	1615	1617	1618	1619	1622	1623	1627	1630	1633	1635	1638	1639	1641	1641	1641	1641	1639	1637	1637	1635	1633	1630	1629	1627	1626	1625	1623	1622	1621	1621	1621	1621	1621	1621	1619	1619	1619	1619	1619	1619	1618	1618	1618	1619	1619	1621	1621	1621	1622	1622	1623	1623	1623	1623	1622	1622	1622	1622	1622	1622	1622	1623	1623	1625	1626	1627	1629	1629	1630	1630	1631	1630	1631	1630	1630	1630	1629	1629	1629	1626	1626	1626	1625	1626	1627	1626	1626	1626	1626	1626	1627	1627	1629	1629	1630	1630	1630	1631	1631	1631	1631	1631	1631	1631	1631	1630	1630	1630	1630	1630	1630	1631	1630	1630	1629	1629	1629	1627	1625	1625	1622	1621	1619	1617	1617	1615	0	1617	1618	1618	0	1621	1622	1625	1626	1627	1629	1630	1630	1631	1631	1634	1634	1635	1635	1635	1635	1635	1635	1635	1634	1635	1634	1635	1634	1634	1627	1626	1625
1635	1634	1633	1631	1631	1630	1631	1631	1633	1634	1635	1637	1638	1639	1642	1645	1646	1648	1648	1648	1648	1645	1644	1641	1639	1638	1637	1635	1634	1634	1634	1635	1635	1637	1637	1637	1637	1638	1638	1638	1638	1641	1639	1641	1642	1642	1642	1644	1646	1648	1648	1646	1648	1646	1645	1644	1641	1639	1638	1635	1631	1633	1631	1631	1631	1631	1633	1633	1633	1634	1633	1634	1635	1635	1634	1634	1634	1634	1634	1635	1637	1637	1637	1638	1639	1639	1641	1642	1642	1642	1644	1644	1644	1644	1645	1645	1646	1646	1648	1649	1650	1650	1650	1652	1652	1652	1652	1652	1652	1649	1649	1648	1645	1642	1638	1635	1634	1633	1630	1629	1629	1627	1627	1627	1629	1629	1631	1633	1635	1638	1639	1642	1645	1646	1648	1648	1646	1646	1645	1642	1639	1637	1634	1633	1631	1631	1630	1630	1630	1630	1631	1631	1631	1631	1631	1633	1635	1635	1637	1638	1638	1638	1637	1637	1637	1637	1637	1638	1638	1639	1641	1642	1642	1644	1644	1644	1642	1642	1642	1641	1641	1639	1638	1638	1637	1635	1635	1635	1634	1634	1633	1633	1631	1630	1629	1627	1626	1623	1622	1621	1621	1619	1619	1619	1621	1622	1625	1627	1629	1630	1631	1633	1634	1635	1635	1634	1634	1633	1630	1629	1626	1623	1621	1619	1618	1617	1615	1617	1617	1618	1619	1622	1623	1626	1629	1630	1631	1634	1634	1634	1634	1633	1631	1630	1629	1629	1627	1626	1626	1626	1627	1627	1629	1629	1629	1630	1630	1630	1629	1627	1626	1622	1619	1623	1622	1621	1619	1618	1617	1617	1617	1618	1618	1619	1621	1623	1625	1627	1629	1629	1630	1630	1630	1629	1627	1627	1627	1626	1626	1626	1627	1627	1627	1629	1630	1631	1633	1634	1634	1635	1635	1635	1635	1637	1635	1637	1637	1637	1635	1635	1635	1634	1634	1635	1634	1634	1631	1631	1630	1627	1627	1626	1626	1626	1626	1627	1627	1629	1630	1631	1633	1634	1634	1634	1635	1635	1637	1635	1637	1637	1635	1637	1637	1637	1635	1634	1633	1630	1629	1627	1625	1625	1623	1622	1623	1623	1625	1626	1627	1629	1630	1633	1633	1634	1634	1635	1637	1637	1635	1635	1635	1635	1634	1635	1635	1637	1638	1638	1641	1644	1646	1648	1648	1648	1650	1652	1652	1652	1650	1650	1649	1649	1648	1644	1642	1641	1639	1639	1638	1638	1637	1635	1635	1634	1633	1630	1629	1627	1627	1626	1625	1625	1625	1623	1625	1625	1625	1623	1623	1623	1625	1625	1626	1626	1627	1627	1626	1626	1626	1626	1626	1627	1627	1629	1630	1630	1631	1633	1633	1634	1633	1633	1633	1633	1633	1633	1633	1631	1630	1629	1627	1626	1625	1625	1625	1623	1623	1623	1626	1626	1627	1626	1626	1625	1625	1625	1623	1623	1622	1623	1623	1625	1626	1626	1627	1629	1630	1630	1629	1629	1627	1626	1623	1622	1621	1618	1615	1614	1614	1611	1610	1611	1610	1611	1611	1613	1613	1613	1613	1614	1614	1614	1614	1613	1614	1614	1614	1617	1618	1619	1622	1625	1629	1631	1634	1635	1638	1639	1639	1639	1638	1637	1635	1634	1631	1630	1626	1625	1623	1622	1621	1621	1619	1617	1617	1617	1617	1617	1615	1618	1617	1617	1617	1617	1615	1615	1617	1617	1617	1617	1617	1618	1618	1619	1619	1619	1619	1619	1619	1619	1619	1619	1618	1618	1618	1619	1619	1622	1622	1623	1623	1625	1626	1626	1627	1627	1626	1627	1627	1626	1626	1626	1626	1625	1625	1623	1623	1622	1623	1623	1623	1623	1623	1623	1623	1625	1625	1626	1627	1627	1629	1629	1629	1629	1630	1629	1629	1629	1629	1629	1629	1629	1629	1629	1629	1629	1629	1629	1629	1629	1627	1626	1626	1625	1622	1621	1619	1617	1615	1614	1611	1613	1614	1615	1615	1617	1619	1619	1621	1622	1623	1623	1625	1626	1627	1629	1629	1629	1630	1630	1630	1630	1629	1629	1629	1629	1621	1621	1621	1619	1621	1621	1621	1619
1631	1629	1629	1627	1627	1627	1627	1629	1629	1630	1631	1633	1635	1637	1639	1642	1644	1645	1645	1645	1645	1642	1639	1638	1635	1635	1634	1633	1631	1630	1629	1629	1630	1630	1631	1631	1631	1631	1633	1633	1633	1634	1634	1634	1637	1637	1638	1639	1642	1642	1644	1644	1644	1641	1641	1639	1637	1634	1633	1630	1629	1629	1629	1627	1627	1629	1630	1630	1629	1630	1630	1631	1631	1631	1631	1631	1631	1633	1633	1634	1634	1635	1635	1637	1638	1639	1639	1641	1641	1642	1642	1642	1644	1645	1646	1646	1648	1649	1650	1653	1653	1655	1655	1655	1656	1655	1655	1655	1655	1653	1653	1650	1649	1646	1644	1639	1638	1635	1633	1631	1630	1630	1629	1629	1629	1629	1630	1631	1635	1637	1639	1638	1641	1642	1644	1642	1642	1639	1638	1637	1634	1631	1629	1627	1627	1626	1626	1626	1626	1627	1627	1627	1627	1629	1629	1629	1631	1631	1633	1634	1634	1633	1633	1633	1634	1635	1635	1638	1639	1641	1642	1644	1644	1644	1645	1645	1642	1642	1641	1639	1638	1638	1635	1635	1634	1633	1633	1631	1631	1630	1629	1627	1627	1626	1625	1623	1622	1621	1618	1617	1615	1617	1615	1617	1619	1621	1623	1625	1626	0	1629	0	1631	1631	1631	1631	1630	1629	1627	1625	1622	1621	1618	1617	1615	1615	1614	1614	1615	1615	1618	1621	1622	1625	1627	1629	1630	1631	1631	1631	1631	1631	1629	1629	1627	1626	1626	1626	1626	1626	1626	1629	1630	1631	1631	1633	1633	1633	1639	1638	1637	1635	1633	1630	1627	1626	1623	1622	1621	1618	1619	1619	1618	1619	1621	1622	1623	1623	1625	1625	1626	1626	1626	1625	1625	1625	1623	1623	1623	1625	1625	1625	1626	1626	1629	1629	1630	1631	1633	1633	1634	1633	1634	1634	1634	1634	1634	1634	1634	1633	1634	1634	1634	1635	1635	1634	1633	1633	1631	1631	1630	1629	1627	1627	1627	1629	1629	1629	1630	1630	1631	1635	1634	1634	1635	1635	1637	1637	1638	1638	1638	1639	1638	1639	1638	1637	1634	1631	1630	1627	1625	1623	1621	1621	1619	1619	1619	1619	1621	1621	1622	1623	1625	1626	1627	1627	1629	1631	1630	1631	1631	1631	1631	1631	1633	1634	1634	1637	1637	1639	1641	1642	1641	1642	1644	1645	1645	1645	1645	1644	1642	1642	1639	1638	1637	1635	1635	1635	1635	1635	1634	1634	1633	1631	1630	1629	1626	1626	1625	1623	1623	1622	1621	1621	1621	1621	1621	1621	1619	1621	1622	1623	1625	1625	1625	1625	1626	1625	1625	1625	1625	1625	1625	1626	1626	1627	1629	1629	1630	1630	1629	1629	1629	1630	1629	1629	1629	1629	1627	1627	1625	1623	1623	1625	1623	1623	1625	1626	1626	1627	1627	1629	1627	1626	1626	1625	1625	1622	1622	1622	1622	1622	1623	1623	1623	1625	1626	1626	1626	1625	1623	1622	1621	1617	1615	1614	1611	1609	1607	1607	1606	1606	1606	1606	1606	1607	1607	1609	1610	1611	1611	1611	1613	1613	1613	1613	1614	1615	1617	1619	1621	1625	1627	1630	1631	1635	1635	1638	1638	1638	1637	1634	1633	1631	1629	1627	1625	1622	1621	1619	1618	1617	1617	1614	1614	1614	1614	1614	1613	1614	1614	1614	1615	1614	1614	1614	1614	1614	1614	1615	1615	1615	1617	1617	1617	1617	1617	1617	1617	1617	1615	1615	1615	1615	1615	1617	1617	1618	1618	1619	1619	1621	1622	1622	1623	1623	1623	1623	1623	1623	1623	1623	1623	1622	1622	1622	1622	1621	1621	1622	1622	1622	1622	1622	1623	1623	1623	1625	1625	1626	1626	1627	1627	1629	1629	1627	1627	1627	1627	1626	1626	1626	1626	1626	1626	1627	1627	1627	1627	1626	1626	1625	1625	1622	1621	1618	1617	1614	1611	1611	1610	1610	1611	1611	1613	1613	1614	1615	1617	1617	1619	1619	1621	1622	1623	1623	1625	1626	1626	1626	1626	1621	1619	1619	1617	1615	1615	1614	1613	1613	1613	1613	1614	1614
1629	1626	1625	1625	1625	1625	1625	1626	1627	1629	1630	1631	1633	1635	1637	1639	1642	1644	1645	1645	1642	1642	1639	1637	1634	1633	1631	1630	1629	1627	1627	1626	1626	1626	1626	1627	1627	1627	1627	1629	1629	1629	1629	1629	1630	1631	1634	1634	1637	1638	1639	1639	1639	1638	1637	1634	1634	1631	1630	1627	1626	1626	1626	1626	1625	1626	1626	1626	1626	1627	1627	1629	1629	1629	1629	1629	1629	1629	1630	1631	1631	1634	1634	1635	1635	1638	1639	1641	1641	1642	1642	1644	1645	1646	1646	1648	1649	1652	1655	1656	1657	1657	1659	1659	1659	1660	1659	1657	1657	1656	1656	1653	1650	1649	1646	1645	1641	1639	1637	1634	1633	1631	1630	1629	1629	1629	1629	1631	1634	1635	1635	1637	1638	1638	1639	1638	1637	1637	1635	1633	1631	1629	1627	1626	1626	1625	1625	1623	1623	1623	1625	1623	1625	1625	1626	1626	1627	1627	1629	1630	1630	1630	1630	1630	1631	1633	1635	1637	1639	1642	1644	1645	1645	1645	1644	1644	1642	1641	1639	1638	1637	1635	1634	1633	1631	1631	1630	1630	1629	1627	1627	1626	1625	1623	1622	1621	1618	1617	1617	1614	1613	1614	1613	1614	1615	1618	1621	1621	1623	1623	1626	1626	1627	1629	1629	1627	1627	1626	1623	1622	1619	1618	1615	1614	1614	1614	1613	1613	1614	1615	1618	1618	1621	1622	1623	1626	1629	1630	1630	1630	1630	1627	1626	1625	1625	1621	1621	1622	1622	1623	1625	1629	1630	1633	1635	1638	1642	1645	1646	1646	1646	1645	1642	1639	1638	1635	1629	1627	1625	1622	1621	1621	1618	1618	1619	1619	1621	1622	1621	1622	1622	1622	1622	1621	1621	1622	1619	1619	1621	1621	1622	1622	1625	1625	1626	1627	1629	1629	1630	1630	1630	1630	1630	1630	1630	1631	1630	1630	1630	1630	1631	1633	1633	1633	1633	1634	1633	1633	1633	1633	1631	1631	1630	1629	1629	1629	1629	1629	1629	1631	1631	1634	1635	1635	1637	1638	1639	1641	1641	1642	1642	1644	1642	1644	1642	1639	1637	1634	1631	1627	1625	1622	1619	1618	1615	1614	1614	1614	1613	1614	1614	1617	1617	1619	1621	1621	1623	1626	1625	1626	1627	1629	1627	1630	1630	1631	1633	1633	1634	1634	1635	1637	1635	1635	1637	1637	1637	1637	1637	1635	1635	1634	1633	1631	1631	1630	1630	1631	1631	1631	1631	1630	1630	1629	1629	1626	1626	1625	1623	1623	1621	1621	1619	1619	1618	1618	1618	1618	1618	1619	1621	1621	1622	1623	1623	1625	1625	1625	1623	1623	1622	1622	1622	1623	1625	1625	1625	1626	1626	1626	1625	1625	1625	1625	1625	1623	1625	1625	1625	1623	1623	1622	1622	1623	1623	1623	1625	1626	1627	1629	1629	1629	1629	1627	1627	1626	1625	1623	1622	1621	1621	1621	1621	1621	1621	1622	1622	1622	1622	1621	1619	1618	1617	1614	1613	1607	1606	1605	1605	1602	1602	1602	1602	1604	1604	1605	1605	1606	1607	1609	1610	1610	1611	1611	1613	1613	1614	1615	1617	1618	1621	1623	1626	1629	1631	1634	1635	1635	1635	1635	1635	1633	1631	1629	1627	1623	1621	1619	1618	1617	1615	1614	1614	1611	1611	1611	1611	1611	1611	1611	1611	1613	1613	1613	1613	1613	1613	1613	1613	1613	1613	1614	1614	1614	1614	1614	1614	1614	1614	1614	1613	1613	1613	1613	1613	1614	1614	1615	1615	1615	1617	1618	1618	1619	1619	1621	1619	1621	1621	1621	1621	1621	1621	1621	1621	1621	1619	1619	1619	1621	1619	1621	1619	1619	1621	1621	1621	1622	1622	1623	1625	1625	1625	1626	1625	1625	1625	1625	1625	1625	1625	1625	1625	1625	1625	1625	1625	1625	1625	1623	1623	1623	1622	1619	1617	1615	1614	1610	1610	1609	1607	1609	1609	1609	1609	1610	1611	1613	1614	1615	1615	1615	1618	1618	1619	1621	1617	1618	1618	1618	1618	1617	1614	1614	1611	1610	1609	1607	1607	1606	1606	1607	1609	1609
1623	1623	1621	1621	1621	1621	1622	1623	1625	1627	1629	1630	0	1633	1637	1638	1641	1644	1644	1644	1644	1642	1638	1637	1634	1633	1631	1630	1629	1626	1625	1623	1623	1623	1623	1623	1623	1623	1623	1625	1623	1623	1625	1625	1625	1626	1627	1630	1631	1634	1634	1637	1635	1635	1633	1633	1629	1626	1626	1625	1623	1623	1623	1623	1623	1622	1623	1623	1623	1625	1625	1626	1626	1626	1626	1626	1626	1626	1627	1629	1629	1630	1631	1633	1634	1635	1637	1638	1639	1639	1641	1642	1644	1646	1648	1649	1650	1653	1656	1657	1659	1659	1662	1662	1663	1662	1662	1660	1659	1659	1657	1656	1653	1652	1650	1649	1646	1642	1639	1637	1637	1634	1633	1630	1630	1630	1629	1631	1633	1633	1634	1635	1635	1635	1635	1634	1633	1633	1631	1629	1627	1626	1626	1623	1622	1622	1622	1621	1622	1622	1621	1622	1622	1622	1623	1625	1625	1625	1626	1626	1626	1626	1626	1626	1629	1630	1633	1635	1638	1641	1642	1644	1644	1644	1644	1644	1641	1639	1638	1635	1634	1633	1631	1630	1629	1629	1627	1626	1626	1625	1625	1623	1623	1622	1621	1619	1615	1614	1613	1611	1611	1611	1611	1611	1614	1615	1615	1617	1618	1621	1622	1622	1623	1625	1625	1625	1623	1622	1621	1619	1618	1615	1614	1614	1613	1611	1611	1613	1613	1614	1615	1615	1618	1621	1622	1623	1626	1626	1627	1623	1623	1622	1619	1619	1618	1618	1618	1618	1619	1621	1623	1626	1629	1631	1634	1638	1639	1644	1646	1648	1649	1649	1646	1645	1644	1641	1638	1634	1629	1627	1625	1622	1619	1618	1618	1618	1618	1618	1618	1618	1617	1618	1618	1618	1617	1618	1617	1615	1617	1617	1619	1619	1621	1622	1623	1625	1626	1626	1626	1627	1627	1626	1626	1627	1626	1627	1627	1626	1626	1626	1626	1627	1629	1630	1631	1633	1633	1633	1633	1633	1633	1633	1630	1629	1629	1629	1627	1629	1627	1629	1631	1633	1634	1637	1639	1642	1644	1646	1648	1648	1648	1649	1649	1648	1646	1644	1641	1637	1634	1629	1626	1622	1618	1615	1611	1609	1607	1607	1606	1607	1606	1609	1609	1611	1615	1617	1618	1619	1621	1623	1625	1625	1625	1626	1627	1627	1629	1630	1631	1631	1633	1633	1631	0	1631	1631	1631	1631	1630	1629	1629	1627	1626	1625	1625	1625	1625	1626	1626	1627	1627	1627	1627	1626	1626	1625	1623	1623	1622	1621	1621	1619	1618	1618	1618	1618	1618	1617	1617	1618	1619	1621	1622	1623	1623	1625	1625	1623	1622	1622	1621	1621	1621	1621	1621	1622	1622	1622	1622	1621	1621	1619	1619	1619	1619	1619	1621	1621	1619	1619	1619	1619	1619	1622	1622	1621	1622	1625	1626	1627	1627	1629	1629	1627	1626	1627	1625	1622	1621	1621	1619	1618	1618	1618	1619	1618	1619	1619	1618	1617	1617	1614	1613	1610	1606	1605	1604	1602	1601	1601	1600	1600	1600	1600	1600	1601	1602	1604	1606	1607	1609	1610	1611	1611	1613	1613	1614	1615	1615	1617	1618	1622	1625	1626	1629	1630	1633	1634	1634	1634	1633	1631	1629	1626	1623	1622	1619	1617	1614	1613	1611	1611	1610	1609	1607	1607	1609	1609	1609	1609	1609	1610	1611	1611	1611	1611	1611	1611	1613	1613	1613	1613	1613	1613	1613	1613	1613	1611	1611	1611	1611	1611	1610	1610	1610	1611	1611	1613	1614	1614	1614	1614	1615	1617	1618	1618	1618	1618	1619	1619	1619	1619	1619	1618	1618	1619	1619	1619	1619	1619	1618	1618	1618	1618	1618	1618	1619	1619	1621	1621	1622	1622	1622	1622	1622	1622	1622	1622	1622	1623	1622	1622	1622	1622	1622	1622	1622	1622	1621	1621	1621	1619	1618	1618	1615	1614	1610	1607	1607	1606	1605	1605	1606	1607	1607	1607	1609	1610	1611	1613	1610	1610	1611	1611	1613	1614	1614	1614	1615	1614	1614	1613	1611	1610	1607	1605	1604	1604	1602	1602	1602	1604	1605	1605
1619	1619	1618	1618	1618	1618	1619	1621	1622	1625	1626	1629	1631	0	1634	1637	1639	1642	1645	1645	1644	1642	1639	1637	1635	1633	1630	1627	1626	1625	1622	1622	1621	1621	1619	1618	1619	1619	1618	1619	1619	1619	1619	1621	1619	1622	1623	1625	1627	1629	1631	1631	1631	1631	1630	1629	1625	1623	1623	1622	1621	1622	1621	1621	1619	1619	1621	1621	1621	1622	1622	1623	1623	1623	1622	1623	1623	1623	1623	1625	1625	1626	1626	1629	1630	1631	1634	1635	1637	1638	1639	1641	1644	1645	1646	1649	1650	1653	1655	1657	1659	1660	1660	1663	1663	1663	1662	1660	1660	1660	1659	1657	1656	1653	1652	1650	1650	1648	1644	1641	1639	1637	1635	1633	1630	1629	1629	1629	1630	1631	1631	1630	1631	1630	1630	1630	1629	1629	1627	1626	1626	1625	1622	1622	1622	1621	1619	1619	1619	1621	1621	1621	1621	1619	1621	1621	1621	1622	1622	1622	1622	1622	1623	1623	1625	1627	1630	1631	1635	1637	1641	1641	1642	1642	1642	1641	1638	1637	1635	1633	1631	1629	1627	1627	1626	1625	1625	1625	1625	1625	1623	1623	1622	1619	1619	1617	1614	1613	1611	1610	1610	1610	1610	1611	1611	1611	1614	1615	1615	1617	1618	1619	1619	1621	1621	1621	1621	1619	1618	1617	1615	1614	1613	1613	1611	1611	1611	1611	1613	1611	1614	1614	1617	1615	1617	1618	1618	1619	1619	1621	1619	1618	1617	1615	1615	1614	1614	1615	1617	1618	1619	1622	1626	1629	1631	1634	1637	1641	1645	1646	1649	1649	1649	1648	1646	1645	1642	1638	1633	1630	1627	1625	1621	1619	1617	1617	1617	1615	1614	1614	1614	1614	1614	1614	1614	1613	1613	1611	1613	1613	1614	1614	1615	1617	1618	1619	1621	1622	1622	1623	1623	1623	1623	1623	1623	1623	1623	1621	1621	1622	1622	1623	1623	1626	1629	1629	1630	1631	1631	1631	1633	1633	1630	1629	1627	1627	1627	1626	1626	1626	1629	1631	1634	1637	1641	1644	1646	0	1649	1650	1652	1652	1653	1653	1650	1648	1645	1641	1635	1631	1626	1622	1617	1613	1609	1605	1604	1600	1601	1600	1601	1604	1605	1609	1610	0	1613	1615	1617	1619	1621	1621	1622	1625	1625	1626	1627	1627	1627	1629	1629	1629	1627	1627	1627	1626	1625	1626	1623	1623	1621	1621	1619	1619	1618	1619	1619	1621	1622	1623	1623	1625	1625	1623	1623	1623	1622	1622	1621	1621	1621	1619	1618	1618	1618	1618	1618	1617	1618	1618	1619	1621	1622	1622	1623	1625	1623	1623	1622	1621	1621	1619	1618	1618	1618	1618	1618	1618	1618	1617	1615	1615	1615	1615	1614	1615	1615	1615	1615	1615	1615	1615	1617	1618	1618	1618	1619	1622	1623	1625	1626	1627	1627	1626	1626	1626	1625	1622	1621	1619	1619	1618	1617	1617	1615	1615	1615	1614	1613	1613	1611	1610	1607	1605	1604	1602	1600	1598	1598	1598	1597	1597	1597	1597	1598	1600	1601	1602	1605	1606	1609	1609	1610	1610	1611	1611	1613	1614	1614	1615	1617	1621	1622	1625	1626	1627	1629	1631	1631	1631	1630	1627	1626	1623	1622	1619	1617	1614	1611	1610	1609	1607	1607	1606	1605	1605	1606	1606	1606	1607	1609	1609	1610	1611	1611	1610	1611	1611	1611	1611	1611	1611	1611	1613	1611	1611	1611	1610	1610	1610	1610	1610	1610	1609	1609	1610	1610	1611	1611	1611	1613	1613	1614	1615	1615	1617	1617	1617	1617	1618	1618	1618	1618	1618	1618	1618	1618	1618	1618	1618	1618	1618	1617	1617	1617	1617	1617	1618	1618	1618	1618	1618	1618	1619	1619	1619	1619	1619	1621	1621	1619	1619	1619	1619	1619	1619	1619	1618	1618	1618	1618	1617	1615	1614	1611	1607	1607	1605	1605	1604	1604	1604	1604	1605	1605	1604	1604	1604	1606	1606	1607	1607	1607	1607	1609	1610	1610	1611	1611	1611	1610	1610	1607	1606	1604	1602	1600	1598	1597	1597	1597	1598	1600	1601
1615	1614	1614	1615	1615	1617	1617	1618	1619	1622	1625	1626	1630	0	1634	1637	1639	1642	1645	1645	1645	1644	1641	1638	1634	1633	1630	1629	1625	1622	1621	1619	1618	1618	1617	1615	1615	1615	1615	1615	1615	1615	1615	1615	1617	1617	1619	1621	1622	1623	1625	1626	1629	1626	1626	1623	1622	1622	1621	1619	1619	1618	1618	1618	1617	1618	1617	1618	1618	1618	1619	1621	1621	1621	1621	1621	1621	1621	1619	1621	1621	1622	1622	1625	1626	1627	1630	1631	1634	1635	1638	1639	1641	1644	1645	1646	1649	1650	1653	1656	1657	1657	1660	1662	1662	1662	1662	1662	1660	1660	1660	1657	1656	1655	1653	1652	1652	1650	1648	1645	1642	1639	1637	1634	1631	1629	1627	1627	1626	1626	1626	1626	1626	1626	1626	1626	1625	1623	1625	1623	1621	1621	1619	1619	1619	1618	1617	1617	1617	1617	1617	1618	1618	1618	1618	1618	1618	1618	1618	1618	1619	1619	1619	1619	1621	1623	1625	1629	1633	1634	1637	1638	1638	1639	1638	1638	1635	1633	1631	1629	1627	1626	1625	1623	1622	1622	1622	1622	1622	1621	1621	1621	1619	1618	1617	1615	1613	1611	1610	1611	1609	1610	1609	1609	1610	1610	1611	1611	1613	1614	1615	1617	1617	1617	1618	1618	1618	1617	1617	1615	1614	1613	1613	1611	1611	1610	1610	1610	1610	1610	1610	1610	1611	1613	1614	1615	1615	1615	1615	1617	1615	1614	1613	1611	1611	1611	1611	1613	1614	1614	1617	1619	1622	1625	1627	1631	1633	1637	1641	1644	1646	1648	1648	1648	1646	1645	1642	1639	1635	1631	1629	1626	1622	1619	1617	1615	1614	1613	1611	1611	1611	1611	1611	1611	1610	1610	1609	1609	1610	1609	1610	1610	1611	1613	1613	1614	1615	1617	1618	1619	1619	1619	1619	1621	1619	1619	1618	1617	1617	1617	1617	1618	1618	1621	1623	1626	1627	1629	1630	1629	1630	1629	1627	1625	1625	1623	1622	1621	1619	1619	1619	1621	1626	1631	1635	1639	1646	0	1649	1653	1655	1655	1657	1655	1652	1649	1645	1641	1635	1631	1625	1621	1614	1610	1606	1600	1597	1594	1594	1596	1597	1598	1601	1604	1606	1609	1610	1613	1614	0	1617	1618	1619	1622	1623	1625	1626	1626	1626	1626	1626	1626	1625	1623	1622	1622	1621	1621	1618	1617	1615	1615	1614	1614	1614	1614	1615	1618	1619	1621	1621	1622	1622	1623	1623	1622	1621	1621	1622	1621	1619	1619	1619	1619	1619	1619	1618	1618	1618	1618	1619	1621	1622	1623	1623	1625	1625	1623	1622	1621	1619	1617	1618	1617	1615	1615	1615	1614	1614	1613	1611	1611	1611	1610	1610	1611	1611	1611	1613	1613	1613	1613	1614	1615	1617	1617	1618	1619	1622	1623	1625	1625	1626	1626	1625	1625	1623	1622	1621	1619	1618	1617	1617	1614	1613	1613	1611	1610	1609	1609	1606	1605	1604	1601	1601	1600	1597	1597	1596	1596	1596	1596	1596	1596	1597	1597	1598	1601	1604	1605	1606	1607	1609	1610	1611	1611	1611	1613	1613	1614	1615	1618	1619	1622	1622	1625	1626	1627	1629	1629	1626	1625	1622	1621	1618	1617	1614	1611	1609	1607	1606	1605	1605	1604	1602	1604	1604	1604	1605	1605	1606	1607	1609	1610	1610	1610	1611	1611	1611	1611	1611	1611	1610	1610	1610	1609	1609	1609	1609	1609	1609	1607	1607	1607	1607	1609	1609	1610	1610	1610	1611	1611	1613	1614	1615	1615	1615	1615	1617	1617	1618	1618	1617	1617	1617	1617	1617	1617	1617	1617	1617	1617	1617	1617	1615	1615	1615	1615	1615	1615	1615	1614	1615	1617	1617	1615	1617	1617	1618	1618	1617	1617	1617	1617	1617	1617	1617	1615	1615	1614	1613	1611	1610	1606	1605	1605	1602	1602	1601	1601	1598	1600	1598	1600	1601	1601	1601	1602	1602	1604	1604	1604	1604	1605	1605	1606	1606	1607	1607	1607	1607	1606	1605	1602	1600	1598	1596	1594	1593	1592	1592	1593	1594	1597
1611	1610	1611	1611	1613	1613	1614	1615	1617	1621	1622	1625	1629	1631	1634	0	1639	1642	1645	1645	1645	1644	1642	1638	1635	1631	1630	1627	1625	1621	1619	1618	1617	1615	1615	1614	1614	1613	1613	1613	1611	1611	1611	1613	1613	1613	1614	1615	1618	1621	1621	1623	1623	1622	1621	1621	1619	1619	1618	1617	1617	1617	1615	1615	1615	1615	1615	1614	1615	1615	1618	1618	1618	1618	1618	1618	1618	1618	1617	1618	1618	1619	1619	1621	1623	1623	1626	1629	1630	1633	1634	1637	1638	1639	1641	1642	1645	1646	1649	1650	1653	1653	1655	1656	1657	1659	1659	1659	1659	1659	1657	1657	1656	1656	1653	1653	1652	1650	1648	1645	1642	1639	1637	1634	1630	1627	1626	1625	1623	1623	1622	1622	1622	1623	1622	1621	1621	1619	1619	1618	1618	1618	1617	1615	1617	1615	1615	1614	1614	1615	1615	1615	1615	1615	1615	1615	1615	1615	1615	1617	1615	1615	1617	1617	1619	1621	1622	1625	1627	1630	1633	1634	1635	1634	1634	1634	1631	1629	1627	1626	1625	1622	1621	1619	1619	1618	1618	1618	1618	1618	1618	1618	1617	1617	1615	1614	1613	1611	1611	1610	1609	1609	1610	1610	1610	1610	1610	1611	1611	1613	1613	1613	1614	1614	1615	1615	1615	1614	1614	1613	1611	1611	1610	1610	1610	1609	1609	1609	1610	1609	1610	1609	1609	1610	1610	1611	1611	1611	1611	1611	1613	1611	1609	1609	1609	1609	1609	1610	1611	1611	1614	1617	1619	1621	1625	1626	1630	1634	1637	1641	1644	1645	1646	1648	1648	1646	1644	1641	1638	1633	1631	1627	1623	1621	1618	1615	1614	1611	1610	1610	1609	1609	1609	1609	1607	1607	1606	1606	1607	1606	1606	1606	1607	1607	1609	1609	1610	1611	1614	1614	1615	1615	1615	1617	1617	1615	1614	1613	1611	1613	1613	1614	1617	0	1619	1622	1623	1625	1626	1625	1625	1625	1622	1622	1619	1618	1617	1615	1615	1613	1614	1614	1615	1623	1629	1634	1639	1646	0	1650	1655	1659	1659	1659	1655	1650	1645	1641	1634	1629	1623	1617	1611	1606	1598	1597	1594	1592	1591	1591	1592	1594	1597	1600	1602	1605	1607	1610	1613	1615	1615	1618	1619	0	1621	1622	1623	1625	1623	1625	1625	1622	1622	1621	1621	1619	1618	1618	1614	1614	1613	1611	1611	1613	1611	1613	1614	1615	1617	1618	1618	1619	1621	1621	1621	1621	1619	1621	1621	1621	1622	1622	1622	1621	1622	1622	1622	1621	1621	1621	1622	1623	1623	1625	1625	1625	1625	1623	1623	1621	1619	1617	1617	1615	1614	1614	1613	1611	1610	1610	1607	1607	1607	1607	1607	1607	1607	1609	1609	1610	1610	1610	1611	1614	1614	1614	1615	1617	1618	1621	1621	1622	1622	1623	1623	1623	1622	1621	1619	1618	1617	1615	1614	1611	1610	1609	1606	1606	1605	1604	1601	1600	1600	1598	1597	1596	1596	1596	1596	1596	1596	1596	1594	1596	1596	1597	1598	1600	1602	1604	1605	1606	1607	1609	1610	1610	1610	1610	1611	1611	1614	1615	1617	1618	1619	1621	1622	1625	1626	1625	1625	1622	1619	1618	1615	1613	1610	1609	1607	1606	1605	1604	1602	1601	1601	1601	1602	1602	1604	1605	1605	1607	1609	1609	1609	1609	1609	1610	1610	1610	1610	1610	1610	1610	1609	1607	1607	1606	1606	1606	1606	1606	1606	1606	1606	1606	1607	1609	1609	1609	1610	1610	1611	1613	1614	1614	1614	1615	1615	1617	1617	1617	1617	1617	1618	1618	1618	1618	1618	1617	1617	1617	1617	1615	1615	1614	1613	1613	1613	1613	1611	1611	1611	1611	1613	1613	1613	1613	1614	1614	1614	1614	1614	1613	1613	1613	1611	1611	1609	1607	1602	1602	1601	1598	1598	1593	1593	1593	1594	1596	1594	1596	1597	1597	1598	1598	1598	1598	1600	1601	1601	1602	1601	1601	1602	1604	1604	1604	1605	1605	1604	1604	1602	1600	1597	1594	1592	1591	1589	1589	1588	1591	1592	1594
1607	1607	1607	1607	1609	1610	1611	1613	1614	1617	1619	1622	1626	1630	1634	0	1638	1641	1645	1646	1645	1644	1641	1638	1634	1630	1627	1626	1623	1619	1618	1617	1615	1614	1613	1613	1611	1611	1610	1610	1610	1610	1609	1610	1610	1611	0	1614	1615	0	1617	1619	1619	1619	1619	1618	1618	1617	1617	1617	1615	1615	1614	1614	1614	1614	1614	1614	1614	1615	1615	1615	1617	1615	1615	1615	1615	1617	1615	1615	1614	1617	1617	1618	1618	1621	1623	1625	1626	1629	1631	1633	1634	1637	1637	1639	1639	1642	1645	1646	1646	1646	1648	1648	1649	1650	1650	1652	1652	1653	1653	1655	1653	1655	1652	1652	1650	1649	1648	1644	1641	1637	1635	1631	1629	1625	1622	1622	1622	1619	1619	1619	1618	1618	1619	1618	1617	1617	1617	1617	1614	1614	1614	1614	1613	1613	1613	1614	1614	1613	1614	1614	1614	1614	1613	1613	1613	1614	1613	1613	1613	1613	1613	1613	1615	1617	1618	1621	1622	1625	1627	1629	1630	1629	1629	1629	1626	1625	1623	1622	1621	1618	1617	1615	1615	1614	1614	1614	1614	1615	1614	1615	1615	1614	1615	1613	1613	1611	1611	1610	1610	1610	1610	1609	1609	1610	1610	1610	1611	1611	1611	1611	1613	1613	1611	1611	1611	1611	1611	1611	1611	1610	1610	1610	1609	1609	1609	1609	1609	1609	1609	1609	1607	1607	1607	1609	1609	1609	1610	1610	1610	1609	1609	1607	1607	1606	1606	1607	1609	1610	1613	1614	1615	1618	1621	1623	1625	1629	1634	1637	1641	1642	1644	1645	1646	1645	1642	1639	1638	1637	1633	1629	1625	1621	1618	1615	1613	1610	1609	1607	1607	1607	1606	1606	1605	1605	1605	1605	1605	1604	1605	1604	1605	1605	1605	1606	1606	1607	1609	1610	1611	1611	1613	1613	1611	1611	1609	1607	1607	1609	1609	1610	1610	1614	1617	1617	1618	1618	1618	1618	1618	1618	1617	1615	1615	1613	1613	1611	1609	1610	1607	1609	1610	1614	1619	1625	1630	1638	1645	1650	0	1653	1655	1656	1652	1646	1644	1637	1631	1626	1619	1613	1609	1602	1596	1592	1589	1589	1588	1588	1589	1591	1593	1596	1600	1602	1605	1607	1610	1613	1615	1617	1618	1618	1619	1621	1622	1622	1622	1621	1621	1619	1618	1617	1617	1615	1614	1614	1611	1611	1611	1611	1611	1611	1611	1611	1613	1615	1615	1617	1618	1618	1618	1619	1619	1621	1619	1621	1622	1622	1622	1623	1623	1623	1623	1625	1625	1625	1625	1625	1625	1626	1626	1626	1626	1626	1625	1623	1622	1621	1619	1618	1615	1615	1613	1613	1611	1610	1609	1607	1606	1605	1604	1604	1604	1604	1604	1604	1605	1606	1606	1607	1609	1610	1611	1611	1611	1614	1615	1617	1618	1619	1619	1621	1621	1621	1619	1619	1617	1617	1615	1614	1613	1610	1607	1606	1604	1602	1600	1597	1596	1596	1596	1594	1594	1594	1594	1594	1594	1594	1594	1594	1594	1594	1596	1596	1597	1600	1601	1602	1604	1606	1606	1607	1607	1609	1609	1609	1609	1609	1610	1611	1613	1615	1615	1618	1618	1621	1622	1622	1619	1618	1617	1614	1611	1610	1609	1607	1606	1605	1604	1602	1601	1601	1601	1601	1601	1602	1604	1604	1605	1606	1606	1607	1607	1607	1607	1607	1609	1609	1607	1607	1607	1606	1606	1605	1605	1605	1605	1604	1604	1604	1604	1604	1605	1605	1605	1607	1607	1607	1609	1610	1611	1611	1613	1614	1614	1614	1615	1617	1617	1617	1617	1618	1618	1619	1619	1619	1619	1619	1618	1617	1617	1615	1614	1613	1611	1610	1610	1609	1609	1607	1607	1606	1607	1607	1609	1609	1609	1609	1610	1610	1610	1609	1609	1607	1606	1605	1601	1591	1589	1588	1587	1587	1587	1588	1588	1589	1592	1593	1593	1593	1594	1596	1596	1596	1594	1596	1597	1598	1598	1600	1598	1598	1600	1601	1601	1601	1601	1601	1601	1600	1598	1596	1593	1592	1589	1587	1586	1587	1587	1586	1588	1589
1602	1602	1604	1604	1605	1606	1607	1609	1610	1614	1617	1619	1622	1627	1631	0	1637	1641	1645	1645	1645	1642	1639	1637	1633	1630	1626	1623	1622	1618	1617	1615	1614	1613	1611	1611	1610	1610	1610	1609	1607	1607	1609	1607	1609	1610	1611	1613	1614	1615	1617	1617	1617	1617	1617	1615	1615	1615	1615	1614	1614	1613	1613	1613	1613	1613	1611	1611	1613	1613	1614	1615	1615	1615	1615	1615	1615	1615	1615	1614	1614	1613	1614	1614	1615	1618	1619	1621	1622	1623	1626	1629	1630	1631	1633	1634	1635	1638	1639	1641	1641	1641	1641	1642	1642	1644	1644	1645	1646	1648	1650	1650	1652	1650	1650	1649	1646	1646	1642	1641	1638	1635	1631	1629	1626	1623	1621	1619	1619	1617	1617	1617	1615	1615	1615	1615	1614	1614	1613	1613	1611	1611	1610	1610	1610	1611	1611	1611	1611	1611	1611	1611	1611	1611	1611	1611	1611	1610	1610	1611	1611	1610	1610	1610	1611	1613	1615	1617	1618	1621	1622	1623	1623	1623	1623	1622	1621	1619	1618	1617	1615	1614	1613	1611	1611	1610	1609	1610	1610	1610	1611	1613	1613	1613	1613	1613	1613	1611	1611	1611	1611	1611	1610	1610	1610	1610	1610	1610	1610	1610	1611	1611	1611	1611	1611	1611	1611	1611	1611	1610	1610	1610	1610	1610	1609	1609	1609	1607	1607	1607	1607	1606	1606	1606	1607	1607	1606	1607	1607	1607	1609	1607	1606	1605	1606	1605	1606	1606	1607	0	1609	0	1613	1615	1618	1619	1623	1625	1630	1633	1635	1638	1639	1642	1644	1644	1642	1639	1637	1635	1631	1629	1625	1622	1618	1614	1611	1609	1607	1606	1606	1605	1604	1604	1604	1604	1604	1604	1604	1602	1602	1602	1602	1604	1602	1602	1604	1604	1605	1607	1609	1609	1609	1609	1609	1607	1606	1605	1605	1606	1604	1604	1606	1606	1609	1609	1610	1611	1611	1613	1613	1614	1613	1611	1611	1610	1609	1606	1606	1605	1602	1602	1604	1607	1610	1615	1619	1626	1633	1638	1642	1645	1645	1646	1644	1639	1637	1631	1627	1622	1617	1611	1605	1597	1593	1591	1588	1586	1586	1586	1587	1587	1589	1592	1596	1598	1602	1605	1609	1611	1613	1615	1615	1617	1618	1619	1619	1619	1618	1618	1617	1617	1615	1614	1613	1613	1611	1611	1610	1610	1609	1610	1610	1611	1611	1611	1613	1613	1615	1615	1617	1617	1618	1618	1619	1619	1619	1621	1622	1622	1625	1625	1626	1626	1627	1629	1629	1629	1629	1629	1629	1629	1629	1629	1627	1626	1625	1623	1622	1621	1619	1615	1615	1614	1613	1611	1610	1609	1607	1606	1605	1604	1602	1602	1602	1602	1602	1602	1604	1604	1605	1605	1606	1607	1607	1607	1609	1610	1610	1613	1613	1614	1615	1617	1617	1617	1617	1615	1615	1614	1614	1613	1611	1609	1606	1604	1601	1597	1596	1594	1592	1592	1593	1592	1592	1593	1592	1593	1593	1593	1594	1596	1596	1594	1597	1597	1597	1598	1600	1601	1602	1604	1605	1606	1606	1606	1606	1605	1606	1606	1606	1607	1609	1609	1611	1613	1614	1615	1617	1617	1617	1615	1614	1611	1610	1609	1607	1606	1605	1604	1602	1602	1601	1600	1600	1601	1601	1601	1602	1604	1604	1606	1606	1606	1606	1606	1606	1606	1606	1606	1606	1606	1606	1606	1605	1605	1604	1604	1602	1602	1602	1602	1602	1602	1602	1604	1604	1605	1605	1606	1607	1607	1610	1611	1611	1613	1613	1614	1614	1615	1617	1617	1618	1618	1619	1619	1621	1621	1621	1619	1619	1618	1618	1615	1614	1613	1610	1609	1607	1606	1605	1604	1602	1602	1604	1604	1604	1604	1604	1605	1605	1605	1604	1604	1594	1594	1592	1591	1588	1587	1586	1584	1583	1584	1584	1584	1586	1587	1589	1591	1591	1592	1592	1592	1593	1592	1592	1592	1593	1594	1594	1596	1596	1596	1596	1597	1598	1598	1598	1598	1598	1597	1596	1593	1591	1589	1587	1586	1583	1582	1583	1583	1584	1587
1597	1597	1600	1601	1601	1602	1604	1606	1607	1611	1615	1618	1623	1627	1631	0	1637	1641	1645	1645	1646	1641	1638	1635	1631	1627	1625	1622	1621	1617	1615	1614	1613	1613	1611	1610	1610	1609	1610	1609	1609	1609	1609	1609	1609	1610	1610	1611	1613	1613	1613	1614	1614	1614	1614	1614	1613	1613	1613	1613	1613	1611	1611	1613	1611	1611	1610	1611	1611	1613	1613	1614	1615	1615	1617	1615	1617	1617	1615	1614	1614	1613	1614	1614	1614	1614	1615	1618	1618	1619	1622	1623	1625	1626	1627	1629	1630	1631	1633	1634	1634	1634	1635	1635	1637	1637	1638	1639	1639	1642	1644	1646	1646	1646	1646	1646	1644	1641	1638	1634	1633	1630	1627	1626	1622	1619	1617	1617	1615	1613	1613	1613	1614	1614	1614	1611	1610	1610	1610	1609	1609	1607	1607	1607	1609	1609	1610	1610	1610	1611	1611	1610	1610	1610	1610	1610	1610	1609	1609	1609	1607	1607	1606	1607	1607	1609	1609	1610	1611	1613	1614	1615	1615	1615	1615	1615	1614	1614	1613	1611	1610	1610	1607	1607	1606	1605	1605	1605	1606	1606	1607	1609	1610	1610	1611	1611	1611	1611	1613	1613	1613	1613	1613	1613	1613	1613	1613	1615	1614	1614	1614	1613	1613	1613	1611	1611	1613	1611	1611	1610	1610	1610	1610	1610	1609	1607	1607	1607	1607	1607	1606	1606	1606	1606	1607	1607	1607	1607	1607	1609	1609	1609	1607	1606	1606	1605	1605	1606	1606	1607	1609	1611	0	1613	1615	1617	1619	1623	1627	1630	1633	1634	1637	1639	1639	1639	1638	1637	1635	1631	1631	1627	1623	1621	1617	1614	1610	1607	1606	1606	1605	1605	1604	1604	1604	1604	1602	1602	1604	1602	1604	1602	1601	1601	1601	1601	1602	1602	1602	1604	1605	1606	1606	1606	1606	1605	1605	1602	1602	1604	1601	1601	1601	1602	1602	1604	1605	1605	1606	1607	1607	1609	1609	1607	1607	1606	1604	1602	1601	1598	1597	1596	1596	1598	1602	0	0	0	1623	1627	1631	1635	1635	1637	1635	1633	1630	1625	1621	1618	1611	1607	1602	1594	1592	1589	1586	1583	1583	1583	1584	1586	1588	1591	1593	1596	1600	1604	1606	1609	1611	1613	1614	1615	1617	1617	1617	1615	1615	1614	1614	1614	1611	1610	1609	1609	1609	1609	1609	1607	1607	1609	1610	1611	1611	1613	1613	1614	1614	1615	1615	1617	1617	1618	1618	1619	1619	1622	1622	1625	1626	1627	1629	1630	1631	1633	1633	1633	1633	1633	1633	1633	1630	1630	1629	1627	1625	1622	1621	1621	1619	1615	1615	1614	1613	1611	1610	1609	1607	1606	1604	1604	1602	1601	1601	1601	1601	1602	1602	1604	1604	1604	1604	1604	1604	1605	1605	1606	1606	1607	1609	1609	1611	1613	1613	1614	1614	1614	1614	1614	1613	1611	1610	1606	1604	1601	1596	1594	1592	1591	1589	1588	1589	1588	1589	1591	1591	1591	1592	1593	1594	1596	1594	1596	1597	1596	1597	1598	1600	1601	1601	1602	1602	1604	1605	1604	1604	1602	1602	1602	1602	1604	1604	1606	1606	1607	1609	1611	1613	1614	1614	1613	1611	1609	1609	1606	1606	1605	1604	1604	1602	1602	1601	1601	1601	1601	1601	1604	1604	1604	1605	1605	1606	1605	1605	1605	1605	1605	1605	1605	1606	1605	1605	1605	1604	1602	1602	1601	1601	1600	1600	1598	1600	1600	1601	1601	1602	1602	1604	1605	1606	1607	1609	1610	1611	1611	1613	1614	1614	1615	1617	1618	1618	1619	1621	1621	1622	1622	1622	1622	1621	1619	1618	1617	1614	1611	1609	1606	1605	1604	1602	1601	1598	1598	1600	1598	1598	1598	1598	1593	1593	1592	1592	1591	1589	1588	1587	1586	1583	1582	1582	1582	1582	1582	1583	1583	1584	1586	1588	1589	1588	1588	1589	1589	1589	1588	1588	1588	1589	1589	1589	1589	1589	1589	1591	1592	1592	1593	1593	1594	1593	1594	1593	1592	1589	1587	1584	1583	1580	1580	1580	1580	1582	1584
1592	1593	1594	1596	1597	1598	1601	1602	1605	1610	1613	1618	1621	1626	1631	1635	0	1639	1644	1642	1641	1638	1635	1631	1627	1625	1622	1619	1618	1615	1614	1613	1611	1611	1610	1610	1610	1609	1609	1610	1610	1609	1609	1609	1610	1610	1610	1610	1611	1611	1611	1611	1613	1613	1613	1611	1611	1611	1611	1610	1611	1610	1610	1610	1610	1610	1610	1611	1610	1613	1613	1614	1615	1615	1615	1617	1615	1617	1615	1615	1615	1615	1614	1613	1613	1614	1614	1614	1614	1614	1617	1618	1619	1621	1621	1622	1623	1625	1626	1627	1627	1627	1627	1627	1627	1629	1629	1631	1633	1634	1637	1639	1642	1642	1641	1638	1637	1635	1633	1630	1627	1625	1622	1619	1617	1614	1611	1611	1611	1610	1610	1610	1610	1610	1611	1610	1609	1607	1607	1606	1605	1605	1605	1606	1606	1607	1607	1609	1610	1610	1610	1610	1610	1610	1610	1609	1609	1607	1607	1607	1607	1606	1605	1604	1605	1605	1605	1605	1606	1607	1609	1609	1610	1609	1610	1610	1610	1609	1609	1606	1606	1605	1604	1604	1602	1601	1601	1601	1601	1602	1604	1605	1606	1607	1610	1609	1610	1611	1613	1613	1614	1615	1617	1618	1618	1617	1618	1617	1617	1617	1615	1615	1614	1614	1613	1613	1613	1613	1611	1611	1611	1610	1610	1610	1609	1607	1607	1607	1609	1607	1607	1606	1606	1606	1607	1607	1609	1609	1609	1609	1609	1609	1609	1606	1606	1605	1605	1605	1606	1606	1609	1610	1611	1613	0	1615	1617	1621	1623	1626	1629	1631	1633	1635	1637	1637	1637	1635	1634	1633	1630	1627	1625	1621	1617	1614	1611	1609	1607	1606	1606	1605	1605	1605	1605	1605	1605	1605	1605	1604	1604	1604	1602	1602	1600	1600	1600	1600	1601	1602	1602	1604	1605	1606	1605	1604	1602	1601	1600	1600	1598	1598	1597	1597	1597	1598	1598	1600	1601	1601	1601	1602	1602	1602	1601	1601	1600	1598	1596	1594	1592	1592	1591	1594	1597	1600	1602	1607	0	0	0	1625	1626	1627	1626	1623	1621	1618	1615	1613	1607	1604	1600	1592	1589	1587	1584	1582	1582	1582	1583	1583	1586	1588	1591	1593	1597	1601	1604	1607	1609	1611	1611	1613	1613	1614	1613	1613	1611	1610	1610	1609	1609	1607	1607	1606	1605	1606	1606	1607	1607	1607	1610	1611	1611	1613	1614	1615	1615	1615	1617	1617	1617	1617	1618	1619	1619	1622	1623	1626	1629	1630	1631	1634	1634	1635	1635	1637	1637	1637	1635	1634	1633	1630	1629	1627	1625	1622	1621	1618	1618	1615	1615	1614	1613	1611	1610	1609	1607	1606	1605	1602	1602	1601	1601	1601	1601	1601	1601	1601	1601	1601	1601	1601	1600	1600	1601	1601	1601	1602	1604	1605	1606	1609	1609	1610	1611	1611	1611	1613	1611	1611	1609	1606	1601	1594	1593	1591	1589	1587	1586	1584	1586	1586	1587	1588	1588	1589	1591	1592	1593	1594	1596	1596	1596	1597	1597	1598	1598	1600	1600	1601	1601	1601	1602	1601	1600	1600	1598	1598	1598	1598	1600	1601	1601	1602	1604	1605	1606	1607	1609	1609	1607	1607	1606	1605	1604	1604	1604	1604	1604	1602	1601	1601	1601	1602	1604	1604	1605	1605	1605	1605	1605	1605	1604	1604	1604	1604	1604	1604	1602	1604	1602	1602	1601	1601	1600	1598	1598	1597	1597	1596	1597	1597	1597	1598	1598	1600	1601	1602	1604	1605	1606	1607	1609	1611	1611	1613	1614	1615	1617	1618	1619	1619	1621	1622	1623	1623	1623	1623	1622	1621	1618	1615	1614	1610	1606	1604	1602	1600	1598	1596	1594	1594	1589	1589	1588	1588	1588	1588	1587	1587	1586	1586	1584	1584	1583	1582	1582	1579	1579	1579	1580	1580	1582	1582	1583	1584	1587	1587	1587	1587	1587	1587	1586	1584	1584	1583	1584	1583	1584	1584	1584	1584	1586	1587	1587	1587	1589	1588	1589	1588	1589	1588	1586	1583	1582	1580	1579	1579	1579	1579	1580	1582
1588	1588	1591	1591	1593	1594	1596	1598	1602	1606	1609	1614	1619	1623	1627	1633	1637	1639	1638	1638	1637	1634	1631	1627	1623	1621	1619	1617	1617	1613	1613	1611	1611	1610	1610	1609	1609	1609	1609	1609	1609	1609	1610	1609	1609	1610	1610	1610	1610	1609	1610	1610	1610	1610	1610	1609	1610	1610	1609	1610	1609	1609	1609	1609	1609	1609	1609	1609	1610	1611	1613	1613	1614	1615	1617	1618	1618	1618	1618	1618	1617	1617	1615	1614	1614	1613	1613	1613	1613	1613	1613	1613	1615	1615	1615	1617	1618	1618	1619	1619	1621	1619	1621	1621	1621	1622	1625	1626	1627	1631	0	1634	1635	1635	1634	1631	1631	1629	1626	1623	1621	1618	1615	1614	1613	1609	1607	1607	1606	1606	1606	1606	1607	1607	1609	1607	1606	1606	1605	1602	1602	1602	1602	1604	1605	1606	1606	1607	1609	1609	1609	1609	1609	1609	1609	1609	1609	1607	1607	1606	1606	1604	1602	1601	1601	1601	1601	1601	1601	1602	1602	1604	1604	1604	1604	1604	1604	1604	1602	1602	1601	1600	1598	1598	1598	1597	1596	1597	1596	1597	1600	1601	1604	1605	1607	0	1609	1610	0	1613	1615	1617	1617	1618	1619	1619	1619	1619	1618	1618	1618	1617	1615	1614	1614	1613	1613	1613	1611	1611	1611	1610	1610	1610	1609	1607	1607	1609	1607	1607	1607	1607	1607	1606	1607	1607	1609	1609	1609	1609	1610	1610	1610	1607	1607	1606	1605	1605	1606	1606	1609	1610	1610	1611	1614	1614	1617	0	1619	1622	1625	1626	1629	1630	1631	1633	1633	1633	1631	1630	1629	1627	1623	1621	1617	1615	1613	1610	1609	1609	1607	1607	1607	1607	1607	1607	1607	1606	1606	1606	1605	1604	1604	1602	1600	1598	1598	1600	1601	1601	1602	0	1604	1605	1604	1602	1601	1600	1598	1598	1597	1596	1594	1594	1594	1594	1596	1594	1596	1596	1597	1597	1597	1596	1596	1596	1594	1593	1592	1589	1588	1588	1588	1588	1591	1593	1594	1598	1602	1606	0	0	0	1615	1617	1615	1613	1611	1610	1607	1604	1600	1593	1589	1587	1584	1582	1580	1580	1579	1580	1582	1584	1587	1588	1592	1594	1598	1601	1604	1606	1607	1609	1610	1610	1611	1610	1609	1609	1607	1605	1605	1605	1602	1602	1602	1604	1604	1604	1605	1607	1607	1610	1611	1611	1613	1614	1615	1615	1615	1615	1615	1615	1615	1617	1618	1619	1622	1623	1626	1627	1630	1633	1634	1637	1637	1638	1638	1638	1637	1635	1634	1631	1629	1627	1625	1622	1619	1618	1618	1617	1614	1614	1613	1613	1611	1609	1607	1606	1605	1604	1604	1602	1602	1601	1600	1600	1600	1598	1598	1597	1597	1597	1597	1597	1596	1596	1597	1597	1598	1598	1601	1602	1604	1606	1607	1609	1609	1610	1610	1609	1609	1606	1602	1598	1592	1591	1587	1586	1584	1582	1582	1583	1583	1583	1586	1586	1587	1589	1592	1593	1596	1596	1596	1597	1597	1597	1597	1598	1598	1598	1598	1598	1600	1600	1598	1597	1596	1596	1594	1594	1596	1594	1594	1596	1597	1597	1600	1601	1602	1604	1604	1604	1604	1604	1602	1602	1602	1602	1602	1602	1602	1602	1602	1602	1602	1604	1604	1604	1605	1605	1605	1605	1604	1602	1602	1601	1601	1601	1601	1601	1601	1601	1600	1600	1598	1597	1596	1596	1594	1594	1593	1594	1594	1594	1596	1596	1597	1598	1600	1601	1602	1604	1605	1607	1609	1610	1611	1613	1614	1615	1617	1618	1619	1621	1622	1623	1623	1625	1623	1622	1619	1618	1615	1611	1607	1604	1602	1596	1593	1591	1588	1587	1584	1584	1584	1583	1583	1582	1582	1582	1582	1580	1580	1580	1579	1579	1579	1578	1578	1578	1578	1579	1579	1580	1582	1583	1583	1584	1586	1586	1584	1584	1583	1582	1580	1580	1579	1579	1578	1578	1578	1578	1578	1580	1582	1582	1583	1583	1584	1584	1584	1584	1584	1582	1582	1579	1579	1578	1577	1577	1577	1578	1579
1583	1584	1586	1587	1589	1591	1593	1596	1598	1601	1606	1610	1614	1618	1622	1627	1630	1633	1633	1633	1631	1629	1625	1623	1621	1617	1617	1614	1613	1611	1610	1609	1609	1609	1609	1609	1609	1609	1609	1610	1610	1610	1610	1611	1611	1610	1610	1609	1609	1609	1609	1609	1607	1607	1607	1606	1606	1607	1607	1607	1606	1607	1607	1607	1607	1607	1607	1607	1607	1610	1610	1613	1614	1615	1617	1619	1619	1621	1619	1619	1619	1618	1617	1615	1614	1614	1611	1611	1609	1609	1609	1609	1611	1611	1611	1611	1613	1613	1613	1614	1613	1613	1611	1613	1614	1617	1618	1621	1623	1626	1629	1630	1631	1630	1629	1626	1625	1623	1621	1618	1615	1613	1611	1609	1606	1605	1602	1602	1604	1602	1602	1604	1605	1606	1606	1606	1605	1605	1602	1602	1602	1600	1601	1602	1604	1605	1606	1606	1607	1607	1609	1609	1609	1609	1609	1609	1607	1607	1607	1607	1606	1604	1602	1600	1600	1598	1597	1597	1597	1598	1598	1598	1598	1598	1600	1600	1600	1600	1598	1597	1597	1596	1591	1591	1589	1589	1591	1592	1592	1594	1596	1598	1601	1604	1606	1607	1609	1610	0	1613	1614	1617	1617	1618	1619	1621	1622	1622	1621	1619	1619	1618	1617	1615	1615	1614	1613	1614	1613	1611	1611	1610	1610	1610	1609	1609	1609	1609	1609	1607	1607	1607	1606	1607	1609	1609	1609	1610	1610	1611	1611	1613	1613	1611	1610	1609	1609	1609	1607	1607	1609	1610	1611	1611	1614	1614	1615	1618	1619	0	1622	1623	1625	1626	1627	1629	1630	1630	1629	1627	1626	1625	1622	1621	1617	1615	1613	1611	1610	1610	1610	1610	1610	1610	1611	1611	1611	1610	1609	1607	1607	1606	1605	1602	1600	1598	1600	1600	1600	1601	1601	1602	1604	1604	1602	1601	1600	1598	1597	1596	1596	1594	1593	1592	1592	1592	1592	1592	1592	1593	1593	1592	1593	1593	1591	1592	1591	1589	1587	1586	1584	1584	1583	1584	1584	1586	1586	1588	1591	1594	1597	1600	1602	1605	1606	1606	1605	1605	1604	1604	1600	1594	1591	1587	1584	1582	1580	1579	1578	1578	1579	1580	1583	1584	1587	1589	1592	1596	1598	1601	1602	1605	1606	1607	1607	1609	1607	1606	1605	1604	1601	1601	1600	1598	1598	1600	1600	1600	1601	1602	1605	1606	1609	1611	1613	1613	1614	1614	1615	1614	1614	1614	1614	1614	1615	1617	1618	1621	1622	1625	1627	1630	1633	1634	1635	1637	1638	1638	1637	1637	1634	1631	1629	1627	1625	1622	1619	1617	1615	1615	1614	1613	1613	1611	1611	1610	1609	1607	1606	1604	1604	1602	1602	1601	1601	1600	1598	1598	1597	1596	1594	1593	1593	1592	1592	1591	1591	1591	1592	1592	1593	1594	1597	1598	1601	1604	1605	1606	1606	1606	1606	1604	1601	1598	1591	1588	1586	1584	1583	1580	1579	1579	1580	1580	1582	1583	1584	1587	1588	1589	1593	1594	1596	1596	1597	1597	1597	1598	1598	1598	1598	1598	1597	1597	1597	1596	1594	1593	1593	1592	1592	1592	1591	1592	1593	1593	1593	1596	1596	1597	1598	1600	1600	1601	1601	1601	1601	1601	1602	1602	1602	1602	1602	1602	1602	1604	1604	1604	1604	1604	1604	1604	1602	1601	1601	1598	0	1600	1600	1598	1598	1600	1598	1598	1597	1596	1594	1593	1592	1592	1592	1592	1592	1592	1592	1592	1593	1593	1594	1596	1597	1598	1600	1602	1604	1605	1607	1609	1611	1613	1614	1617	1618	1619	1622	1623	1623	1625	1625	1623	1623	1621	1618	1613	1609	1604	1598	1596	1592	1589	1587	1583	1582	1580	1580	1579	1578	1578	1578	1578	1578	1578	1578	1577	1577	1578	1577	1577	1577	1575	1577	1578	1578	1579	1580	1580	1582	1582	1583	1583	1583	1582	1580	1579	1579	1577	1577	1574	1574	1573	1573	1573	1573	1573	1575	1575	1577	1578	1579	1579	1580	1580	1580	1580	1580	1579	1578	1578	1575	1575	1575	1575	1577	1578
1580	1582	1580	1582	1584	1586	1587	1591	1593	1597	1601	1605	1610	1613	1617	1622	1625	1627	1627	1627	1626	1622	1619	1618	1615	1614	1611	1610	1610	1609	1609	1607	1607	1607	1607	1607	1609	1609	1610	1610	1611	1611	1611	1611	1611	1611	1611	1610	1607	1607	1607	1607	1606	1605	1605	1604	1604	1604	1605	1605	1605	1604	1604	1605	1605	1606	1606	1606	1606	1609	1610	1611	1614	1615	1618	1619	1621	1621	1622	1622	1622	1619	1618	1615	1614	1613	1610	1609	1607	1606	1605	1606	1607	1609	1609	1609	1610	1610	1609	1609	1609	1609	1607	1609	1610	1611	1613	1614	1617	1619	1622	1623	1625	1623	1622	1621	1619	1619	1615	1613	1610	1607	1606	1605	1604	1602	1600	1600	1600	1600	1601	1602	1604	1606	1607	1607	1606	1605	1605	1601	1601	1600	1601	1602	1604	1604	1605	1606	1607	1607	1609	1609	1609	1609	1609	1609	1609	1607	1607	1606	1606	1604	1601	1598	1597	1596	1594	1594	1594	1594	1594	1596	1596	1596	1596	1596	1593	1592	1592	1591	1589	1589	1588	1588	1587	1587	1588	1589	1591	1592	1593	1596	1600	1602	1604	1606	1607	1610	1611	0	1614	1615	1618	1619	1621	1622	1623	1623	1623	1622	1621	1619	1618	1617	1617	1614	1614	1614	1613	1611	1611	1610	1610	1610	1609	1609	1607	1609	1607	1609	1607	1607	1606	1606	1607	1609	1610	1610	1611	1613	1614	1614	1615	1613	1613	1611	1611	1611	1610	1610	1610	1611	1611	1611	1614	1614	1614	1615	1618	1619	1619	1621	1622	1623	1623	1625	1625	1625	1625	1625	1623	1622	1619	1618	1615	1614	1613	1611	1610	1610	1611	1611	1611	1613	1613	1614	1614	1613	1613	1610	1609	1607	1606	1604	1601	1600	1600	1600	1600	1600	1601	1601	1601	1601	1601	1600	1598	1597	1596	1594	1593	1593	1592	1592	1591	1591	1591	1592	1591	1591	1591	1591	1591	1591	1589	1589	1587	1586	1584	1583	1582	1582	1582	1582	1582	1583	1583	1584	1587	1589	1591	1592	1596	1597	1598	1597	1597	1597	1598	1598	1596	1593	1589	1587	1584	1583	1580	1578	1577	1578	1578	1578	1580	1582	1584	1587	1589	1592	1596	1597	1600	1602	1604	1605	1605	1605	1605	1604	1602	1600	1598	1597	1596	1596	1594	1594	1594	1596	1597	1598	1600	1602	1606	1609	1609	1611	1611	1613	1613	1613	1613	1611	1611	1611	1613	1614	1617	1618	1619	1623	1626	1629	1631	1633	1634	1635	1635	1635	1635	1634	1631	1630	1627	1626	1623	1619	1618	1615	1614	1613	1611	1611	1610	1609	1609	1607	1606	1605	1604	1602	1602	1601	1600	1600	1598	1597	1596	1594	1594	1593	1591	1591	1589	1588	1587	1587	1586	1587	1587	1587	1588	1589	1591	1593	1596	1598	1600	1602	1602	1604	1601	1600	1597	1591	1588	1586	1583	1582	1580	1579	1578	1578	1578	1579	1580	1582	1583	1586	1587	1589	1592	1593	1594	1596	1597	1597	1597	1598	1598	1597	1597	1597	1597	1596	1596	1594	1593	1592	1591	1589	1589	1589	1589	1589	1591	1591	1591	1592	1593	1593	1594	1596	1597	1598	1598	1600	1600	1600	1601	1601	1601	1601	1601	1601	1602	1602	1602	1602	1602	1604	1602	1601	1600	1600	1598	1596	1596	1596	1596	1596	1596	1596	1596	1594	1594	1593	1592	1591	1589	1589	1588	1588	1588	1588	1588	1588	1589	1589	1591	1592	1593	1594	1596	1597	1600	1601	1604	1606	1607	1611	1613	1615	1617	1618	1621	1622	1625	1623	1623	1622	1621	1618	1615	1610	1606	1601	1596	1592	1588	1586	1580	1579	1578	1577	1577	1577	1575	1574	1574	1574	1575	1574	1574	1574	1574	1574	1574	1575	1574	1574	1575	1577	1578	1578	1579	1579	1580	1580	1582	1580	1580	1579	1578	1575	1575	1573	1572	1569	1569	1568	1568	1568	1568	1569	1570	1572	1572	1574	1574	1574	1575	1577	1577	1577	1578	1575	1575	1575	1574	1573	1575	1574	1575	1575
1578	1577	1578	1579	1580	1580	1583	1586	1588	1592	1596	1600	1605	1609	1613	1617	1621	1622	1622	1622	1621	1617	1615	1613	1611	1610	1609	1607	1607	1606	1606	1606	1606	1607	1606	1607	1607	1607	1609	1610	1611	1611	1613	1613	1613	1613	1611	1610	1609	1607	1606	1606	1604	1604	1602	1602	1602	1601	1601	1602	1601	1602	1602	1604	1604	1605	1605	1606	1606	1609	1609	1611	1614	1617	1618	1621	1621	1622	1623	1622	1622	1621	1617	1615	1613	1610	1607	1605	1602	1601	1604	1604	1605	1605	1606	1606	1606	1606	1606	1606	1606	1605	1605	1605	1606	1607	1607	1609	1610	1613	1615	1617	1617	1617	1615	1614	1613	1611	1609	1606	1604	1601	1600	1600	1598	1596	1594	1594	1596	1597	1598	1601	1602	1605	1606	1607	1606	1606	1604	1602	1602	1601	1601	1601	1604	1604	1605	1606	1607	1607	1609	1609	1609	1609	1609	1609	1609	1609	1607	1607	1605	1604	1601	1598	1596	1594	1593	1593	1592	1592	1592	1591	1592	1591	1591	1591	1591	1589	1589	1588	1587	1587	1586	1586	1586	1586	1586	1587	1588	1591	1592	1594	1597	1600	1602	1604	1606	1607	1610	1613	0	1615	1617	1619	1622	1623	1623	1626	1626	1623	1623	1622	1619	1619	1617	1617	1614	1614	1613	1613	1611	1611	1610	1610	1610	1609	1609	1607	1607	1607	1607	1607	1607	1607	1610	1610	1611	1613	1613	1614	1617	1617	1618	1617	1615	1615	1614	1614	1614	1614	1613	1613	1613	1614	1613	1614	1614	1614	1615	1617	1617	1617	1617	1618	1619	1619	1619	1619	1619	1619	1619	1617	1617	1614	1613	1611	1610	1610	1610	1611	1611	1611	1613	1614	1615	1615	1615	1614	1614	1611	1610	1609	1606	1605	1602	1600	1600	1600	1600	1600	1600	1600	1600	1600	1600	1600	1597	1596	1594	1594	1593	1592	1592	1591	1589	1589	1589	1591	1589	1589	1589	1591	1589	1588	1589	1587	1586	1586	1584	1584	1583	1584	1584	1583	1584	1583	1584	1584	1586	1587	1588	1589	1591	1593	1593	1594	1594	1594	1594	1596	1596	1593	1589	1587	1586	1584	1580	1579	1577	1575	1577	1577	1579	1579	1582	1583	1587	1589	1592	1593	1597	1598	1600	1601	1602	1602	1601	1601	1598	1597	1594	1594	1592	1591	1589	1589	1589	1589	1591	1592	1594	1597	1600	1604	1605	1607	1607	1609	1610	1609	1609	1610	1609	1609	1610	1611	1614	1615	1618	1619	1623	1626	1627	1630	1631	1631	1633	1633	1633	1631	1629	1627	1625	1622	1621	1618	1615	1611	1609	1609	1609	1607	1607	1606	1606	1605	1604	1604	1601	1600	1598	1598	1597	1596	1594	1593	1592	1592	1591	1589	1587	1587	1584	1583	1583	1582	1580	1580	1580	1582	1582	1583	1586	1587	1589	1593	1594	1597	1597	1598	1597	1594	1591	1587	1586	1583	1582	1580	1579	1578	1578	1578	1578	1579	1580	1582	1583	1584	1587	1588	1591	1592	1593	1594	1597	1597	1597	1598	1598	1598	1597	1597	1596	1596	1593	1593	1592	1589	1588	1587	1587	1587	1587	1586	1587	1588	1588	1589	1589	1589	1591	1592	1594	1594	1596	1597	1597	1598	1600	1600	1600	1600	1600	1600	1600	1601	1602	1602	1602	1601	1600	1600	1598	1594	1594	1593	1593	1593	1593	1593	1593	1593	1593	1593	1592	1591	1589	1588	1588	1588	1587	1586	1586	1586	1586	1586	1586	1586	1587	1587	1589	1589	1591	1592	1594	1597	1600	1602	1605	1607	1610	1613	1611	1614	1615	1618	1619	1619	1621	1619	1618	1614	1611	1607	1604	1597	1592	1588	1584	1580	1578	1577	1575	1574	1573	1573	1572	1570	1572	1572	1572	1572	1572	1572	1572	1572	1574	1574	1574	1574	1575	1577	1578	1578	1579	1579	1579	1579	1579	1578	1578	1575	1574	1572	1569	1569	1567	1565	1564	1563	1563	1564	1565	1567	1568	1568	1570	1570	1572	1572	1572	1573	1573	1574	1574	1574	1574	1573	1574	1573	1573	1573	1573	1574
1575	1575	1577	1577	1578	1578	1580	1584	1587	1591	1593	1597	1602	1606	1610	1614	1615	1618	1617	1617	1615	1614	1611	1610	1607	1606	1604	1604	1602	1602	1602	1602	1602	1604	1604	1605	1606	1607	1609	1611	1611	1613	1613	1613	1614	1613	1611	1610	1609	1607	1605	1604	1604	1602	1601	1601	1601	1600	1601	1601	1600	1600	1601	1602	1602	1602	1604	1605	1606	1607	1610	1611	1614	1617	1619	1621	1622	1623	1623	1622	1622	1619	1617	1614	1611	1607	1605	1600	1597	1597	1597	1598	1601	1601	1604	1604	1604	1605	1605	1605	1605	1605	1605	1605	1605	1605	1606	1606	1607	1607	1610	1610	1611	1609	1607	1606	1605	1604	1602	1600	1597	1594	1594	1594	1593	1592	1592	1592	1592	1594	1596	1598	1601	1602	1606	1606	1606	1606	1605	1602	1602	1602	1602	1604	1605	1605	1606	1606	1609	1609	1609	1609	1609	1610	1610	1609	1610	1609	1609	1607	1605	1604	1600	1597	1596	1594	1593	1592	1592	1591	1591	1591	1591	1589	1589	1588	1588	1588	1586	1586	1586	1584	1584	1584	1583	1583	1584	1586	1587	1588	1591	1593	1596	1598	1601	1602	1605	1606	1610	1613	1614	0	1617	1618	1621	1623	1626	1626	1626	1626	1623	1622	1621	1619	1617	1615	1614	1614	1613	1611	1611	1610	1610	1610	1610	1609	1609	1609	1609	1609	1609	1607	1609	1609	1610	1611	1613	1615	1617	1617	1618	1619	1619	1618	1618	1617	1617	1615	1615	1614	1615	1614	1613	1614	1613	1613	1613	1613	1613	1613	1613	1613	1613	1613	1613	1613	1614	1613	1614	1613	1613	1611	1611	1611	1610	1609	1609	1609	1609	1610	1611	1611	1613	1614	1615	1615	1615	1614	1614	1611	1609	1607	1606	1604	1601	1601	1600	1600	1600	1600	1598	1598	1598	1598	1598	1597	1597	1594	1594	1594	1592	1592	1591	1589	1589	1589	1589	1589	1589	1589	1589	1589	1588	1587	1587	1586	1584	1584	1584	1584	1584	1586	1586	1586	1586	1586	1586	1586	1587	1587	1588	1589	1591	1591	1593	1592	1593	1593	1594	1596	1596	1596	1591	1588	1587	1586	1582	1579	1577	1577	1575	1577	1578	1578	1579	1580	1583	1587	1588	1591	1593	1594	1597	1598	1600	1600	1598	1597	1594	1593	1591	1589	1588	1586	1584	1583	1584	1583	1586	1586	1588	1591	1593	1596	1598	1600	1602	1605	1605	1605	1605	1606	1605	1606	1607	1607	1610	1611	1613	1615	1618	1621	1623	1625	1626	1626	1627	1627	1627	1626	1623	1623	1621	1618	1617	1615	1609	1606	1606	1605	1605	1604	1604	1602	1602	1602	1601	1600	1598	1597	1596	1594	1594	1593	1592	1591	1589	1588	1587	1586	1584	1583	1580	1579	1579	1577	1577	1574	1575	1577	1578	1579	1580	0	1584	1586	1588	1591	1591	1592	1592	1589	1587	1586	1583	1582	1580	1579	1578	1578	1578	1578	1578	1578	1579	1580	1580	1583	1584	1586	1588	1591	1592	1593	1594	1594	1597	1597	1597	1597	1596	1596	1594	1593	1592	1591	1589	1588	1587	1586	1586	1584	1584	1583	1584	1586	1587	1587	1587	1588	1588	1589	1591	1592	1593	1593	1594	1596	1597	1597	1597	1597	1597	1597	1598	1600	1600	1600	1598	1598	1597	1597	1594	1592	1592	1591	1591	1591	1591	1592	1591	1591	1592	1592	1591	1591	1589	1588	1588	1586	1586	1584	1583	1583	1582	1582	1582	1582	1583	1583	1584	1586	1586	1588	1591	1592	1592	1594	1597	1601	1604	1605	1607	1610	1611	1614	1615	1617	1617	1615	1613	1610	1607	1604	1598	1594	1589	1586	1579	1577	1575	1573	1572	1570	1570	1570	1569	1569	1568	1568	1569	1569	1569	1569	1570	1572	1572	1573	1573	1574	1575	1577	1577	1577	1578	1578	1578	1578	1577	1575	1574	1573	1570	1568	1565	1564	1563	1562	1562	1560	1560	1562	1563	1564	1564	1567	1568	1568	1569	1569	1570	1570	1572	1572	1572	1572	1572	1572	1572	1572	1572	1572	1572	1573
1574	1574	1574	1574	1575	1577	1578	1582	1584	1588	1592	1596	1601	1605	1607	1610	1613	1614	1614	1614	1613	1609	1607	1605	1602	1601	1600	1598	1598	1597	1597	1597	1598	1600	1601	1602	1604	1606	1609	1611	1611	1613	1613	1614	1615	1614	1611	1610	1609	1607	1605	1604	1602	1601	1601	1600	1598	1598	1598	1598	1598	1598	1598	1598	1600	1600	1602	1601	1604	1605	1607	1610	1614	1617	1619	1619	1622	1621	1622	1621	1621	1619	1615	1613	1609	1605	1598	1596	1592	1591	1591	1593	1594	1596	1598	1601	1601	1604	1604	1604	1604	1604	1604	1604	1604	1604	1604	1604	1604	1604	1602	1602	1602	1600	1598	1597	1597	1596	1593	1592	1589	1589	1589	1589	1589	1588	1588	1588	1589	1592	1593	1596	1598	1602	1604	1605	1605	1605	1605	1605	1604	1602	1604	1605	1606	1606	1606	1607	1609	1609	1609	1609	1609	1610	1610	1610	1610	1609	1607	1607	1605	1602	1600	1598	1596	1594	1593	1592	1592	1592	1591	1589	1589	1589	1588	1587	1587	1586	1584	1584	1584	1583	1583	1583	1583	1583	1584	1584	1586	1587	1589	1592	1594	1597	1598	1601	1604	1605	1607	1610	1614	1615	0	1618	1619	1623	1625	1626	1626	1623	1622	1619	1618	1615	1614	1613	1613	1611	1610	1610	1610	1609	1609	1609	1609	1609	1607	1607	1607	1607	1607	1607	1609	1610	1613	1613	1614	1617	1618	1619	1621	1622	1621	1619	1618	1618	1617	1617	1617	1615	1614	1614	1614	1613	1611	1610	1610	1610	1610	1609	1609	1609	1607	1607	1609	1607	1606	1606	1606	1606	1606	1606	1606	1606	1606	1606	1606	1606	1607	1609	1610	1611	1611	1613	1613	1613	1613	1611	1610	1609	1607	1605	1604	1602	1600	1600	1598	1598	1598	1597	1597	1597	1597	1596	1596	1596	1594	1593	1592	1592	1592	1591	1589	1589	1588	1588	1588	1588	1589	1588	1588	1588	1587	1586	1586	1584	1584	1584	1584	1584	1586	1587	1588	1588	1588	1589	1588	1588	1589	1589	1589	1589	1591	1591	1592	1592	1593	1593	1594	1596	1596	1593	1592	1589	1588	1586	1583	1580	1577	1575	1575	1575	1575	1577	1577	1578	1580	1583	1586	1588	1591	1592	1593	1594	1596	1596	1594	1593	1591	1589	1587	1586	1583	1580	1579	1579	1578	1578	1579	1579	1580	1583	1584	1588	1591	1593	1594	1597	1600	1600	1600	1601	1602	1602	1604	1605	1606	1607	1609	1613	1614	1615	1617	1619	1621	1622	1622	1622	1622	1621	1618	1617	1614	1614	1611	1606	1604	1602	1601	1601	1600	1600	1600	1600	1600	1598	1598	1597	1596	1594	1593	1592	1591	1589	1588	1588	1586	1586	1583	1582	1582	1580	1578	1575	1575	1573	1570	1570	1570	1570	1572	1573	1574	1577	1579	1580	1583	1584	1586	1586	1586	1584	1583	1582	1582	1580	1580	1579	1578	1579	1578	1578	1578	1579	1578	1579	1580	1580	1582	1584	1586	1588	1589	1591	1592	1593	1593	1594	1594	1594	1594	1593	1593	1592	1591	1589	1587	1586	1586	1583	1583	1583	1583	1582	1583	1583	1584	1584	1584	1586	1586	1586	1587	1588	1591	1591	1592	1592	1594	1594	1594	1594	1594	1594	1596	1596	1596	1596	1596	1594	1593	1592	1591	1589	1589	1589	1589	1589	1589	1589	1589	1589	1591	1591	1591	1591	1589	1589	1587	1586	1586	1584	1583	1582	1582	1580	1580	1580	1579	1580	1580	1579	1579	1580	1583	1586	1588	1592	1594	1597	1600	1602	1604	1605	1606	1609	1610	1610	1610	1609	1607	1605	1602	1598	1594	1589	1584	1578	1577	1574	1573	1572	1570	1569	1569	1568	1568	1567	1567	1567	1567	1567	1567	1567	1568	1569	1569	1570	1572	1573	1573	1574	1575	1575	1575	1577	1575	1574	1574	1572	1570	1568	1567	1564	1562	1560	1559	1558	1558	1558	1559	1559	1559	1562	1563	1564	1565	1567	1567	1568	1568	1569	1569	1570	1570	1570	1570	1569	1570	1570	1570	1570	1572	1572
1574	1573	1574	1574	1575	1577	1579	1582	1584	1587	1589	1594	1600	1602	1606	1607	1609	1611	1611	1611	1609	1606	1604	1601	1600	1597	1594	1594	1593	1592	1592	1592	1593	1593	1596	1597	1600	1604	1607	1610	1611	1611	1613	1614	1614	1613	1611	1609	1607	1606	1605	1604	1601	1601	1600	1598	1597	1598	1596	1596	1596	1597	1597	1596	1597	1598	1600	1598	1600	1602	1604	1606	1609	1611	1614	1615	1617	1618	1618	1618	1618	1615	1613	1610	1606	1604	1594	1592	1588	1586	1586	1586	1587	1588	1592	1593	1594	1597	1600	1600	1600	1601	1601	1601	1600	1600	1601	1600	1598	1598	1598	1597	1596	1594	1592	1589	1587	1587	1584	1583	1582	1582	1583	1583	1583	1583	1586	1587	0	1589	1592	1594	1597	1600	1602	1605	1605	1605	1606	1605	1605	1605	1605	1606	1606	1606	1607	1607	1609	1607	1607	1609	1609	1610	1611	1610	1610	1610	1609	1609	1606	1604	1601	1598	1597	1596	1594	1593	1593	1592	1592	1591	1589	1588	1588	1587	1586	1584	1584	1583	1583	1583	1583	1583	1583	1583	1583	1584	1586	1588	1589	1592	1594	1597	1598	1600	1602	1605	1607	1610	1613	1614	1615	0	1619	1621	1622	1622	1621	1619	1618	1615	1614	1611	1610	1610	1610	1609	1609	1609	1607	1607	1607	1607	1606	1606	1606	1606	1607	1607	1607	1607	1609	1610	1613	1614	1615	1618	1619	1621	1622	1622	1622	1622	1619	1619	1618	1617	1617	1615	1614	1614	1614	1610	1609	1607	1607	1606	1606	1605	1604	1602	1601	1601	1600	1600	1600	1600	1600	1601	1601	1601	1601	1601	1602	1604	1604	1605	1606	1607	1609	1611	1611	1611	1613	1614	1613	1610	1609	1606	1605	1604	1601	1600	1597	1597	1596	1596	1596	1596	1594	1593	1593	1593	1592	1592	1592	1591	1591	1589	1589	1589	1588	1588	1588	1588	1588	1589	1588	1588	1588	1587	1586	1586	1584	1583	1584	1583	1584	1586	1587	1588	1589	1591	1592	1592	1592	1592	1592	1591	1591	1592	1592	1592	1593	1593	1593	1593	1594	1596	1597	1593	1592	1589	1588	1586	1584	1580	1577	1575	1574	1574	1575	1575	1575	1577	1578	1580	1583	1584	1587	1588	1591	1592	1592	1592	1591	1589	1587	1586	1583	1582	1579	1578	1575	1574	1574	1574	1574	1574	1575	1578	1579	1583	1586	1587	1589	1592	1594	1594	1596	1596	1597	1598	1600	1601	1601	1604	1605	1606	1609	1611	1611	1614	1615	1617	1617	1618	1617	1615	1614	1613	1610	1605	1604	1601	1598	1597	1597	1596	1596	1596	1596	1596	1596	1594	1594	1593	1592	1591	1589	1589	1588	1587	1586	1586	1583	1582	1580	1579	1578	1577	1575	1573	1570	1569	1568	1567	1567	1565	1567	1567	1568	1570	1572	1574	1578	1579	1580	1582	1582	1582	1582	1580	1580	1579	1579	1579	1578	1579	1579	1578	1578	1578	1578	1578	1578	1579	1580	1580	1583	1584	1586	1587	1588	1589	1591	1592	1591	1591	1591	1591	1589	1589	1588	1587	1586	1584	1582	1582	1582	1582	1580	1580	1580	1582	1582	1582	1583	1582	1583	1583	1584	1586	1587	1588	1588	1588	1591	1591	1591	1591	1591	1592	1592	1592	1592	1592	1592	1591	1589	1588	1588	1587	1586	1587	1586	1586	1587	1588	1588	1588	1589	1591	1591	1592	1592	1591	1589	1587	1586	1586	1583	1582	1580	1579	1579	1578	1578	1578	1578	1577	1578	1580	1582	1583	1586	1588	1591	1593	1596	1597	1598	1600	1601	1604	1605	1605	1604	1604	1602	1600	1596	1593	1589	1586	1578	1575	1573	1573	1570	1569	1568	1568	1568	1567	1567	1565	1564	1564	1564	1565	1565	1565	1567	1568	1567	1569	1569	1570	1572	1572	1573	1573	1573	1573	1572	1572	1570	1569	1567	1564	1563	1560	1559	1558	1557	1556	1556	1556	1557	1558	1560	1560	1562	1563	1564	1565	1565	1565	1567	1567	1568	1568	1568	1568	1569	1569	1569	1570	1570	1569	1570	1570
1574	1574	1574	1573	1574	1575	1578	1580	1583	1586	1589	1593	1596	1600	1602	1604	1605	1605	1605	1605	1602	1600	1597	1596	1593	1592	1591	1588	1586	1586	1586	1588	1589	1592	1594	0	1598	1601	1606	1607	1610	1610	1610	1611	1611	1611	1610	1609	1607	1606	1604	1604	1601	1600	1598	1598	1597	1596	1596	1596	1594	1594	1594	1594	1594	1596	1596	1597	1597	1600	1601	1602	1605	1606	1609	1610	1610	1611	1613	1613	1613	1611	1609	1606	1604	1596	1592	1588	1584	1580	1580	1579	1579	1582	1582	1584	1587	1589	1591	1593	1593	1594	1594	1596	1596	1596	1596	1596	1596	1596	1594	1593	1592	1587	1584	1583	1582	1580	1577	1577	1577	1577	1578	1579	1580	1580	1582	1584	1587	1589	0	1592	1594	1598	1601	1604	1605	1605	1606	1605	1605	1605	1605	1605	1605	1604	1604	1605	1606	1606	1606	1607	1607	1609	1610	1610	1610	1609	1609	1607	1606	1604	1601	1600	1598	1596	1596	1594	1593	1593	1592	1591	1591	1589	1588	1587	1586	1584	1584	1583	1583	1583	1583	1583	1584	1584	1584	1586	1587	1588	1589	1592	1594	1597	1598	1600	1602	1605	1607	1609	1611	1614	1615	0	1618	1619	1621	1618	1615	1614	1611	1610	1609	1606	1605	1605	1605	1605	1605	1605	1605	1604	1605	1605	1604	1604	1605	1605	1605	1606	1606	1607	1607	1610	1611	1614	1615	1618	1619	1621	1623	1623	1625	1622	1621	1619	1619	1618	1618	1617	1615	1614	1611	1609	1607	1605	1604	1600	1600	1598	1597	1594	1594	1593	1593	1593	1593	1593	1594	1594	1594	1594	1596	1597	1598	1600	1601	1602	1605	1606	1607	1609	1610	1611	1611	1611	1610	1609	1605	1604	1601	1600	1597	1596	1593	1593	1593	1593	1593	1592	1591	1589	1589	1589	1588	1588	1588	1587	1587	1587	1587	1587	1587	1587	1587	1587	1587	1588	1587	1587	1587	1586	1584	1583	1583	1583	1583	1583	1586	1587	1588	1591	1592	1593	1594	1594	1594	1594	1594	1593	1592	1593	1592	1592	1592	1592	1592	1593	1594	1594	1596	1594	1592	1591	1588	1586	1584	1580	1577	1575	1574	1573	1574	1574	1574	1574	1577	1578	1579	1582	1583	1586	1586	1588	1588	1588	1587	1586	1584	1582	1580	1578	1577	1574	1573	1570	1570	1570	1570	1570	1572	1572	1575	1578	1580	1582	1584	1587	1589	1589	1591	1592	1592	1594	1594	1596	1596	1598	1600	1602	1604	1605	1607	1609	1610	1611	1611	1611	1611	1610	1609	1607	1604	1602	1600	1597	1594	1593	1592	1591	1592	1591	1591	1592	1591	1591	1591	1591	1589	1588	1587	1586	1584	1583	1583	1580	1579	1578	1578	1577	1575	1574	1573	1570	1568	1567	1564	1563	1562	1560	1560	1560	1560	1562	1564	1567	1570	1574	1574	1577	1578	1578	1578	1578	1578	1578	1578	1578	1578	1579	1578	1577	1577	1577	1577	1575	1577	1577	1578	1578	1579	1580	1582	1583	1584	1586	1587	1587	1587	1588	1587	1587	1587	1586	1586	1584	1583	1582	1580	1579	1579	1579	1579	1578	1579	1578	1578	1579	1579	1579	1579	1579	1580	1583	1583	1583	1584	1584	1586	1587	1587	1587	1587	1587	1587	1588	1587	1587	1586	1584	1584	1584	1584	1583	1582	1582	1583	1583	1584	1586	1586	1587	1589	1591	1592	1592	1593	1592	1589	1589	1588	1587	1586	1583	1582	1582	1580	1580	1579	1578	1577	1577	1578	1579	1579	1582	1584	1586	1588	1591	1592	1593	1594	1594	1596	1598	1598	1598	1598	1597	1594	1593	1591	1587	1584	1580	1575	1572	1572	1570	1569	1568	1567	1567	1567	1565	1565	1564	1563	1563	1563	1563	1564	1564	1565	1565	1565	1567	1567	1568	1568	1569	1569	1569	1569	1569	1568	1567	1567	1564	1563	1560	1559	1557	1557	1556	1556	1554	1556	1556	1557	1558	1559	1560	1562	1563	1565	1565	1567	1567	1567	1567	1567	1568	1568	1567	1568	1568	1569	1569	1569	1569	1569	1568
