147	147	147	147	148	148	148	148	148	148	148	148	148	148	149	149	149	149	149	149	149	0	0	0	0	0	0	0	0	0	0	0	161	161	161	161	161	161	161	161	161	161	161	161	161	161	160	160	160	160	160	160	160	160	0	0	0	0	0	0	0	0	0	0	0	0	0	1049	1049	1046	1046	1046	1041	1038	1032	1032	0	0	0	0	0	0	0	0	0	0	123	123	123	123	123	123	123	123	123	123	123	124	124	124	124	124	125	125	125	125	125	125	125	125	125	125	125	125	125	125	125	125	125	125	126	126	126	126	126	126	126	126	126	127	0	0	0	0	0	0	0	0	0	0	163	163	163	163	162	162	162	162	161	161	161	160	160	160	160	160	160	160	160	160	160	160	160	160	160	160	160	160	160	160	160	160	159	159	159	159	159	159	159	159	159	159	159	159	159	159	159	159	159	159	159	159	159	159	159	159	160	160	160	160	160	160	161	161	161	161	161	162	162	162	162	163	163	163	164	164	164	165	165	165	165	165	165	166	0	0	0	0	0	0	0	0	0	0	0	0	0	0	0	0	236	236	235	235	235	235	232	232	231	231	230	230	230	229	229	229	229	0	0	0	0	0	0	0	0	0	0	0	0	0	0	0	0	0	0	0	0	0	0	0	0	0	0	0	0	0	0	0	0	0	0	0	0	0	0	0	0	0	2070	2070	2058	2047	2036	2036	2025	2014	2003	1993	1982	1982	1993	2003	2003	2014	2025	2036	2047	2058	2081	2081	0	0	0	0	0	3862	3862	0	0	0	0	0	0	0	0	0	0	0	0	0	0	0	0	0	0	0	0	0	0	0	0	0	0	0	0	0	0	0	0	0	0	0	0	0	0	0	0	0	0	0	0	0	0	0	0	0	0	3096	3046	3021	3021	2997	2950	2904	2904	2904	2904	2950	2950	2973	2997	2997	2997	2997	2997	2997	2997	2950	2904	2838	2775	2620	2497	2497	0	2081	1961	1902	1902	1921	1951	1993	2025	2081	2116	2178	2230	2284	2327	2371	2401	2417	2432	2448	2448	2432	2417	2401	2386	2371	2341	2327	2298	2270	2270	2243	2204	2178	2141	2116	2104	2093	2081	2081	2081	2093	2093	2093	2104	2104	2104	2104	2116	2128	2128	2153	2128	2116	2116	2081	1993	1873	1873	0	1567	1510	1475	1469	1469	1458	1452	1446	1441	1435	1430	1419	1419	1408	1398	1398	1393	1387	1382	1382	1377	1377	0	0	0	0	0	0	0	0	0	0	0	0	0	0	0	0	0	0	0	1463	1430	1398	1398	0	0	0	0	0	0	0	3021	3021	3096	3202	3202	3202	3175	3122	3021	2950	2860	2754	2657	2548	2464	2401	2371	2327	2298	2270	2257	2243	2243	2243	2243	2243	2257	2257	2270	2284	2298	2312	2327	2327	2341	2341	2341	2341	2327	2312	2312	2312	2298	2284	2270	2270	2243	2243	2230	2217	2217	2217	2204	2204	2217	2217	2217	2230	2230	2243	2243	2243	2243	2243	2243	2257	2257	2257	2257	2257	2257	2257	2257	2257	2257	2257	2270	2257	2257	2270	2270	2270	2270	2270	2270	2257	2243	2230	2204	2191	2178	2165	2141	2104	2104	2081	2058	2047	2036	2025	2014	2014	2014	2014	2014	2025	2058	2093	2141	2178	2270	2356	2401	2432	2514	2386	2327	2284	2204	2153	2116	2081	2070	2047	2036	2036	2014	2014	2025	2025	2025	2036	2036	2047	2070	2081	2081	2093	2093	2116	2141	2141	2153	2153	2165	2165	2178	2178	2191	2191	2217	2243	2284	2312	2327	2371	2401	2401	2432	0	0	0	0	0	0	0	0	2312	2312	2312	2312	2312	2312	2341	2312	2312	2298	2298	2298	2298	2298	2312	2327	2327	2341	2341	2327	2327	2327	2298	2257	2257	0	0	0	0	0	0	0	0	0	0	0	0	0	0	0	0	0	0	0	0	0	0	0	0	0	0	0	0	0	0	0	0	0	0	0	0	0	0	0	0	0	0	0	0	0	0	0	0	0	0	0	0	0	0	0	0	0	0	0	0	0	0	0	0	0	0	0	0	0	0	0	0	0	0	0	0	0	0	0	0	0	0	0	0	0	0	0	0	0	0	0	0	0
147	147	147	147	148	148	148	148	148	148	148	148	148	148	149	149	149	149	149	0	0	0	0	0	0	0	0	0	0	0	0	0	161	161	161	161	161	161	161	161	161	161	161	161	161	161	160	160	160	160	160	160	160	160	0	0	0	0	0	0	0	0	0	0	0	0	0	1055	1055	1052	1052	1049	1043	1041	1035	1035	0	0	0	0	0	0	0	0	0	0	123	123	123	123	123	123	123	123	123	123	123	123	124	124	124	124	125	125	125	125	125	125	125	125	125	125	125	125	125	125	125	125	125	125	125	126	126	126	126	126	126	126	126	0	0	0	0	0	0	0	0	0	0	0	163	163	163	163	163	162	162	162	162	162	161	161	161	161	160	160	160	160	160	160	160	160	160	160	160	160	160	160	160	160	160	160	160	160	160	160	159	159	159	159	159	159	159	159	159	159	159	159	160	159	159	159	159	159	160	160	160	160	160	160	161	161	161	161	161	161	162	162	162	162	163	163	163	164	164	164	164	164	165	165	165	165	165	166	0	0	0	0	0	0	0	0	0	0	0	0	0	0	0	237	237	236	236	236	235	235	234	233	232	231	230	230	230	229	229	229	229	0	0	0	0	0	0	0	0	0	0	0	0	0	0	0	0	0	0	0	0	0	0	0	0	0	0	0	0	0	0	0	0	0	0	0	0	0	2104	2104	2116	2116	2116	2093	2081	2070	2058	2058	2047	2025	2025	2014	2014	2014	2014	2025	2036	2036	2036	2047	2070	2081	2093	2141	2217	2356	0	0	3673	3673	3862	4162	4209	4257	0	0	0	0	0	0	0	0	0	0	0	0	0	0	0	0	0	0	0	0	0	0	0	0	0	0	0	0	0	0	0	0	0	0	0	0	0	3257	3229	3202	3148	3096	3096	3070	3070	3046	2997	2950	2927	2904	2904	2882	2882	2882	2882	2882	2882	2882	2904	2927	2927	2927	2927	2950	2950	2950	2950	2904	2860	2796	2695	2566	2448	2448	0	2070	1961	1911	1911	1921	1941	1972	1993	2036	2081	2128	2178	2243	2284	2327	2356	2386	2386	2401	2401	2386	2371	2356	2341	2312	2298	2284	2257	2243	2243	2204	2178	2165	2141	2116	2116	2093	2093	2093	2093	2093	2104	2104	2116	2116	2116	2116	2116	2128	2153	2153	2141	2116	2116	2081	1993	1892	1892	0	1587	1529	1492	1487	1481	1469	1458	1452	1446	1441	1430	1424	1419	1408	1398	1398	1387	1382	1382	1377	1377	1377	0	0	0	0	0	0	0	0	0	0	0	0	0	0	0	0	0	0	0	0	0	0	0	0	0	0	0	0	0	0	0	0	0	3315	3315	3315	3257	3202	3096	2997	2904	2796	2676	2566	2448	2386	2356	2312	2284	2257	2243	2230	2230	2230	2243	2243	2243	2257	2270	2284	2298	2312	2327	2327	2341	2356	2356	2356	2341	2341	2327	2327	2312	2298	2284	2270	2270	2243	2243	2230	2217	2217	2217	2217	2217	2217	2230	2230	2230	2243	2243	2243	2243	2257	2257	2257	2257	2257	2257	2257	2243	2243	2243	2243	2243	2257	2257	2257	2257	2257	2257	2270	2270	2270	2257	2257	2243	2217	2204	2191	2178	2153	2141	2104	2104	2081	2070	2058	2047	2025	2014	2014	2014	2025	2025	2047	2116	2178	2270	2270	0	2657	2657	2583	2514	2514	2417	2356	2243	2165	2116	2081	2047	2025	2014	2014	2014	2014	2014	2014	2025	2025	2036	2047	2058	2070	2081	2081	2093	2116	2141	2141	2153	2153	2165	2165	2178	2191	2191	2204	2217	2243	2298	2327	2356	2371	2401	2401	2417	2432	2432	0	0	0	0	2270	2270	2270	2270	2257	2257	2312	2284	2284	2257	2243	2243	2257	2257	2243	2243	2257	2270	2284	2284	2284	2284	2284	2270	2257	2230	2230	0	0	0	0	0	0	0	0	0	0	0	0	0	0	0	0	0	0	0	0	0	0	0	0	0	0	0	0	0	0	0	0	0	0	0	0	0	0	0	0	0	0	0	0	0	0	0	0	0	0	0	0	0	0	0	0	0	0	0	0	0	0	0	0	0	0	0	0	0	0	0	0	0	0	0	0	0	0	0	0	0	0	0	0	0	0	0	0	0	0	0	0	0
147	147	147	147	148	148	148	148	148	148	148	148	148	148	148	149	149	0	0	0	0	0	0	0	0	0	0	0	0	0	0	0	0	161	161	161	161	161	161	161	161	161	161	161	161	161	160	160	160	160	160	160	160	160	0	0	0	0	0	0	0	0	0	0	0	0	0	0	1061	1058	1058	1058	1052	1046	1043	1043	0	0	0	0	0	0	0	0	0	0	0	122	122	123	123	123	123	123	123	123	123	123	124	124	124	124	124	125	125	125	125	125	125	125	125	125	125	125	125	125	125	125	125	125	125	126	126	126	126	126	126	126	0	0	0	0	0	0	0	0	0	0	0	0	163	163	163	163	163	163	162	162	162	162	162	161	161	161	161	160	160	160	160	160	160	160	160	160	160	160	160	160	160	160	160	160	160	160	160	160	160	160	159	159	159	159	159	159	160	160	160	160	160	160	160	160	160	160	160	160	160	160	160	161	161	161	161	162	162	162	162	162	162	163	163	163	163	164	164	164	164	164	165	165	165	165	165	0	0	0	0	0	0	0	0	0	0	0	0	0	0	237	237	237	237	237	237	236	236	235	234	234	233	232	231	230	229	229	229	229	229	0	0	0	0	0	0	0	0	0	0	0	0	0	0	0	0	0	0	0	0	0	0	0	0	0	0	0	0	0	0	0	0	0	0	0	0	0	2104	2104	2104	2116	2116	2104	2104	2093	2081	2070	2070	2058	2047	2036	2036	2036	2047	2047	2058	2058	2058	2070	2093	2104	2116	2141	2217	2356	0	3469	3469	3673	4028	4162	4209	4257	0	0	0	0	0	0	0	0	0	0	0	0	0	0	0	0	0	0	0	0	0	0	0	0	0	0	0	0	0	0	0	0	0	0	0	0	0	3257	3229	3202	3148	3096	3046	2997	2973	2950	2904	2882	2838	2838	2838	2838	2838	2817	2817	2817	2817	2817	2838	2860	2860	2882	2882	2882	2882	2882	2882	2860	2796	2714	2620	2566	2448	2448	2165	2058	1972	1921	1921	1921	1931	1951	1961	2003	2036	2081	2141	2204	2243	2284	2312	2341	2371	2371	2371	2356	2327	2312	2298	2284	2270	2257	2243	2230	2204	2204	2178	2153	2141	2116	2104	2104	2093	2093	2093	2093	2104	2116	2116	2116	2116	2116	2116	2141	2153	2153	2141	2116	2116	2081	2014	1911	1911	0	1601	1542	1504	1498	1487	1475	1463	1458	1446	1441	1430	1424	1419	1408	1398	1393	1387	1382	1382	1377	1377	0	0	0	0	0	0	0	0	0	0	0	0	0	0	0	0	0	0	0	0	0	0	0	0	0	0	0	0	0	0	0	0	0	0	0	3345	3345	3315	3257	3148	3046	2927	2927	2695	2566	2448	2371	2341	2298	2270	2243	2230	2217	2217	2217	2230	2230	2243	2243	2257	2284	2298	2312	2327	2327	2341	2356	2371	2371	2356	2356	2356	2356	2341	2327	2298	2284	2284	2257	2257	2243	2230	2230	2230	2230	2230	2230	2230	2243	2257	2257	2257	2257	2257	2257	2257	2257	2257	2257	2257	2257	2243	2243	2243	2243	2243	2243	2243	2257	2257	2257	2257	2257	2257	2257	2257	2243	2230	2217	2204	2191	2178	2153	2141	2104	2093	2081	2058	2058	2047	2025	2014	2014	2014	2014	2036	2081	2178	0	0	2531	2531	2657	2620	2583	2497	2401	2270	2270	2141	2081	2047	2014	2003	1993	1982	1982	1993	1993	2003	2003	2014	2025	2025	2047	2047	2058	2070	2070	2081	2093	2116	2116	2128	2128	2141	2165	2165	2178	2178	2204	2217	2243	2298	2327	2356	2371	2386	2401	2401	2401	2371	2327	2284	2257	2243	2243	2243	2243	2243	2257	2257	2257	2230	2217	2204	2204	2191	2191	2204	2204	2204	2217	2230	2243	2257	2257	2257	2243	2243	2243	2217	2204	2204	0	0	0	0	0	0	0	0	0	0	0	0	0	0	0	0	0	0	0	0	0	0	0	0	0	0	0	0	0	0	0	0	0	0	0	0	0	0	0	0	0	0	0	0	0	0	0	0	0	0	0	0	0	0	0	0	0	0	0	0	0	0	0	0	0	0	0	0	0	0	0	0	0	0	0	0	0	0	0	0	0	0	0	0	0	0	0	0	0	0	0	0
146	147	147	147	147	148	148	148	148	148	148	148	148	148	148	148	148	149	149	0	0	0	0	0	0	0	0	0	0	0	0	0	0	0	161	161	161	161	161	161	161	161	161	161	161	161	160	160	160	160	160	160	160	160	0	0	0	0	0	0	0	0	0	0	0	0	0	0	0	0	0	0	0	0	0	0	0	0	0	0	0	0	0	0	0	0	0	122	122	122	122	122	122	122	123	123	123	123	123	124	124	124	124	124	124	125	125	125	125	125	124	124	124	125	125	125	125	125	125	125	125	125	126	126	126	126	126	0	0	0	0	0	0	0	0	0	0	0	0	0	164	164	163	163	163	163	163	163	163	162	162	162	162	161	161	161	160	160	160	160	160	160	160	160	160	160	160	160	160	160	160	160	160	160	160	160	160	160	160	160	160	160	160	160	160	160	160	160	160	160	160	160	160	160	160	160	160	161	161	161	161	162	162	162	162	162	162	162	162	163	163	163	163	164	164	164	164	164	164	164	164	164	0	165	165	0	0	0	0	0	0	0	0	0	0	0	238	237	237	237	237	237	237	237	236	236	235	234	233	232	231	230	229	229	229	229	229	0	0	0	0	0	0	0	0	0	0	0	0	0	0	0	0	0	0	0	0	0	0	0	0	0	0	0	0	0	0	0	0	0	0	0	0	0	0	2070	2070	2093	2104	2104	2104	2104	2104	2093	2093	2081	2070	2070	2070	2070	2070	2070	2081	2081	2081	2081	2104	2116	2128	2165	2257	2417	0	3469	3469	3822	4116	4257	0	0	0	0	0	0	0	0	0	0	0	0	0	0	0	0	0	0	0	0	0	0	0	0	0	0	0	0	0	0	0	0	0	0	0	0	0	0	0	3257	3229	3202	3148	3096	3021	2973	2950	2950	2904	2860	2838	2817	2817	2817	2796	2775	2775	2775	2775	2775	2775	2775	2796	2817	2817	2817	2817	2838	2838	2838	2754	2695	2620	2481	2448	2448	2128	2036	1972	1931	1921	1921	1921	1931	1951	1982	2003	2058	2104	2153	2191	2243	2284	2312	2327	2341	2341	2327	2312	2284	2270	2257	2243	2243	2230	2217	2191	2191	2178	2153	2141	2116	2104	2104	2104	2104	2104	2104	2116	2116	2116	2116	2116	2116	2128	2141	2153	2165	2141	2141	2128	2116	2036	1931	1931	0	1608	1548	1504	1498	1492	1481	1469	1458	1452	1441	1435	1424	1419	1408	1398	1393	1387	1382	1382	1377	1377	0	0	0	0	0	0	0	0	0	0	0	0	0	0	0	0	0	0	0	0	0	0	0	0	0	0	0	0	0	0	0	0	0	0	0	0	0	3345	3286	3175	3046	3046	0	2695	2566	2448	2371	2341	2298	2257	2230	2217	2217	2217	2217	2230	2230	2243	2243	2257	2284	2298	2327	2327	2341	2356	2371	2371	2386	2371	2356	2356	2356	2356	2341	2327	2312	2312	2284	2284	2270	2257	2257	2243	2243	2243	2243	2257	2257	2270	2270	2270	2270	2270	2284	2270	2270	2270	2257	2257	2257	2243	2243	2243	2243	2243	2243	2243	2243	2257	2257	2257	2257	2257	2257	2257	2230	2217	2217	2204	2191	2178	2153	2128	2104	2093	2081	2058	2047	2036	2014	2003	2003	2003	2014	2047	2081	2178	0	0	2514	2514	2548	2514	2448	2356	2243	2153	2128	2058	2014	1993	1961	1951	1951	1951	1951	1972	1982	1982	1993	1993	2014	2025	2036	2047	2047	2058	2070	2070	2081	2081	2093	2104	2104	2116	2128	2141	2165	2165	2178	2204	2243	2298	2312	2327	2341	2356	2371	2371	2356	2341	2298	2257	2243	2230	2230	2243	2243	2243	2230	2230	2217	2191	2191	2178	2165	2165	2165	2165	2178	2178	2191	2204	2217	2230	2230	2230	2230	2243	2243	2217	2204	2204	2191	2153	2128	2128	0	0	0	0	0	0	0	0	0	0	0	0	0	0	0	1435	1430	1430	0	0	0	0	0	0	0	0	0	0	0	0	0	0	0	0	0	0	0	0	0	0	0	0	0	0	0	0	0	0	0	0	0	0	0	0	0	0	0	0	0	0	0	0	0	0	0	0	0	0	0	0	0	0	0	0	0	0	0	0	0	0	0	0	0	0	0	0	0	0
146	147	147	147	147	147	147	148	148	148	148	148	148	148	148	148	148	149	149	0	0	0	0	0	0	0	0	0	0	0	0	0	0	0	0	161	161	161	161	161	161	161	161	161	161	161	161	160	160	160	160	161	0	0	0	0	0	0	0	0	0	0	0	0	0	0	0	0	0	0	0	0	0	0	0	0	0	0	0	0	0	0	0	0	0	0	122	122	122	122	122	122	122	122	122	122	123	123	123	123	124	124	124	124	124	124	124	124	124	124	124	124	124	124	124	124	124	125	125	125	125	125	125	125	126	126	126	0	0	0	0	0	0	0	0	0	0	0	0	0	164	164	164	164	164	163	163	163	163	163	163	162	162	162	161	161	160	160	160	160	160	160	160	160	160	160	160	160	160	160	160	160	160	160	160	160	160	160	160	160	160	160	160	160	160	160	160	160	160	160	160	160	160	160	160	161	161	161	161	162	162	162	162	162	162	162	162	163	163	163	163	163	164	164	164	164	164	164	164	164	164	164	164	164	164	0	0	0	0	0	0	0	0	0	0	0	238	238	238	238	238	238	238	237	237	237	236	236	236	0	231	230	230	229	229	229	0	0	0	0	0	0	0	0	0	0	0	0	0	0	0	0	0	0	0	0	0	0	0	0	0	0	0	0	0	0	0	0	0	0	0	0	0	0	0	2014	2014	2036	2047	2058	2070	2070	2081	2081	2093	2093	2093	2081	2081	2093	2093	2093	2093	2093	2093	2104	2116	2141	2153	2204	2298	0	0	3375	3375	3746	4116	0	0	0	0	0	0	0	0	0	0	0	0	0	0	0	0	0	0	0	0	0	0	0	0	0	0	0	0	0	0	0	0	0	0	0	0	0	0	0	0	3257	3229	3202	3148	3096	3021	2973	2950	2927	2882	2838	2817	2796	2796	2775	2775	2754	2734	2734	2734	2734	2734	2754	2754	2754	2775	2775	2775	2775	2796	2775	2754	2695	2566	2417	2298	2191	2104	2025	1972	1931	1921	1921	1921	1931	1941	1961	1993	2025	2070	2104	2165	2204	2243	2284	2312	2312	2327	2298	2298	2284	2270	2243	2243	2230	2230	2217	2191	2165	2165	2153	2141	2116	2116	2104	2104	2104	2104	2104	2116	2116	2128	2116	2116	2116	2128	2153	2165	2178	2165	2153	2153	2165	2093	1993	1993	0	0	1548	1504	1498	1498	1481	1469	1458	1452	1441	1435	1430	1419	1408	1398	1398	1393	1387	1382	1377	1377	0	0	0	0	0	0	0	0	0	0	0	0	0	0	0	0	0	0	0	0	0	0	0	0	0	0	0	0	0	0	0	0	0	0	0	0	0	0	0	0	0	0	0	0	0	0	0	0	0	2257	2230	2217	2217	2217	2217	2230	2230	2243	2257	2270	2284	2298	2327	2341	2356	2356	2371	2386	2386	2386	2371	2371	2371	2371	2356	2341	2327	2312	2312	2312	2298	2270	2270	2270	2270	2270	2270	2284	2284	2284	2298	2298	2298	2298	2298	2284	2284	2284	2284	2270	2270	2257	2243	2243	2243	2243	2243	2243	2243	2257	2257	2257	2257	2257	2243	2243	2230	2217	2204	2191	2191	2178	2153	2128	2104	2093	2081	2058	2047	2036	2014	2003	1993	1993	2003	0	0	0	0	2386	2386	2481	2531	2514	2341	2257	2165	2093	2058	2058	1972	1951	1931	1921	1921	1921	1931	1941	1951	1961	1982	1993	2003	2014	2025	2036	2047	2058	2058	2070	2070	2081	2081	2093	2093	2104	2116	2141	2165	2165	2178	2204	2243	2298	2312	2327	2341	2356	2356	2356	2341	2341	2284	2257	2243	2230	2217	2217	2204	2204	2204	2191	2191	2178	2153	2153	2153	2141	2141	2141	2153	2153	2165	2178	2191	2204	2217	2217	2230	2230	2243	2230	2217	2217	2191	2153	2128	2128	0	0	0	0	0	0	0	0	0	0	0	0	0	0	1435	1430	1424	1424	0	0	0	0	0	0	0	0	0	0	0	0	0	0	0	0	0	0	0	0	0	0	0	0	0	0	0	0	0	0	0	0	0	0	0	0	0	0	0	0	0	0	0	0	0	0	0	0	0	0	0	0	0	0	0	0	0	0	0	0	0	0	0	0	0	0	0	0	0	0
146	146	146	147	147	147	147	147	147	148	148	148	148	148	148	148	148	149	0	0	0	0	0	0	0	0	0	0	0	0	0	0	0	0	0	0	0	161	161	161	161	161	161	161	161	161	161	161	161	161	161	161	0	0	0	0	0	0	0	0	0	0	0	0	0	0	0	0	0	0	0	0	0	0	0	0	0	0	0	0	0	0	0	0	0	122	122	122	122	122	122	122	122	122	122	122	122	123	123	123	124	124	124	124	124	124	124	124	124	124	124	124	124	124	124	124	124	124	124	125	125	125	125	125	126	126	126	126	0	0	0	0	0	0	0	0	0	0	0	0	164	164	164	164	164	164	163	163	163	163	163	163	163	162	161	161	160	160	160	160	160	159	159	159	160	160	0	160	160	160	0	0	0	0	0	0	0	0	0	0	160	160	160	160	160	160	160	160	161	161	161	161	161	161	161	162	162	162	162	162	162	162	163	163	163	163	163	163	163	163	163	163	164	164	164	164	164	164	164	164	164	164	164	164	164	164	0	0	0	0	0	0	0	0	0	0	238	238	238	238	238	238	238	238	237	237	237	236	236	0	232	230	230	229	229	229	229	0	0	0	0	0	0	0	0	0	0	0	0	0	0	0	0	0	0	0	0	0	0	0	0	0	0	0	0	0	0	0	0	0	0	0	0	0	0	1972	1972	1993	2003	2025	2036	2047	2047	2058	2070	2081	2081	2093	2093	2104	2104	2104	2104	2104	2116	2116	2128	2141	2153	2204	2298	2464	2973	2973	3286	3709	4116	0	0	0	0	0	0	0	0	0	0	0	0	0	0	0	0	0	0	0	0	0	0	0	0	0	0	0	0	0	0	0	0	0	0	0	0	0	0	0	0	3257	3229	3202	3148	3096	3021	2973	2950	2927	2882	2838	2796	2775	2775	2754	2734	2714	2714	2714	2714	2714	2714	2714	2734	2734	2734	2754	2754	2754	2754	2775	2734	2638	2566	2356	2243	2153	2070	2014	1972	1931	1921	1921	1921	1931	1931	1951	1982	2003	2047	2081	2116	2178	2217	2243	2270	2298	2312	2298	2298	2284	2257	2243	2243	2230	2230	2217	2191	2165	2165	2153	2141	2116	2116	2104	2104	2104	2104	2116	2116	2116	2128	2116	2116	2128	2141	2165	2178	2191	2204	2191	2191	2204	2141	2141	0	0	0	1535	1504	1498	1492	1481	1469	1463	1452	1446	1435	1430	1430	0	0	0	1393	1393	1393	0	0	0	0	0	0	0	0	0	0	0	0	0	0	0	0	0	0	0	0	0	0	0	0	0	0	0	0	0	0	0	0	0	0	0	0	0	0	0	0	0	0	0	0	0	0	0	0	0	0	0	0	2243	2230	2217	2217	2230	2230	2243	2257	2257	2284	2298	2312	2327	2341	2356	2371	2386	2386	2386	2386	2386	2371	2371	2386	2371	2356	2341	2341	2341	2312	2312	2298	2298	2298	2298	2284	2284	2298	2312	2312	2312	2312	2312	2312	2312	2312	2298	2298	2284	2284	2270	2270	2257	2243	2243	2243	2243	2243	2243	2257	2257	2257	2257	2257	2243	2243	2243	2217	2204	2191	2191	2178	2153	2128	2116	2104	2081	2058	2047	2025	2014	1993	1993	1993	1993	2014	2047	0	2270	2270	2298	2341	2371	0	2341	2257	2165	2093	2058	2058	1972	1911	1902	1882	1882	1882	1892	1902	1911	1931	1951	1961	1982	2003	2014	2036	2047	2058	2058	2058	2070	2081	2081	2093	2093	2104	2116	2153	2165	2178	2191	2217	2257	2312	2341	2341	2341	2356	2356	2356	2341	2327	2284	2257	2230	2217	2204	2191	2191	2191	2191	2178	2178	2165	2141	2141	2128	2128	2128	2128	2141	2141	2153	2165	2178	2178	2191	2204	2204	2217	2230	2243	2243	2243	2230	2204	2191	2191	0	0	0	0	0	0	0	0	0	0	0	0	0	0	1435	1430	1424	1424	0	0	0	0	0	0	0	0	0	0	0	0	0	0	0	0	0	0	0	0	0	0	0	0	0	0	0	0	0	0	0	0	0	0	0	0	0	0	0	0	0	0	0	0	0	0	0	0	0	0	0	0	0	0	0	0	0	0	0	0	0	0	0	0	0	0	0	0	0	0
146	146	146	146	147	147	147	147	147	148	148	148	148	148	148	148	148	0	0	0	0	0	0	0	0	0	0	0	0	0	0	0	0	0	0	0	0	0	0	161	161	161	161	161	161	161	161	161	161	161	161	161	0	0	0	0	0	0	0	0	0	0	0	0	0	0	0	0	0	0	0	0	0	0	0	0	0	0	0	0	0	0	0	122	122	122	122	122	122	122	122	122	122	122	122	122	122	122	123	123	123	124	124	124	124	124	124	124	124	124	124	124	124	124	124	124	124	124	124	124	125	125	125	125	125	125	125	125	126	0	0	0	0	0	0	0	0	0	0	0	164	164	164	164	164	164	164	164	164	163	163	163	163	163	162	161	161	160	160	160	159	159	159	159	159	159	0	0	0	0	0	0	0	0	0	0	0	0	0	0	0	0	160	160	160	161	161	161	161	161	161	161	162	162	162	162	163	163	163	163	163	163	163	163	163	163	163	163	163	163	163	163	164	164	164	164	164	164	164	164	164	164	164	164	164	164	0	0	0	0	0	0	0	0	0	0	238	238	238	238	238	238	238	238	238	238	237	236	236	0	0	231	230	229	229	229	229	0	0	0	0	0	0	0	0	0	0	0	0	0	0	0	0	0	0	0	0	0	0	0	0	0	0	0	0	0	0	0	0	0	0	0	0	0	0	1931	1931	1951	1972	1982	2003	2014	2025	2036	2047	2058	2070	2081	2093	2093	2104	2104	2116	2116	2116	2116	2128	2141	2153	2204	2298	2432	2638	2882	3148	3568	3943	0	0	0	0	0	0	0	0	0	0	0	0	0	0	0	0	0	0	0	0	0	0	0	0	0	0	0	0	0	0	0	0	0	0	0	0	0	0	0	0	3257	3229	3202	3202	3096	3021	2973	2950	2882	2838	2796	2754	2734	2734	2714	2714	2695	2695	2676	2676	2676	2695	2695	2714	2714	2714	2714	2714	2754	2754	2775	2734	2638	2638	2356	2191	2116	2047	2003	1961	1941	1931	1921	1921	1921	1931	1941	1961	1993	2025	2070	2104	2141	2191	2230	2270	2298	2312	2298	2298	2284	2257	2257	2257	2230	2230	2217	2204	2178	2178	2165	2153	2128	2128	2116	2116	2116	2116	2116	2128	2128	2128	2128	2128	2141	2153	2165	2191	2204	2230	2230	2230	2230	2178	2178	0	0	1680	1523	1504	1498	1492	1481	1469	1463	1452	1446	1435	1430	1430	0	0	0	1393	1393	0	0	0	0	0	0	0	0	0	0	0	0	0	0	0	0	0	0	0	0	0	0	0	0	0	0	0	0	0	0	0	0	0	0	0	0	0	0	0	0	0	0	0	0	0	0	0	0	0	0	0	0	0	0	2243	2243	2243	2243	2257	2257	2257	2270	2284	2312	2327	2341	2356	2356	2371	2371	2386	2386	2371	2371	2371	2371	2371	2356	2356	2341	2341	2341	2341	2327	2312	2312	2312	2312	2312	2312	2312	2312	2327	2327	2327	2327	2327	2327	2312	2312	2298	2284	2284	2270	2270	2257	2257	2257	2243	2243	2243	2257	2257	2257	2257	2257	2257	2243	2243	2243	2230	2204	2191	2191	2178	2153	2141	2116	2104	2081	2058	2047	2025	2014	1993	1993	1993	1993	1993	2047	2153	2270	2270	2298	2341	2371	2178	2116	2047	1982	1941	1911	1882	1854	1836	1827	1818	1818	1818	1818	1845	1864	1873	1892	1902	1941	1972	2003	2025	2047	2058	2058	2058	2070	2081	2093	2104	2128	2165	2230	2327	2371	2432	2464	2481	2497	2497	2464	2432	2401	2386	2386	2386	2356	2327	2284	2257	2230	2204	2204	2191	2191	2178	2178	2165	2165	2153	2141	2128	2116	2116	2128	2128	2128	2128	2141	2141	2153	2165	2178	2191	2204	2204	2230	2257	2257	2270	2284	2270	2270	2270	0	0	0	0	0	0	0	0	0	0	0	0	0	0	1435	1430	1424	1424	0	0	0	0	0	0	0	0	0	0	0	0	0	0	0	0	0	0	0	0	0	0	0	0	0	0	0	0	0	0	0	0	0	0	0	0	0	0	0	0	0	0	0	0	0	0	0	0	0	0	0	0	0	0	0	0	0	0	0	0	0	0	0	0	0	0	0	0	0	0
146	146	146	146	0	146	146	146	0	0	0	0	0	0	0	0	0	0	0	0	0	0	0	0	0	0	0	0	0	0	0	0	0	0	0	0	0	0	0	0	161	161	161	161	161	161	161	161	160	160	161	0	0	0	0	0	0	0	0	0	0	0	0	0	0	0	0	0	0	0	0	0	0	0	0	0	0	0	0	0	0	0	122	122	122	122	122	122	122	122	122	122	122	122	122	122	122	122	122	123	123	124	124	124	124	124	124	124	124	124	124	124	124	124	124	124	124	124	124	124	125	125	125	125	125	125	125	125	126	0	0	0	0	0	0	0	0	0	0	0	0	0	0	0	0	164	164	164	164	164	164	164	164	164	0	0	161	160	160	160	159	159	159	159	159	159	159	0	0	0	0	0	0	0	0	0	0	0	0	0	0	0	0	161	161	161	161	161	161	162	162	162	162	163	163	163	163	163	163	163	163	163	163	163	163	163	163	163	163	163	163	163	164	164	164	163	163	163	163	163	163	163	164	164	163	163	0	0	0	0	0	0	0	0	0	238	238	238	238	238	238	238	238	238	238	238	238	238	0	0	0	0	0	0	230	230	230	0	0	0	0	0	0	0	0	0	0	0	0	0	0	0	0	0	0	0	0	0	0	0	0	0	0	0	0	0	0	0	0	0	0	0	0	0	1892	1892	1902	1921	1931	1951	1961	1982	1993	2003	2025	2036	2047	2058	2070	2081	2093	2093	2104	2104	2104	2104	2128	2141	2153	2204	2284	2417	2583	2775	3021	3568	3943	0	0	0	0	0	0	0	0	0	0	0	0	0	0	0	0	0	0	0	0	0	0	0	0	0	0	0	0	0	0	0	0	0	0	0	0	0	0	0	0	0	0	0	0	0	0	0	0	2882	2796	2754	2734	2714	2714	2695	2695	2676	2657	2657	2657	2657	2638	2638	2657	2657	2657	2657	2714	2754	2754	0	0	0	0	0	2191	2070	2014	1982	1951	1941	1921	1921	1921	1921	1931	1941	1961	1993	2025	2058	2093	2128	2165	2217	2257	2298	2312	2327	2327	2312	2298	2298	2284	2270	2270	2257	2230	2204	2178	2178	2165	2153	2141	2128	2128	2116	2116	2128	2128	2128	2128	2128	2128	2141	2165	2191	2204	2230	2243	2270	2270	2298	2257	2257	0	0	1680	1523	1523	1517	1504	1498	1498	0	0	0	0	0	0	0	0	0	0	0	0	0	0	0	0	0	0	0	0	0	0	0	0	0	0	0	0	0	0	0	0	0	0	0	0	0	0	0	0	0	0	0	0	0	0	0	0	0	0	0	0	0	0	0	0	0	0	0	0	0	0	0	0	0	0	2257	2257	2257	2257	2270	2270	2284	2298	2312	2327	2341	2356	2356	2371	2371	2371	2356	2356	2356	2356	2356	2356	2356	2356	2356	2341	2341	2341	2341	2327	2327	2327	2327	2327	2327	2327	2327	2341	2341	2341	2341	2341	2327	2327	2312	2312	2298	2284	2284	2270	2270	2257	2257	2257	2257	2257	2257	2257	2257	2257	2257	2257	2257	2243	2243	2230	2204	2191	2191	2178	2165	2141	2116	2104	2081	2058	2047	2025	2014	2003	1993	1982	1982	1993	2047	2116	2141	2128	2128	0	0	2047	2003	1931	1882	1854	1836	1801	1784	1784	1767	1750	1750	1759	1759	1784	1784	1810	1827	1854	1882	1921	1972	2003	2036	2047	2058	2070	2081	2093	2116	2128	2153	2243	2341	2481	2583	2676	2714	2775	2775	2754	2714	2601	2548	2497	2448	2386	2356	2327	2270	2243	2217	2204	2204	2191	2178	2178	2165	2153	2153	2153	2141	2128	2116	2116	2116	2116	2116	2116	2128	2128	2141	2153	2165	2178	2191	2204	2230	2257	2270	2298	2327	2312	2298	2298	0	0	0	0	0	0	0	0	0	0	0	0	0	0	1435	1430	1424	1424	0	0	0	0	0	0	0	0	0	0	0	0	0	0	0	0	0	0	0	0	0	0	0	0	0	0	0	0	0	0	0	0	0	0	0	0	0	0	0	0	0	0	0	0	0	0	0	0	0	0	0	0	0	0	0	0	0	0	0	0	0	0	0	0	0	0	0	0	0	0
145	145	145	145	146	146	146	146	0	0	0	0	0	0	0	0	0	0	0	0	0	0	0	0	0	0	0	0	0	0	0	0	0	0	0	0	0	0	0	0	0	161	161	161	160	160	160	160	160	160	0	0	0	0	0	0	0	0	0	0	0	0	0	0	0	0	0	0	0	0	0	0	0	0	0	0	0	0	0	0	0	122	121	121	121	122	121	121	122	122	122	122	121	121	121	122	122	122	122	123	123	123	124	124	124	124	124	124	124	124	124	124	124	124	124	124	124	124	124	124	124	125	125	125	125	125	125	125	0	0	0	0	0	0	0	0	0	0	0	0	0	0	0	164	164	164	164	164	164	164	164	164	164	0	0	0	161	160	160	159	159	159	159	159	159	159	159	0	0	0	0	0	0	0	0	0	0	0	0	0	0	0	0	161	161	161	161	161	162	162	162	162	163	163	163	163	163	163	164	164	164	163	163	163	163	163	163	163	163	163	163	163	164	164	163	163	163	163	163	163	163	163	163	163	163	163	0	0	0	0	0	0	0	0	0	238	238	238	238	238	238	238	238	238	238	238	238	238	0	0	0	0	0	0	0	0	0	0	0	0	0	0	0	0	0	0	0	0	0	0	0	0	0	0	0	0	0	0	0	0	0	0	0	0	0	0	0	0	0	0	0	0	0	1864	1864	1873	1882	1892	1902	1921	1931	1941	1961	1972	1993	2003	2025	2036	2047	2070	2070	2081	2081	2093	2093	2093	2104	2128	2141	2191	2284	2386	2583	2775	3021	0	0	0	0	0	0	0	0	0	0	0	0	0	0	0	0	0	0	0	0	0	0	0	0	0	0	0	0	0	0	0	0	0	0	0	0	0	0	0	0	0	0	0	0	0	0	0	0	0	0	0	2796	2754	2734	2714	2714	2695	2695	2657	2657	2638	2620	2601	2601	2638	2548	2548	2657	2657	2714	0	0	0	0	0	0	0	0	2070	1982	1972	1951	1931	1921	1921	1921	1921	1921	1941	1951	1982	2003	2047	2081	2104	2141	2191	2230	2284	2312	2341	2356	2356	2356	2356	2341	2327	2327	2298	2270	2243	2217	2217	2204	2178	2153	2141	2141	2128	2128	2128	2141	2141	2141	2141	2141	2153	2165	2204	2217	2257	2284	2298	2327	2356	2356	2448	0	0	0	0	0	0	0	0	0	0	0	0	0	0	0	0	0	0	0	0	0	0	0	0	0	0	0	0	0	0	0	0	0	0	0	0	0	0	0	0	0	0	0	0	0	0	0	0	0	0	0	0	0	0	0	0	0	0	0	0	0	0	0	0	0	0	0	0	0	0	0	0	0	0	2257	2257	2257	2257	2270	2270	2270	2284	2298	2312	2327	2341	2341	2341	2356	2356	2341	2341	2341	2341	2341	2341	2341	2341	2356	2356	2356	2356	2341	2341	2341	2341	2341	2341	2341	2341	2341	2341	2356	2356	2356	2341	2341	2327	2327	2312	2312	2298	2284	2284	2270	2270	2270	2270	2270	2270	2270	2270	2257	2257	2257	2257	2257	2257	2243	2243	2230	2217	2204	2191	2178	2165	2153	2128	2116	2093	2058	2047	2036	2014	2003	1993	1982	1982	2003	2047	2104	2141	2128	2128	2025	1982	1941	1882	1827	1792	1775	1759	1742	1718	1711	1703	1695	1695	1703	1711	1711	1734	1759	1767	1792	1827	1873	1921	1982	2014	2036	2058	2081	2093	2116	2141	2178	2243	2312	0	0	0	0	2882	2882	2882	2796	2754	2638	2548	2497	2448	2448	2371	2312	2257	2230	2204	2178	2165	2153	2153	2141	2141	2141	2128	2128	2128	2128	2116	2116	2116	2116	2116	2116	2128	2128	2141	2153	2165	2178	2191	2217	2230	2257	2284	2312	2327	2341	2341	2341	0	0	0	0	0	0	0	0	0	0	0	0	0	0	1446	1435	1435	1435	0	0	0	0	0	0	0	0	0	0	0	0	0	0	0	0	0	0	0	0	0	0	0	0	0	0	0	0	0	0	0	0	0	0	0	0	0	0	0	0	0	0	0	0	0	0	0	0	0	0	0	0	0	0	0	0	0	0	0	0	0	0	0	0	0	0	0	0	0	0
145	145	145	145	145	145	145	146	0	0	0	0	0	0	0	0	0	0	0	0	0	0	0	0	0	0	0	0	0	0	0	0	0	0	0	0	0	0	0	0	0	0	0	0	160	160	160	160	0	0	0	0	0	0	0	0	0	0	0	0	0	0	0	0	0	0	0	0	0	0	0	0	0	0	0	0	0	0	0	121	121	121	121	121	121	121	121	121	121	121	121	121	121	121	121	121	122	122	122	122	123	123	123	123	124	124	124	124	124	124	124	124	124	124	124	124	124	124	124	124	124	125	125	125	125	125	125	125	0	0	0	0	0	0	0	0	0	0	0	0	0	0	0	164	164	164	164	164	164	164	164	164	164	163	163	0	0	160	160	159	159	159	159	159	159	159	159	0	0	0	0	0	0	0	0	0	0	0	0	0	0	0	0	161	161	161	161	162	162	163	163	163	163	163	164	164	164	164	164	164	164	164	164	164	164	164	164	163	163	163	164	163	163	163	163	163	163	163	163	163	163	163	163	163	163	163	0	0	0	0	0	0	0	0	237	237	238	238	238	238	238	238	238	238	238	238	237	237	236	236	236	0	0	0	0	0	0	0	0	0	0	0	0	0	0	0	0	0	0	0	0	0	0	0	0	0	0	0	0	0	0	0	0	0	0	0	0	0	0	0	0	0	1845	1845	1854	1854	1854	1873	1882	1882	1902	1911	1931	1941	1961	1982	1993	2014	2025	2036	2047	2047	2058	2058	2070	2070	2093	2104	2128	2178	2243	2312	0	0	0	0	0	0	0	0	0	0	0	0	0	0	0	0	0	0	0	0	0	0	0	0	0	0	0	0	0	0	0	0	0	0	0	0	0	0	0	0	0	0	0	0	0	0	0	0	0	0	0	0	0	0	0	0	0	0	0	0	0	2657	2657	2638	2620	2601	2601	0	2548	2531	2531	2657	0	0	0	0	0	0	0	0	0	0	1941	1941	1931	1921	1911	1902	1902	1911	1911	1931	1931	1951	1972	2003	2036	2070	2093	2128	2178	2217	2270	2312	2356	2386	2401	2401	2401	2386	2371	2341	2312	2284	2243	2230	2230	2191	2165	2153	2141	2141	2141	2141	2141	2141	2128	2128	2141	2153	2178	2204	2230	2270	2298	2341	2371	2401	2432	2448	0	0	0	0	0	0	0	0	0	0	0	0	0	0	0	0	0	0	0	0	0	0	0	0	0	0	0	0	0	0	0	0	0	0	0	0	0	0	0	0	0	0	0	0	0	0	0	0	0	0	0	0	0	0	0	0	0	0	0	0	0	0	0	0	0	0	0	0	0	0	0	0	0	0	2257	2257	2270	2270	2270	2284	2284	2284	2298	2312	2327	2327	2341	2341	2341	2341	2341	2327	2327	2327	2327	2327	2341	2341	2341	2356	2356	2371	2371	2371	2356	2356	2356	2356	2356	2356	2356	2356	2356	2356	2341	2341	2327	2312	2312	2312	2298	2284	2284	2284	2284	2270	2270	2270	2270	2270	2270	2270	2270	2270	2270	2270	2257	2257	2257	2243	2230	2217	2204	2191	2191	2165	2153	2141	2116	2104	2070	2058	2036	2025	2014	2003	2003	2003	2014	2058	2070	2058	2025	2003	1951	1911	1864	1818	1775	1742	1718	1711	1695	1680	1672	1665	1665	1665	1665	1672	1680	1687	1703	1726	1759	1792	1873	1921	1982	1993	2036	2058	2081	2093	2128	2141	2191	2243	2312	2417	2548	2695	2796	2882	2882	3021	2973	2973	2638	2548	2497	2448	2448	2371	2312	2257	2230	2178	2178	2116	2116	2116	2116	2116	2104	2104	2104	2116	2116	2116	2116	2116	2116	2116	2116	2128	2141	2141	2153	2165	2178	2191	2217	2257	2298	2327	2371	2401	2386	2341	2341	2386	0	0	0	0	0	0	0	0	0	0	0	0	0	1446	1441	1435	1435	0	0	0	0	0	0	0	0	0	0	0	0	0	0	0	0	0	0	0	0	0	0	0	0	0	0	0	0	0	0	0	0	0	0	0	0	0	0	638	638	638	0	0	0	0	0	0	0	0	0	0	0	0	0	0	0	0	0	0	0	0	0	0	0	0	0	0	0	0	0
145	145	145	145	145	145	145	0	0	0	0	0	0	0	0	0	0	0	0	0	0	0	0	0	0	0	0	0	0	0	0	0	0	0	0	0	0	0	0	0	0	0	0	0	0	0	0	0	0	0	0	0	0	0	0	0	0	0	0	0	0	0	0	0	0	0	0	0	0	0	0	0	0	0	0	0	0	0	0	121	121	121	121	121	121	121	121	121	121	121	121	121	121	121	121	121	122	122	122	122	122	123	123	123	123	123	123	124	124	124	124	124	124	124	124	124	124	124	124	124	124	124	125	125	125	125	125	125	0	0	0	0	0	0	0	0	0	0	0	0	0	0	0	164	164	164	164	164	164	165	165	165	164	163	163	163	163	0	0	0	0	0	159	159	159	159	159	0	0	0	0	0	0	0	0	0	0	0	0	0	0	0	0	161	161	162	162	162	162	163	163	163	164	164	164	164	164	164	164	164	164	164	164	164	164	164	164	164	164	164	163	163	163	163	163	163	163	163	163	163	163	163	163	163	163	0	0	0	0	0	0	0	0	0	237	237	237	237	237	237	237	238	238	238	237	237	237	236	236	235	235	234	234	233	233	233	0	232	232	232	0	0	0	0	0	0	0	0	0	0	0	0	0	0	0	0	0	0	0	0	0	0	0	0	0	0	0	1827	1827	1827	1827	1836	1836	1836	1836	1845	1845	1845	1854	1864	1873	1882	1902	1921	1931	1951	1972	1982	2003	2003	2014	2014	2025	2036	2036	2036	2058	2058	2081	2104	2153	2204	2257	0	0	0	0	0	0	0	0	0	0	0	0	0	0	0	0	0	0	0	0	0	0	0	0	0	0	0	0	0	0	0	0	0	0	0	0	0	0	0	0	0	0	0	0	0	0	0	0	0	0	0	0	0	0	0	0	0	0	0	0	0	0	0	0	0	0	0	2548	2531	2531	0	0	0	0	0	0	0	0	0	0	0	1941	1911	1911	1902	1902	1902	1902	1911	1911	1931	1931	1951	1972	2003	2036	2070	2093	2128	2178	2217	2270	2270	2312	2371	2401	2432	2448	2432	2417	2371	2341	2298	2257	2230	2217	2204	2178	2153	2141	2141	2141	2141	2141	2141	2128	2128	2141	2153	2165	2204	2230	2284	2327	2356	2401	2448	2464	2497	0	0	0	0	0	0	0	0	2754	2754	0	0	0	0	0	0	0	0	0	0	0	0	0	0	0	0	0	0	0	0	0	0	0	0	0	0	0	0	0	0	0	0	0	0	0	0	0	0	0	0	0	0	0	0	0	0	0	0	0	0	0	0	0	0	0	0	0	0	0	0	0	0	0	0	2270	2270	2284	2284	2284	2284	2284	2298	2298	2312	2327	2327	2327	2327	2327	2327	2327	2312	2312	2312	2312	2312	2327	2341	2341	2356	2356	2371	2371	2371	2371	2371	2371	2371	2371	2371	2371	2371	2356	2341	2341	2327	2312	2312	2298	2298	2284	2284	2284	2284	2284	2284	2270	2270	2270	2270	2270	2270	2270	2270	2270	2270	2270	2257	2257	2243	2243	2217	2217	2204	2191	2178	2165	2153	2128	2104	2093	2070	2058	2047	2036	2025	2025	2025	2036	2058	2036	2014	1982	1961	1921	1873	1845	1810	1775	1742	1718	1711	1695	1680	1672	1665	1658	1658	1658	1658	1658	1672	1680	1695	1726	1792	0	0	1993	1993	2036	2058	2081	2104	2128	2153	2230	2257	2327	2417	2548	2695	2754	2882	2927	2973	2973	2950	2796	2796	0	0	0	0	0	0	0	2178	2178	2116	2116	2081	2081	2093	2093	2104	2104	2104	2116	2116	2116	2116	2116	2116	2128	2128	2128	2141	2153	2165	2191	2204	2230	2284	2327	2371	2417	2448	2481	2448	2386	2386	0	1972	1972	0	0	0	0	0	0	0	0	0	0	0	0	0	0	0	0	0	0	0	0	0	0	0	0	0	0	0	0	0	0	0	0	0	0	0	0	0	0	0	0	0	0	0	0	0	0	0	0	0	0	0	0	638	638	638	0	0	0	0	0	0	0	0	0	0	0	0	0	0	0	0	0	0	0	0	0	0	0	0	0	0	0	0	0
145	145	145	145	145	145	145	0	0	0	0	0	0	0	0	0	0	0	0	0	0	0	0	0	0	0	0	0	0	0	0	0	0	0	0	0	0	0	0	0	0	0	0	0	0	0	0	0	0	0	0	0	0	0	0	0	0	0	0	0	0	0	0	0	0	0	0	0	0	0	0	0	0	0	0	0	0	0	0	121	121	121	121	121	121	121	121	121	121	121	121	121	121	121	121	121	121	122	122	122	122	123	123	123	123	123	123	123	124	124	124	124	124	124	124	124	124	124	124	124	124	124	124	125	125	125	125	124	124	124	124	124	124	0	0	0	0	0	0	0	0	0	0	0	164	164	164	165	165	165	165	165	165	164	163	163	163	0	0	0	0	0	0	0	0	0	0	0	0	0	0	0	0	0	0	0	0	0	0	0	0	0	0	0	0	163	163	163	163	164	164	164	164	164	164	164	165	165	165	164	164	164	164	164	164	164	164	164	164	164	163	163	163	163	163	163	163	163	163	163	163	163	163	163	164	0	0	0	0	0	0	0	0	236	236	236	236	236	236	237	237	237	237	237	237	236	236	236	235	235	234	234	234	233	233	232	232	232	231	231	231	0	0	0	0	0	0	0	0	0	0	0	0	0	0	0	0	0	0	0	0	0	0	0	0	1810	1810	1818	1827	1827	1827	1836	1836	1836	1836	1845	1845	1836	1836	1845	1854	1864	1882	1902	1911	1931	1951	1961	1972	1982	1993	1993	1993	2003	2003	2003	2014	2036	2047	2058	2093	2104	2104	0	0	0	0	0	0	0	0	0	0	0	0	0	0	0	0	0	0	0	0	0	0	0	0	0	0	0	0	0	0	0	0	0	0	0	0	0	0	0	0	0	0	0	0	0	0	0	0	0	0	0	0	0	0	0	0	0	0	0	0	0	0	2601	2583	2583	0	0	0	0	0	0	0	0	0	0	0	0	0	0	0	0	0	1902	1902	1902	1902	0	0	0	0	0	0	0	0	0	0	0	0	0	0	0	2270	2257	2257	2312	2386	2432	2481	2497	2464	2417	2371	2327	2284	2243	2217	2217	2178	2165	2153	2141	2141	2141	2141	2141	2141	2141	2141	2153	2165	2204	2243	2284	2341	2386	2432	2497	2531	2548	2620	0	0	0	0	2997	2997	2997	2754	2754	2882	2817	2817	0	0	0	0	0	0	0	0	0	0	0	0	0	0	0	0	0	0	0	0	0	0	0	0	0	0	0	0	0	0	0	0	0	0	0	0	0	0	0	0	0	0	0	0	0	0	0	0	0	0	0	0	0	0	0	0	0	0	0	0	0	2284	2284	2298	2298	2298	2298	2298	2298	2312	2312	2312	2312	2312	2312	2312	2312	2298	2298	2298	2298	2312	2312	2327	2341	2341	2356	2371	2386	2386	2386	2386	2386	2386	2386	2386	2371	2371	2371	2341	2341	2327	2312	2298	2298	2284	2284	2270	2270	2270	2270	2270	2270	2270	2270	2270	2270	2270	2270	2270	2270	2270	2270	2270	2257	2257	2243	2243	2230	2217	2204	2204	2191	2178	2165	2141	2128	2104	2104	2081	2070	2070	2058	2058	2058	2058	2058	2036	2014	1982	1961	1921	1873	1845	1810	1784	1759	1734	1711	1695	1680	1672	1658	1658	1643	1643	1643	1650	1658	1665	1672	1703	1742	1784	1854	1941	2003	2047	2081	2104	2128	2153	2178	2230	2270	2341	2432	2566	2676	2754	2882	2927	2973	2973	2950	2796	2695	2695	0	0	0	0	0	0	0	0	0	0	2081	2070	2070	2081	2093	2104	2104	2116	2116	2116	2116	2116	2116	2128	2128	2128	2153	2153	2178	2191	2217	2257	2312	2356	2432	2481	2514	2548	2531	2531	0	0	1972	1972	0	0	0	0	0	0	0	0	0	0	0	0	0	0	0	0	0	0	0	0	0	0	0	0	0	0	0	0	0	0	0	0	0	0	0	0	0	0	0	0	0	0	0	0	0	0	0	0	0	0	0	637	637	637	637	636	635	635	0	0	0	0	0	0	0	0	0	0	0	0	0	0	0	0	0	0	0	0	0	0	0	0	0	0
145	145	145	145	145	145	0	0	0	0	0	0	0	0	0	0	0	0	0	0	0	0	0	0	0	0	0	0	0	0	0	0	0	0	0	0	0	0	0	0	0	0	0	0	0	0	0	0	0	0	0	0	0	0	0	0	0	0	0	0	0	0	0	0	0	0	0	0	0	0	0	0	0	0	0	0	0	0	121	121	121	121	121	121	121	121	121	121	121	121	121	121	121	121	121	121	121	121	122	122	122	122	123	123	123	123	123	123	123	123	123	124	124	124	124	124	124	124	124	124	124	124	124	124	124	124	124	124	124	124	124	124	124	124	0	0	0	0	0	0	0	0	0	0	0	0	0	165	165	165	165	165	165	165	0	0	0	0	0	0	0	0	0	0	0	0	0	0	0	0	0	0	0	0	0	0	0	0	0	0	0	0	0	0	0	163	163	163	163	164	164	164	164	164	165	165	165	165	165	165	165	165	164	164	164	164	164	164	164	164	163	163	163	163	163	163	163	163	163	164	163	163	164	164	164	0	0	0	0	0	0	0	0	236	235	235	235	236	236	236	236	236	236	236	236	235	235	235	234	234	234	233	233	233	232	232	231	231	231	231	231	0	0	0	0	0	0	0	0	0	0	0	0	0	0	0	0	0	0	0	0	0	0	0	0	1810	1810	1818	1836	1836	1845	1845	1845	1836	1836	1845	1836	1836	1836	1845	1854	1864	1882	1892	1911	1921	1941	1951	1961	1972	1972	1972	1972	1982	1982	1982	1982	1993	1993	2003	2003	2014	2104	0	0	0	0	0	0	0	0	0	0	0	0	0	0	0	0	0	0	0	0	0	0	0	0	0	0	0	0	0	0	0	0	0	0	0	0	0	0	0	0	0	0	0	0	0	0	0	0	0	0	0	0	0	0	0	0	0	0	0	0	0	0	2601	2583	2583	2531	2432	2341	2341	0	0	0	0	0	0	1836	1836	1873	1873	1882	1882	1902	1902	1902	1892	1892	1892	1892	1892	1892	1892	1902	1902	1921	1931	1951	1951	1961	1982	2003	2036	2081	2128	2243	2243	2312	2386	2432	2497	2514	2448	2401	2341	2298	2243	2217	2191	2191	2165	2141	2141	2141	2141	2141	2141	2141	2141	2141	2153	2165	2191	2230	2284	2341	2386	2432	2481	2531	2583	2620	2695	2775	2838	2927	2973	2997	2997	2973	2950	2882	2817	2817	0	0	0	0	0	0	0	0	0	0	0	0	0	0	0	0	0	0	0	0	0	0	0	0	0	0	0	0	0	0	0	0	0	0	0	0	0	0	0	0	0	0	0	0	0	0	0	0	0	0	0	0	0	0	0	0	2204	2204	2230	2257	2284	2298	2298	2312	2312	2312	2312	2312	2312	2312	2312	2298	2298	2298	2298	2298	2298	2284	2284	2284	2284	2298	2298	2327	2341	2356	2371	2371	2401	2401	2401	2401	2417	2401	2401	2386	2371	2371	2356	2341	2341	2312	2298	2284	2284	2270	2270	2270	2270	2270	2257	2257	2270	2270	2270	2270	2270	2270	2270	2270	2270	2270	2270	2270	2270	2257	2243	2243	2230	2230	2217	2217	2204	2191	2178	2165	2153	2141	2141	2141	2128	2128	2116	2116	2104	2104	2093	2070	2047	2003	1982	1941	1911	1864	1845	1810	1784	1750	1734	1703	1687	1672	1658	1650	1643	1636	1636	1636	1643	1650	1658	1695	1726	1775	1854	1941	2003	2047	2093	2116	2141	2165	2191	2257	2298	2356	2432	2548	2676	2754	2882	2927	2973	3021	2997	2796	2695	2695	0	0	0	0	0	0	0	0	0	0	0	2058	2058	2081	2093	2104	2116	2128	2128	2128	2128	2128	2141	2141	2141	2153	2165	2178	2191	2217	2243	2284	2327	2386	2448	2514	2566	2583	2583	0	0	2270	2153	2153	0	0	0	0	0	0	0	0	0	0	0	0	0	0	0	0	0	0	0	0	0	0	0	0	0	0	0	0	0	0	0	0	0	0	0	0	0	0	0	0	0	0	0	0	0	0	0	0	0	0	0	637	637	637	637	636	635	635	0	0	0	0	0	0	0	0	0	0	0	0	0	0	0	0	0	0	0	0	0	0	0	0	0	0
145	145	145	145	0	0	0	0	0	0	0	0	0	0	0	0	0	0	0	0	0	0	0	0	0	0	0	0	0	0	0	0	0	0	0	0	0	0	0	0	0	0	0	0	0	0	0	0	0	0	0	0	0	0	0	0	0	0	0	0	0	0	0	0	0	0	0	0	0	0	0	0	0	0	0	0	0	121	121	121	121	121	121	121	121	121	121	121	121	121	121	121	121	121	121	121	121	121	122	122	122	122	123	123	123	123	123	123	123	123	123	123	123	124	124	124	124	124	124	124	124	124	124	124	124	124	124	124	124	124	124	124	124	124	124	0	0	0	0	0	0	0	0	0	0	0	0	0	0	0	0	0	0	0	0	0	0	0	0	0	0	0	0	0	0	0	0	0	0	0	0	0	0	0	0	0	0	0	0	0	0	0	0	0	0	0	0	0	164	164	164	164	164	165	165	165	165	165	165	165	165	165	165	164	164	164	164	164	164	164	163	163	163	163	163	163	163	163	163	164	164	164	164	164	164	0	0	0	0	0	0	0	0	0	234	234	234	234	234	234	234	234	234	234	234	234	234	234	234	233	233	233	233	232	232	231	231	231	230	230	230	0	0	0	0	0	0	0	0	0	0	0	0	0	0	0	0	0	0	0	0	0	0	0	1845	1827	1827	1836	1845	1845	1845	1845	1845	1845	1845	1845	1836	1836	1836	1845	1854	1864	1882	1892	1911	1921	1931	1941	1951	1961	1961	1961	1961	1961	1961	1961	1961	1961	1961	1972	1972	1972	0	0	0	0	0	0	0	0	0	0	0	0	0	0	0	0	0	0	0	0	0	0	0	0	0	0	0	0	0	0	0	0	0	0	0	0	0	0	0	0	0	0	0	0	0	0	0	0	0	0	0	0	0	0	0	0	0	0	0	0	0	0	0	2601	2583	2583	2531	2432	2341	2341	0	0	0	0	0	0	1836	1836	1864	1864	1873	1873	1882	1882	1892	1892	1892	1892	1882	1882	1882	1892	1892	1902	1902	1911	1921	1921	1921	1931	1951	1972	2014	2047	2093	2230	2230	2312	2371	2432	2497	2448	2417	2341	2284	2230	2204	2178	2178	2153	2141	2141	2128	2128	2128	2128	2128	2128	2141	2141	2153	2165	2204	2243	2298	2341	2386	2432	2481	2548	2601	2676	2775	2838	2927	2973	0	0	0	0	0	0	0	0	0	0	0	0	0	0	0	0	0	0	0	0	0	0	0	0	0	0	0	0	0	0	0	0	0	0	0	0	0	0	0	0	0	0	0	0	0	0	0	0	0	0	0	0	0	0	0	0	0	0	2230	2217	2204	2191	2191	2204	2204	2230	2257	2284	2298	2312	2327	2327	2327	2312	2312	2312	2298	2298	2298	2284	2284	2270	2270	2270	2270	2270	2270	2270	2284	2298	2312	2341	2356	2386	2386	2417	2417	2417	2417	2432	2417	2417	2401	2371	2371	2356	2341	2327	2298	2298	2284	2270	2270	2270	2257	2257	2257	2257	2257	2257	2270	2270	2270	2270	2270	2270	2257	2257	2257	2257	2257	2257	2257	2257	2243	2230	2230	2217	2217	2204	2204	2191	2191	2178	2178	2178	2191	2191	2191	2204	2191	2191	2191	2178	2153	2116	2093	2070	2036	1982	1951	1911	1864	1836	1792	1759	1711	1687	1672	1650	1643	1636	1629	1629	1629	1636	1643	1650	1680	1718	1775	1864	1941	2014	2070	2116	2141	2165	2191	2217	2270	2298	2371	2432	2548	2638	2734	2775	2838	0	0	0	0	0	0	0	0	0	0	0	0	0	0	0	0	2036	2036	2058	2081	2093	2104	2116	2141	2141	2153	2153	2178	2178	2191	2204	2204	2217	2230	2243	2270	2284	2327	2371	2417	2464	2531	2583	2583	2514	2514	0	2270	2153	2153	0	0	0	0	0	0	0	0	0	0	0	0	0	0	0	0	0	0	0	0	0	0	0	0	0	0	0	0	0	0	0	0	0	0	0	0	0	0	0	0	0	0	0	0	0	0	0	0	0	0	0	637	637	637	637	637	636	636	0	0	0	0	0	0	0	0	0	0	0	0	0	0	0	0	0	0	0	0	0	0	0	0	0	0
145	145	145	145	0	0	0	0	0	0	0	0	0	0	0	0	0	0	0	0	0	0	0	0	0	0	0	0	0	0	0	0	148	148	148	148	149	0	0	149	149	0	0	0	0	0	0	0	0	0	0	0	0	0	0	0	0	0	0	0	0	0	0	0	0	0	0	0	0	0	0	0	0	0	0	0	0	121	121	121	121	121	121	121	121	121	121	121	121	121	121	121	121	121	121	121	121	121	122	122	122	122	122	123	123	123	123	123	123	123	123	123	123	123	123	124	124	124	124	124	124	124	124	124	124	124	124	124	124	124	124	124	124	124	124	0	0	0	0	0	0	0	0	0	0	0	0	0	0	0	0	0	0	0	0	0	0	0	0	0	0	0	0	0	0	0	0	0	0	0	0	0	0	0	0	0	0	0	0	0	0	0	0	0	0	0	0	0	164	164	164	164	164	165	165	165	165	165	165	165	165	165	165	165	164	164	164	164	164	164	163	163	163	163	163	163	163	163	163	164	164	164	164	164	164	0	0	0	0	0	0	0	0	0	234	234	232	232	232	232	232	232	233	233	233	233	233	233	233	233	233	233	232	232	231	231	231	231	230	230	230	230	0	0	0	0	0	0	0	0	0	0	0	0	0	0	0	0	0	0	0	0	0	1854	1845	1845	1845	1845	1854	1854	1854	1854	1854	1854	1854	1854	1854	1854	1854	1854	1864	1873	1882	1902	1911	1921	1931	1941	1951	1951	1951	1951	1951	1941	1941	1941	1941	1941	1941	1941	1941	1892	1892	0	0	0	0	0	0	0	0	0	0	0	0	0	0	0	0	0	0	0	0	0	0	0	0	0	0	0	0	0	0	0	0	0	0	0	0	0	0	0	0	0	0	0	0	0	0	0	0	0	0	0	0	0	0	0	0	0	0	0	0	0	0	0	0	0	0	0	0	0	0	0	0	0	0	0	0	0	1864	1864	1873	1873	1882	1882	1882	1882	1882	1882	1882	1882	1882	1882	1882	1882	1882	1882	1882	1882	1882	1882	1902	1911	1941	1972	2003	2058	2230	2270	2270	2356	2417	2432	2448	0	2243	2191	2165	2141	2141	2141	2128	2128	2116	2116	2116	2116	2116	2116	2116	2128	2128	2153	2165	2204	2243	2284	2327	2371	2417	2481	2548	2638	2734	2838	2927	2973	2997	2997	2973	2950	2882	2882	0	0	0	0	0	0	0	0	0	0	0	0	0	0	0	0	0	0	0	0	0	0	0	0	0	0	0	0	0	0	0	0	0	0	0	0	0	0	0	0	0	0	0	0	0	0	0	0	0	0	0	2270	2230	2217	2204	2191	2191	2204	2217	2243	2257	2284	2298	2312	2327	2327	2327	2312	2312	2312	2298	2298	2284	2270	2257	2257	2257	2257	2257	2257	2257	2270	2270	2284	2312	2341	2356	2386	2401	2432	2432	2432	2432	2432	2417	2401	2386	2371	2371	2341	2341	2327	2298	2284	2270	2270	2270	2257	2257	2257	2257	2257	2257	2257	2257	2257	2257	2257	2257	2257	2257	2257	2257	2257	2257	2257	2257	2257	2243	2243	2230	2230	2230	2230	2217	2217	2217	2230	2230	2230	2243	2257	2270	2270	2284	2270	2270	2270	2243	2204	2191	2165	2141	2104	2104	2003	2003	1892	1836	1775	1726	1687	1672	1650	1643	1629	1629	1622	1622	1629	1636	1643	1672	1718	1775	1941	1941	2025	2081	2141	2165	2191	2217	2230	2270	2298	2371	2432	2481	2548	2620	2657	2838	0	0	0	0	0	0	0	0	0	0	0	2025	2003	1982	1982	2003	2025	2036	2070	2081	2093	2104	2128	2153	2165	2178	2191	2217	2217	2230	2257	2270	2298	2312	2312	2327	2341	2386	2448	2481	2497	2548	2566	2548	2497	2432	2432	2243	2243	0	0	0	0	0	0	0	0	0	0	0	0	0	0	0	0	0	0	0	0	0	0	0	0	0	0	0	0	0	0	0	0	0	0	0	0	0	0	0	0	0	0	0	0	0	0	0	0	0	0	0	0	0	638	638	638	638	637	637	0	0	0	0	0	0	0	0	0	0	0	0	0	0	0	0	0	0	0	0	0	0	0	0	0	0
145	145	145	145	0	0	0	0	0	0	0	0	0	0	0	0	0	0	0	0	0	0	0	0	0	0	0	0	0	0	0	0	148	148	148	148	149	0	0	149	149	0	0	0	0	0	0	0	0	0	0	0	0	0	0	0	0	0	0	0	0	0	0	0	0	0	0	0	0	0	0	0	0	0	0	0	0	121	121	121	121	121	121	121	121	121	121	121	121	121	121	121	121	121	121	121	121	121	122	122	122	122	122	123	123	123	123	123	123	123	123	123	123	123	123	123	123	124	124	124	124	124	124	124	124	124	124	124	124	124	124	124	124	124	124	0	0	0	0	0	0	0	0	0	0	0	0	0	0	0	0	0	0	0	0	0	0	0	0	0	0	0	0	0	0	0	0	0	0	0	0	0	0	0	0	0	0	0	0	0	0	0	0	0	0	0	0	0	164	164	164	164	165	165	165	165	165	165	165	165	165	165	165	165	164	164	164	164	164	163	163	163	163	163	163	163	163	164	164	164	164	164	164	164	164	0	0	0	0	0	0	0	0	0	0	231	231	231	231	231	231	231	231	231	232	232	232	232	232	232	232	232	232	231	231	231	231	230	230	230	230	230	0	0	0	0	0	0	0	0	0	0	0	0	0	0	0	0	0	0	0	0	0	1854	1854	1854	1854	1854	1864	1864	1864	1864	1864	1864	1864	1864	1864	1864	1864	1873	1882	1882	1892	1911	1921	1931	1931	1941	1951	1951	1951	1941	1941	1941	1931	1931	1931	1931	1921	1921	1911	1864	1864	0	0	1581	1581	0	0	0	0	0	0	0	0	0	0	0	0	0	0	0	0	0	0	0	0	0	0	0	0	0	0	0	0	0	0	0	0	0	0	0	0	0	0	0	0	0	0	0	0	0	0	0	0	0	0	0	0	0	0	0	0	0	0	0	0	0	0	0	0	0	0	0	0	0	0	0	0	0	1873	1873	1873	1873	1882	1882	1882	1882	1882	1882	1882	1882	1882	1882	1873	1873	1873	1882	1882	1873	1873	1873	1873	1873	1892	1911	1941	1972	2025	2270	2270	2284	2284	2298	2298	2243	2191	2153	2128	2116	2104	2104	2104	2104	2104	2104	2104	2104	2104	2104	2104	2104	2104	2116	2141	2165	2204	2217	2270	2312	2356	2386	2417	2638	2734	2838	2548	2548	2566	2583	2973	2950	2714	2714	2734	2796	0	0	0	0	0	0	0	0	0	0	0	0	0	0	0	0	0	0	0	0	0	0	0	0	0	0	0	0	0	0	0	0	0	0	0	0	0	0	0	0	0	0	0	0	0	0	0	0	0	2270	2270	2257	2257	2243	2243	2243	2257	2270	2284	2298	2312	2327	2341	2327	2327	2327	2312	2312	2298	2298	2284	2257	2257	2243	2243	2243	2243	2257	2257	2257	2270	2284	2298	2327	2356	2386	2417	2432	2448	2432	2432	2417	2417	2401	2386	2371	2356	2341	2327	2312	2298	2284	2270	2270	2270	2257	2257	2257	2257	2257	2257	2257	2257	2257	2243	2243	2243	2243	2257	2257	2257	2257	2257	2257	2243	2243	2243	2243	2243	2243	2243	2243	2243	2243	2257	2257	2270	2284	2298	2327	2341	2341	2356	2371	2371	2356	2356	2327	2312	2284	2257	2217	2178	2093	2025	1931	1873	1801	1734	1695	1672	1650	1643	1629	1629	1622	1622	1622	1636	1643	1672	1718	1775	1931	1931	2003	2070	2141	2165	2191	2204	2230	2270	2270	2284	2327	2341	2401	2401	2432	2497	2497	2481	2448	2417	2417	0	0	0	2070	2070	0	2025	2003	1982	1982	2003	2025	2058	2081	2093	2104	2116	2153	2178	2191	2217	2230	2257	2270	2298	2327	2341	2356	2371	2371	2371	2386	2417	2448	2481	2514	2548	2548	2531	2497	2432	2356	2243	2243	2093	2093	0	0	0	0	0	0	0	0	0	0	0	0	0	0	0	0	0	0	0	0	0	0	0	0	0	0	0	0	0	0	0	0	0	0	0	0	0	0	0	0	0	0	0	0	0	0	0	0	0	0	0	638	638	638	638	638	0	0	0	0	0	0	0	0	0	0	0	0	0	0	0	0	0	0	0	0	0	0	0	0	0	0	0
145	145	145	145	0	0	0	0	0	0	0	0	0	0	0	0	0	0	0	0	0	0	0	0	0	0	0	0	0	0	0	0	0	148	148	148	0	0	0	0	0	0	0	0	0	0	0	0	0	0	0	0	0	0	0	0	0	0	0	0	0	0	0	0	0	0	0	0	0	0	0	0	0	0	0	0	0	121	121	121	121	121	121	121	121	121	121	121	121	121	121	121	121	121	121	121	121	121	122	122	122	122	122	123	123	123	123	123	123	123	123	123	123	123	123	123	123	123	124	124	124	124	124	124	124	124	124	124	124	124	124	124	124	124	0	0	0	0	0	0	0	0	0	0	0	0	0	0	0	0	0	0	0	0	0	0	0	0	0	0	0	0	0	0	0	0	0	0	0	0	0	0	0	0	0	0	0	0	0	0	0	0	0	0	0	0	0	0	164	164	164	164	165	165	165	165	165	165	165	165	165	165	165	165	165	164	164	164	164	163	163	163	163	163	163	164	164	164	164	164	164	164	164	164	164	0	0	0	0	0	0	0	0	0	0	230	230	230	230	230	230	230	230	230	231	231	231	231	231	232	232	232	232	231	231	231	231	230	230	230	230	0	0	0	0	0	0	0	0	0	0	0	0	0	0	0	0	0	0	0	0	1911	1892	1873	1873	1864	1864	1873	1873	1873	1873	1873	1864	1864	1873	1873	1873	1873	1882	1882	1892	1902	1911	1921	1931	1931	1941	1941	1951	1951	1951	1941	1941	1941	1931	1921	1921	1911	1902	1902	1892	1845	1845	0	0	1581	1581	0	0	0	0	0	0	0	0	0	0	0	0	0	0	0	0	0	0	0	0	0	0	0	0	0	0	0	0	0	0	0	0	0	0	0	0	0	0	0	0	0	0	0	0	0	0	0	0	0	0	0	0	0	0	0	0	0	0	0	0	0	0	0	0	0	0	0	0	0	0	0	0	1864	1864	1873	1873	1873	1882	1882	1892	1882	1882	1882	1882	1882	1882	1882	1873	1873	1873	1882	1882	1873	1873	1873	1864	1864	1873	1882	1892	1911	1951	1993	2047	2284	2178	2178	2178	2243	2128	2104	2093	2093	2093	2093	2093	2104	2093	2093	2093	2093	2093	2093	2093	2093	2093	2093	2116	2128	2153	2165	2204	2230	2243	2257	2417	0	0	0	2548	2548	2566	2583	0	0	2714	2714	2734	2796	0	0	0	0	0	0	0	0	0	0	0	0	0	0	0	0	0	0	0	0	0	0	0	0	0	0	0	0	0	0	0	0	0	0	0	0	0	0	0	0	0	0	0	0	0	0	0	0	0	0	0	2327	2298	2298	2284	2284	2298	2298	2298	2312	2327	2341	2356	2356	2356	2341	2327	2312	2298	2298	2284	2257	2257	2243	2243	2243	2243	2243	2243	2257	2257	2270	2298	2327	2356	2386	2417	2432	2448	2432	2432	2401	2401	2386	2371	2356	2341	2327	2327	2312	2298	2284	2270	2270	2270	2270	2270	2257	2257	2257	2257	2257	2243	2243	2243	2243	2243	2243	2243	2243	2243	2243	2243	2243	2243	2243	2243	2243	2243	2243	2243	2257	2257	2270	2284	2298	2312	2341	2371	2386	2401	2417	2417	2417	2417	2417	2401	2386	2371	2341	2327	2284	2243	2165	2081	1982	1902	1827	1759	1711	1672	1658	1643	1636	1629	1622	1622	1622	1629	1643	1672	1711	1767	1845	1931	2003	2070	2141	2165	2191	2204	2217	2230	2230	2217	2217	2204	2191	2141	2128	2104	2081	2058	2047	2047	2058	0	0	0	2070	2070	0	2081	2070	2014	2014	2104	2081	2081	2116	2116	2128	2141	2165	2204	2230	2257	2270	2312	2327	2356	2386	2401	2417	2432	2432	2432	2448	2448	2464	2497	2514	2548	2548	2497	2464	2417	2356	2270	2204	2093	2093	0	0	0	0	0	0	0	0	0	0	0	0	0	0	0	0	0	0	0	0	0	0	0	0	0	0	0	0	0	0	0	0	0	0	0	0	0	0	0	0	0	0	0	0	0	0	0	0	0	0	0	638	638	638	638	638	0	0	0	0	0	0	0	0	0	0	0	0	0	0	0	0	0	0	0	0	0	0	0	0	0	0	0
145	145	145	145	0	0	0	0	0	0	0	0	0	0	0	0	0	0	0	0	0	0	0	0	0	0	0	0	0	0	0	0	0	0	0	0	0	0	0	0	0	0	0	0	0	0	0	0	0	0	0	0	0	0	0	0	0	0	0	0	0	0	0	0	0	0	0	0	0	0	0	0	0	0	0	0	0	121	121	121	121	121	121	121	121	121	121	121	121	121	121	121	121	121	121	121	121	121	122	122	122	122	122	123	123	123	123	123	123	123	123	123	123	123	123	123	123	123	123	124	124	124	124	124	124	124	124	124	124	124	124	124	124	124	124	0	0	0	0	0	0	0	0	0	0	0	0	0	0	0	0	0	0	0	0	0	0	0	0	0	0	0	0	0	0	0	0	0	0	0	0	0	0	0	0	0	0	0	0	0	0	0	0	0	0	0	0	0	164	164	164	164	165	165	165	165	165	165	165	165	165	165	165	165	165	164	164	164	164	164	163	163	163	163	164	164	164	164	164	164	164	164	164	164	164	0	0	0	0	0	0	0	0	0	0	228	228	228	228	228	228	228	229	229	229	230	230	231	231	231	232	232	231	231	231	231	231	231	230	230	230	0	0	0	0	0	0	0	0	0	0	0	0	0	0	0	0	2025	1993	1951	1931	1911	1892	1882	1882	1873	1873	1882	1873	1873	1873	1873	1873	1873	1873	1873	1882	1882	1892	1892	1902	1911	1921	1931	1941	1941	1941	1951	1951	1951	1951	1941	1941	1941	1931	1921	1911	1902	1902	1892	1882	1836	1775	1775	1658	1581	1581	0	0	0	0	0	0	0	0	0	0	0	0	0	0	0	0	0	0	0	0	0	0	0	0	0	0	0	0	0	0	0	0	0	0	0	0	0	0	0	0	0	0	0	0	0	0	0	0	0	0	0	0	0	0	0	0	0	0	0	0	0	0	0	0	0	0	0	0	0	0	0	0	1864	1864	1873	1882	1882	1892	1892	1892	1892	1892	1892	1882	1882	1882	1882	1873	1873	1873	1864	1864	1864	1864	1854	1854	1854	1854	1854	1864	1882	1911	1951	1982	0	2178	2178	2178	0	2081	2070	2058	2058	2070	2081	2081	2081	2081	2081	2081	2081	2093	2081	2081	2081	2081	2081	2093	2104	2104	2116	2128	2141	2116	2116	0	0	0	0	0	0	0	0	0	0	0	0	0	0	0	0	0	0	0	0	0	0	0	0	0	0	0	0	0	0	0	0	0	0	0	0	0	0	0	0	0	0	0	0	0	0	0	0	0	0	0	0	0	0	0	0	0	0	0	0	0	0	0	0	2356	2327	2312	2312	2312	2312	2327	2327	2327	2341	2356	2386	2401	2401	2386	2371	2356	2327	2312	2298	2284	2270	2257	2243	2230	2230	2230	2230	2243	2243	2257	2270	2284	2327	2356	2401	2417	2432	2448	2432	2417	2401	2386	2386	2356	2356	2341	2327	2327	2312	2298	2284	2270	2270	2270	2270	2270	2257	2257	2257	2257	2257	2243	2243	2243	2230	2230	2230	2230	2230	2243	2243	2243	2243	2243	2243	2243	2243	2257	2257	2257	2270	2284	2298	2312	2341	2356	2386	2417	2432	2464	2464	2464	2464	2464	2464	2448	2448	2432	2417	2417	2356	2312	2243	2141	2104	2104	1864	1775	1726	1680	1672	1658	1643	1636	1629	1629	1629	1629	1643	1672	1711	1767	1845	1931	2003	2081	2141	2165	2191	2191	2191	2191	2191	2178	2165	2141	2116	2093	2070	2058	2025	2014	2014	2014	2036	2058	2093	2116	2141	0	0	0	2165	2153	2104	2104	2104	2116	2153	2153	2165	2178	2204	2243	2257	2284	2327	2341	2371	2401	2417	2448	2464	2464	2464	2481	2481	2481	2481	2497	2497	2514	2497	2464	2448	2417	2356	2270	2204	2116	2116	2141	0	0	0	0	0	0	0	0	0	0	0	0	0	0	0	0	0	0	0	0	0	0	0	0	0	0	0	0	0	0	0	0	0	0	0	0	0	0	0	0	0	0	0	0	0	0	0	0	0	0	0	0	0	0	0	0	0	0	0	0	0	0	0	0	0	0	0	0	0	0	0	0	0	0	0	0	0	0	0	0	0	0
145	145	145	145	145	145	0	0	0	0	0	0	0	0	0	0	0	0	0	0	0	0	0	0	0	0	0	0	0	0	0	0	0	0	0	0	0	0	0	0	0	0	0	0	0	0	0	0	0	0	0	0	0	0	0	0	0	0	0	0	0	0	0	0	0	0	0	0	0	0	0	0	0	0	0	0	121	121	121	121	121	121	121	121	121	121	121	121	121	121	121	121	121	121	121	121	121	121	122	122	122	122	122	123	123	123	123	123	123	123	123	123	123	123	123	123	123	123	123	123	123	124	124	124	124	124	124	124	124	124	124	124	124	124	124	0	0	0	0	0	0	0	0	0	0	0	0	0	0	0	0	0	0	0	0	0	0	0	0	0	0	0	0	0	0	0	0	0	0	0	0	0	0	0	0	0	0	0	0	0	0	0	0	0	0	0	0	0	164	164	0	165	165	165	165	166	166	166	166	166	166	165	165	165	165	165	164	164	164	164	164	164	164	164	164	164	164	164	164	164	164	164	164	164	164	0	0	0	0	0	0	0	0	0	0	228	226	226	226	226	226	227	227	229	229	230	230	230	231	231	232	232	231	231	231	231	231	231	230	230	0	0	0	0	0	0	0	0	0	0	0	0	0	0	0	2093	2070	2025	1993	1951	1931	1911	1902	1892	1882	1873	1873	1873	1873	1873	1873	1873	1873	1873	1873	1873	1882	1892	1892	1902	1911	1921	1941	1951	1951	1951	1961	1961	1961	1961	1951	1951	1951	1941	1931	1921	1911	1902	1892	1892	1873	1827	1767	1767	1658	1587	1587	0	0	0	0	0	0	0	0	0	0	0	0	0	0	0	0	0	0	0	0	0	0	0	0	0	0	0	0	0	0	0	0	0	0	0	0	0	0	0	0	0	0	0	0	0	0	0	0	0	0	0	0	0	0	0	0	0	0	0	0	0	0	0	0	0	0	0	0	0	0	0	0	0	1873	1873	1882	1882	1902	1902	1902	1902	1902	1892	1882	1882	1882	1882	1873	1873	1873	1864	1864	1864	1864	1854	1854	1854	1854	1854	1864	1873	1892	1921	1941	1961	0	0	0	0	2058	2047	2047	2047	2058	2058	2070	2070	2070	2070	2070	2081	2081	2070	2070	2070	2058	2058	2070	2070	2070	2058	2058	2025	1982	1982	0	0	0	0	0	0	0	0	0	0	0	0	0	0	0	0	0	0	0	0	0	0	0	0	0	0	0	0	0	0	0	0	0	0	0	0	0	0	0	0	0	0	0	0	0	0	0	0	0	0	0	0	0	0	0	0	0	0	0	0	0	0	0	0	2356	2356	2341	2341	2341	2356	2356	2371	2386	2417	2417	2448	2448	2432	2417	2386	2371	2341	2327	2312	2284	2270	2243	2230	2230	2230	2230	2230	2230	2243	2243	2270	2284	2327	2401	2401	2417	2432	2448	2432	2417	2401	2386	2386	2356	2356	2341	2327	2327	2327	2298	2298	2298	2284	2284	2284	2270	2270	2257	2257	2257	2257	2243	2243	2230	2230	2230	2230	2230	2230	2230	2230	2243	2243	2243	2243	2243	2257	2257	2257	2270	2270	2284	2312	2341	2356	2386	2417	2432	2464	2481	2481	2481	2497	2497	2497	2481	2481	2481	2464	2464	2432	2401	2327	2217	2104	2104	0	1818	1742	1695	1680	1665	1658	1643	1629	1629	1636	1636	1643	1665	1703	1767	1845	1911	2003	2081	2141	2165	2191	2191	2191	2178	2178	2165	2153	2116	2093	2070	2036	2025	2003	1993	1993	2014	2025	2047	2093	2116	2141	2178	2178	2191	2165	2153	2153	2165	2165	2178	2204	2204	2230	2230	2270	2298	2327	2341	2371	2386	2417	2448	2481	2497	2497	2497	2497	2497	2497	2481	2464	2464	2464	2464	2464	2432	2417	2386	2356	2327	2284	2204	2141	2141	0	0	0	0	0	0	0	0	0	0	0	0	0	0	0	0	0	0	0	0	0	0	0	0	0	0	0	0	0	0	0	0	0	0	0	0	0	0	0	0	0	0	0	0	0	0	0	0	0	0	0	0	0	0	0	0	0	0	0	0	0	0	0	0	0	0	0	0	0	0	0	0	0	0	0	0	0	0	0	0	0	0
145	145	145	145	145	145	0	0	0	0	0	0	0	0	0	0	0	0	0	0	0	0	0	0	0	0	0	0	0	0	0	0	0	0	147	147	0	0	0	147	147	147	0	0	0	0	0	0	0	0	0	0	0	0	0	0	0	0	0	0	0	0	0	0	0	0	0	0	0	0	0	0	0	0	0	121	121	121	121	121	121	121	121	121	121	121	121	121	121	121	121	121	121	121	121	121	121	121	122	122	122	122	122	123	123	123	123	123	123	123	123	123	123	123	123	123	123	123	123	123	123	123	123	124	124	124	124	124	124	124	124	124	123	123	124	0	0	0	0	0	0	0	0	0	0	0	0	0	0	0	0	0	0	0	0	0	0	0	0	0	0	0	0	0	0	0	0	0	0	0	0	0	0	0	0	0	0	0	0	0	0	0	0	0	0	0	0	0	0	0	0	0	166	166	167	167	167	167	166	166	166	166	166	166	165	165	165	164	164	164	164	164	164	164	164	164	164	164	164	164	164	164	164	164	164	164	0	0	0	0	0	0	0	0	0	0	225	225	226	226	226	227	227	0	0	230	230	230	0	0	232	232	232	231	231	231	231	231	231	231	0	0	0	0	0	0	0	0	0	0	0	0	0	0	2116	2093	2070	2036	2003	1961	1941	1921	1892	1882	1873	1864	1854	1854	1854	1854	1854	1864	1864	1864	1864	1873	1873	1892	1902	1911	1921	1931	1941	1951	1961	1972	1972	1972	1972	1972	1961	1961	1951	1951	1941	1931	1921	1902	1892	1892	1873	1827	1767	1726	1680	1587	1587	0	0	0	0	0	0	0	0	0	0	0	0	0	0	0	0	0	0	0	0	0	0	0	0	0	0	0	0	0	0	0	0	0	0	0	0	0	0	0	0	0	0	0	0	0	0	0	0	0	0	0	0	0	0	0	0	0	0	0	0	0	0	0	0	0	0	0	0	0	0	0	0	0	0	1892	1892	1902	1911	1911	1911	1902	1902	1892	1892	1882	1873	1873	1873	1873	1873	1864	1864	1864	1864	1864	1864	1864	1864	1864	1864	1873	1892	1911	1941	1951	1972	1993	0	0	2058	2036	2036	2036	2047	2058	2058	2058	2058	2058	2058	2058	2058	2058	2058	2058	2047	2047	2047	2036	2014	2003	1972	1931	1864	1864	0	0	1672	1629	1622	1622	1622	1650	1687	0	0	0	0	0	0	0	0	0	0	0	0	0	0	0	0	0	0	0	0	0	1718	1650	1608	1554	1492	1458	1458	1452	1441	1430	1414	1408	1403	1393	1387	1382	1382	0	0	0	0	0	0	0	0	0	0	0	0	0	0	2497	2481	2481	2401	2386	2386	2386	2386	2401	2401	2417	2417	2448	2448	2481	2464	2448	2432	2417	2371	2356	2341	2312	2284	2270	2243	2230	2230	2230	2217	2217	2230	2230	2243	2243	2270	0	0	0	2432	2432	2448	2432	2417	2401	2386	2386	2371	2356	2341	2327	2327	2327	2312	2312	2312	2298	2298	2284	2284	2284	2270	2270	2257	2257	2243	2243	2230	2230	2230	2230	2230	2230	2230	2230	2230	2230	2230	2243	2243	2257	2257	2257	2270	2284	2298	2312	2341	2371	2386	2417	2432	2448	2464	2481	2481	2497	2497	2514	2497	2497	2514	2514	2514	2464	2432	2371	2257	2165	2165	0	1864	1784	1726	1703	1687	1665	1650	1643	1643	1636	1636	1643	1665	1695	1759	1911	1911	1993	2081	2165	2178	2191	2191	2191	2178	2165	2165	2141	2116	2093	2070	2036	2025	2003	1993	1993	2025	2025	2047	2093	2116	2141	2178	2178	2191	2191	2204	2204	2217	2230	2257	2270	2284	2298	2312	2341	2356	2401	2417	2432	2448	2481	2497	2531	2531	2531	2531	2531	2514	2497	2481	2432	2432	2432	2417	2401	2386	2386	2371	2356	2312	2312	2312	0	0	0	0	0	0	0	0	0	0	0	0	0	0	0	0	0	0	0	0	0	0	0	0	0	0	0	0	0	0	0	0	0	0	0	0	0	0	0	0	0	0	0	0	0	0	0	0	0	0	0	0	0	0	0	0	0	0	0	0	0	0	0	0	0	0	0	0	0	0	0	0	0	0	0	0	2838	2838	2838	2838	2796	2796	2796	0
145	145	145	145	145	145	0	0	0	0	0	0	0	0	0	0	0	0	0	0	0	0	0	0	0	0	0	0	0	0	0	0	0	0	147	147	147	147	147	147	147	147	147	0	0	0	0	0	0	0	0	0	0	0	0	0	0	0	0	0	0	0	0	0	0	0	0	0	0	0	0	0	0	0	0	121	121	121	121	121	121	121	121	121	121	121	121	121	121	121	121	121	121	121	121	121	121	121	122	122	122	122	122	123	123	123	123	123	123	123	123	123	123	123	123	123	123	123	123	123	123	123	123	124	124	124	124	0	0	0	124	124	123	123	0	0	0	0	0	0	0	0	0	0	0	0	0	0	0	0	0	0	0	0	0	0	0	0	0	0	0	0	0	0	0	0	0	0	0	0	0	0	0	0	0	0	0	0	0	0	0	0	0	0	0	0	0	0	0	0	0	0	0	0	0	167	167	167	167	167	167	167	166	166	166	165	165	165	164	164	164	164	164	164	164	164	164	164	164	164	164	164	164	164	164	164	0	0	0	0	0	0	0	0	0	0	225	225	0	0	0	0	226	226	227	229	229	230	231	232	232	232	232	232	232	232	232	231	231	231	0	0	0	0	0	0	0	0	0	0	0	0	0	2128	2104	2081	2058	2036	2003	1961	1941	1911	1892	1873	1864	1854	1854	1845	1845	1845	1845	1845	1845	1845	1854	1864	1873	1882	1892	1911	1921	1941	1951	1961	1972	1972	1982	1982	1982	1982	1972	1972	1961	1961	1951	1941	1921	1911	1902	1892	1873	1827	1775	1726	1680	1629	1629	0	0	0	0	0	0	0	0	0	0	0	0	0	0	0	0	0	0	0	0	0	0	0	0	0	0	0	0	0	0	0	0	0	0	0	0	0	0	0	0	0	0	0	0	0	0	0	0	0	0	0	0	0	0	0	0	0	0	0	0	0	0	0	0	0	0	0	0	0	0	0	0	0	0	0	0	1911	1911	1911	1911	1911	1902	1892	1882	1873	1873	1864	1864	1864	1854	1854	1864	1864	1873	1873	1882	1882	1882	1882	1882	1882	1892	1911	1941	1951	1961	1972	2014	0	2025	2025	2025	2025	2025	2036	2036	2047	2047	2047	2047	2047	2047	2047	2047	2036	2025	2025	2025	2014	1982	1972	1941	1882	1810	1810	0	1643	1594	1561	1561	1561	1561	1574	1581	0	0	0	0	0	0	0	0	0	0	0	0	0	0	0	0	0	0	0	0	0	1718	1650	1608	1554	1492	1458	1458	1452	1441	1430	1414	1408	1403	1393	1387	1382	1382	0	0	0	0	0	0	0	0	0	0	0	0	0	0	2497	2481	2481	2464	2448	2432	2432	2432	2448	2448	2464	2464	2497	2497	2531	2514	2497	2464	2432	2401	2371	2341	2327	2298	2270	2243	2243	2230	2230	2217	2217	2230	2230	2230	2243	2257	0	0	0	0	0	2464	2432	2432	2401	2401	2386	2386	2371	2356	2341	2341	2341	2327	2327	2312	2312	2312	2312	2298	2284	2284	2270	2257	2257	2243	2243	2230	2230	2230	2230	2230	2230	2230	2230	2230	2230	2230	2243	2243	2257	2257	2270	2270	2284	2298	2327	2356	2371	2386	2417	2432	2448	2464	2481	2497	2497	2514	2514	2531	2531	2548	2548	2548	2514	2497	2448	2356	2230	2230	0	1921	1836	1767	1734	1703	1680	1665	1658	1643	1636	1636	1643	1665	1695	1759	1818	1892	1972	2070	2165	2178	2191	2191	2178	2178	2165	2153	2141	2116	2081	2047	2014	1993	1982	1982	1982	2003	2036	2058	2104	2141	2165	2191	2204	2243	2243	2243	2257	2270	2270	2284	2312	2312	2327	2356	2371	2401	2432	2464	2481	2514	2531	2548	2566	2566	2566	2548	2531	2497	2481	2448	2401	2386	2371	2356	2341	2327	2312	2298	2284	2284	2270	2270	2270	0	0	0	0	0	0	0	0	0	0	0	0	0	0	0	0	0	0	0	0	0	0	0	0	0	0	0	0	0	0	0	0	0	0	0	0	0	0	0	0	0	0	0	0	0	0	0	0	0	0	0	0	0	0	0	0	0	0	0	0	0	0	0	0	0	0	0	0	2775	2775	2796	2817	2838	2860	2882	2838	2838	2838	2838	2796	2796	2796	0
145	145	145	145	145	145	0	0	0	0	0	0	0	0	0	0	0	0	0	0	0	0	0	0	0	0	0	0	0	0	0	0	0	0	147	147	147	147	147	147	147	147	147	147	0	0	0	0	0	0	0	0	0	0	0	0	0	0	0	0	0	0	0	0	0	0	0	0	0	0	0	0	0	0	0	0	121	121	121	121	121	121	121	121	121	121	121	121	121	121	121	121	121	121	121	121	121	121	121	122	122	122	122	123	123	123	123	123	123	123	123	123	123	123	123	123	123	123	123	123	123	123	123	123	123	0	0	0	0	0	0	0	0	0	0	0	0	0	0	0	0	0	0	0	0	0	0	0	0	0	0	0	0	0	0	0	0	0	0	0	0	0	0	0	0	0	0	0	0	0	0	0	0	0	0	0	0	0	0	0	0	0	0	0	0	0	0	0	0	0	168	168	0	169	169	169	0	0	0	168	167	167	167	167	166	166	166	165	165	165	164	164	164	164	164	164	164	164	164	164	164	164	164	164	164	164	0	0	0	0	0	0	0	0	0	0	0	0	0	0	224	224	225	225	226	228	229	230	231	232	232	232	232	232	232	232	232	232	232	232	0	0	0	0	0	0	0	0	0	0	0	0	2128	2116	2104	2081	2058	2036	2036	1961	1931	1902	1873	1864	1845	1845	1836	1836	1836	1836	1836	1845	1845	1845	1854	1864	1873	1882	1892	1902	1921	1941	1951	1961	1972	1982	1993	1993	1993	1993	1993	1993	1982	1972	1961	1941	1931	1921	1911	1902	1873	1845	1801	1801	0	0	0	0	0	0	0	0	0	0	0	2734	2734	2754	2754	2754	2775	2796	0	0	0	0	0	0	0	0	0	0	0	0	0	0	0	0	0	0	0	0	0	0	0	0	0	0	0	0	0	0	0	0	0	0	0	0	0	0	0	0	0	0	0	0	0	0	0	0	0	0	0	0	0	0	0	0	0	0	0	0	0	1931	1911	1911	1902	1892	1892	1873	1864	1854	1854	1845	1845	1845	1845	1845	1854	1864	1873	1882	1892	1902	1902	1911	1911	1911	1921	1931	1941	1951	1961	1972	2014	2014	2014	2003	2003	2014	2014	2025	2025	2025	2025	2036	2036	2036	2036	2036	2036	2025	2014	2014	2003	1993	1961	1941	1911	1854	1792	1742	1742	1643	1594	1561	1561	1561	1561	1574	1581	1581	0	0	0	0	0	0	0	0	0	0	0	0	0	0	0	0	0	0	0	0	0	0	0	0	0	0	0	0	0	0	0	0	1523	1492	1463	1463	0	0	0	0	0	0	0	0	0	0	0	0	0	0	0	2548	2548	2497	2497	2481	2464	2464	2464	2464	2481	2497	2497	2531	2548	2548	2531	2514	2481	2448	2417	2386	2356	2327	2298	2270	2257	2243	2230	2217	2217	2217	2217	2217	2230	2243	2257	2270	2327	2371	2417	2464	2481	2464	2448	2432	2417	2401	2401	2386	2371	2356	2356	2341	2341	2341	2327	2327	2327	2312	2312	2298	2284	2284	2270	2257	2243	2243	2230	2230	2230	2230	2230	2230	2230	2230	2230	2230	2230	2230	2243	2257	2257	2270	2284	2298	2312	2327	2341	2356	2371	2386	2401	2417	2448	2448	2464	2497	2514	2531	2548	2566	2566	2583	2583	2566	2566	2514	2417	2312	2312	0	2003	1902	1818	1818	1742	1711	1695	1672	1658	1650	1650	1650	1665	1695	1734	1818	1892	1972	2047	2165	2178	2191	2191	2178	2178	2165	2153	2128	2104	2070	2047	2003	1972	1972	1972	1982	2003	2036	2070	2116	2153	2178	2217	2243	2270	2270	2270	2284	2284	2298	2327	2327	2327	2356	2371	2401	2417	2448	2481	2497	2531	2548	2583	2583	2566	2531	2531	2497	2464	2417	2386	2341	2327	2312	2312	2270	2243	2217	2204	2204	2178	2178	2165	2165	0	0	0	0	0	0	0	0	0	0	0	0	0	0	0	0	0	0	0	0	0	0	0	0	0	0	0	0	0	0	0	0	0	0	0	0	0	0	0	0	0	0	0	0	0	0	0	0	0	0	0	0	0	0	0	0	0	0	0	0	0	0	0	0	0	0	0	0	2775	2775	2796	2817	2838	2860	2882	2882	2860	2860	2860	2838	2838	2838	0
145	145	145	145	145	0	0	0	0	0	0	0	0	0	0	0	0	0	0	0	0	0	0	0	0	0	0	0	0	0	0	0	0	0	0	147	147	147	147	147	147	147	147	147	0	0	0	0	0	0	0	0	0	0	0	0	0	0	0	0	0	0	0	0	0	0	0	0	0	0	0	0	0	0	0	0	121	121	121	121	121	121	121	121	121	121	121	121	121	121	121	121	121	121	121	121	121	121	121	122	122	122	122	123	123	123	123	123	123	123	123	123	123	123	123	123	123	123	123	123	123	123	123	123	123	0	0	0	0	0	0	0	0	0	0	0	0	0	0	0	0	0	0	0	0	0	0	0	0	0	0	0	0	0	0	0	0	0	0	0	0	0	0	0	0	0	0	0	0	0	0	0	0	0	0	0	0	0	0	0	0	0	0	0	0	0	0	0	0	0	168	168	169	169	169	169	169	169	169	168	168	168	167	167	167	166	166	166	166	165	165	165	165	165	165	165	165	165	165	164	164	164	164	164	164	164	0	0	0	0	0	0	0	0	0	0	0	0	0	0	224	224	224	225	226	228	229	230	232	232	233	233	233	233	233	233	233	233	233	233	234	0	0	0	0	0	0	0	0	0	0	0	2116	2104	2093	2070	2036	2003	1972	1941	1911	1882	1864	1845	1836	1827	1827	1827	1827	1827	1827	1836	1836	1845	1845	1864	1873	1882	1892	1902	1921	1941	1951	1972	1972	1982	1993	1993	2003	1993	1993	1993	1982	1982	1961	1951	1931	1921	1911	1902	1882	1854	1854	0	0	0	0	0	0	0	0	0	0	0	2754	2734	2734	2754	2754	2754	2775	2796	0	0	0	0	0	0	0	0	0	0	0	0	0	0	0	0	0	0	0	0	0	0	0	0	0	0	0	0	0	0	0	0	0	0	0	0	0	0	0	0	0	0	0	0	0	0	0	0	0	0	0	0	0	0	0	0	0	0	0	0	0	0	1902	1892	1882	1882	1873	1854	1845	1836	1836	1836	1836	1836	1836	1845	1854	1864	1882	1892	1902	1911	1921	1931	1941	1941	1951	1951	1961	1972	1972	1982	2014	2014	2014	2003	2003	2014	2014	2025	2025	2025	2025	2025	2036	2036	2025	2025	2025	2025	2014	2014	2003	1993	1961	1941	1911	1854	1792	1742	1687	1636	1594	1567	1561	1561	1567	1581	1581	1581	1581	1587	0	0	0	0	0	0	0	0	2601	2601	2601	2601	2601	2514	2432	2341	2257	2191	2191	0	0	0	0	0	0	0	0	0	0	0	0	0	0	0	0	0	0	0	0	0	0	0	0	0	0	0	0	0	0	2548	2548	2548	2531	2514	2514	2497	2497	2497	2514	2514	2531	2548	2566	2566	2548	2531	2481	2464	2432	2401	2371	2341	2312	2284	2257	2243	2230	2217	2217	2217	2217	2217	2230	2243	2257	2270	2327	2371	2417	2464	2481	2481	2464	2448	2417	2401	2401	2386	2371	2356	2356	2341	2341	2341	2341	2327	2327	2327	2312	2298	2284	2284	2270	2257	2257	2243	2243	2230	2230	2230	2230	2230	2230	2230	2230	2230	2230	2230	2243	2257	2257	2270	2284	2284	2298	2312	2327	2327	2341	2371	2386	2401	2401	2417	2432	2464	2481	2497	2514	2548	2548	2566	2583	2566	2548	2548	2448	2356	2356	2230	2081	1972	1972	1902	1784	1767	1742	1711	1687	1650	1650	1650	1672	1687	1718	0	0	2047	2047	2141	2178	2191	2191	2178	2165	2153	2141	2116	2093	2058	2014	1982	1951	1951	1951	1972	1993	2047	2093	2128	2165	2204	2230	2257	2270	2298	2298	2298	2298	2312	2327	2341	2356	2371	2371	2401	2417	2448	2481	2497	2531	2531	2548	2548	2514	2497	2481	2432	2401	2371	2312	2284	2270	2257	2230	2191	2165	2153	2128	2128	2178	2178	2165	2128	2128	2153	2178	2178	2178	2141	2104	2070	2036	2014	1982	1972	1972	0	0	0	0	0	0	0	0	0	0	0	0	0	0	0	0	0	0	0	0	0	0	0	0	0	0	0	0	0	0	0	0	0	0	0	0	0	0	0	0	0	0	0	0	0	0	0	0	0	0	0	0	0	0	0	2817	2817	2838	2860	2882	2904	2927	2927	2927	2927	2904	2882	2882	2882	2882
145	145	145	0	0	0	0	0	0	0	0	0	0	0	0	0	0	0	0	0	0	0	0	0	0	0	0	0	0	0	0	0	0	0	0	147	147	147	147	147	147	147	147	0	0	0	0	0	0	0	0	0	0	0	0	0	0	0	0	0	0	0	0	0	0	0	0	0	0	0	0	0	0	0	0	0	0	121	121	121	121	121	121	121	121	121	121	121	121	121	121	121	121	121	121	121	121	121	121	121	122	122	122	123	123	123	123	123	123	123	123	123	123	123	123	123	123	123	123	123	123	123	123	123	123	0	0	0	0	0	0	0	0	0	0	0	0	0	0	0	0	0	0	0	0	0	0	0	0	0	0	0	0	0	0	0	0	0	0	0	0	0	0	0	0	0	0	0	0	0	0	0	0	0	0	0	0	0	0	0	0	0	0	0	0	0	0	0	0	0	0	169	169	169	169	169	169	169	169	168	168	168	168	167	167	167	166	166	166	165	165	165	165	165	165	165	165	165	165	164	164	164	164	164	164	0	0	0	0	0	0	0	0	0	0	0	0	0	0	0	224	224	224	225	228	228	230	231	233	233	233	233	234	234	234	234	234	234	234	234	234	0	0	0	0	0	0	0	0	0	0	0	2104	2081	2070	2047	2025	1993	1951	1921	1892	1873	1854	1836	1827	1827	1818	1818	1827	1827	1827	1836	1836	1845	1845	1864	1873	1882	1892	1902	1921	1941	1951	1972	1982	1993	1993	2003	2003	2003	2003	2003	1993	1982	1972	1961	1941	1931	1921	1902	1892	1892	1902	0	0	0	0	0	0	0	0	0	0	0	2754	2754	2775	2796	2817	2817	2817	2882	0	0	0	0	0	0	0	0	0	0	0	0	0	0	0	0	0	0	0	0	0	0	0	0	0	0	0	0	0	0	0	0	0	0	0	0	0	0	0	0	0	0	0	0	0	0	0	0	0	0	0	0	0	0	0	0	0	0	0	0	0	0	1902	1873	1864	1854	1845	1836	1827	1818	1818	1818	1827	1827	1836	1836	1854	1864	1882	1902	1911	1931	1941	1951	1961	1972	1982	1982	1993	1993	1993	2003	2025	2025	2014	2014	2014	2014	2014	2025	2025	2025	2025	2025	2025	2025	2025	2025	2025	2014	2014	2014	2003	1993	1961	1941	1911	1854	1801	1742	1687	1636	1594	1567	1567	1567	1567	1581	1581	1574	1574	1587	1608	0	0	0	0	0	0	2548	2548	2566	2583	2601	2601	2514	2432	2341	2257	2191	2191	2401	0	0	0	0	0	0	0	0	0	0	0	0	0	0	0	0	0	0	0	0	0	0	0	0	0	0	0	0	0	0	2583	2548	2548	2548	2531	2531	2531	2531	2548	2548	2566	2566	2583	2583	2548	2531	2497	2464	2432	2401	2371	2341	2312	2284	2257	2243	2230	2230	2230	2230	2230	2230	2243	2243	2270	2284	2327	2371	2432	2464	2497	2497	2464	2464	2432	2417	2401	2401	2386	2356	2356	2356	2356	2356	2356	2341	2327	2327	2327	2298	2298	2284	2270	2257	2257	2243	2243	2230	2230	2230	2230	2230	2230	2230	2230	2230	2230	2243	2243	2257	2257	2270	2270	2284	2284	2298	2298	2312	2312	2327	2341	2341	2356	2386	2386	2417	2432	2448	2464	2481	2497	2531	2548	2548	2548	2531	2448	2371	2341	2230	2191	2104	2025	1902	1845	1818	1792	1711	1687	1672	1672	1672	1680	1687	1718	0	0	0	2141	2141	0	0	0	2178	2165	2153	2141	2104	2081	2036	2014	1982	1951	1951	1951	1972	1993	2047	2093	2128	2165	2204	2230	2257	2284	2312	2312	2312	2327	2341	2356	2356	2356	2371	2386	2401	2417	2432	2464	2464	2497	2514	2514	2481	2464	2448	2401	2371	2341	2284	2257	2230	2217	2191	2165	2128	2104	2081	2070	2070	0	0	0	2104	2104	2141	2141	2178	2178	2141	2104	2070	2036	2014	1982	1972	1972	0	0	0	0	0	0	0	0	0	0	0	0	0	0	0	0	0	0	0	0	0	0	0	0	0	0	0	0	0	0	0	0	0	0	0	0	0	0	0	0	0	0	0	0	0	0	0	0	0	0	0	0	0	0	0	2838	2838	2860	2882	2904	2927	2927	2927	2927	2927	2927	2904	2904	2882	2882
145	146	146	146	0	0	0	0	0	0	0	0	0	0	0	0	0	0	0	0	0	0	0	0	0	0	0	0	0	0	0	0	0	0	147	147	147	147	147	147	147	147	147	147	147	147	0	0	0	0	0	145	145	145	145	145	144	144	144	0	0	0	0	0	0	0	0	0	0	0	0	0	0	0	0	0	0	0	121	121	121	121	121	121	121	121	121	121	121	121	121	121	121	121	121	121	121	121	121	121	122	122	122	123	123	123	123	123	123	123	123	123	123	123	123	123	123	123	123	123	123	123	123	123	123	0	0	0	0	0	0	0	0	0	0	0	0	0	0	0	0	0	0	0	0	0	0	0	0	0	0	0	0	0	0	0	0	0	0	0	0	0	0	0	0	0	0	0	0	0	0	0	0	0	0	0	0	0	0	0	0	0	0	0	0	0	0	0	0	0	0	0	0	170	170	170	169	169	169	169	169	168	168	168	167	167	167	166	166	165	165	165	165	165	165	165	165	165	165	165	164	164	164	164	164	0	0	0	0	0	0	0	0	0	0	0	0	0	0	0	0	0	0	0	0	0	0	233	233	234	234	234	234	234	234	234	234	234	234	234	234	0	0	0	0	0	0	0	0	0	0	0	2093	2081	2058	2047	2014	1982	1941	1902	1882	1854	1836	1827	1818	1818	1818	1818	1818	1827	1827	1836	1845	1845	1854	1864	1873	1882	1892	1911	1921	1941	1951	1972	1982	1993	1993	1993	2003	2003	2003	2003	2003	1993	1982	1961	1951	1941	1931	1921	1911	1902	1902	0	0	0	0	0	0	0	0	0	0	0	2796	2796	2817	2817	2838	2860	2860	2882	2950	0	0	0	0	0	0	0	0	0	0	0	0	0	0	0	0	0	0	0	0	0	0	0	0	0	0	0	0	0	0	0	0	0	0	0	0	0	0	0	0	0	0	0	0	0	0	0	0	0	0	0	0	0	0	0	0	0	0	0	0	0	1864	1836	1836	1827	1827	1818	1801	1801	1801	1810	1818	1827	1827	1836	1845	1864	1882	1902	1921	1941	1961	1982	1993	2003	2014	2014	2014	2014	2014	2014	2036	2025	2014	2014	2014	2014	2014	2025	2025	2014	2014	2014	2025	2025	2025	2025	2025	2014	2014	2014	2003	1982	1961	1941	1911	1854	1801	1801	1695	1636	1601	1567	1567	1567	1567	1574	1574	1574	1574	1594	1608	1643	0	0	0	0	2464	2464	2497	2548	2566	2583	2601	2601	2566	2514	2464	2432	2401	2401	2620	2620	2620	2601	2601	2531	2448	2371	2284	2243	2153	2058	2058	0	0	0	0	0	0	0	0	0	0	0	0	0	0	0	0	0	2583	2566	2566	2566	2548	2548	2548	2548	2548	2566	2583	2583	2601	2583	2548	2531	2481	2464	2432	2401	2371	2341	2312	2284	2270	2257	2243	2230	2230	2230	2243	2243	2243	2257	2270	2298	2341	2371	2432	2464	2514	2497	2497	2464	2448	2432	2417	2417	2401	2386	2371	2371	2371	2371	2356	2356	2341	2327	2327	2312	2298	2284	2284	2270	2257	2257	2243	2243	2230	2230	2230	2230	2230	2230	2230	2230	2230	2243	2243	2257	2257	2270	2270	2270	2270	2284	2284	2284	2284	2284	2298	2298	2312	2341	2356	2371	2401	2417	2448	2464	2497	2531	2548	2548	2548	2531	2464	2401	2341	2284	2191	2104	2025	1972	1911	1882	1792	1759	1734	1711	1711	1711	1711	1726	1750	0	0	0	0	0	0	0	0	0	0	2153	2141	2104	2081	2036	2036	0	0	0	1972	1972	2003	2058	2116	2141	2178	2204	2243	2257	2284	2312	2312	2312	2327	2341	2356	2371	2371	2386	2386	2401	2417	2417	2432	2448	2464	2464	2464	2432	2401	2371	2341	2312	2270	2243	2217	2191	2165	2153	2116	2093	2058	2047	2036	2025	2025	2036	2047	2058	2081	2104	2141	2153	2165	2141	2104	2070	2047	2014	1993	1993	1972	1972	0	0	0	0	0	0	0	0	0	0	0	0	0	0	0	0	0	0	0	0	0	0	0	0	0	0	0	0	0	0	0	0	0	0	0	0	0	0	0	0	0	0	0	0	0	0	0	0	0	0	0	0	0	0	2838	2838	2860	2882	2904	2927	2927	2927	2927	2927	2927	2904	2904	2882	2882
146	146	146	146	0	0	0	0	0	0	0	0	0	0	0	0	0	0	0	0	0	0	0	0	0	0	0	0	0	0	0	0	0	147	147	147	147	147	147	147	147	147	147	147	147	147	0	0	0	145	145	145	145	145	145	144	144	144	144	144	144	144	144	143	143	143	143	143	0	0	0	0	0	0	0	0	0	0	121	121	121	121	121	120	120	120	121	121	121	121	121	121	121	121	121	121	121	121	121	121	121	122	122	122	123	123	123	123	123	123	123	123	123	123	123	123	123	123	123	123	123	123	123	123	123	0	0	0	0	0	0	0	0	0	0	0	0	0	0	0	0	0	0	0	0	0	0	0	0	0	0	0	0	0	0	0	0	0	0	0	0	0	0	0	0	0	0	0	0	0	0	0	0	0	0	0	0	0	0	0	0	0	0	0	0	0	0	0	0	0	0	0	0	0	170	170	170	170	169	169	169	169	168	168	168	167	167	167	166	166	166	165	165	165	165	165	165	165	165	0	164	164	164	164	0	0	0	0	0	0	0	0	0	0	0	0	0	0	0	0	0	0	0	0	0	0	0	233	233	234	234	234	234	234	235	235	235	235	235	235	235	0	0	0	0	0	0	0	0	0	0	0	2081	2058	2036	2014	1993	1951	1921	1892	1864	1845	1827	1818	1810	1810	1810	1818	1818	1836	1836	1845	1854	1864	1864	1864	1882	1882	1892	1911	1931	1941	1951	1961	1972	1982	1993	1993	1993	1993	1993	1993	1993	1982	1982	1972	1961	1941	1941	1931	1921	1902	1902	0	0	0	0	0	0	0	0	0	0	0	2817	2817	2838	2860	2882	2882	2904	2927	2950	0	0	0	0	0	0	0	0	0	0	0	0	0	0	0	0	0	0	0	0	0	0	0	0	0	0	0	0	0	0	0	0	0	0	0	0	0	0	0	0	0	0	0	0	0	0	0	0	0	0	0	0	0	0	0	0	0	0	0	0	0	1864	1784	1784	1784	1784	1784	1775	1775	1775	1784	1792	1810	1818	1827	1836	1854	1873	1902	1931	1951	1972	2003	2014	2036	2036	2047	2047	2036	2036	2036	2036	2025	2025	2014	2014	2014	2014	2014	2014	2014	2014	2014	2025	2025	2025	2025	2025	2014	2014	2014	2003	1982	1961	1941	1911	1854	1810	1810	1703	1643	1594	1574	1554	1548	1548	1567	1561	1561	1567	1581	1608	1643	0	0	0	0	2417	2417	2481	2531	2566	2583	2601	2601	2601	2601	2601	2601	2601	2601	2620	2620	2620	2601	2601	2531	2448	2371	2284	2243	2153	2058	2058	0	0	0	0	0	0	0	0	0	0	0	0	0	0	0	0	0	0	2566	2566	2566	2548	2548	2548	2548	2548	2566	2583	2583	2601	2583	2548	2514	2481	2448	2417	2386	2356	2341	2312	2298	2270	2257	2243	2243	2243	2243	2243	2243	2257	2270	2284	2312	2341	2386	2432	2464	2497	2514	2497	2481	2464	2448	2432	2417	2417	2386	2386	2371	2371	2371	2371	2356	2341	2327	2327	2312	2298	2284	2284	2270	2270	2257	2243	2243	2243	2230	2230	2230	2230	2230	2230	2230	2243	2243	2243	2243	2257	2257	2257	2257	2257	2257	2257	2257	2257	2257	2257	2270	2284	2298	2327	2356	2386	2401	2432	2464	2497	2531	2548	2548	2548	2531	2481	2432	2371	2327	2257	2178	2104	2047	1911	1882	1845	1810	1784	1767	1759	1759	1767	1775	1864	0	0	0	0	0	0	0	0	0	0	2153	2141	2104	2081	2081	0	0	0	0	0	0	0	2141	2141	2191	2217	2243	2270	2284	2298	2312	2327	2327	2327	2341	2371	2371	2371	2386	2386	2401	2417	2417	2432	2448	2464	2464	2448	2432	2401	2356	2327	2284	2243	2204	2178	2153	2128	2116	2081	2047	2036	2025	2014	2014	2014	2014	2047	2058	2070	2104	2128	2153	2165	2141	2104	2081	2058	2025	2003	1993	1972	1961	1961	0	0	0	0	0	0	0	0	0	0	0	0	0	0	0	0	0	0	0	0	0	0	0	0	0	0	0	0	0	0	0	0	0	0	0	0	0	0	0	0	0	0	0	0	0	0	0	0	0	0	0	0	0	2838	2838	2860	2882	2927	2950	2973	2950	2950	2927	2904	2882	2860	2838	2796
146	146	146	0	0	0	0	0	0	0	0	0	0	0	0	0	0	0	0	0	0	0	0	0	0	0	0	0	0	0	0	0	0	147	147	147	147	147	147	147	147	147	147	147	147	0	0	0	146	145	145	145	145	145	145	144	144	144	144	144	144	143	143	143	143	143	143	143	143	0	0	0	0	0	0	0	0	0	0	0	121	121	121	120	120	120	120	120	121	121	121	121	121	121	121	121	121	121	121	121	121	122	122	122	123	123	123	123	123	123	123	123	123	123	123	123	123	123	123	123	123	123	123	123	123	123	0	0	0	0	0	0	0	0	0	0	0	0	0	0	0	0	0	0	0	0	0	0	0	0	0	0	0	0	0	0	0	0	0	0	0	0	0	0	0	0	0	0	0	0	0	0	0	0	0	0	0	0	0	0	0	0	0	0	0	0	0	0	0	0	0	0	0	0	170	170	170	170	170	170	169	169	169	169	168	168	168	167	167	166	166	166	166	166	166	165	165	165	165	165	165	164	164	164	0	0	0	0	0	0	0	0	0	0	0	0	0	0	0	0	0	0	0	0	0	0	234	234	234	234	234	235	235	235	235	235	235	235	235	235	235	0	0	0	0	0	0	0	0	0	0	0	2070	2047	2025	2003	1982	1941	1911	1882	1864	1836	1827	1810	1810	1810	1810	1818	1827	1836	1845	1854	1864	1873	1873	1882	1882	1892	1902	1911	1931	1941	1951	1961	1972	1982	1982	1982	1982	1982	1982	1982	1982	1982	1972	1972	1951	1951	1951	1941	1931	1931	1931	0	0	0	0	0	0	0	0	0	0	2860	2860	2860	2882	2904	2927	2950	2973	2973	3046	3070	0	0	0	0	0	0	0	0	0	0	0	0	0	0	0	0	0	0	0	0	0	0	0	0	0	0	0	0	0	0	0	0	0	0	0	0	0	0	0	0	0	0	0	0	0	0	0	0	0	0	0	0	0	0	0	0	0	0	0	0	0	1784	1784	1750	1750	1759	1750	1750	1759	1767	1784	1801	1810	1818	1836	1854	1873	1892	1921	1941	1972	1993	2014	2036	2047	2058	2058	2047	2047	2047	2036	2036	2014	2014	2014	2014	2014	2014	2014	2014	2014	2025	2025	2025	2025	2025	2025	2025	2025	2025	2014	1993	1972	1951	1921	1873	1827	1827	1703	1643	1594	1594	1535	1535	1535	1535	1542	1542	1542	1561	1594	1643	0	0	0	2341	2341	2386	2448	2497	2548	2566	2583	2620	2620	2620	2620	2638	2638	2657	2676	2676	2695	2676	2638	2601	2548	2497	2448	2401	2356	2356	0	0	0	0	0	0	0	0	0	0	0	0	0	0	0	0	0	0	0	2583	2583	2566	2566	2566	2566	2566	2566	2566	2583	2583	2583	2566	2531	2497	2464	2432	2401	2386	2356	2327	2312	2298	2284	2270	2257	2257	2257	2257	2257	2270	2270	2284	2312	2327	2356	2386	2432	2464	2497	2514	2514	2497	2464	2448	2432	2417	2401	2401	2386	2386	2371	2371	2356	2356	2327	2327	2327	2312	2298	2284	2284	2270	2270	2257	2243	2243	2243	2230	2230	2230	2230	2230	2230	2243	2243	2243	2243	2243	2257	2243	2243	2243	2243	2243	2243	2243	2243	2243	2243	2257	2284	2298	2327	2356	2386	2401	2432	2464	2497	2531	2548	2548	2548	2531	2497	2464	2432	2386	2327	2257	2104	2047	1982	1951	1951	1882	1845	1827	1827	1827	1827	1845	1864	0	0	0	0	0	0	0	0	0	0	0	0	0	0	0	0	0	0	0	0	0	2217	2191	2191	2230	2243	2257	2284	2298	2312	2327	2341	2341	2341	2356	2371	2386	2386	2401	2401	2401	2417	2432	2448	2448	2464	2464	2448	2432	2401	2356	2312	2270	2230	2191	2165	2128	2116	2104	2070	2047	2036	2025	2003	2003	2014	2014	2036	2047	2070	2104	2128	2153	2165	2141	2104	2081	2058	2025	2003	1993	1972	1961	1961	0	0	0	0	0	0	0	0	0	0	0	0	0	0	0	0	0	0	0	0	0	0	0	0	0	0	0	0	0	0	0	0	0	0	0	0	0	0	0	0	0	0	0	0	0	0	0	0	0	0	0	0	0	2860	2860	2882	2904	2927	2950	2973	2973	2950	2927	2904	2860	2860	2817	2796
146	146	0	0	0	0	0	0	0	0	0	0	0	0	0	0	0	0	0	0	0	0	0	0	0	0	0	0	0	0	0	0	0	0	0	148	148	148	0	148	148	148	148	147	147	0	0	147	146	146	146	145	145	145	144	144	144	144	144	144	144	143	143	143	143	143	143	143	143	143	143	0	0	0	0	0	0	0	0	0	0	0	0	120	120	120	120	120	120	121	121	121	121	121	121	121	121	121	121	121	121	122	122	122	123	123	123	123	123	123	123	123	123	123	123	123	123	123	123	123	123	123	123	123	123	123	0	0	0	0	0	0	0	0	0	0	0	0	0	0	0	0	0	0	0	0	0	0	0	0	0	0	0	0	0	0	0	0	0	0	0	0	0	0	0	0	0	0	0	0	0	0	0	0	0	0	0	0	0	0	0	0	0	0	0	0	0	0	0	0	0	0	0	0	0	0	0	0	0	0	0	0	0	169	168	168	0	0	0	0	0	0	0	166	166	166	166	166	165	165	165	165	165	0	0	0	0	0	0	0	0	0	0	0	0	0	0	0	0	0	0	0	0	0	0	0	234	234	234	234	235	235	235	235	235	235	235	235	235	235	235	0	0	0	0	0	0	0	0	0	0	0	2070	2036	2014	1982	1951	1931	1892	1864	1845	1827	1818	1810	1810	1810	1810	1818	1827	1845	1854	1873	1882	1882	1892	1892	1892	1902	1911	1921	1941	1951	1961	1972	1972	1972	1972	1972	1972	1961	1961	1961	1961	1951	1951	1941	1941	1941	1941	1941	1931	1931	1931	0	0	0	0	0	0	0	0	0	0	2838	2838	2860	2882	2904	2927	2973	2997	3021	3046	3070	0	0	0	0	0	0	0	0	0	0	0	0	0	0	0	0	0	0	0	0	0	0	0	0	0	0	0	0	0	0	0	0	0	0	0	0	0	0	0	0	0	0	0	0	0	0	0	0	0	0	0	0	0	0	0	0	0	0	0	0	0	0	0	1726	1726	1734	1734	1734	1742	1759	1775	1784	1801	1810	1827	1845	1864	1882	1911	1931	1961	1982	2014	2036	2047	2058	2058	2058	2047	2047	2036	2036	2014	2014	2014	2014	2014	2025	2025	2025	2025	2025	2025	2036	2036	2036	2036	2036	2036	2025	2025	1993	1972	1951	1921	1873	1827	1827	0	0	0	0	1529	1517	1517	1523	1523	1523	1529	1554	1594	1643	1845	1845	2014	2141	2270	2327	2386	2464	2514	2531	2583	2638	2638	2638	2657	2676	2695	2714	2734	2754	2754	2754	2714	2676	2638	2583	2514	2514	0	0	0	0	0	0	0	0	0	0	0	0	0	0	0	0	0	0	0	0	0	0	0	0	0	2566	2566	2566	2583	2583	2583	2583	2566	2548	2514	2481	2448	2432	2386	2371	2341	2327	2312	2298	2284	2270	2270	2270	2257	2257	2270	2284	2298	2298	2327	2341	2371	2401	2432	2464	2514	2531	2514	2497	2481	2448	2432	2417	2386	2386	2371	2371	2356	2356	2356	2341	2327	2327	2312	2298	2298	2284	2284	2270	2270	2270	2257	2243	2243	2230	2230	2230	2230	2230	2230	2243	2243	2243	2243	2243	2243	2243	2243	2243	2243	2243	2243	2243	2243	2243	2243	2257	2284	2298	2327	2356	2386	2417	2432	2464	2497	2531	2548	2566	2548	2531	2531	2514	2464	2417	2327	2257	2217	2153	2081	2047	2014	1951	1921	1892	1892	1892	1972	1921	1921	2003	2025	2058	2093	2141	2153	2153	2153	2153	0	0	0	0	0	0	0	0	0	0	2257	2257	2217	2217	2243	2257	2284	2298	2312	2327	2341	2371	2386	2386	2386	2401	2417	2432	2432	2432	2432	2432	2432	2448	2464	2464	2481	2481	2464	2432	2401	2356	2312	2270	2230	2191	2165	2128	2116	2104	2070	2047	2036	2025	2003	2003	2014	2014	2036	2047	2058	2093	2116	2141	2153	2141	2104	2081	2058	2025	2003	1993	1972	1972	1993	1993	1993	1993	0	1993	1972	1972	0	2047	2047	2047	2058	2081	2153	2270	0	0	0	0	0	0	0	0	0	0	0	0	0	0	0	0	0	0	0	0	0	0	0	0	0	0	0	0	0	0	0	0	0	0	0	0	0	0	0	0	0	2973	2973	2997	3021	2997	2950	2927	2904	2860	2860	2817	2817
146	146	0	0	0	0	0	0	0	0	0	0	0	0	0	0	0	0	0	0	0	0	0	0	0	0	0	0	0	0	0	0	0	0	0	0	0	0	0	0	148	148	148	148	148	148	148	147	147	146	146	145	145	145	144	144	144	144	144	143	143	143	143	143	143	143	143	143	143	143	143	143	0	0	0	0	0	0	0	0	0	0	0	0	0	120	120	120	120	121	121	121	121	121	121	121	121	121	121	121	121	122	122	122	123	123	123	123	123	123	123	123	123	123	123	123	123	123	123	123	123	123	123	123	124	0	0	0	0	0	0	0	0	0	0	0	0	0	0	0	0	0	0	0	0	0	0	0	0	0	0	0	0	0	0	0	0	0	0	0	0	0	0	0	0	0	0	0	0	0	0	0	0	0	0	0	0	0	0	0	0	0	0	0	0	0	0	0	0	0	0	0	0	0	0	0	0	0	0	0	0	0	0	0	0	0	0	0	0	0	0	0	0	0	0	0	0	0	0	0	0	0	0	0	0	0	0	0	0	0	0	0	0	0	0	0	0	0	0	0	0	0	0	0	0	0	0	234	234	234	234	235	235	235	235	235	235	235	235	235	235	0	0	0	0	0	0	0	0	0	0	0	0	2036	1993	1961	1941	1911	1882	1845	1827	1827	1810	1810	1810	1810	1818	1827	1845	1854	1864	1873	1882	1892	1902	1902	1911	1921	1921	1931	1941	1951	1961	1961	1961	1972	1972	1972	1961	1961	1961	1951	1951	1941	1941	1941	1941	1941	1941	1941	1941	1941	1941	0	0	0	0	0	0	0	0	0	0	2838	2838	2860	2882	2904	2927	2973	2997	3021	3046	3070	0	0	0	0	0	0	0	0	0	0	0	0	0	0	0	0	0	0	0	0	0	0	0	0	0	0	0	0	0	0	0	0	0	0	0	0	0	0	0	0	0	0	0	0	0	0	0	0	0	0	0	0	0	0	0	0	0	0	0	0	0	0	1703	1703	1711	1718	1718	1718	1726	1742	1767	1784	1792	1810	1818	1836	1854	1873	1902	1921	1951	1982	2003	2025	2047	2058	2070	2058	2047	2047	2047	2036	2025	2014	2014	2025	2025	2025	2036	2036	2036	2036	2036	2047	2047	2036	2036	2036	2036	2036	2025	2003	1972	1961	1941	1902	1854	1854	1854	0	0	0	1517	1510	1510	1517	1517	1523	1529	1554	1594	1650	1742	1845	1993	2104	2230	2284	2356	2432	2514	2531	2583	2638	2657	2657	0	2734	2734	2775	2796	2817	2817	2817	2796	2754	2695	2638	2583	2583	0	0	0	0	0	0	0	0	0	0	0	0	0	0	0	0	0	0	0	0	0	0	0	0	0	0	0	2583	2583	2566	2566	2566	2548	2514	2497	2464	2432	2401	2371	2356	2327	2312	2298	2284	2284	2270	2270	2270	2270	2270	2284	2284	2298	2312	2327	2341	2371	2401	2432	2464	2497	2514	2514	2481	2464	2432	2417	2386	2386	2386	2371	2356	2356	2341	2341	2327	2312	2312	2298	2298	2284	2284	2270	2270	2270	2270	2257	2243	2243	2230	2230	2230	2230	2230	2230	2230	2243	2243	2243	2243	2243	2243	2243	2243	2243	2230	2230	2230	2243	2243	2257	2270	2284	2312	2341	2371	2401	2432	2448	2481	2514	2531	2548	2566	2583	2583	2548	2514	2464	2417	2371	2327	2284	2243	2178	2141	2081	2036	2025	1972	1972	1972	1972	1982	1993	2003	2025	2058	2093	2141	2153	2153	2153	2153	2165	2178	2178	2191	2191	2191	0	0	0	2284	2257	2257	2270	2284	2298	2312	2327	2356	2371	2401	2432	2464	2497	2514	2514	2531	2548	2548	2548	2531	2514	2514	2497	2497	2497	2514	2514	2514	2497	2464	2448	2401	2356	2312	2270	2204	2165	2141	2116	2104	2081	2047	2025	2014	2003	2003	2003	2003	2025	2036	2058	2093	2116	2141	2153	2141	2116	2081	2070	2047	2025	2014	2003	1993	1993	1993	1993	1993	2014	1993	1972	1972	1982	1982	1982	1982	1982	2003	2070	2165	0	0	0	0	0	0	0	0	0	0	0	0	0	0	0	0	0	0	0	0	0	0	0	0	0	0	0	0	0	0	0	0	0	0	0	0	0	0	0	0	0	0	0	0	0	0	0	0	0	2882	2838	2838	0
147	0	0	0	0	0	0	0	0	0	0	0	0	0	0	0	0	0	0	0	0	0	0	0	0	0	0	0	0	0	0	0	0	0	0	0	0	0	0	0	149	149	149	149	149	148	148	147	147	146	146	145	145	145	144	144	144	144	144	143	143	143	143	143	143	143	143	143	143	143	143	143	143	143	143	0	0	0	0	0	0	0	0	0	0	0	120	120	120	121	121	121	121	121	121	121	121	121	121	121	121	122	122	122	123	123	123	123	123	123	123	123	123	123	123	123	123	123	123	123	123	123	123	124	0	0	0	0	0	0	0	0	0	0	0	0	0	0	0	0	0	0	0	0	0	0	0	0	0	0	0	0	0	0	0	0	0	0	0	0	0	0	0	0	0	0	0	0	0	0	0	0	0	0	0	0	0	0	0	0	0	0	0	0	0	0	0	0	0	0	0	0	0	0	0	0	0	0	0	0	0	0	0	0	0	0	0	0	0	0	0	0	167	167	167	167	167	167	166	166	0	0	0	0	0	0	0	0	0	0	0	0	0	0	0	0	0	0	0	0	0	0	0	0	0	0	0	234	234	234	234	235	235	235	235	235	235	235	235	235	235	0	0	0	0	0	0	0	0	0	0	0	0	0	1931	1911	1892	1873	1845	1827	1810	1810	1810	1810	1818	1818	1827	1845	1854	1873	1882	1892	1902	1911	1921	1921	1921	1931	1931	1941	1951	1961	1961	1961	1961	1961	1961	1951	1951	1951	1941	1941	1931	1931	1921	1921	1931	1931	1941	1941	1951	1961	1961	0	0	0	0	0	0	0	2754	2754	2775	2796	2817	2838	2860	2882	2927	2973	2997	3021	3046	3070	3122	0	0	0	0	0	0	0	0	0	0	0	0	0	0	0	0	0	0	0	0	0	0	0	0	0	0	0	0	0	0	0	0	0	0	0	0	0	0	0	0	0	0	0	0	0	0	0	0	0	0	0	0	0	0	0	0	0	0	0	0	1680	1680	1687	1687	1687	1695	1703	1711	1726	1750	1767	1784	1792	1810	1827	1845	1873	1892	1921	1951	1982	2003	2025	2047	2070	2070	2070	2058	2058	2058	2058	2036	2025	2025	2025	2036	2036	2036	2047	2047	2047	2047	2047	2058	2058	2047	2047	2047	2047	2036	2014	1993	1982	1961	1921	1892	1854	1854	0	0	0	1504	1498	1498	1510	1510	1523	1535	1567	1680	1680	1742	1864	1993	2081	2230	2243	2312	2401	2514	0	2638	2638	2676	2734	2775	2796	2796	2817	2860	2860	2882	2882	2838	2796	2754	2754	0	0	0	0	0	0	0	0	0	0	0	0	0	0	0	0	0	0	0	0	0	0	0	0	0	0	0	0	0	0	0	2566	2566	2531	2531	2497	2464	2448	2401	2386	2356	2341	2312	2312	2298	2284	2284	2284	2270	2270	2284	2284	2284	2284	2298	2312	2327	2341	2356	2386	2417	2448	2481	2514	2481	2464	2432	2417	2401	2386	2371	2356	2356	2341	2327	2327	2327	2312	2298	2298	2284	2284	2270	2257	2257	2257	2257	2257	2243	2243	2230	2230	2230	2230	2230	2230	2230	2230	2230	2230	2243	2243	2243	2243	2243	2230	2230	2230	2230	2230	2243	2257	2257	2270	2298	2312	2356	2386	2401	2448	0	0	0	0	0	0	0	0	2548	2514	2481	2432	2417	2371	2356	2298	2257	2230	2191	2141	2104	2070	2058	2047	2047	2047	2058	2070	2081	2093	2116	2153	2153	2165	2165	2165	2165	2178	2178	2191	2191	2191	0	0	0	2284	2284	2298	2312	2327	2356	2356	2386	2417	2448	2481	2531	2583	2620	2657	2695	2695	2734	2734	2714	2695	2657	2657	2638	2620	2601	2566	2566	2566	2548	2514	2464	2432	2386	2341	2284	2243	2178	2153	2128	2104	2081	2058	2025	2014	2003	2003	2003	2003	2025	2036	2058	2093	2116	0	0	2153	2116	2104	2081	2070	2047	2036	2025	2025	2025	2025	2025	2025	2014	1993	1982	1982	1982	1982	1982	1982	1982	2003	2036	2116	0	0	0	0	0	0	0	0	0	0	0	0	0	0	0	0	0	0	0	0	0	0	0	0	0	0	0	0	0	0	0	0	0	0	0	0	0	0	0	0	0	0	0	0	0	0	0	0	0	2817	2796	2796	0
0	0	0	0	0	0	0	0	0	0	0	0	0	150	150	150	150	0	0	150	150	150	0	0	0	0	0	0	0	0	0	0	0	0	151	151	151	150	150	150	150	149	149	149	149	148	148	147	147	147	146	145	145	145	144	144	144	144	143	143	143	143	143	143	143	143	143	143	143	143	143	143	143	143	143	0	0	0	0	0	0	0	0	0	0	0	0	0	121	121	121	121	121	121	121	121	121	121	121	121	122	122	122	122	122	123	123	123	123	123	123	123	123	123	123	123	123	123	123	123	123	123	123	0	0	0	0	0	0	0	0	0	0	0	0	0	0	0	0	0	0	0	0	0	0	0	0	0	0	0	0	0	0	0	0	0	0	0	0	0	0	0	0	0	0	0	0	0	0	0	0	0	0	0	0	0	0	170	170	0	0	0	0	0	0	0	0	0	0	0	0	0	0	0	0	0	0	0	0	0	0	0	0	0	0	0	0	0	0	0	0	0	167	167	167	167	167	167	166	166	0	0	0	0	0	0	0	0	0	0	0	0	0	0	0	0	0	0	0	0	0	0	0	0	0	0	0	234	234	234	234	234	235	235	235	235	235	235	235	235	235	0	0	0	0	0	0	0	0	0	0	0	0	0	1931	1911	1801	1775	1775	1759	1759	1759	1759	1784	1801	1818	1827	1845	1864	1882	1892	1911	1921	1931	1931	1941	1941	1941	1951	1951	1961	1961	1961	1961	1961	1951	1951	1941	1941	1941	1931	1921	1921	1921	1921	1921	1921	1931	1941	1941	1951	1961	0	0	0	0	0	0	0	2734	2734	2734	2754	2775	2775	2796	2838	2860	2904	2950	2997	3021	3046	3070	3122	0	0	0	0	0	0	0	0	0	0	0	0	0	0	0	0	0	0	0	0	0	0	0	0	0	0	0	0	0	0	0	0	0	0	0	0	0	0	0	0	0	0	0	0	0	0	0	0	0	0	0	0	0	0	0	0	0	0	0	1658	1658	1658	1665	1672	1672	1672	1680	1695	1711	1726	1742	1759	1775	1792	1810	1827	1854	1882	1911	1941	1982	2014	2047	2070	2093	2104	2104	2093	2093	2104	2081	2058	2047	2047	2047	2047	2047	2058	2058	2058	2058	2058	2070	2070	2070	2070	2070	2070	2058	2047	2025	2003	1993	1982	1961	1931	1931	0	0	0	0	1475	1475	1481	1498	1504	1523	1554	1601	0	0	1864	1864	1982	2058	2204	2204	2284	2371	0	0	2638	2638	2676	2734	2775	2882	2882	2927	2950	2973	2997	3021	2997	2950	2950	3175	3175	0	0	0	0	0	0	0	0	0	0	0	0	0	0	0	0	0	0	0	0	0	0	0	0	0	0	0	0	0	0	0	0	2531	2497	2481	2448	2432	2386	2371	2341	2327	2312	2298	2284	2284	2270	2270	2270	2270	2270	2270	2284	2284	2284	2298	2312	2312	2341	2371	2386	2417	2448	2481	2464	2464	2432	2401	2386	2371	2356	2341	2341	2327	2312	2298	2298	2284	2284	2270	2257	2257	2257	2243	2243	2243	2243	2243	2243	2230	2230	2230	2230	2230	2230	2230	2230	2230	2230	2230	2230	2230	2243	2243	2243	2230	2230	2230	2243	2243	2243	2257	2270	2284	2298	2327	2371	2401	2432	2448	2497	0	0	0	0	0	0	0	0	2531	2497	2481	2481	2417	2401	2371	2341	2312	2270	2243	2204	2165	2141	2116	2116	2116	2116	2116	2116	2128	2141	2165	2165	2165	2178	2178	2178	2178	2191	2191	2204	2217	2217	2230	2243	2257	2284	2312	2327	2341	2386	2401	2448	2514	2566	2620	2676	2734	2796	2838	2882	2882	2927	2950	2950	2927	2904	2882	2882	2817	2796	2754	2714	2676	2657	2601	2531	2497	2448	2386	2341	2284	2230	2178	2165	2153	2153	2116	2104	2070	2070	2047	2036	2036	2081	0	0	0	0	0	0	0	0	0	0	0	0	0	0	0	0	2116	2081	2058	2025	2003	1993	1993	1982	1982	1993	1993	1993	2003	2025	2058	2104	2141	0	0	0	0	0	0	0	0	0	0	0	0	0	0	0	0	0	0	0	0	0	0	0	0	0	0	0	0	0	0	0	0	0	0	0	0	0	0	0	0	0	0	0	0	0	0	0	2817	2796	2796	0
0	0	0	0	0	0	0	0	0	0	0	0	150	150	150	150	150	150	150	150	150	150	0	150	150	150	150	0	0	150	150	151	151	151	151	151	151	150	150	150	150	150	150	149	149	148	148	148	147	147	146	146	145	144	144	144	144	143	143	143	143	143	143	143	143	143	143	143	143	143	143	143	143	143	143	143	143	0	0	0	0	0	0	0	0	0	0	0	0	0	121	121	121	121	121	121	121	121	121	122	122	122	122	122	122	123	123	123	123	123	123	123	123	123	123	123	123	123	123	123	123	123	0	0	0	0	0	0	0	0	0	0	0	0	0	0	0	0	0	0	0	0	0	0	0	0	0	0	0	0	0	0	0	0	0	0	0	0	0	0	0	0	0	0	0	0	0	0	0	0	0	0	0	0	0	0	170	170	170	170	170	170	0	0	0	0	0	0	0	0	0	0	0	0	0	0	0	0	0	0	0	0	0	0	0	0	0	0	0	0	0	0	0	0	0	167	167	167	167	167	0	0	0	0	0	0	0	0	0	0	0	0	0	0	0	0	0	0	0	0	0	0	0	0	0	0	0	0	234	234	234	234	235	235	235	235	235	234	234	234	0	0	0	0	0	0	0	0	0	0	0	0	0	0	0	0	1801	1775	1718	1718	1718	1718	1734	1759	1784	1810	1827	1854	1873	1892	1902	1911	1921	1931	1941	1951	1951	1951	1951	1951	1951	1951	1951	1951	1951	1941	1941	1941	1941	1931	1931	1921	1921	1921	1911	1911	1921	1921	0	0	0	0	0	0	0	0	0	0	0	2714	2714	2734	2754	2754	2754	2775	2796	2838	2860	2904	2950	2973	3021	3046	3096	0	0	0	0	0	0	0	0	0	0	0	0	0	0	0	0	0	0	0	0	0	0	0	0	0	0	0	0	0	0	0	0	0	0	0	0	0	0	0	0	0	0	0	0	0	0	0	0	0	0	0	0	0	0	0	0	0	0	0	1658	1658	1658	1665	1665	1665	1665	1672	1680	1687	1703	1718	1734	1742	1759	1775	1801	1827	1854	1892	1931	1982	2014	2058	2093	2116	2128	2128	2116	2116	2116	2116	2081	2058	2058	2047	2047	2058	2070	2070	2070	2070	2070	2081	2081	2081	2081	2070	2070	2070	2058	2036	2014	2014	2003	1993	1972	1972	0	1742	1615	1615	1475	1475	1481	1498	1504	1529	1554	1601	1759	1759	1818	1882	1972	2025	2153	2153	2230	2371	0	0	0	0	0	0	2927	2927	2973	3021	3070	3096	3122	3202	3202	3175	3175	3175	3175	0	0	0	0	0	0	0	0	0	0	0	0	0	0	0	0	0	0	0	0	0	0	0	0	0	0	0	0	0	0	0	0	0	2481	2448	2432	2401	2386	2341	2327	2312	2298	2284	2270	2270	2270	2270	2257	2257	2257	2270	2270	2270	2270	2270	2284	2284	2298	2327	2356	2371	2401	2432	2448	2432	2401	2401	2371	2356	2341	2327	2312	2312	2298	2284	2284	2270	2270	2257	2243	2243	2243	2243	2230	2230	2230	2230	2230	2230	2230	2230	2230	2217	2217	2217	2217	2230	2230	2230	2230	2230	2230	2230	2230	2230	2230	2243	2243	2243	2257	2257	2270	2284	2298	2327	2371	2401	2417	2448	2481	2497	2531	0	0	0	0	2566	2548	2531	2514	2497	2481	2464	2432	2417	2386	2371	2341	2327	2312	2257	2230	2204	2191	2178	2178	2165	2165	2165	2165	2178	2178	2191	2191	2191	2191	2191	2204	2204	2204	2217	2217	2230	2243	2257	2284	2312	2341	2371	2432	2464	2531	2601	2676	2754	2817	2882	2973	3046	3122	3122	3148	3175	3202	3148	3148	3096	3070	3021	2950	2904	2817	2775	2714	2657	2583	2531	2514	2448	2401	2356	2356	2284	2284	2284	2284	2257	2217	2191	2165	2165	2104	2081	2081	0	0	0	0	0	0	0	0	0	0	0	0	0	2371	2341	2312	2116	2081	2058	2025	2003	1993	1993	2003	2003	2003	2003	2003	2003	2025	2058	2104	2141	0	0	0	0	0	0	0	0	0	0	0	0	0	0	0	0	0	0	0	0	0	0	0	0	0	0	0	0	0	0	0	0	0	0	0	0	0	0	0	0	0	0	0	0	0	0	0	0	0	0	0
