0	0	0	0	0	0	0	0	0	0	0	0	0	0	0	0	0	0	0	0	0	0	0	0	0	0	0	0	0	0	0	0	0	0	0	0	0	0	0	0	0	0	0	0	0	0	0	0	0	0	0	0	0	0	0	0	0	0	0	0	0	0	0	0	0	0	0	0	0	0	0	0	0	0	0	0	0	0	860	860	860	861	861	861	860	860	858	853	853	0	0	0	0	0	0	0	0	0	0	0	0	0	0	0	0	0	0	0	0	0	0	0	0	0	0	0	0	0	0	0	0	0	0	0	0	0	0	0	0	0	0	0	0	0	0	0	0	0	0	0	0	0	0	0	0	0	0	0	0	0	0	0	0	0	0	0	0	0	0	0	0	0	0	0	0	0	0	0	0	0	0	0	0	0	0	0	0	0	0	0	0	0	0	0	0	0	0	0	0	0	0	0	0	0	0	0	0	0	0	0	0	0	0	0	0	0	0	0	0	0	0	0	0	0	0	0	0	0	0	0	0	0	0	0	0	0	0	0	0	0	0	0	0	0	0	0	0	0	0	0	0	0	0	0	0	0	0	0	0	0	0	0	0	0	0	0	0	0	0	0	0	0	0	0	0	0	0	0	0	0	0	332	332	332	333	334	334	334	334	334	335	335	336	336	336	336	336	337	337	337	337	337	337	337	337	337	0	0	0	0	0	0	0	0	0	0	0	0	0	0	0	0	0	0	0	0	0	0	0	0	0	0	0	0	0	0	0	0	0	0	0	0	0	0	0	0	0	0	0	0	0	0	0	0	0	0	0	0	0	0	0	0	0	0	0	0	0	0	0	0	0	0	0	0	0	0	0	0	0	0	0	0	0	0	0	0	0	0	0	0	0	0	0	0	0	0	0	0	0	0	0	0	0	0	0	0	0	0	0	0	0	0	0	0	0	0	0	0	0	0	0	0	0	0	0	0	0	0	0	0	0	0	0	0	0	0	0	0	0	0	0	0	0	0	0	2602	2602	2587	2587	2587	2581	2571	2571	2571	2571	2571	2571	2581	2581	2581	2597	2607	2607	2618	2633	2633	2644	2671	2671	2715	2715	2761	2803	2803	2821	2821	2833	2845	2845	2858	2864	2864	2876	2876	2876	2876	2876	2870	2864	2858	2858	2851	2851	2851	2845	2839	2839	2839	2839	2839	2833	2833	2833	2833	2833	2833	2833	2833	2833	2833	2833	2833	2833	2833	2833	2833	2833	2839	2839	2839	2839	2839	2839	2839	2839	2839	2839	2845	2845	2845	2845	2845	2845	2845	2845	2845	2845	2845	2845	2845	2845	2845	2851	2851	2851	2851	2851	2851	2858	2858	2864	2864	2864	2870	2870	2870	2870	2864	2864	2864	2864	2864	2858	2851	2851	2851	2845	2845	2839	2839	2839	2833	2827	2821	2821	2821	2815	2815	2809	2809	2809	2797	2797	2797	2791	2785	2785	2779	2773	2761	2761	2761	2755	2755	2755	2744	2744	2744	2744	2755	2755	2755	2755	2755	2755	2755	2755	2755	2755	2755	2761	2761	2761	2761	2773	2773	2779	2779	2779	2785	2785	2785	2785	2791	2791	2791	2791	2791	2791	2791	2791	2791	2791	2791	2791	2791	2791	2785	2785	2785	2785	2779	2779	2779	2773	2773	2761	2755	2755	2755	2744	2738	2738	2732	2721	2721	2715	2715	2715	2704	2704	2704	2704	2704	2704	2704	2704	2704	2704	2699	2699	2699	2687	2687	2687	2682	2671	2671	2666	2660	2660	2655	2655	2649	2649	2649	2644	2644	2639	2639	2639	2639	2633	2633	2633	2633	2633	2633	2633	2633	2633	2633	2633	2633	2639	2639	2639	2639	2633	2633	2633	2633	2633	2633	2633	2633	2628	2628	2628	2628	2628	2628	2623	2618	2618	2612	2612	2612	2607	2602	2602	2602	2597	2587	2587	2587	2581	2581	2571	2561	2561	2551	2546	2536	2536	2532	2517	2517	2512	2512	2512	2507	2502	2502	2502	2498	2498	2498	2498	2498	2498	2502	2502	2502	2502	2507	2507	2507	2507	2512	2507	2507	2507	2507	2502	2502	2502	2498	2498	2493	2493	2493	2488	2488	2488	2488	2488	2488	2488	2483	2479	2479	2479	2479	2479	2474	2474	2474	2474	2474	2474	2469	2469	2469	2469	2469	2469	2469	2465	2465	2460	2460	2460	2460	2456	2456	2456	2451	2451	2451	2446	2446	2446	2442	2433	2433	2428	2419	2419	2410	2401
0	0	0	0	0	0	0	0	0	0	0	0	0	0	0	0	0	0	0	0	0	0	0	0	0	0	0	0	0	0	0	0	0	0	0	0	0	0	0	0	0	0	0	0	0	0	0	0	0	0	0	0	0	0	0	0	0	0	0	0	0	0	0	0	0	0	0	0	0	0	0	0	0	0	0	0	0	861	860	860	860	861	861	861	860	860	858	853	853	0	0	0	0	0	0	0	0	0	0	0	0	0	0	0	0	0	0	0	0	0	0	0	0	0	0	0	0	0	0	0	0	0	0	0	0	0	0	0	0	0	0	0	0	0	0	0	0	0	0	0	0	0	0	0	0	0	0	0	0	0	0	0	0	0	0	0	0	0	0	0	0	0	0	0	0	0	0	0	0	0	0	0	0	0	0	0	0	0	0	0	0	0	0	0	0	0	0	0	0	0	0	0	0	0	0	0	0	0	0	0	0	0	0	0	0	0	0	0	0	0	0	0	0	0	0	0	0	0	0	0	0	0	0	0	0	0	0	0	0	0	0	0	0	0	0	0	0	0	0	0	0	0	0	0	0	0	0	0	0	0	0	0	0	0	0	0	0	0	0	0	0	0	0	0	329	329	329	330	331	331	0	0	0	333	333	334	334	334	334	334	335	335	336	336	336	336	336	337	337	337	337	337	337	337	337	337	337	0	0	0	0	0	0	0	0	0	0	0	0	0	0	0	0	0	0	0	0	0	0	0	0	0	0	0	0	0	0	0	0	0	0	0	0	0	0	0	0	0	0	0	0	0	0	0	0	0	0	0	0	0	0	0	0	0	0	0	0	0	0	0	0	0	0	0	0	0	0	0	0	0	0	0	0	0	0	0	0	0	0	0	0	0	0	0	0	0	0	0	0	0	0	0	0	0	0	0	0	0	0	0	0	0	0	0	0	0	0	0	0	0	0	0	0	0	0	0	0	0	0	0	0	0	0	0	0	0	0	0	0	0	0	0	0	0	0	2602	2602	2587	2587	2587	2581	2571	2571	2571	2571	2571	2571	2581	2581	2581	2597	2607	2607	2623	2639	2639	2655	2682	2682	2738	2738	2785	2815	2815	2833	2833	2839	2864	2864	2876	2896	2896	2908	2908	2908	2908	2908	2896	2889	2889	2876	2864	2858	2858	2851	2845	2845	2839	2839	2839	2839	2839	2839	2839	2839	2839	2839	2839	2839	2839	2839	2839	2839	2839	2839	2839	2839	2839	2839	2839	2839	2845	2845	2845	2845	2845	2845	2851	2851	2851	2851	2851	2851	2851	2851	2851	2851	2851	2858	2858	2858	2858	2858	2858	2858	2858	2858	2858	2864	2864	2864	2864	2864	2870	2864	2864	2864	2864	2864	2864	2858	2858	2858	2851	2851	2851	2845	2845	2839	2839	2839	2833	2827	2821	2821	2821	2815	2815	2809	2809	2809	2797	2797	2797	2791	2785	2785	2779	2773	2761	2761	2761	2755	2755	2755	2744	2744	2744	2744	2755	2755	2755	2755	2755	2755	2755	2755	2755	2755	2755	2761	2761	2761	2761	2773	2773	2779	2779	2779	2785	2785	2785	2785	2791	2791	2791	2791	2791	2791	2791	2791	2791	2791	2791	2791	2791	2791	2785	2785	2785	2785	2779	2779	2779	2773	2773	2761	2755	2755	2755	2755	2744	2744	2738	2738	2738	2732	2721	2721	2715	2715	2715	2715	2715	2715	2704	2704	2704	2704	2699	2699	2699	2687	2687	2687	2682	2671	2671	2666	2660	2660	2655	2655	2649	2649	2649	2644	2644	2639	2639	2639	2639	2639	2639	2639	2639	2639	2639	2639	2639	2639	2639	2639	2639	2639	2639	2639	2639	2639	2639	2639	2639	2639	2633	2633	2633	2633	2628	2628	2628	2628	2628	2623	2623	2623	2618	2612	2612	2612	2607	2607	2607	2602	2597	2597	2587	2587	2587	2581	2571	2571	2566	2551	2551	2546	2532	2532	2532	2517	2512	2512	2512	2507	2507	2507	2507	2507	2502	2502	2502	2502	2502	2507	2507	2507	2512	2512	2512	2512	2512	2512	2512	2512	2512	2507	2507	2502	2502	2502	2498	2493	2493	2493	2488	2488	2488	2488	2488	2488	2488	2488	2483	2479	2479	2479	2479	2474	2474	2474	2469	2469	2469	2469	2469	2469	2469	2469	2465	2465	2465	2465	2465	2465	2460	2460	2460	2460	2456	2451	2451	2451	2446	2446	2446	2442	2442	2428	2419	2419	2410	2401
0	0	0	0	0	0	0	0	0	0	0	0	0	0	0	0	0	0	0	0	0	0	0	0	0	0	0	0	0	0	0	0	0	0	0	0	0	0	0	0	0	0	0	0	0	0	0	0	0	0	0	0	0	0	0	0	0	0	0	0	0	0	0	0	0	0	0	0	0	0	0	0	0	0	0	0	0	861	861	861	861	861	861	861	861	0	859	855	855	0	0	0	0	0	0	0	0	0	0	0	0	0	0	0	0	0	0	0	0	0	0	0	0	0	0	0	0	0	0	0	0	0	0	0	0	0	0	0	0	0	0	0	0	0	0	0	0	0	0	0	0	0	0	0	0	0	0	0	0	0	0	0	0	0	0	0	0	0	0	0	0	0	0	0	0	0	0	0	0	0	0	0	0	0	0	0	0	0	0	0	0	0	0	0	0	0	0	0	0	0	0	0	0	0	0	0	0	0	0	0	0	0	0	0	0	0	0	0	0	0	0	0	0	0	0	0	0	0	0	0	0	0	0	0	0	0	0	0	0	0	0	0	0	0	0	0	0	0	0	0	0	0	0	0	0	0	0	0	0	0	0	0	0	0	0	0	0	0	0	0	0	0	0	0	329	329	329	330	331	331	0	0	0	0	0	0	334	334	334	334	335	335	336	336	336	336	336	337	337	337	337	337	337	337	337	337	337	0	0	0	0	0	0	0	0	0	0	0	0	0	0	0	0	0	0	0	0	0	0	0	0	0	0	0	0	0	0	0	0	0	0	0	0	0	0	0	0	0	0	0	0	0	0	0	0	0	0	0	0	0	0	0	0	0	0	0	0	0	0	0	0	0	0	0	0	0	0	0	0	0	0	0	0	0	0	0	0	0	0	0	0	0	0	0	0	0	0	0	0	0	0	0	0	0	0	0	0	0	0	0	0	0	0	0	0	0	0	0	0	0	0	0	0	0	0	0	0	0	0	0	0	0	0	0	0	0	0	0	0	0	0	0	0	0	0	2602	2602	2581	2566	2566	2566	2566	2566	2566	2566	2566	2566	2581	2581	2581	2597	2607	2607	2623	2639	2639	2655	2682	2682	2738	2738	2785	2809	2821	2839	2839	2858	2870	2870	2908	2908	2908	2915	2928	2928	2915	2915	2915	2908	2908	2896	2876	2876	2870	2864	2851	2851	2851	2845	2845	2845	2839	2839	2839	2839	2845	2845	2845	2845	2845	2845	2845	2845	2845	2845	2845	2845	2845	2845	2845	2845	2845	2845	2845	2845	2845	2851	2851	2851	2851	2851	2851	2851	2851	2851	2858	2858	2858	2858	2858	2858	2858	2858	2858	2858	2864	2864	2864	2864	2864	2864	2864	2864	2870	2864	2864	2864	2858	2858	2858	2851	2851	2851	2851	2851	2851	2845	2845	2845	2839	2839	2833	2833	2833	2833	2827	2821	2821	2815	2815	2815	2809	2809	2809	2809	2809	2809	2803	2791	2791	2785	2785	2779	2779	2779	2779	2779	2779	2779	2779	2779	2779	2785	2785	2785	2785	2785	2791	2791	2791	2797	2797	2797	2803	2803	2803	2803	2803	2803	2803	2803	2803	2803	2803	2797	2797	2797	2797	2797	2791	2791	2791	2791	2791	2791	2791	2791	2791	2791	2791	2791	2785	2785	2785	2779	2779	2779	2773	2773	2761	2755	2744	2744	2738	2738	2738	2732	2721	2721	2715	2715	2715	2715	2715	2715	2704	2704	2704	2704	2699	2699	2699	2687	2682	2682	2676	2671	2671	2666	2660	2660	2655	2655	2649	2649	2649	2644	2644	2639	2639	2639	2639	2639	2639	2639	2639	2639	2639	2639	2639	2639	2639	2639	2639	2639	2639	2639	2639	2639	2639	2639	2639	2639	2633	2633	2633	2633	2628	2628	2628	2628	2628	2623	2623	2623	2618	2612	2612	2612	2607	2607	2607	2602	2602	2602	2602	2597	2597	2587	2581	2581	2571	2566	2566	2551	2546	2536	2536	2532	2522	2522	2522	2517	2517	2512	2512	2512	2512	2512	2512	2512	2512	2517	2512	2512	2517	2517	2517	2517	2517	2517	2517	2517	2512	2507	2507	2507	2502	2502	2498	2493	2493	2493	2488	2488	2488	2488	2488	2488	2488	2488	2483	2483	2479	2479	2479	2479	2479	2474	2469	2469	2469	2469	2469	2469	2469	2469	2465	2465	2465	2465	2465	2465	2460	2460	2460	2460	2456	2451	2451	2451	2446	2446	2442	2433	2433	2428	2419	2419	2410	2410
0	0	0	0	0	0	0	0	0	0	0	0	0	0	0	0	0	0	0	0	0	0	0	0	0	0	0	0	0	0	0	0	0	0	0	0	0	0	0	0	0	0	0	0	0	0	0	0	0	0	0	0	0	0	0	0	0	0	0	0	0	0	0	0	0	0	0	0	0	0	0	0	0	0	0	0	0	861	861	861	861	861	0	0	0	0	0	0	0	0	0	0	0	0	0	0	0	0	0	0	0	0	0	0	0	0	0	0	0	0	0	0	0	0	0	0	0	0	0	0	0	0	0	0	0	0	0	0	0	0	0	0	0	0	0	0	0	0	0	0	0	0	0	0	0	0	0	0	0	0	0	0	0	0	0	0	0	0	0	0	0	0	0	0	0	0	0	0	0	0	0	0	0	0	0	0	0	0	0	0	0	0	0	0	0	0	0	0	0	0	0	0	0	0	0	0	0	0	0	0	0	0	0	0	0	0	0	0	0	0	0	0	0	0	0	0	0	0	0	0	0	0	0	0	0	0	0	0	0	0	0	0	0	0	0	0	0	0	0	0	0	0	0	0	0	0	0	0	0	0	0	0	0	0	0	0	0	0	0	0	0	0	0	0	328	328	329	329	330	330	331	331	0	0	333	333	333	334	334	334	334	334	335	336	336	336	336	336	337	337	337	337	337	337	337	337	337	0	0	0	0	0	0	0	0	0	0	0	0	0	0	0	0	0	0	0	0	0	0	0	0	0	0	0	0	0	0	0	0	0	0	0	0	0	0	0	0	0	0	0	0	0	0	0	0	0	0	0	0	0	0	0	0	0	0	0	0	0	0	0	0	0	0	0	0	0	0	0	0	0	0	0	0	0	0	0	0	0	0	0	0	0	0	0	0	0	0	0	0	0	0	0	0	0	0	0	0	0	0	0	0	0	0	0	0	0	0	0	0	0	0	0	0	0	0	0	0	0	0	0	0	0	0	0	0	0	0	0	0	0	0	0	0	0	0	0	0	2566	2566	2566	2561	2561	2561	2561	2566	2566	2566	2581	2587	2587	2602	2618	2618	2633	2649	2649	2666	2699	2715	2761	2761	2809	2809	2821	2839	2839	2858	2870	2870	2908	2908	2908	2915	2928	2928	2915	2915	2915	2908	2908	2896	2876	2876	2870	2864	2851	2851	2851	2845	2845	2845	2839	2839	2839	2839	2845	2845	2845	2845	2845	2845	2845	2845	2845	2845	2845	2845	2845	2845	2845	2845	2845	2845	2845	2845	2845	2845	2851	2851	2851	2851	2851	2851	2851	2851	2858	2858	2858	2858	2858	2858	2858	2858	2858	2858	2864	2864	2864	2864	2864	2864	2864	2864	2864	2864	2864	2864	2858	2858	2858	2851	2851	2851	2851	2851	2851	2851	2851	2851	2845	2845	2839	2839	2839	2839	2839	2833	2833	2833	2827	2827	2821	2821	2821	2821	2821	2821	2815	2815	2815	2809	2809	2809	2803	2803	2803	2797	2797	2803	2803	2803	2803	2809	2809	2809	2809	2809	2809	2809	2809	2809	2809	2809	2809	2809	2809	2809	2809	2809	2809	2809	2809	2809	2809	2803	2797	2797	2797	2797	2797	2797	2797	2797	2797	2797	2797	2797	2797	2791	2791	2791	2791	2791	2785	2785	2785	2779	2779	2779	2773	2761	2755	2755	2744	2738	2738	2732	2732	2732	2721	2715	2715	2715	2715	2715	2704	2704	2699	2699	2699	2687	2687	2687	2682	2682	2676	2671	2671	2666	2666	2666	2655	2655	2649	2649	2649	2649	2649	2644	2644	2644	2639	2639	2639	2639	2644	2644	2644	2644	2644	2644	2644	2644	2644	2644	2644	2644	2644	2644	2639	2639	2639	2639	2639	2639	2639	2633	2633	2633	2633	2628	2628	2628	2623	2623	2623	2618	2618	2612	2612	2612	2612	2607	2602	2602	2602	2597	2597	2587	2581	2581	2571	2566	2566	2551	2546	2536	2536	2532	2522	2522	2522	2517	2517	2512	2512	2512	2512	2512	2512	2512	2512	2517	2512	2512	2517	2517	2517	2517	2517	2517	2517	2517	2512	2507	2507	2507	2502	2502	2498	2493	2493	2493	2488	2488	2488	2488	2488	2488	2488	2488	2483	2479	2479	2479	2479	2474	2474	2474	2469	2469	2469	2469	2469	2469	2465	2465	2465	2460	2460	2460	2460	2460	2460	2456	2456	2456	2456	2451	2451	2451	2446	2446	2442	2433	2433	2428	2419	2419	2415	2410
0	0	0	0	0	0	0	0	0	0	0	0	0	0	0	0	0	0	0	0	0	0	0	0	0	0	0	0	0	0	0	0	0	0	0	0	0	0	0	0	0	0	0	0	0	0	0	0	0	0	0	0	0	0	0	0	0	0	0	0	0	0	0	0	0	0	0	0	0	0	0	0	0	0	0	0	0	861	861	861	861	861	863	863	864	864	864	0	0	0	0	0	0	0	0	0	0	0	0	0	0	0	0	0	0	0	0	0	0	0	0	0	0	0	0	0	0	0	0	0	0	0	0	0	0	0	0	0	0	0	0	0	0	0	0	0	0	0	0	0	0	0	0	0	0	0	0	0	0	0	0	0	0	0	0	0	0	0	0	0	0	0	0	0	0	0	0	0	0	0	0	0	0	0	0	0	0	0	0	0	0	0	0	0	0	0	0	0	0	0	0	0	0	0	0	0	0	0	0	0	0	0	0	0	0	0	0	0	0	0	0	0	0	0	0	0	0	0	0	0	0	0	0	0	0	0	0	0	0	0	0	0	0	0	0	0	0	0	0	0	0	0	0	0	0	0	0	0	0	0	0	0	0	0	0	0	0	0	0	0	0	0	0	0	328	328	328	328	329	329	330	331	331	331	331	332	333	334	334	334	334	334	335	335	335	336	336	336	337	337	337	337	337	337	337	337	337	337	337	337	0	0	0	0	0	0	0	0	0	0	0	0	0	0	0	0	0	0	0	0	0	0	0	0	0	0	0	0	0	0	0	0	0	0	0	0	0	0	0	0	0	0	0	0	0	0	0	0	0	0	0	0	0	0	0	0	0	0	0	0	0	0	0	0	0	0	0	0	0	0	0	0	0	0	0	0	0	0	0	0	0	0	0	0	0	0	0	0	0	0	0	0	0	0	0	0	0	0	0	0	0	0	0	0	0	0	0	0	0	0	0	0	0	0	0	0	0	0	0	0	0	0	0	0	0	0	0	0	0	0	0	0	0	0	0	0	0	2566	2566	2566	2561	2561	2561	2561	2566	2571	2571	2597	2602	2602	2618	2628	2628	2644	2660	2660	2699	2699	2744	2785	2791	2815	2815	2833	2845	2845	2876	2896	2896	2915	2928	2928	2928	2928	2928	2928	2928	2928	2915	2915	2908	2908	2908	2889	2876	2864	2864	2858	2858	2858	2858	2858	2858	2858	2858	2858	2858	2864	2864	2864	2864	2864	2858	2858	2858	2851	2851	2851	2851	2845	2845	2845	2845	2845	2845	2845	2845	2845	2845	2851	2851	2851	2851	2858	2858	2858	2858	2858	2858	2858	2858	2864	2864	2864	2864	2864	2864	2864	2864	2864	2864	2864	2864	2864	2864	2864	2858	2858	2858	2851	2851	2851	2851	2851	2851	2851	2851	2851	2851	2845	2845	2839	2839	2839	2839	2839	2833	2833	2833	2827	2827	2821	2821	2821	2821	2821	2821	2815	2815	2815	2809	2809	2809	2803	2803	2803	2797	2797	2803	2803	2803	2803	2809	2809	2809	2809	2809	2809	2809	2809	2809	2809	2809	2809	2809	2809	2809	2809	2809	2809	2809	2809	2809	2809	2803	2797	2797	2797	2797	2797	2797	2797	2797	2797	2797	2791	2791	2791	2791	2791	2791	2791	2791	2791	2785	2785	2785	2779	2779	2773	2773	2773	2761	2755	2744	2744	2738	2732	2732	2721	2721	2721	2715	2715	2715	2704	2704	2699	2699	2699	2687	2687	2687	2682	2682	2676	2671	2671	2671	2666	2666	2660	2655	2655	2655	2655	2649	2649	2649	2649	2649	2649	2649	2649	2649	2649	2649	2649	2649	2649	2649	2649	2649	2649	2649	2649	2649	2649	2649	2649	2644	2644	2644	2644	2639	2639	2639	2633	2633	2633	2628	2628	2628	2628	2628	2623	2623	2623	2618	2618	2618	2618	2612	2612	2612	2612	2607	2607	2602	2597	2597	2587	2571	2571	2566	2561	2561	2551	2546	2536	2536	2532	2532	2532	2522	2522	2522	2522	2522	2522	2522	2522	2522	2522	2522	2522	2522	2522	2522	2522	2522	2517	2517	2512	2507	2507	2507	2502	2502	2498	2498	2498	2493	2493	2493	2488	2488	2488	2488	2483	2483	2483	2479	2479	2479	2479	2474	2474	2474	2469	2469	2469	2469	2469	2465	2460	2460	2460	2460	2460	2456	2456	2456	2456	2456	2456	2451	2451	2446	2446	2442	2442	2442	2433	2428	2428	2419	2415	2415	2410	2401
0	0	0	0	0	0	0	0	0	0	0	0	0	0	0	0	0	0	0	0	0	0	0	0	0	0	0	0	0	0	0	0	0	0	0	0	0	0	0	0	0	0	0	0	0	0	0	0	0	0	0	0	0	0	0	0	0	0	0	0	0	0	0	0	0	0	0	0	0	0	0	0	0	0	0	0	0	862	862	863	863	863	863	863	864	864	864	0	0	0	0	0	0	0	0	0	0	0	0	0	0	0	0	0	0	0	0	0	0	0	0	0	0	0	0	0	0	0	0	0	0	0	0	0	0	0	0	0	0	0	0	0	0	0	0	0	0	0	0	0	0	0	0	0	0	0	0	0	0	0	0	0	0	0	0	0	0	0	0	0	0	0	0	0	0	0	0	0	0	0	0	0	0	0	0	0	0	0	0	0	0	0	0	0	0	0	0	0	0	0	0	0	0	0	0	0	0	0	0	0	0	0	0	0	0	0	0	0	0	0	0	0	0	0	0	0	0	0	0	0	0	0	0	0	0	0	0	0	0	0	0	0	0	0	0	0	0	0	0	0	0	0	0	0	0	0	0	0	0	0	0	0	0	0	0	0	0	0	0	0	0	0	0	0	0	328	328	328	329	329	330	331	331	331	331	332	334	334	334	334	334	334	335	335	335	336	336	336	337	337	337	337	337	337	337	337	337	337	337	337	0	0	0	0	0	0	0	0	0	0	0	0	0	0	0	0	0	0	0	0	0	0	0	0	0	0	0	0	0	0	0	0	0	0	0	0	406	406	406	406	406	406	406	406	405	405	405	0	0	0	0	0	0	0	0	0	0	0	0	0	0	0	0	0	0	0	0	0	0	0	0	0	0	0	0	0	0	0	0	0	0	0	0	0	0	0	0	0	0	0	0	0	0	0	0	0	0	0	0	0	0	0	0	0	0	0	0	0	0	0	0	0	0	0	0	0	0	0	0	0	0	0	0	0	0	0	0	0	0	0	0	0	0	0	0	0	0	2566	2566	2566	2561	2561	2561	2561	2566	2571	2571	2597	2602	2602	2618	2628	2628	2660	2699	2699	2732	2732	2785	2785	2815	2827	2827	2845	2858	2858	2889	2896	2896	2928	2928	2928	2935	2935	2935	2941	2941	2941	2935	2935	2928	2928	2928	2915	2908	2908	2889	2876	2876	2889	2889	2876	2876	2876	2889	2889	2889	2889	2889	2876	2876	2876	2870	2864	2864	2864	2858	2858	2858	2851	2851	2851	2845	2845	2845	2845	2845	2845	2845	2851	2851	2851	2851	2858	2858	2858	2864	2864	2864	2864	2864	2870	2870	2870	2870	2870	2870	2864	2864	2864	2864	2864	2864	2864	2858	2858	2858	2858	2858	2851	2851	2851	2851	2851	2851	2851	2851	2851	2851	2851	2851	2845	2845	2851	2845	2845	2845	2839	2839	2839	2839	2839	2839	2839	2839	2833	2833	2833	2827	2827	2821	2821	2821	2821	2815	2815	2815	2815	2815	2815	2815	2815	2815	2815	2815	2815	2815	2815	2815	2815	2815	2815	2815	2815	2815	2815	2815	2815	2815	2809	2809	2809	2809	2809	2809	2803	2803	2797	2797	2797	2797	2797	2797	2797	2797	2791	2791	2791	2791	2791	2791	2791	2791	2791	2785	2785	2785	2779	2779	2773	2773	2773	2761	2755	2744	2744	2738	2732	2732	2721	2721	2721	2715	2715	2715	2704	2704	2699	2699	2699	2687	2687	2687	2682	2682	2676	2671	2671	2671	2666	2666	2660	2655	2655	2655	2655	2649	2649	2649	2649	2649	2649	2649	2649	2649	2649	2649	2649	2649	2649	2649	2649	2649	2649	2649	2649	2649	2649	2649	2649	2644	2644	2644	2644	2639	2639	2639	2633	2633	2633	2628	2628	2628	2628	2628	2623	2623	2623	2623	2618	2618	2618	2618	2618	2618	2612	2607	2607	2607	2602	2602	2597	2587	2587	2581	2571	2571	2566	2561	2551	2551	2551	2546	2546	2536	2536	2536	2536	2536	2536	2536	2536	2536	2536	2536	2536	2532	2532	2532	2532	2522	2517	2517	2517	2512	2512	2507	2502	2502	2498	2498	2498	2493	2493	2493	2488	2488	2488	2488	2483	2483	2483	2479	2479	2479	2479	2474	2474	2474	2469	2469	2469	2469	2469	2465	2460	2460	2460	2460	2460	2456	2451	2451	2446	2446	2442	2442	2442	2442	2442	2433	2433	2433	2428	2419	2419	2415	2415	2415	2410	2401
0	0	0	0	0	0	0	0	0	0	0	0	0	0	0	0	0	0	0	0	0	0	0	0	0	0	0	0	0	0	0	0	0	0	0	0	0	0	0	0	0	0	0	0	0	0	0	0	0	0	0	0	0	0	0	0	0	0	0	0	0	0	0	0	0	0	0	0	0	0	0	0	0	0	0	0	0	0	0	0	868	868	868	870	0	0	0	0	0	0	0	0	0	0	0	0	0	0	0	0	0	0	0	0	0	0	0	0	0	0	0	0	0	0	0	0	0	0	0	0	0	0	0	0	0	0	0	0	0	0	0	0	0	0	0	0	0	0	0	0	0	0	0	0	0	0	0	0	0	0	0	0	0	0	0	0	0	0	0	0	0	0	0	0	0	0	0	0	0	0	0	0	0	0	0	0	0	0	0	0	0	0	0	0	0	0	0	0	0	0	0	0	0	0	0	0	0	0	0	0	0	0	0	0	0	0	0	0	0	0	0	0	0	0	0	0	0	0	0	0	0	0	0	0	0	0	0	0	0	0	0	0	0	0	0	0	0	0	0	0	0	0	0	0	0	0	0	0	0	0	0	0	0	0	0	0	0	0	0	0	0	0	0	0	328	328	328	328	329	329	329	331	331	331	331	332	333	333	334	334	334	334	335	335	335	336	336	336	337	337	337	337	337	337	337	337	337	337	337	337	338	338	0	0	0	0	0	0	0	0	0	0	0	0	0	0	0	0	0	0	0	0	0	0	0	0	0	0	0	0	0	0	0	0	0	0	406	406	406	406	406	406	406	406	405	405	405	0	0	0	0	0	0	0	0	0	0	0	0	0	0	0	0	0	0	0	0	0	0	0	0	0	0	0	0	0	0	0	0	0	0	0	0	0	0	0	0	0	0	0	0	0	0	0	0	0	0	0	0	0	0	0	0	0	0	0	0	0	0	0	0	0	0	0	0	0	0	0	0	0	0	0	0	0	0	0	0	0	0	0	0	0	0	0	0	0	0	2581	2581	2581	2571	2571	2581	2581	2587	2602	2602	2612	2628	2628	2633	2644	2644	2660	2699	2699	2732	2732	2785	2785	2815	2827	2827	2845	2858	2858	2889	2896	2896	2928	2928	2928	2935	2935	2935	2941	2941	2941	2935	2935	2928	2928	2928	2915	2908	2908	2889	2876	2876	2889	2889	2876	2876	2876	2889	2889	2889	2889	2889	2876	2876	2876	2870	2864	2864	2864	2858	2858	2858	2851	2845	2845	2845	2845	2845	2845	2845	2845	2845	2845	2851	2851	2851	2858	2858	2858	2858	2858	2864	2864	2864	2870	2870	2870	2870	2870	2870	2870	2870	2870	2864	2864	2864	2864	2858	2858	2858	2858	2858	2858	2858	2858	2858	2858	2858	2858	2858	2858	2858	2858	2858	2858	2864	2864	2864	2858	2858	2858	2858	2858	2858	2851	2851	2858	2851	2851	2851	2845	2845	2845	2839	2839	2839	2833	2833	2833	2833	2827	2827	2827	2827	2827	2827	2821	2821	2821	2821	2821	2821	2821	2815	2815	2815	2815	2815	2815	2815	2815	2815	2815	2815	2809	2809	2809	2809	2803	2803	2803	2797	2797	2797	2791	2791	2791	2791	2791	2791	2791	2791	2791	2791	2791	2791	2791	2785	2785	2785	2785	2785	2779	2779	2779	2773	2761	2755	2755	2744	2738	2738	2732	2721	2721	2715	2715	2715	2715	2704	2699	2699	2699	2687	2687	2687	2682	2682	2682	2676	2676	2671	2671	2671	2666	2666	2666	2660	2660	2655	2655	2655	2655	2655	2655	2655	2655	2655	2655	2655	2655	2655	2655	2655	2655	2655	2655	2655	2655	2655	2655	2655	2649	2649	2649	2649	2644	2639	2639	2639	2633	2633	2633	2628	2628	2628	2628	2628	2623	2623	2623	2618	2618	2618	2618	2618	2618	2618	2612	2607	2607	2607	2602	2602	2597	2587	2587	2581	2571	2571	2566	2561	2551	2551	2551	2546	2546	2536	2536	2536	2536	2536	2536	2536	2536	2536	2536	2536	2536	2532	2532	2532	2532	2522	2517	2517	2512	2507	2507	2507	2502	2502	2498	2493	2493	2493	2493	2493	2488	2488	2488	2488	2483	2483	2483	2479	2479	2479	2474	2474	2474	2474	2469	2469	2469	2465	2465	2465	2460	2460	2456	2451	2451	2451	2451	2451	2446	2446	2442	2442	2442	2442	2442	2433	2433	2433	2428	2419	2419	2415	2415	2415	2410	2401
0	0	0	0	0	0	0	0	0	0	0	0	0	0	0	0	0	0	0	0	0	0	0	0	0	0	0	0	0	0	0	0	0	0	0	0	0	0	0	0	0	0	0	0	0	0	0	0	0	0	0	0	0	0	0	0	0	0	0	0	0	0	0	0	0	0	0	0	0	0	0	0	0	0	0	0	0	0	0	0	868	868	868	870	0	0	0	0	0	0	0	871	869	868	868	866	866	0	0	0	0	0	0	0	0	0	0	0	0	0	0	0	0	0	0	0	0	0	0	0	0	0	0	0	0	0	0	0	0	0	0	0	0	0	0	0	0	0	0	0	0	0	0	0	0	0	0	0	0	0	0	0	0	0	0	0	0	0	0	0	0	0	0	0	0	0	0	0	0	0	0	0	0	0	0	0	0	0	0	0	0	0	0	0	0	0	0	0	0	0	0	0	0	0	0	0	0	0	0	0	0	0	0	0	0	0	0	0	0	0	0	0	0	0	0	0	0	0	0	0	0	0	0	0	0	0	0	0	0	0	0	0	0	0	0	0	0	0	0	0	0	0	0	0	0	0	0	0	0	0	0	0	0	0	0	0	0	0	0	0	0	0	0	0	328	328	328	328	329	329	329	330	330	331	331	331	333	333	334	334	334	334	335	336	336	336	336	336	337	337	337	337	337	337	337	337	337	337	337	337	338	338	338	0	0	0	0	0	0	0	0	0	0	0	0	0	0	0	0	0	0	0	0	0	0	0	0	0	0	0	0	0	0	0	0	403	403	403	403	403	404	404	404	404	404	404	404	0	0	0	0	0	0	0	0	0	0	0	0	0	0	0	0	0	0	0	0	0	0	0	0	0	0	0	0	0	0	0	0	0	0	0	0	0	0	0	0	0	0	0	0	0	0	0	0	0	0	0	0	0	0	0	0	0	0	0	0	0	0	0	0	0	0	0	0	0	0	0	0	0	0	0	0	0	0	0	0	0	0	0	0	0	0	0	0	0	0	0	2587	2587	2587	2597	2602	2602	2607	2618	2618	2628	2639	2639	2649	2660	2660	2699	2699	2732	2773	2773	2809	2809	2821	2839	2839	2851	2870	2870	2896	2908	2908	2915	2928	2928	2935	2941	2941	2954	2954	2954	2941	2941	2941	2941	2941	2935	2935	2935	2928	2915	2915	2915	2908	2908	2908	2908	2908	2908	2915	2915	2915	2908	2896	2896	2889	2876	2876	2870	2864	2864	2858	2845	2839	2839	2839	2839	2839	2839	2839	2839	2839	2845	2845	2845	2851	2851	2851	2858	2858	2858	2864	2864	2864	2870	2870	2870	2870	2870	2870	2870	2870	2870	2864	2864	2864	2864	2858	2858	2858	2858	2858	2858	2858	2858	2858	2858	2858	2858	2858	2858	2858	2858	2858	2858	2864	2864	2864	2858	2858	2858	2858	2858	2858	2851	2851	2858	2851	2851	2851	2845	2845	2845	2839	2839	2839	2833	2833	2833	2833	2827	2827	2827	2827	2827	2827	2821	2821	2821	2821	2821	2821	2821	2815	2815	2815	2815	2815	2815	2815	2815	2815	2815	2815	2809	2809	2809	2809	2803	2803	2803	2797	2797	2797	2791	2791	2791	2791	2791	2791	2791	2791	2791	2791	2791	2791	2791	2785	2785	2785	2785	2785	2779	2779	2779	2773	2761	2761	2761	2755	2744	2744	2738	2732	2732	2721	2715	2715	2715	2704	2704	2704	2699	2687	2687	2687	2687	2687	2687	2682	2682	2682	2676	2676	2671	2671	2671	2666	2666	2660	2660	2655	2655	2655	2655	2655	2655	2655	2655	2655	2655	2655	2660	2660	2660	2660	2660	2660	2660	2655	2655	2655	2655	2649	2649	2649	2649	2649	2644	2639	2633	2633	2633	2628	2628	2628	2628	2628	2623	2623	2623	2618	2618	2618	2618	2618	2618	2618	2618	2618	2612	2612	2607	2607	2602	2597	2597	2597	2581	2581	2581	2571	2571	2566	2566	2566	2561	2561	2551	2551	2551	2551	2551	2551	2546	2546	2546	2536	2536	2536	2532	2532	2522	2522	2522	2517	2512	2507	2507	2502	2498	2498	2493	2493	2493	2493	2488	2488	2488	2488	2488	2483	2483	2483	2479	2479	2479	2479	2474	2474	2474	2474	2469	2469	2469	2465	2465	2460	2456	2456	2456	2451	2451	2446	2442	2442	2442	2442	2442	2442	2433	2433	2433	2428	2428	2428	2428	2419	2419	2415	2410	2410	2410	2401
0	0	0	0	0	0	0	0	0	0	0	0	0	0	0	0	0	0	0	0	0	0	0	0	0	0	0	0	0	0	0	0	0	0	0	0	0	0	0	0	0	0	0	0	0	0	0	0	0	0	0	0	0	0	0	0	0	0	0	0	0	0	0	0	0	0	0	0	0	0	0	0	0	0	0	0	0	0	0	0	0	877	877	0	0	0	877	877	877	877	0	871	869	868	868	866	866	0	0	0	0	0	0	0	0	0	0	0	0	0	0	0	0	0	0	0	0	0	0	0	0	0	0	0	0	0	0	0	0	0	0	0	0	0	0	0	0	0	0	0	0	0	0	0	0	0	0	0	0	0	0	0	0	0	0	0	0	0	0	0	0	0	0	0	0	0	0	0	0	0	0	0	0	0	0	0	0	0	0	0	0	0	0	0	0	0	0	0	0	0	0	0	0	0	0	0	0	0	0	0	0	0	0	0	0	0	0	0	0	0	0	0	0	0	0	0	0	0	0	0	0	0	0	0	0	0	0	0	0	0	0	0	0	0	0	0	0	0	0	0	0	0	0	0	0	0	0	0	0	0	0	0	0	0	0	0	0	0	0	0	0	0	0	0	328	328	328	328	329	329	329	330	330	331	331	331	333	333	334	334	334	334	335	336	336	336	336	336	337	337	337	337	337	337	337	337	337	337	337	338	338	338	338	0	0	0	0	0	0	0	0	0	0	0	0	0	0	0	0	0	0	0	0	0	0	0	0	0	0	0	0	0	0	402	402	402	402	402	402	403	403	403	403	403	403	403	404	0	0	0	0	0	0	0	0	0	0	0	0	0	0	0	0	0	0	0	0	0	0	0	0	0	0	0	0	0	0	0	0	0	0	0	0	0	0	0	0	0	0	0	0	0	0	0	0	0	0	0	0	0	0	0	0	0	0	0	0	0	0	0	0	0	0	0	0	0	0	0	0	0	0	0	0	0	0	0	0	0	0	0	0	0	0	0	0	0	0	0	2587	2587	2587	2597	2602	2602	2628	2628	2628	2639	2655	2655	2666	2666	2704	2744	2744	2785	2785	2809	2821	2821	2833	2851	2851	2864	2889	2889	2896	2915	2915	2915	2928	2928	2935	2941	2941	2954	2954	2954	2954	2961	2961	2961	2961	2961	2961	2961	2941	2941	2941	2941	2941	2941	2941	2941	2941	2935	2935	2941	2935	2935	2915	2915	2908	2889	2889	2876	2864	2864	2858	2845	2839	2839	2839	2839	2839	2839	2839	2839	2839	2845	2845	2845	2851	2851	2851	2864	2864	2864	2870	2870	2870	2876	2876	2876	2876	2876	2876	2876	2876	2876	2870	2870	2864	2864	2864	2864	2864	2864	2864	2858	2858	2858	2858	2864	2864	2864	2864	2870	2870	2870	2870	2870	2876	2876	2876	2876	2876	2876	2876	2876	2870	2870	2876	2876	2870	2870	2870	2864	2864	2864	2858	2851	2851	2845	2839	2839	2839	2839	2839	2833	2833	2833	2833	2827	2827	2827	2827	2821	2821	2821	2821	2821	2821	2821	2821	2821	2815	2815	2815	2815	2815	2809	2809	2809	2809	2803	2803	2803	2797	2797	2797	2791	2791	2791	2785	2785	2785	2785	2785	2785	2785	2785	2785	2785	2785	2785	2785	2785	2785	2779	2779	2779	2773	2761	2761	2761	2755	2744	2744	2738	2732	2732	2721	2715	2715	2715	2704	2704	2704	2699	2687	2687	2687	2687	2687	2687	2682	2682	2682	2676	2676	2671	2671	2671	2666	2666	2660	2660	2655	2655	2655	2655	2655	2655	2655	2655	2655	2655	2655	2660	2660	2660	2660	2660	2660	2660	2655	2655	2655	2655	2649	2649	2649	2649	2649	2644	2639	2633	2633	2633	2628	2628	2628	2628	2628	2623	2623	2623	2618	2618	2618	2618	2618	2618	2618	2618	2618	2612	2612	2612	2612	2607	2602	2602	2602	2597	2597	2587	2587	2587	2581	2581	2581	2571	2571	2571	2571	2566	2566	2566	2561	2561	2561	2551	2551	2551	2546	2536	2536	2522	2522	2522	2517	2512	2507	2507	2502	2498	2498	2493	2493	2493	2493	2488	2488	2488	2488	2488	2483	2483	2483	2479	2479	2479	2479	2474	2474	2474	2474	2469	2469	2469	2460	2460	2460	2456	2456	2451	2446	2446	2442	2442	2433	2433	2433	2433	2433	2428	2428	2428	2428	2419	2419	2419	2419	2419	2415	2410	2410	2410	2401
0	0	0	0	0	0	0	0	0	0	0	0	0	0	0	0	0	0	0	0	0	0	0	0	0	0	0	0	0	0	0	0	0	0	0	0	0	0	0	0	0	0	0	0	0	0	0	0	0	0	0	0	0	0	0	0	0	0	0	0	0	0	0	0	0	0	0	0	0	0	0	0	0	0	0	0	0	0	0	0	0	0	0	0	0	0	877	877	877	877	0	873	871	869	869	869	0	0	0	0	0	0	0	0	0	0	0	0	0	0	0	0	0	0	0	0	0	0	0	0	0	0	0	0	0	0	0	0	0	0	0	0	0	0	0	0	0	0	0	0	0	0	0	0	0	0	0	0	0	0	0	0	0	0	0	0	0	0	0	0	0	0	0	0	0	0	0	0	0	0	0	0	0	0	0	0	0	0	0	0	0	0	0	0	0	0	0	0	0	0	0	0	0	0	0	0	0	0	0	0	0	0	0	0	0	0	0	0	0	0	0	0	0	0	0	0	0	0	0	0	0	0	0	0	0	0	0	0	0	0	0	0	0	0	0	0	0	0	0	0	0	0	0	0	0	0	0	0	0	0	0	0	0	0	0	0	0	0	0	0	0	0	0	0	328	328	328	328	329	329	329	330	330	331	331	331	333	333	334	334	334	334	335	336	336	336	336	336	337	337	337	337	337	337	337	337	337	337	337	338	338	338	338	338	0	0	0	0	0	0	0	0	0	0	0	0	0	0	0	0	0	0	0	0	0	0	0	0	0	0	0	0	0	402	402	402	402	402	402	403	403	403	403	403	403	403	0	0	0	0	0	0	0	0	0	0	0	0	0	0	0	0	0	0	0	0	0	0	0	0	0	0	0	0	0	0	0	0	0	0	0	0	0	0	0	0	0	0	0	0	0	0	0	0	0	0	0	0	0	0	0	0	0	0	0	0	0	0	0	0	0	0	0	0	0	0	0	0	0	0	0	0	0	0	0	0	0	0	0	0	0	0	0	0	0	0	0	0	0	0	2602	2602	2602	2602	2628	2628	2628	2639	2655	2655	2666	2666	2704	2744	2744	2785	2785	2809	2821	2821	2833	2851	2851	2864	2889	2889	2896	2908	2908	2915	2928	2928	2928	2941	2941	2954	2954	2954	2954	2961	2961	2961	2961	2961	2961	2961	2941	2941	2941	2941	2941	2941	2941	2941	2941	2935	2935	2941	2935	2935	2915	2915	2908	2889	2889	2876	2864	2864	2858	2845	2839	2839	2839	2839	2839	2839	2839	2839	2839	2845	2845	2845	2851	2851	2851	2864	2870	2870	2876	2889	2889	2889	2889	2889	2889	2889	2889	2889	2889	2876	2870	2870	2870	2864	2864	2864	2864	2864	2864	2864	2864	2864	2864	2864	2870	2870	2870	2876	2876	2876	2876	2876	2889	2889	2889	2889	2896	2896	2896	2896	2889	2889	2889	2889	2889	2889	2876	2870	2864	2864	2864	2858	2858	2851	2845	2845	2839	2839	2839	2839	2833	2833	2833	2833	2833	2827	2827	2827	2827	2821	2821	2821	2821	2821	2821	2821	2815	2815	2815	2815	2815	2815	2809	2809	2809	2803	2803	2803	2797	2797	2791	2791	2785	2785	2785	2785	2785	2779	2779	2785	2785	2785	2785	2785	2779	2779	2779	2779	2779	2779	2779	2779	2773	2773	2761	2761	2755	2744	2744	2744	2738	2738	2732	2721	2721	2721	2715	2704	2704	2704	2699	2699	2699	2699	2699	2699	2687	2687	2687	2682	2682	2682	2676	2676	2676	2671	2671	2666	2660	2660	2660	2655	2655	2660	2660	2660	2660	2660	2666	2666	2666	2666	2671	2671	2666	2666	2666	2660	2660	2655	2655	2655	2649	2649	2639	2639	2639	2633	2633	2628	2628	2628	2628	2618	2618	2618	2618	2618	2618	2612	2612	2612	2612	2612	2612	2612	2612	2612	2612	2607	2607	2607	2602	2602	2602	2597	2597	2587	2587	2587	2581	2581	2581	2571	2571	2571	2571	2566	2566	2566	2561	2561	2561	2551	2551	2551	2546	2536	2536	2522	2517	2512	2512	2512	2507	2507	2502	2498	2498	2493	2493	2493	2488	2488	2488	2488	2483	2483	2483	2483	2483	2479	2479	2479	2479	2474	2474	2474	2469	2469	2469	2469	2460	2460	2460	2456	2456	2451	2446	2446	2442	2442	2433	2433	2433	2433	2433	2428	2428	2428	2428	2419	2419	2419	2419	2419	2415	2410	2410	2410	2410
0	0	0	0	0	0	0	0	0	0	0	0	0	0	0	0	0	0	0	0	0	0	0	0	0	0	0	0	0	0	0	0	0	0	0	0	0	0	0	0	0	0	0	0	0	0	0	0	0	0	0	0	0	0	0	0	0	0	0	0	0	0	0	0	0	0	0	0	0	0	0	0	0	0	0	0	0	0	0	0	0	0	0	0	0	0	877	877	877	876	876	873	871	869	869	869	0	0	0	0	0	0	0	0	0	0	0	0	0	0	0	0	0	0	0	0	0	0	0	0	0	0	0	0	0	0	0	0	0	0	0	0	0	0	0	0	0	0	0	0	0	0	0	0	0	0	0	0	0	0	0	0	0	0	0	0	0	0	0	0	0	0	0	0	0	0	0	0	0	0	0	0	0	0	0	0	0	0	0	0	0	0	0	0	0	0	0	0	0	0	0	0	0	0	0	0	0	0	0	0	0	0	0	0	0	0	0	0	0	0	0	0	0	0	0	0	0	0	0	0	0	0	0	0	0	0	0	0	0	0	0	0	0	0	0	0	0	0	0	0	0	0	0	0	0	0	0	0	0	0	0	0	0	0	0	0	0	0	0	0	0	0	0	0	328	328	328	328	329	329	329	330	330	331	331	331	333	333	334	334	334	334	335	336	336	336	336	337	337	337	337	337	337	337	337	337	337	338	338	338	338	338	338	338	339	0	0	0	0	0	0	0	0	0	0	0	0	0	0	0	0	0	0	0	0	0	0	0	0	0	0	0	0	402	402	402	402	402	402	401	401	401	401	401	401	401	0	0	0	0	0	0	0	0	0	0	0	0	0	0	0	0	0	0	0	0	0	0	0	0	0	0	0	0	0	0	0	0	0	0	0	0	0	0	0	0	0	0	0	0	0	0	0	0	0	0	0	0	0	0	0	0	0	0	0	0	0	0	0	0	0	0	0	0	0	0	0	0	0	0	0	0	0	0	0	0	0	0	0	0	0	0	0	0	0	0	0	0	0	0	2602	2602	2618	2618	2639	2639	2655	2682	2676	2676	2704	2704	2755	2785	2785	2809	2809	2821	2833	2833	2845	2858	2858	2870	2889	2889	2896	2908	2908	2915	2928	2928	2928	2941	2941	2954	2954	2961	2961	2961	2975	2975	2975	2981	2981	2981	2975	2975	2975	2975	2975	2975	2961	2961	2961	2961	2961	2961	2961	2941	2941	2935	2915	2896	2896	2876	2870	2870	2858	2845	2839	2839	2839	2839	2839	2839	2839	2839	2839	2845	2851	2851	2851	2864	2864	2870	2870	2870	2876	2889	2889	2889	2889	2889	2889	2889	2889	2889	2889	2876	2870	2870	2870	2864	2864	2864	2864	2864	2864	2864	2864	2864	2864	2864	2870	2870	2870	2876	2876	2876	2876	2876	2889	2889	2889	2889	2896	2896	2896	2896	2889	2889	2889	2889	2889	2889	2876	2870	2864	2864	2864	2858	2858	2851	2845	2845	2839	2839	2839	2839	2833	2833	2833	2833	2833	2827	2827	2827	2827	2821	2821	2821	2821	2821	2821	2821	2815	2815	2815	2815	2815	2815	2809	2809	2809	2803	2803	2803	2797	2797	2791	2791	2785	2785	2785	2785	2785	2779	2779	2785	2785	2785	2785	2785	2779	2779	2779	2779	2779	2779	2779	2779	2779	2773	2773	2773	2761	2755	2755	2744	2738	2738	2732	2732	2732	2721	2721	2721	2715	2715	2704	2704	2704	2699	2699	2699	2699	2699	2687	2687	2687	2687	2682	2682	2676	2676	2676	2671	2666	2660	2660	2660	2660	2660	2660	2666	2666	2666	2671	2671	2671	2671	2676	2671	2671	2671	2671	2666	2666	2660	2655	2655	2655	2649	2639	2639	2639	2633	2633	2628	2628	2628	2623	2618	2618	2612	2607	2607	2607	2607	2607	2602	2602	2607	2607	2607	2607	2607	2607	2607	2607	2607	2607	2607	2607	2602	2602	2602	2597	2597	2597	2597	2597	2587	2587	2587	2587	2581	2581	2581	2571	2571	2571	2566	2551	2551	2546	2536	2536	2522	2517	2512	2512	2507	2502	2502	2498	2493	2493	2493	2488	2488	2488	2488	2488	2483	2483	2483	2479	2479	2479	2479	2479	2479	2479	2474	2474	2474	2469	2469	2469	2469	2460	2460	2460	2456	2456	2451	2446	2446	2442	2433	2433	2433	2433	2433	2433	2428	2428	2428	2419	2419	2419	2419	2419	2419	2415	2410	2410	2410	2410
0	0	0	0	0	0	0	0	0	0	0	0	0	0	0	0	0	0	0	0	0	0	0	0	0	0	0	0	0	0	0	0	0	0	0	0	0	0	0	0	0	0	0	0	0	0	0	0	0	0	0	0	0	0	0	0	0	0	0	0	0	0	0	0	0	0	0	0	0	0	0	0	0	0	0	0	0	0	0	0	0	0	0	0	0	0	0	878	877	876	876	874	874	0	0	0	0	0	0	0	0	0	0	0	0	0	0	0	0	0	0	0	0	0	0	0	0	0	0	0	0	0	0	0	0	0	0	0	0	0	0	0	0	0	0	0	0	0	0	0	0	0	0	0	0	0	0	0	0	0	0	0	0	0	0	0	0	0	0	0	0	0	0	0	0	0	0	0	0	0	0	0	0	0	0	0	0	0	0	0	0	0	0	0	0	0	0	0	0	0	0	0	0	0	0	0	0	0	0	0	0	0	0	0	0	0	0	0	0	0	0	0	0	0	0	0	0	0	0	0	0	0	0	0	0	0	0	0	0	0	0	0	0	0	0	0	0	0	0	0	0	0	0	0	0	0	0	0	0	0	0	0	0	0	0	0	0	0	0	0	0	0	0	0	0	0	0	329	329	329	329	330	330	331	331	0	333	333	334	334	334	334	335	336	336	336	336	337	337	337	337	337	337	337	0	0	0	338	338	338	338	338	338	338	339	0	0	0	0	0	0	0	0	0	0	0	0	0	0	0	0	0	0	0	0	0	0	0	0	0	0	0	0	0	0	0	0	0	0	400	400	400	400	399	399	401	0	0	0	0	0	0	0	0	0	0	0	0	0	0	0	0	0	0	0	0	0	0	0	0	0	0	0	0	0	0	0	0	0	0	0	0	0	0	0	0	0	0	0	0	0	0	0	0	0	0	0	0	0	0	0	0	0	0	0	0	0	0	0	0	0	0	0	0	0	0	0	0	0	0	0	0	0	0	0	0	0	0	0	0	0	0	0	0	0	0	0	0	0	0	0	0	2633	2633	2639	2639	2655	2682	2682	2732	2773	2773	2797	2797	2815	2833	2833	2839	2845	2845	2864	2870	2870	2889	2896	2896	2915	2915	2915	2928	2928	2935	2935	2941	2941	2961	2961	2975	2975	2975	2981	2981	2981	2988	2995	2995	2995	2995	2995	2988	2988	2988	2988	2988	2988	2981	2981	2981	2975	2961	2961	2941	2928	2908	2908	2889	2870	2870	2858	2845	2839	2839	2839	2839	2839	2839	2845	2851	2851	2851	2858	2858	2864	2870	2870	2876	2889	2889	2896	2908	2908	2908	2908	2908	2908	2908	2896	2896	2896	2889	2889	2889	2876	2876	2876	2870	2870	2870	2870	2870	2870	2870	2870	2870	2876	2876	2876	2889	2889	2896	2896	2896	2896	2908	2908	2896	2896	2896	2896	2896	2896	2896	2896	2889	2889	2889	2876	2870	2870	2870	2864	2858	2858	2851	2845	2845	2839	2839	2839	2839	2833	2833	2833	2833	2833	2833	2827	2827	2827	2827	2821	2821	2821	2821	2821	2821	2821	2821	2815	2815	2815	2815	2809	2809	2809	2803	2803	2803	2797	2797	2791	2791	2785	2785	2785	2785	2785	2779	2779	2779	2779	2779	2785	2779	2779	2779	2779	2779	2779	2779	2779	2779	2779	2773	2773	2773	2761	2755	2755	2744	2738	2738	2732	2732	2732	2721	2721	2721	2715	2715	2704	2704	2704	2699	2699	2699	2699	2699	2687	2687	2687	2687	2682	2682	2676	2676	2676	2671	2666	2660	2660	2660	2660	2660	2660	2666	2666	2666	2671	2671	2671	2671	2676	2671	2671	2671	2671	2666	2666	2660	2655	2655	2655	2649	2649	2644	2639	2633	2633	2628	2628	2628	2623	2618	2618	2612	2607	2607	2607	2607	2607	2602	2602	2607	2607	2607	2607	2607	2607	2607	2607	2607	2607	2607	2607	2607	2607	2607	2607	2607	2607	2602	2602	2602	2602	2602	2597	2597	2597	2587	2581	2571	2571	2566	2561	2561	2546	2536	2536	2522	2517	2517	2512	2507	2502	2502	2498	2493	2493	2493	2488	2488	2488	2488	2488	2483	2483	2483	2479	2479	2479	2479	2479	2479	2479	2474	2474	2474	2469	2469	2469	2469	2465	2465	2460	2456	2456	2451	2446	2446	2442	2433	2433	2433	2433	2433	2433	2428	2428	2428	2419	2419	2419	2419	2419	2419	2415	2415	2415	2410	2410
0	0	0	0	0	0	0	0	0	0	0	0	0	0	0	0	0	0	0	0	0	0	0	0	0	0	0	0	0	0	0	0	0	0	0	0	0	0	0	0	0	0	0	0	0	0	0	0	0	0	0	0	0	0	0	0	0	0	0	0	0	0	0	0	0	0	0	0	0	0	0	0	0	0	0	0	0	0	0	0	0	0	0	0	0	0	0	0	0	876	876	876	0	0	0	0	0	0	0	0	0	0	0	0	0	0	0	0	0	0	0	0	0	0	0	0	0	0	0	0	0	0	0	0	0	0	0	0	0	0	0	0	0	0	0	0	0	0	0	0	0	0	0	0	0	0	0	0	0	0	0	0	0	0	0	0	0	0	0	0	0	0	0	0	0	0	0	0	0	0	0	0	0	0	0	0	0	0	0	0	0	0	0	0	0	0	0	0	0	0	0	0	0	0	0	0	0	0	0	0	0	0	0	0	0	0	0	0	0	0	0	0	0	0	0	0	0	0	0	0	0	0	0	0	0	0	0	0	0	0	0	0	0	0	0	0	0	0	0	0	0	0	0	0	0	0	0	0	0	0	0	0	0	0	0	0	0	0	0	0	0	0	0	0	0	0	0	329	329	329	329	330	330	331	331	331	333	333	334	334	334	334	335	336	336	336	336	337	337	337	337	337	337	337	338	338	338	338	339	339	339	339	339	339	339	0	0	0	0	0	0	0	0	0	0	0	0	0	0	0	0	0	0	0	0	0	0	0	0	0	0	0	0	0	0	0	0	0	0	400	400	400	400	399	399	0	0	0	0	0	0	0	0	0	0	0	0	0	0	0	0	0	0	0	0	0	0	0	0	0	0	0	0	0	0	0	0	0	0	0	0	0	0	0	0	0	0	0	0	0	0	0	0	0	0	0	0	0	0	0	0	0	0	0	0	0	0	0	0	0	0	0	0	0	0	0	0	0	0	0	0	0	0	0	0	0	0	0	0	0	0	0	0	0	0	0	0	0	0	0	0	0	2633	2633	2639	2639	2655	2682	2682	2732	2773	2773	2797	2797	2815	2833	2833	2839	2845	2845	2864	2870	2870	2889	2896	2896	2915	2915	2915	2928	2928	2935	2935	2941	2941	2961	2961	2975	2975	2975	2981	2981	2981	2988	2995	2995	2995	2995	2995	2988	2988	2988	2988	2988	2988	2981	2981	2981	2975	2961	2961	2941	2928	2908	2908	2876	2864	2864	2858	2845	2839	2839	2839	2839	2839	2839	2845	2851	2851	2864	2870	2870	2870	2889	2889	2896	2908	2908	2908	2915	2915	2915	2915	2915	2915	2915	2915	2915	2915	2908	2896	2896	2889	2889	2889	2889	2889	2889	2876	2876	2876	2876	2876	2889	2889	2889	2896	2896	2896	2896	2908	2896	2896	2908	2908	2896	2896	2896	2896	2896	2896	2896	2896	2889	2889	2889	2876	2870	2870	2870	2864	2858	2858	2851	2845	2845	2845	2839	2839	2839	2839	2839	2833	2833	2833	2833	2833	2833	2827	2827	2821	2821	2821	2821	2821	2821	2821	2821	2815	2815	2815	2815	2809	2809	2809	2803	2803	2803	2797	2797	2791	2791	2785	2785	2785	2785	2785	2779	2779	2779	2779	2779	2779	2779	2779	2779	2779	2779	2779	2779	2779	2779	2779	2773	2773	2773	2761	2761	2761	2755	2744	2744	2738	2732	2732	2732	2721	2721	2715	2715	2715	2715	2704	2704	2704	2704	2704	2704	2699	2687	2687	2687	2687	2687	2682	2676	2676	2671	2671	2666	2666	2660	2660	2666	2666	2666	2666	2666	2671	2676	2676	2676	2676	2676	2676	2676	2671	2666	2666	2660	2655	2655	2649	2649	2649	2639	2639	2633	2633	2628	2623	2623	2618	2612	2612	2607	2602	2602	2602	2597	2597	2597	2597	2597	2597	2597	2602	2602	2602	2607	2607	2607	2607	2607	2607	2607	2607	2607	2607	2607	2607	2602	2602	2602	2602	2602	2597	2597	2597	2587	2581	2571	2571	2566	2561	2561	2546	2532	2532	2522	2512	2507	2507	2502	2498	2498	2493	2493	2493	2488	2488	2488	2488	2483	2483	2483	2479	2479	2479	2479	2479	2479	2479	2479	2479	2479	2474	2474	2474	2469	2469	2469	2465	2465	2460	2456	2456	2451	2446	2446	2446	2442	2433	2433	2433	2433	2433	2428	2428	2428	2428	2428	2428	2419	2419	2419	2419	2419	2419	2419	2415
0	0	0	0	0	0	0	0	0	0	0	0	0	0	0	0	0	0	0	0	0	0	0	0	0	0	0	0	0	0	0	0	0	0	0	0	0	0	0	0	0	0	0	0	0	0	0	0	0	0	0	0	0	0	0	0	0	0	0	0	0	0	0	0	0	0	0	0	0	0	0	0	0	0	0	0	0	0	0	0	0	0	0	0	0	0	0	0	0	0	0	0	0	0	0	0	0	0	0	0	0	0	0	0	0	0	0	0	0	0	0	0	0	0	0	0	0	0	0	0	0	0	0	0	0	0	0	0	0	0	0	0	0	0	0	0	0	0	0	0	0	0	0	0	0	0	0	0	0	0	0	0	0	0	0	0	0	0	0	0	0	0	0	0	0	0	0	0	0	0	0	0	0	0	0	0	0	0	0	0	0	0	0	0	0	0	0	0	0	0	0	0	0	0	0	0	0	0	0	0	0	0	0	0	0	0	0	0	0	0	0	0	0	0	0	0	0	0	0	0	0	0	0	0	0	0	0	0	0	0	0	0	0	0	0	0	0	0	0	0	0	0	0	0	0	0	0	0	0	0	0	0	0	0	0	0	0	0	0	0	0	0	0	0	0	0	0	329	329	329	329	330	330	331	331	331	333	333	334	334	334	334	336	336	336	337	337	337	337	337	337	338	338	338	338	338	338	338	339	339	339	339	339	339	339	0	0	0	0	0	0	0	0	0	0	0	0	0	0	0	0	0	0	0	0	0	0	0	0	0	0	397	397	398	397	397	398	398	398	398	398	398	398	398	398	399	399	0	0	0	0	0	0	0	0	0	0	0	0	0	0	0	0	0	0	0	0	0	0	0	0	0	0	0	0	0	0	0	0	0	0	0	0	0	0	0	0	0	0	0	0	0	0	0	0	0	0	0	0	0	0	0	0	0	0	0	0	0	0	0	0	0	0	0	0	0	0	0	0	0	0	0	0	0	0	0	0	0	0	0	0	0	0	0	0	0	0	0	0	0	0	0	0	2671	2671	2671	2704	2744	2744	2797	2797	2815	2827	2827	2839	2851	2851	2864	2876	2876	2889	2908	2908	2928	2928	2928	2941	2941	2935	2935	2935	2941	2954	2954	2961	2975	2975	2981	2981	2981	2988	2988	2988	2995	2995	2995	2995	2995	2995	2988	2988	2988	2988	2988	2988	2988	2988	2988	2975	2961	2961	2941	2928	2908	2908	2876	2864	2864	2858	2851	2845	2845	2845	2845	2845	2845	2851	2851	2851	2864	2870	2870	2870	2889	2889	2896	2908	2908	2908	2915	2915	2915	2915	2915	2915	2915	2915	2915	2915	2908	2896	2896	2889	2889	2889	2889	2889	2889	2876	2876	2876	2876	2876	2889	2889	2889	2896	2896	2896	2896	2896	2896	2896	2896	2896	2896	2896	2889	2889	2896	2896	2889	2889	2889	2876	2876	2876	2870	2864	2864	2864	2858	2858	2851	2845	2845	2845	2839	2839	2839	2839	2839	2833	2833	2833	2833	2833	2833	2827	2827	2827	2827	2827	2821	2821	2821	2821	2821	2821	2815	2815	2815	2815	2815	2809	2809	2809	2803	2803	2803	2797	2791	2785	2785	2785	2785	2785	2779	2779	2779	2779	2779	2779	2779	2779	2779	2779	2779	2779	2779	2779	2779	2779	2779	2779	2773	2773	2761	2761	2755	2755	2755	2738	2738	2738	2732	2732	2732	2721	2715	2715	2715	2704	2704	2704	2704	2704	2704	2699	2699	2699	2687	2687	2687	2682	2676	2676	2676	2671	2671	2666	2666	2666	2666	2666	2671	2671	2671	2676	2676	2676	2676	2676	2676	2671	2671	2666	2660	2660	2655	2655	2655	2649	2644	2644	2639	2633	2628	2628	2628	2618	2618	2607	2602	2602	2597	2587	2587	2587	2581	2581	2581	2581	2581	2587	2587	2587	2597	2597	2597	2602	2602	2602	2607	2607	2607	2607	2607	2607	2607	2607	2607	2607	2607	2607	2607	2602	2602	2602	2597	2587	2587	2581	2566	2561	2561	2546	2532	2532	2517	2507	2502	2502	2498	2493	2493	2493	2488	2488	2488	2483	2483	2483	2483	2483	2479	2479	2479	2479	2479	2479	2479	2479	2479	2479	2474	2474	2474	2474	2469	2469	2469	2465	2465	2460	2456	2456	2451	2446	2446	2446	2442	2433	2433	2433	2433	2433	2428	2428	2428	2428	2428	2428	2419	2419	2419	2419	2419	2419	2419	2415
0	0	0	0	0	0	0	0	0	0	0	0	0	0	0	0	0	0	0	0	0	0	0	0	0	0	0	0	0	0	0	0	0	0	0	0	0	0	0	0	0	0	0	0	0	0	0	0	0	0	0	0	0	0	0	0	0	0	0	0	0	0	0	0	0	0	0	0	0	0	0	0	0	0	0	0	0	0	0	0	0	0	0	0	0	0	0	0	0	0	0	0	0	0	0	0	0	0	0	0	0	0	0	0	0	0	0	0	0	0	0	0	0	0	0	0	0	0	0	0	0	0	0	0	0	0	0	0	0	0	0	0	0	0	0	0	0	0	0	0	0	0	0	0	0	0	0	0	0	0	0	0	0	0	0	0	0	0	0	0	0	0	0	0	0	0	0	0	0	0	0	0	0	0	0	0	0	0	0	0	0	0	0	0	0	0	0	0	0	0	0	0	0	0	0	0	0	0	0	0	0	0	0	0	0	0	0	0	0	0	0	0	0	0	0	0	0	0	0	0	0	0	0	0	0	0	0	0	0	0	0	0	0	0	0	0	0	0	0	0	0	0	0	0	0	0	0	0	0	0	0	0	0	0	0	0	0	0	0	0	0	0	0	0	0	0	0	329	329	329	329	330	330	331	331	331	333	333	334	334	334	334	336	336	336	337	337	337	338	338	338	338	338	339	339	339	339	339	339	339	339	339	339	339	339	0	0	0	0	0	0	0	0	0	0	0	0	0	0	0	0	0	0	0	0	0	0	0	0	0	395	395	395	395	395	395	396	396	396	396	396	396	396	396	396	396	396	396	0	0	0	0	0	0	0	0	0	0	0	0	0	0	0	0	0	0	0	0	0	0	0	0	0	0	0	0	0	0	0	0	0	0	0	0	0	0	0	0	0	0	0	0	0	0	0	0	0	0	0	0	0	0	0	0	0	0	0	0	0	0	0	0	0	0	0	0	0	0	0	0	0	0	0	0	0	0	0	0	0	0	0	0	0	0	0	0	0	0	0	0	0	0	0	0	0	0	0	0	0	0	2839	2839	2851	2851	2864	2889	2889	2908	2908	2928	2928	2928	2935	2954	2954	2954	2961	2961	2961	2961	2961	2961	2961	2961	2975	2981	2981	2981	2988	2988	2995	2995	2995	3002	3002	2995	2995	2995	2995	2988	2988	2988	2988	2988	2988	2988	2988	2988	2975	2961	2961	2941	2928	2908	2908	2889	2870	2870	2864	2851	2851	2851	2851	2851	2858	2858	2864	2864	2864	2876	2889	2889	2889	2896	2896	2915	2915	2928	2928	2928	2935	2935	2935	2935	2935	2935	2928	2928	2928	2915	2908	2908	2908	2896	2896	2896	2896	2896	2896	2896	2896	2896	2896	2896	2896	2908	2908	2908	2908	2896	2896	2896	2896	2896	2889	2889	2889	2889	2889	2889	2889	2889	2889	2876	2876	2876	2870	2870	2864	2864	2864	2858	2858	2851	2851	2851	2845	2839	2839	2839	2839	2839	2833	2833	2833	2833	2833	2833	2833	2833	2827	2827	2827	2821	2821	2821	2821	2821	2821	2815	2815	2815	2815	2815	2809	2809	2809	2803	2803	2803	2797	2791	2785	2785	2785	2785	2785	2779	2779	2779	2779	2779	2779	2779	2779	2779	2779	2779	2779	2779	2779	2779	2779	2779	2779	2773	2773	2761	2761	2755	2755	2755	2738	2738	2738	2732	2732	2732	2721	2715	2715	2715	2704	2704	2704	2704	2704	2704	2699	2699	2699	2687	2682	2682	2682	2676	2676	2676	2671	2671	2666	2666	2666	2666	2666	2671	2671	2671	2671	2676	2676	2676	2676	2676	2671	2671	2666	2660	2660	2655	2655	2655	2649	2644	2644	2639	2633	2628	2628	2628	2618	2618	2607	2602	2602	2597	2587	2587	2587	2581	2581	2581	2581	2581	2587	2587	2587	2597	2597	2597	2602	2602	2602	2607	2607	2607	2607	2607	2612	2612	2612	2612	2612	2612	2612	2612	2607	2607	2607	2602	2597	2597	2581	2571	2561	2561	2546	2532	2532	2517	2507	2502	2502	2498	2493	2493	2493	2488	2488	2488	2483	2483	2483	2483	2483	2479	2479	2479	2479	2479	2479	2479	2479	2479	2474	2474	2474	2474	2474	2474	2474	2469	2465	2465	2465	2460	2460	2456	2451	2451	2446	2442	2442	2442	2433	2433	2433	2433	2428	2428	2428	2428	2428	2428	2419	2419	2419	2419	2419	2419	2419
0	0	0	0	0	0	0	0	0	0	0	0	0	0	0	0	0	0	0	0	0	0	0	0	0	0	0	0	0	0	0	0	0	0	0	0	0	0	0	0	0	0	0	0	0	0	0	0	0	0	0	0	0	0	0	0	0	0	0	0	0	0	0	0	0	0	0	0	0	0	0	0	0	0	0	0	0	0	0	0	0	0	0	0	0	0	0	0	0	0	0	0	0	0	0	0	0	0	0	0	0	0	0	0	0	0	0	0	0	0	0	0	0	0	0	0	0	0	0	0	0	0	0	0	0	0	0	0	0	0	0	0	0	0	0	0	0	0	0	0	0	0	0	0	0	0	0	0	0	0	0	0	0	0	0	0	0	0	0	0	0	0	0	0	0	0	0	0	0	0	0	0	0	0	327	327	327	327	0	0	0	0	0	0	0	0	0	0	0	0	0	0	0	0	0	0	0	0	0	0	0	0	0	0	0	0	0	0	0	0	0	0	0	0	0	0	0	0	0	0	0	0	0	0	0	0	0	0	0	0	0	0	0	0	0	0	0	0	0	0	0	0	0	0	0	0	0	0	0	0	0	0	0	0	0	0	0	0	0	0	0	0	0	0	0	0	0	329	329	329	329	330	330	331	331	331	333	333	334	334	334	334	336	336	336	337	337	338	338	338	338	338	339	339	339	339	339	339	339	339	339	339	0	0	0	0	0	0	0	0	0	0	0	0	0	0	0	0	0	0	0	0	0	0	0	0	0	0	0	0	395	395	395	395	395	395	396	396	396	396	396	396	396	396	396	396	396	396	0	0	0	0	0	0	0	0	0	0	0	0	0	0	0	0	0	0	0	0	0	0	0	0	0	0	0	0	0	0	0	0	0	0	0	0	0	0	0	0	0	0	0	0	0	0	0	0	0	0	0	0	0	0	0	0	0	0	0	0	0	0	0	0	0	0	0	0	0	0	0	0	0	0	0	0	0	0	0	0	0	0	0	0	0	0	0	0	0	0	0	0	0	0	0	0	0	0	0	0	0	0	2839	2839	2851	2851	2864	2889	2889	2908	2908	2928	2928	2928	2935	2954	2954	2954	2961	2961	2961	2961	2961	2961	2961	2961	2975	2981	2981	2981	2988	2988	2988	2988	2988	2995	2995	2995	2988	2988	2988	2988	2988	2988	2988	2988	2988	2981	2981	2981	2975	2961	2961	2941	2928	2908	2908	2889	2876	2876	2864	2858	2858	2858	2858	2864	2864	2864	2870	2876	2876	2896	2896	2908	2915	2915	2928	2928	2928	2935	2941	2941	2954	2954	2954	2954	2954	2941	2941	2941	2941	2935	2928	2928	2928	2915	2915	2915	2915	2915	2915	2915	2915	2915	2908	2908	2908	2908	2908	2908	2908	2908	2908	2896	2896	2896	2889	2889	2889	2889	2889	2889	2889	2889	2889	2876	2876	2876	2870	2870	2864	2864	2864	2858	2858	2851	2851	2851	2845	2839	2839	2839	2839	2839	2839	2839	2839	2833	2833	2833	2833	2833	2833	2833	2827	2827	2827	2821	2821	2821	2821	2821	2821	2815	2815	2815	2809	2809	2809	2809	2803	2803	2797	2797	2791	2791	2791	2785	2785	2785	2785	2785	2785	2785	2785	2785	2785	2785	2779	2779	2779	2779	2779	2779	2779	2779	2779	2779	2773	2773	2773	2761	2755	2755	2744	2738	2738	2738	2732	2732	2732	2721	2721	2715	2715	2704	2704	2704	2704	2704	2699	2699	2699	2687	2682	2682	2676	2676	2676	2671	2671	2671	2666	2666	2666	2666	2666	2666	2666	2666	2671	2671	2671	2671	2671	2671	2666	2666	2660	2655	2655	2655	2649	2649	2644	2639	2633	2633	2628	2628	2628	2618	2612	2612	2607	2597	2597	2587	2581	2571	2571	2571	2566	2566	2566	2571	2581	2581	2581	2581	2581	2597	2602	2602	2602	2607	2607	2607	2607	2607	2612	2612	2612	2612	2612	2612	2612	2612	2607	2607	2607	2602	2597	2597	2581	2571	2551	2551	2546	2532	2532	2512	2507	2498	2498	2493	2493	2493	2488	2488	2488	2483	2479	2479	2479	2479	2479	2479	2479	2479	2479	2479	2479	2479	2479	2479	2474	2474	2474	2474	2474	2474	2474	2469	2469	2469	2469	2465	2465	2460	2456	2456	2451	2451	2451	2446	2442	2442	2442	2433	2433	2433	2433	2433	2433	2433	2433	2433	2433	2433	2433	2433	2433
0	0	0	0	0	0	0	0	0	0	0	0	0	0	0	0	0	0	0	0	0	0	0	0	0	0	0	0	0	0	0	0	0	0	0	0	0	0	0	0	0	0	0	0	0	0	0	0	0	0	0	0	0	0	0	0	0	0	0	0	0	0	0	0	0	0	0	0	0	0	0	0	0	0	0	0	0	0	0	0	0	0	0	0	0	0	0	0	0	0	0	0	0	0	0	0	0	0	0	0	0	0	0	0	0	0	0	0	0	0	0	0	0	0	0	0	0	0	0	0	0	0	0	0	0	0	0	0	0	0	0	0	0	0	0	0	0	0	0	0	0	0	0	0	0	0	0	0	0	0	0	0	0	0	0	0	0	0	0	0	0	0	0	0	0	0	0	0	0	0	0	0	0	0	327	327	327	327	0	0	0	0	0	0	0	0	0	0	0	0	0	0	0	0	0	0	0	0	0	0	0	0	0	0	0	0	0	0	0	0	0	0	0	0	0	0	0	0	0	0	0	0	0	0	0	0	0	0	0	0	0	0	0	0	0	0	0	0	0	0	0	0	0	0	0	0	0	0	0	0	0	0	0	0	0	0	0	0	0	0	0	0	0	0	0	0	0	329	329	329	329	330	330	331	331	331	333	333	334	334	335	335	336	336	337	337	337	338	338	338	338	338	339	339	339	339	339	339	339	339	339	339	340	340	0	0	0	0	0	0	0	0	0	0	0	0	0	0	0	0	0	0	0	0	0	0	0	0	0	394	394	395	395	395	395	395	395	395	395	395	395	395	395	395	396	396	396	396	396	0	0	0	0	0	0	0	0	0	0	0	0	0	0	0	0	0	0	0	0	0	0	0	0	0	0	0	0	0	0	0	0	0	0	0	0	0	0	0	0	0	0	0	0	0	0	0	0	0	0	0	0	0	0	0	0	0	0	0	0	0	0	0	0	0	0	0	0	0	0	0	0	0	0	0	0	0	0	0	0	0	0	0	0	0	0	0	0	0	0	0	0	0	0	0	0	0	0	0	0	0	0	0	2876	2876	2908	2908	2928	2935	2935	2941	2961	2961	2961	2975	2975	2981	2988	2975	2975	2981	2981	2981	2981	2981	2988	2988	2988	2988	2988	2988	2988	2988	2988	2995	2995	2995	2988	2988	2988	2988	2988	2988	2988	2988	2988	2981	2981	2981	2975	2961	2961	2941	2928	2908	2908	2889	2876	2876	2864	2858	2858	2858	2858	2864	2864	2864	2870	2876	2876	2896	2896	2908	2915	2915	2928	2928	2928	2935	2941	2941	2954	2954	2954	2954	2954	2941	2941	2941	2941	2935	2928	2928	2928	2915	2915	2915	2915	2915	2915	2915	2915	2915	2908	2908	2908	2908	2908	2908	2908	2896	2896	2896	2896	2896	2889	2889	2889	2876	2876	2876	2876	2876	2876	2870	2870	2870	2864	2864	2864	2864	2858	2858	2858	2851	2845	2845	2845	2839	2839	2839	2839	2839	2839	2839	2839	2839	2833	2833	2833	2833	2833	2833	2833	2827	2827	2827	2821	2821	2821	2821	2821	2821	2815	2815	2815	2809	2809	2809	2809	2809	2803	2797	2797	2797	2791	2791	2791	2785	2785	2785	2785	2785	2785	2785	2785	2785	2785	2785	2785	2785	2785	2785	2779	2779	2779	2779	2779	2779	2773	2761	2761	2761	2755	2744	2744	2738	2738	2738	2732	2732	2732	2721	2715	2715	2715	2715	2704	2704	2704	2699	2699	2687	2682	2682	2676	2676	2676	2671	2671	2660	2660	2660	2660	2660	2660	2660	2660	2660	2666	2666	2660	2660	2660	2660	2655	2655	2655	2649	2649	2649	2639	2639	2639	2633	2633	2633	2628	2623	2623	2618	2607	2607	2602	2587	2587	2581	2571	2571	2571	2566	2566	2566	2566	2566	2571	2571	2571	2581	2581	2587	2597	2597	2597	2602	2602	2607	2607	2607	2607	2612	2612	2612	2612	2612	2612	2612	2612	2607	2607	2602	2597	2597	2581	2571	2551	2551	2546	2522	2522	2512	2502	2498	2498	2493	2488	2488	2488	2483	2483	2483	2479	2479	2479	2479	2479	2479	2474	2474	2474	2474	2479	2479	2479	2479	2474	2474	2474	2474	2474	2474	2474	2469	2469	2469	2469	2465	2465	2460	2456	2456	2451	2451	2451	2446	2442	2442	2442	2433	2433	2433	2433	2433	2433	2433	2433	2433	2433	2433	2433	2433	2433
0	0	0	0	0	0	0	0	0	0	0	0	0	0	0	0	0	0	0	0	0	0	0	0	0	0	0	0	0	0	0	0	0	0	0	0	0	0	0	0	0	0	0	0	0	0	0	0	0	0	0	0	0	0	0	0	0	0	0	0	0	0	0	0	0	0	0	0	0	0	0	0	0	0	0	0	0	0	0	0	0	0	0	0	0	0	0	0	0	0	0	0	0	0	0	0	0	0	0	0	0	0	0	0	0	0	0	0	0	0	0	0	0	0	0	0	0	0	0	0	0	0	0	0	0	0	0	0	0	0	0	0	0	0	0	0	0	0	0	0	0	0	0	0	0	0	0	0	0	0	0	0	0	0	0	0	0	0	0	0	0	0	0	0	0	0	0	0	0	0	0	0	0	0	327	327	326	326	326	0	0	0	0	0	0	0	0	0	0	0	0	0	0	0	0	0	0	0	0	0	0	0	0	0	0	0	0	0	0	0	0	0	0	0	0	0	0	0	0	0	0	0	0	0	0	0	0	0	0	0	0	0	0	0	0	0	0	0	0	0	0	0	0	0	0	0	0	0	0	0	0	0	0	0	0	0	0	0	0	0	0	0	0	0	0	0	0	329	329	329	329	330	330	331	331	331	333	333	334	334	335	335	336	336	337	337	337	338	338	339	339	339	339	339	339	340	340	340	340	340	340	341	340	340	0	0	0	0	0	0	0	0	0	0	0	0	0	0	0	0	0	0	0	0	0	0	0	0	0	394	394	394	394	394	395	395	395	395	395	395	395	395	395	395	0	395	395	395	395	0	0	0	0	0	0	0	0	0	0	0	0	0	0	0	0	0	0	0	0	0	0	0	0	0	0	0	0	0	0	0	0	0	0	0	0	0	0	0	0	0	0	0	0	0	0	0	0	0	0	0	0	0	0	0	0	0	0	0	0	0	0	0	0	0	0	0	0	0	0	0	0	0	0	0	0	0	0	0	0	0	0	0	0	0	0	0	0	0	0	0	0	0	0	0	0	0	0	0	0	0	0	0	0	2928	2928	2928	2935	2954	2954	2961	2975	2975	2988	2988	2988	2988	2995	2988	2988	2988	2988	2988	2988	2988	2995	2995	2995	2988	2988	2988	2995	2995	2995	2995	2995	2995	2995	2995	2995	2988	2988	2988	2988	2988	2988	2988	2981	2981	2975	2975	2975	2954	2935	2928	2928	2896	2889	2889	2876	2870	2870	2870	2870	2876	2876	2889	2889	2889	2896	2915	2915	2928	2935	2935	2941	2954	2954	2954	2961	2961	2961	2961	2961	2961	2961	2961	2961	2961	2954	2954	2941	2941	2941	2935	2935	2935	2935	2935	2928	2928	2928	2928	2928	2928	2928	2915	2915	2915	2908	2896	2896	2896	2889	2889	2889	2876	2876	2876	2876	2876	2870	2870	2870	2864	2864	2864	2864	2864	2858	2858	2858	2851	2851	2851	2845	2845	2845	2845	2845	2839	2839	2839	2839	2839	2839	2839	2833	2833	2833	2833	2833	2833	2833	2827	2827	2827	2821	2821	2821	2821	2821	2821	2815	2815	2815	2809	2809	2809	2809	2809	2803	2797	2797	2797	2791	2791	2791	2785	2785	2785	2785	2785	2785	2785	2785	2785	2785	2785	2785	2785	2785	2785	2779	2779	2779	2779	2779	2779	2773	2761	2761	2761	2755	2744	2744	2738	2738	2738	2732	2732	2732	2721	2715	2715	2715	2715	2704	2704	2704	2699	2699	2687	2682	2682	2676	2676	2676	2671	2666	2660	2660	2660	2660	2660	2660	2660	2660	2660	2666	2666	2660	2660	2660	2660	2655	2655	2655	2649	2649	2649	2639	2639	2639	2633	2633	2633	2628	2623	2623	2618	2607	2607	2602	2587	2587	2581	2571	2571	2571	2566	2566	2566	2566	2566	2571	2571	2571	2581	2581	2587	2597	2597	2597	2602	2602	2607	2607	2607	2607	2612	2612	2612	2612	2612	2612	2612	2612	2607	2607	2607	2597	2597	2581	2571	2551	2551	2546	2522	2522	2512	2502	2498	2498	2493	2488	2488	2488	2483	2483	2479	2479	2479	2474	2474	2474	2474	2474	2474	2474	2474	2474	2474	2474	2474	2474	2474	2474	2474	2474	2474	2474	2474	2469	2469	2469	2469	2469	2465	2460	2460	2460	2456	2456	2451	2446	2446	2446	2446	2446	2446	2442	2442	2442	2442	2442	2442	2433	2433	2433	2433	2433
0	0	0	0	0	0	0	0	0	0	0	0	0	0	0	0	0	0	0	0	0	0	0	0	0	0	0	0	0	0	0	0	0	0	0	0	0	0	0	0	0	0	0	0	0	0	0	0	0	0	0	0	0	0	0	0	0	0	0	0	0	0	0	0	0	0	0	0	0	0	0	0	0	0	0	0	0	0	0	0	0	0	0	0	0	0	0	0	0	0	0	0	0	0	0	0	0	0	0	0	0	0	0	0	0	0	0	0	0	0	0	0	0	0	0	0	0	0	0	0	0	0	0	0	0	0	0	0	0	0	0	0	0	0	0	0	0	0	0	0	0	0	0	0	0	0	0	0	0	0	0	0	0	0	0	0	0	0	0	0	0	0	0	0	0	0	0	0	0	0	0	0	0	0	0	0	326	326	326	0	0	0	0	0	0	0	0	0	0	0	0	0	0	0	0	0	0	0	0	0	0	0	0	0	0	0	0	0	0	0	0	0	0	0	0	0	0	0	0	0	0	0	0	0	0	0	0	0	0	0	0	0	0	0	0	0	0	0	0	0	0	0	0	0	0	0	0	0	0	0	0	0	0	0	0	0	0	0	0	0	0	0	0	0	0	0	0	329	329	329	329	330	330	331	331	331	332	333	334	334	335	335	336	336	337	337	338	339	339	339	339	339	340	340	340	340	340	340	340	340	341	341	341	0	0	0	0	0	0	0	0	0	0	0	0	0	0	0	0	0	0	0	0	0	0	0	0	0	0	0	394	394	394	394	395	395	395	395	395	395	395	395	395	395	0	395	395	395	395	0	0	0	0	0	0	0	0	0	0	0	0	0	0	0	0	0	0	0	0	0	0	0	0	0	0	0	0	0	0	0	0	0	0	0	0	0	0	0	0	0	0	0	0	0	0	0	0	0	0	0	0	0	0	0	0	0	0	0	0	0	0	0	0	0	0	0	0	0	0	0	0	0	0	0	0	0	0	0	0	0	0	0	0	0	0	0	0	0	0	0	0	0	0	0	0	0	0	0	0	0	0	0	0	2928	2928	2928	2935	2954	2954	2961	2975	2975	2988	2988	2988	2988	2995	2988	2988	2988	2988	2988	2988	2988	2995	2995	2995	2988	2988	2988	2995	2995	2995	2995	2995	2995	2995	2995	2995	2988	2988	2988	2988	2988	2988	2988	2988	2988	2981	2975	2975	2961	2941	2941	2935	2928	2908	2908	2896	2896	2896	2896	2896	2896	2896	2908	2915	2915	2928	2941	2941	2941	2954	2954	2961	2975	2975	2975	2981	2981	2981	2981	2981	2981	2981	2975	2975	2975	2975	2975	2975	2961	2961	2954	2954	2954	2941	2941	2941	2941	2941	2935	2935	2935	2928	2928	2928	2915	2908	2908	2908	2896	2889	2889	2889	2876	2876	2876	2876	2876	2870	2870	2870	2864	2864	2864	2864	2864	2858	2858	2858	2851	2851	2851	2845	2845	2845	2845	2845	2839	2839	2839	2839	2839	2839	2839	2839	2839	2833	2833	2833	2833	2833	2827	2827	2827	2821	2821	2821	2821	2821	2821	2815	2815	2815	2815	2815	2809	2809	2809	2809	2803	2803	2797	2797	2791	2791	2791	2791	2791	2791	2791	2791	2791	2785	2785	2785	2785	2785	2785	2785	2785	2785	2785	2785	2779	2779	2779	2779	2773	2761	2761	2761	2755	2755	2744	2738	2738	2738	2732	2732	2721	2721	2721	2715	2715	2704	2704	2704	2699	2699	2687	2682	2682	2676	2676	2676	2671	2666	2660	2660	2660	2655	2655	2655	2660	2660	2660	2655	2655	2655	2655	2655	2655	2649	2649	2649	2644	2644	2639	2633	2633	2633	2628	2628	2628	2623	2618	2618	2612	2607	2607	2602	2587	2587	2581	2571	2566	2566	2566	2561	2561	2561	2566	2571	2571	2571	2571	2571	2587	2597	2597	2597	2602	2602	2602	2602	2602	2607	2607	2607	2612	2612	2612	2612	2612	2612	2607	2607	2607	2597	2597	2581	2571	2551	2551	2546	2522	2522	2512	2502	2493	2493	2493	2488	2488	2488	2483	2483	2479	2479	2479	2474	2474	2474	2474	2474	2474	2474	2474	2474	2474	2474	2474	2474	2474	2479	2479	2479	2479	2479	2474	2474	2474	2474	2474	2474	2469	2469	2469	2465	2465	2465	2460	2456	2456	2456	2451	2451	2446	2446	2446	2446	2446	2446	2446	2442	2442	2442	2442	2442
0	0	0	0	0	0	0	0	0	0	0	0	0	0	0	0	0	0	0	0	0	0	0	0	0	0	0	0	0	0	0	0	0	0	0	0	0	0	0	0	0	0	0	0	0	0	0	0	0	0	0	0	0	0	0	0	0	0	0	0	0	0	0	0	0	0	0	0	0	0	0	0	0	0	0	0	0	0	0	0	0	0	0	0	0	0	0	0	0	0	0	0	0	0	0	0	0	0	0	0	0	0	0	0	0	0	0	0	0	0	0	0	0	0	0	0	0	0	0	0	0	0	0	0	0	0	0	0	0	0	0	0	0	0	0	0	0	0	0	0	0	0	0	0	0	0	0	0	0	0	0	0	0	0	0	0	0	0	0	0	0	0	0	0	0	0	0	0	0	0	0	0	0	0	0	0	0	0	0	0	0	0	0	0	0	0	0	0	0	0	0	0	0	0	0	0	0	0	0	0	0	0	0	0	0	0	0	0	0	0	0	0	0	0	0	0	0	0	0	0	0	0	0	0	0	0	0	0	0	0	0	0	0	0	0	0	0	0	0	0	0	0	0	0	0	0	0	0	0	0	0	0	0	0	0	0	0	0	0	0	0	0	0	0	0	0	0	329	329	329	329	330	330	331	331	332	332	333	334	334	335	335	336	336	337	337	338	339	339	339	339	339	340	340	340	340	340	340	340	340	341	341	341	342	342	0	0	0	0	0	0	0	0	0	0	0	0	0	0	0	0	0	0	0	0	0	0	0	0	0	394	394	394	394	394	394	394	395	395	395	395	395	395	395	395	395	395	395	395	0	0	0	0	0	0	0	0	0	0	0	0	0	0	0	0	0	0	0	0	0	0	0	0	0	0	0	0	0	0	0	0	0	0	0	0	0	0	0	0	0	0	0	0	0	0	0	0	0	0	0	0	0	0	0	0	0	0	0	0	0	0	0	0	0	0	0	0	0	0	0	0	0	0	0	0	0	0	0	0	0	0	0	0	0	0	0	0	0	0	0	0	0	0	0	0	0	0	0	0	0	0	0	2876	2876	2915	2915	2941	2975	2975	2988	2988	2988	2995	3002	3002	3002	3002	2995	2995	2995	2995	2995	2995	2995	2995	2995	2995	2995	2995	2995	2995	2995	2995	2995	2995	2988	2988	2988	2988	2988	2988	2988	2988	2988	2988	2988	2988	2988	2981	2975	2975	2961	2941	2941	2935	2928	2908	2908	2896	2896	2896	2896	2896	2896	2896	2908	2915	2915	2928	2941	2941	2941	2954	2954	2961	2975	2975	2975	2981	2981	2981	2981	2981	2981	2981	2975	2975	2975	2975	2975	2975	2961	2961	2954	2954	2954	2941	2941	2941	2941	2941	2935	2935	2935	2928	2928	2928	2915	2908	2896	2896	2889	2889	2889	2876	2870	2870	2870	2864	2864	2864	2864	2864	2864	2864	2864	2858	2858	2851	2851	2851	2851	2851	2851	2845	2845	2845	2845	2845	2845	2839	2839	2839	2839	2839	2839	2839	2839	2833	2833	2833	2833	2833	2833	2833	2827	2821	2821	2821	2821	2821	2821	2815	2815	2815	2815	2815	2809	2809	2809	2809	2803	2803	2803	2797	2797	2797	2797	2791	2791	2791	2791	2791	2791	2791	2791	2791	2785	2785	2785	2785	2785	2785	2785	2785	2785	2779	2779	2779	2773	2761	2761	2761	2755	2755	2744	2744	2744	2738	2732	2732	2732	2721	2721	2721	2715	2715	2715	2704	2699	2699	2687	2682	2682	2676	2676	2676	2671	2666	2666	2660	2660	2655	2655	2655	2655	2655	2649	2649	2649	2649	2649	2649	2644	2639	2639	2639	2639	2639	2633	2633	2633	2628	2628	2623	2623	2618	2612	2612	2612	2602	2602	2602	2587	2587	2581	2571	2566	2566	2566	2561	2561	2561	2566	2571	2571	2571	2571	2571	2581	2587	2587	2597	2597	2597	2602	2602	2602	2602	2602	2602	2607	2607	2607	2607	2612	2612	2607	2607	2607	2597	2597	2581	2571	2551	2551	2546	2522	2522	2512	2502	2493	2493	2493	2488	2488	2483	2479	2479	2474	2474	2474	2474	2469	2469	2469	2469	2469	2469	2469	2474	2474	2474	2474	2474	2474	2479	2479	2479	2479	2479	2474	2474	2474	2474	2474	2474	2469	2469	2469	2465	2465	2465	2460	2456	2456	2456	2451	2451	2446	2446	2446	2446	2446	2446	2446	2442	2442	2442	2442	2442
0	0	0	0	0	0	0	0	0	0	0	0	0	0	0	0	0	0	0	0	0	0	0	0	0	0	0	0	0	0	0	0	0	0	0	0	0	0	0	0	0	0	0	0	0	0	0	0	0	0	0	0	0	0	0	0	0	0	0	0	0	0	0	0	0	0	0	0	0	0	0	0	0	0	0	0	0	0	0	0	0	0	0	0	0	0	0	0	0	0	0	0	0	0	0	0	0	0	0	0	0	0	0	0	0	0	0	0	0	0	0	0	0	0	0	0	0	0	0	0	0	0	0	0	0	0	0	0	0	0	0	0	0	0	0	0	0	0	0	0	0	0	0	0	0	0	0	0	0	0	0	0	0	0	0	0	0	0	0	0	0	0	0	0	0	0	0	0	0	327	327	327	327	0	0	0	0	0	0	0	0	0	0	0	0	0	0	0	0	0	0	0	0	0	0	0	0	0	0	0	0	0	0	0	0	0	0	0	0	0	0	0	0	0	0	0	0	0	0	0	0	0	0	0	0	0	0	0	0	0	0	0	0	0	0	0	0	0	0	0	0	0	0	0	0	0	0	0	0	0	0	0	0	0	0	0	0	0	0	0	0	0	0	0	0	0	0	329	329	329	329	330	330	331	331	332	332	333	334	334	335	335	336	336	337	337	338	339	339	339	339	340	340	340	340	341	341	341	341	342	342	342	342	342	342	0	0	0	0	0	0	0	0	0	0	0	0	0	0	0	0	0	0	0	0	0	0	0	0	0	394	394	394	394	394	394	394	394	394	394	394	394	394	394	395	395	395	0	0	0	0	0	0	0	0	0	0	0	0	0	0	0	0	0	0	0	0	0	0	0	0	0	0	0	0	0	0	0	0	0	0	0	0	0	0	0	0	0	0	0	0	0	0	0	0	0	0	0	0	0	0	0	0	0	0	0	0	0	0	0	0	0	0	0	0	0	0	0	0	0	0	0	0	0	0	0	0	0	0	0	0	0	0	0	0	0	0	0	0	0	0	0	0	0	0	0	0	0	0	0	0	0	2876	2876	2915	2915	2941	2975	2975	2988	2995	2995	3002	3002	3002	3002	3002	3002	2995	2995	2995	2995	2995	2995	2995	2995	2995	2995	2995	2995	2995	2995	2995	2995	2995	2988	2988	2988	2988	2988	2988	2988	2988	2988	2988	2988	2988	2988	2981	2981	2981	2975	2961	2961	2954	2941	2935	2935	2935	2928	2928	2928	2935	2935	2935	2935	2954	2954	2954	2975	2975	2975	2981	2981	2981	2988	2988	2988	2995	2995	2995	2995	2995	2995	2995	2995	2988	2988	2988	2981	2981	2981	2975	2975	2975	2961	2961	2961	2954	2954	2954	2954	2935	2935	2935	2928	2928	2915	2908	2896	2896	2889	2876	2876	2870	2870	2870	2864	2864	2864	2864	2858	2858	2858	2858	2851	2851	2851	2851	2851	2851	2845	2845	2845	2845	2845	2845	2845	2845	2845	2839	2839	2839	2839	2839	2839	2839	2839	2833	2833	2833	2833	2833	2833	2833	2827	2821	2821	2821	2821	2821	2821	2815	2815	2815	2815	2815	2809	2809	2809	2809	2803	2803	2803	2797	2797	2797	2797	2791	2791	2791	2791	2791	2791	2791	2791	2791	2785	2785	2785	2785	2785	2785	2785	2785	2785	2779	2779	2779	2773	2761	2761	2761	2755	2755	2744	2744	2744	2738	2732	2732	2732	2721	2721	2721	2715	2715	2715	2704	2699	2699	2687	2687	2687	2682	2682	2682	2671	2671	2671	2660	2660	2655	2655	2655	2655	2655	2649	2649	2649	2649	2649	2649	2644	2639	2639	2639	2639	2639	2633	2633	2633	2628	2628	2623	2623	2618	2612	2612	2612	2602	2602	2602	2597	2597	2587	2571	2571	2571	2566	2566	2566	2566	2566	2571	2571	2571	2571	2571	2581	2587	2587	2597	2597	2597	2602	2602	2602	2602	2602	2602	2607	2607	2607	2607	2612	2612	2607	2607	2607	2597	2597	2587	2571	2561	2561	2546	2522	2522	2512	2502	2493	2493	2488	2488	2488	2483	2479	2479	2474	2474	2474	2469	2469	2469	2469	2469	2469	2469	2469	2469	2469	2474	2474	2474	2474	2479	2479	2479	2479	2479	2479	2474	2474	2474	2474	2474	2474	2469	2469	2469	2469	2469	2465	2465	2465	2460	2460	2460	2456	2456	2456	2451	2451	2446	2446	2446	2446	2446	2446	2446
0	0	0	0	0	0	0	0	0	0	0	0	0	0	0	0	0	0	0	0	0	0	0	0	0	0	0	0	0	0	0	0	0	0	0	0	0	0	0	0	0	0	0	0	0	0	0	0	0	0	0	0	0	0	0	0	0	0	0	0	0	0	0	0	0	0	0	0	0	0	0	0	0	0	0	0	0	0	0	0	0	0	0	0	0	0	0	0	0	0	0	0	0	0	0	0	0	0	0	0	0	0	0	0	0	0	0	0	0	0	0	0	0	0	0	0	0	0	0	0	0	0	0	0	0	0	0	0	0	0	0	0	0	0	0	0	0	0	0	0	0	0	0	0	0	26176	26176	25169	23796	22566	22566	22183	21456	21456	21456	0	0	0	0	0	0	0	0	0	0	0	0	0	328	327	327	327	327	0	0	0	0	0	0	0	0	0	0	0	0	0	0	0	0	0	0	0	0	0	0	0	0	0	0	0	0	0	0	0	0	0	0	0	0	0	0	0	0	0	0	0	0	0	0	0	0	0	0	0	0	0	0	0	0	0	0	0	0	0	0	0	0	0	0	0	0	0	0	0	0	0	0	0	0	0	0	0	0	0	0	0	0	0	0	0	0	0	0	0	0	0	0	0	0	329	329	330	330	331	331	332	332	333	334	334	335	335	337	337	338	338	338	339	339	340	340	340	340	340	341	341	341	342	342	342	342	342	342	0	0	0	0	0	0	0	0	0	0	0	0	0	0	0	0	0	0	0	0	0	0	0	0	0	0	0	0	394	394	394	394	394	394	394	394	394	394	394	394	394	395	395	395	0	0	0	0	0	0	0	0	0	0	0	0	0	0	0	0	0	0	0	0	0	0	0	0	0	0	0	0	0	0	0	0	0	0	0	0	0	0	0	0	0	0	0	0	0	0	0	0	0	0	0	0	0	0	0	0	0	0	0	0	0	0	0	0	0	0	0	0	0	0	0	0	0	0	0	0	0	0	0	0	0	0	0	0	0	0	0	0	0	0	0	0	0	0	0	0	0	0	0	0	0	0	0	0	2839	2839	2839	2889	2889	2915	2954	2954	2981	2995	2995	3002	3002	3002	3002	3002	3002	2995	2995	2995	2995	2995	2995	2995	2995	2995	2995	2995	2995	2995	2995	2995	2995	2995	2988	2988	2988	2988	2988	2988	2988	2988	2988	2988	2988	2988	2988	2988	2988	2988	2981	2975	2975	2975	2975	2975	2975	2961	2961	2961	2961	2975	2975	2975	2981	2981	2981	2988	2988	2995	2995	2995	2995	2995	3002	3002	3002	3002	3002	3002	3002	3002	3002	3002	2995	2995	2995	2995	2995	2995	2988	2988	2988	2981	2981	2981	2975	2975	2961	2961	2954	2941	2941	2935	2928	2928	2915	2908	2896	2896	2889	2876	2876	2870	2870	2870	2864	2864	2864	2864	2858	2858	2858	2851	2851	2851	2845	2845	2845	2845	2845	2845	2845	2845	2845	2845	2845	2845	2845	2845	2845	2839	2839	2839	2839	2839	2839	2839	2833	2833	2833	2833	2833	2833	2827	2827	2827	2821	2821	2821	2821	2815	2815	2815	2815	2815	2815	2809	2809	2809	2809	2809	2809	2803	2803	2803	2803	2797	2797	2797	2797	2797	2791	2791	2791	2791	2791	2791	2791	2791	2791	2791	2785	2785	2785	2779	2779	2779	2773	2773	2773	2761	2755	2755	2755	2744	2744	2738	2738	2738	2738	2732	2732	2732	2721	2715	2715	2704	2699	2699	2687	2687	2687	2682	2682	2682	2671	2671	2671	2660	2660	2655	2655	2655	2649	2649	2649	2644	2644	2639	2639	2639	2639	2633	2633	2633	2633	2633	2628	2628	2628	2623	2623	2618	2618	2618	2612	2612	2612	2602	2602	2602	2597	2597	2587	2571	2571	2571	2566	2566	2566	2566	2566	2571	2571	2571	2571	2571	2581	2587	2587	2587	2597	2597	2597	2597	2597	2597	2602	2602	2602	2602	2602	2607	2607	2607	2607	2607	2602	2597	2597	2587	2571	2561	2561	2546	2532	2532	2517	2502	2493	2493	2488	2488	2488	2483	2479	2479	2474	2474	2474	2469	2469	2469	2469	2469	2469	2469	2469	2469	2469	2474	2474	2474	2474	2479	2479	2479	2479	2479	2479	2479	2479	2479	2479	2479	2479	2474	2474	2474	2474	2474	2469	2469	2469	2469	2465	2465	2460	2456	2456	2456	2451	2451	2451	2446	2446	2446	2446	2446
0	0	0	0	0	0	0	0	0	0	0	0	0	0	0	0	0	0	0	0	0	0	0	0	0	0	0	0	0	0	0	0	0	0	0	0	0	0	0	0	0	0	0	0	0	0	0	0	0	0	0	0	0	0	0	0	0	0	0	0	0	0	0	0	0	0	0	0	0	0	0	0	0	0	0	0	0	0	0	0	0	0	0	0	0	0	0	0	0	0	0	0	0	0	0	0	0	0	0	0	0	0	0	0	0	0	0	0	0	0	0	0	0	0	0	0	0	0	0	0	0	0	0	0	0	0	0	0	0	0	0	0	0	0	0	0	0	0	30437	29745	29745	28452	27847	27847	27267	26176	26176	25169	23796	22566	22566	22183	21456	21456	21456	21456	0	0	0	0	0	0	0	0	0	0	0	0	328	328	328	328	329	328	328	329	329	329	329	329	0	0	0	0	0	0	0	0	0	0	0	0	0	0	0	0	0	0	0	0	0	0	0	0	0	0	0	0	0	0	0	0	0	0	0	0	0	0	0	0	0	0	0	0	0	0	0	0	0	0	0	0	0	0	0	0	0	0	0	0	0	0	0	0	0	0	0	0	0	0	0	0	0	0	0	0	0	0	0	0	0	0	0	0	0	0	0	0	0	329	329	330	330	331	331	332	332	333	334	334	335	335	337	337	338	338	338	339	339	340	340	340	340	340	341	341	341	342	342	342	342	342	342	0	0	0	0	0	0	0	0	0	0	0	0	0	0	0	0	0	0	0	0	0	0	0	0	0	0	0	0	393	393	393	393	394	394	394	394	394	394	394	394	394	0	0	0	0	0	0	0	0	0	0	0	0	0	0	0	0	0	0	0	0	0	0	0	0	0	0	0	0	0	0	0	0	0	0	0	0	0	0	0	0	0	0	0	0	0	0	0	0	0	0	0	0	0	0	0	0	0	0	0	0	0	0	0	0	0	0	0	0	0	0	0	0	0	0	0	0	0	0	0	0	0	0	0	0	0	0	0	0	0	0	0	0	0	0	0	0	0	0	0	0	0	0	0	0	2773	2773	2773	2809	2821	2821	2851	2889	2889	2935	2935	2981	2995	2995	3002	3009	3009	3009	3009	3002	3002	3002	3002	3009	3009	3009	3009	3009	3009	3002	3002	3002	3002	3002	2995	2995	2995	2988	2988	2988	2988	2988	2988	2988	2988	2988	2988	2988	2988	2988	2988	2988	2988	2981	2975	2975	2975	2975	2975	2975	2961	2961	2961	2961	2975	2975	2975	2981	2981	2981	2988	2988	2995	2995	2995	2995	2995	3002	3002	3002	3002	3002	3002	3002	3002	3002	3002	2995	2995	2995	2995	2995	2995	2988	2988	2988	2981	2981	2981	2975	2975	2961	2961	2954	2941	2941	2935	2928	2928	2915	2908	2896	2896	2889	2876	2876	2870	2870	2870	2864	2864	2864	2858	2858	2858	2858	2851	2851	2851	2845	2845	2845	2845	2845	2845	2845	2845	2845	2845	2845	2845	2845	2845	2845	2845	2839	2839	2839	2839	2839	2839	2833	2833	2833	2833	2833	2833	2827	2827	2827	2821	2821	2821	2821	2815	2815	2815	2815	2815	2815	2809	2809	2809	2809	2809	2809	2809	2809	2809	2803	2803	2803	2797	2797	2797	2797	2797	2797	2797	2791	2791	2791	2791	2791	2791	2791	2791	2785	2785	2785	2779	2779	2779	2773	2761	2761	2761	2755	2755	2755	2744	2744	2744	2738	2738	2738	2732	2721	2715	2715	2704	2704	2704	2699	2699	2699	2687	2682	2682	2676	2671	2671	2666	2660	2655	2655	2655	2649	2649	2644	2639	2639	2639	2633	2633	2633	2633	2633	2628	2623	2623	2623	2623	2618	2618	2618	2612	2612	2612	2612	2612	2612	2607	2607	2602	2597	2597	2587	2581	2581	2581	2571	2571	2571	2566	2566	2571	2571	2581	2581	2581	2581	2587	2587	2587	2597	2597	2597	2597	2597	2597	2597	2597	2597	2602	2602	2602	2602	2602	2602	2602	2602	2597	2597	2581	2571	2551	2551	2546	2532	2532	2512	2502	2493	2493	2488	2488	2488	2479	2479	2479	2474	2469	2469	2469	2465	2465	2465	2465	2465	2465	2469	2469	2469	2469	2474	2474	2474	2479	2479	2479	2479	2479	2479	2479	2479	2479	2479	2479	2479	2474	2474	2474	2474	2474	2469	2469	2469	2469	2465	2465	2460	2456	2456	2456	2451	2451	2451	2446	2442	2442	2442	2442
0	0	0	0	0	0	0	0	0	0	0	0	0	0	0	0	0	0	0	0	0	0	0	0	0	0	0	0	0	0	0	0	0	0	0	0	0	0	0	0	0	0	0	0	0	0	0	0	0	0	0	0	0	0	0	0	0	0	0	0	0	0	0	0	0	0	0	0	0	0	0	0	0	0	0	0	0	0	0	0	0	0	0	0	0	0	0	0	0	0	0	0	0	0	0	0	0	0	0	0	0	0	0	0	0	0	0	0	0	0	0	0	0	0	0	0	0	0	0	0	0	0	0	0	0	0	0	0	0	0	0	0	0	0	0	0	0	0	30437	29745	29745	28452	27847	27847	27267	26176	26176	25169	24237	23371	23371	22566	22183	22183	21456	21456	0	0	0	0	0	0	0	0	0	0	0	0	328	328	328	329	329	328	328	329	329	329	329	329	0	0	0	0	0	0	0	0	0	0	0	0	0	0	0	0	0	0	0	0	0	0	0	0	0	0	0	0	0	0	0	0	0	0	0	0	0	0	0	0	0	0	0	0	0	0	0	0	0	0	0	0	0	0	0	0	0	0	0	0	0	0	0	0	0	0	0	0	0	0	0	0	0	0	0	0	0	0	0	0	0	0	0	0	0	0	0	0	0	329	329	330	330	331	331	332	332	333	334	334	336	336	337	337	338	338	339	339	339	340	340	340	341	341	341	341	342	342	342	342	342	342	344	344	345	345	345	0	0	0	0	0	0	0	0	0	0	0	0	0	0	0	0	0	0	0	0	0	0	0	0	393	393	393	393	393	393	393	393	393	394	394	394	394	0	0	0	0	0	0	0	0	0	0	0	0	0	0	0	0	0	0	0	0	0	0	0	0	0	0	0	0	0	0	0	0	0	0	0	0	0	0	0	0	0	0	0	0	0	0	0	0	0	0	0	0	0	0	0	0	0	0	0	0	0	0	0	0	0	0	0	0	0	0	0	0	0	0	0	0	0	0	0	0	0	0	0	0	0	0	0	0	0	0	0	0	0	0	0	0	0	0	0	0	0	0	0	0	2773	2773	2773	2809	2821	2821	2851	2889	2889	2935	2935	2981	2995	2995	3009	3009	3016	3023	3023	3023	3023	3023	3023	3023	3023	3023	3023	3023	3023	3016	3016	3016	3016	3016	3002	3002	3002	2995	2988	2988	2988	2988	2988	2995	2995	2988	2988	2988	2995	2995	2995	2995	2995	2988	2988	2988	2988	2988	2988	2988	2988	2995	2995	2995	2995	2995	2995	3002	3002	3002	3002	3002	3009	3009	3009	3002	3002	3002	3002	3009	3009	3009	3009	3009	3002	3002	3002	3002	3002	3002	3002	3002	3002	2995	2995	2995	2995	2988	2988	2981	2975	2975	2975	2961	2954	2954	2941	2935	2935	2915	2908	2896	2896	2889	2876	2876	2870	2864	2864	2864	2858	2858	2858	2851	2851	2851	2851	2851	2851	2845	2845	2845	2845	2845	2845	2845	2845	2845	2845	2845	2845	2845	2845	2845	2845	2839	2839	2839	2839	2839	2839	2833	2833	2833	2833	2833	2833	2827	2827	2827	2821	2821	2821	2821	2815	2815	2815	2815	2815	2815	2809	2809	2809	2809	2809	2809	2809	2809	2809	2803	2803	2803	2797	2797	2797	2797	2797	2797	2797	2791	2791	2791	2791	2791	2791	2791	2791	2785	2785	2785	2779	2779	2779	2773	2761	2761	2761	2755	2755	2755	2744	2744	2744	2744	2738	2738	2738	2732	2732	2721	2721	2715	2715	2704	2699	2699	2687	2682	2682	2676	2671	2671	2666	2666	2655	2655	2655	2649	2649	2644	2639	2639	2639	2633	2633	2633	2633	2633	2628	2623	2623	2623	2623	2618	2618	2618	2612	2612	2612	2612	2612	2612	2612	2612	2607	2602	2602	2597	2587	2587	2587	2581	2581	2581	2581	2581	2581	2581	2581	2581	2581	2587	2587	2587	2587	2597	2597	2597	2597	2597	2597	2597	2597	2597	2602	2602	2602	2602	2602	2602	2602	2597	2597	2597	2581	2566	2551	2551	2536	2532	2532	2512	2498	2493	2493	2488	2488	2488	2479	2474	2474	2474	2469	2469	2465	2465	2465	2460	2460	2465	2465	2465	2469	2469	2469	2474	2474	2474	2479	2479	2479	2479	2479	2479	2483	2483	2479	2479	2479	2479	2479	2479	2479	2474	2474	2474	2474	2474	2469	2469	2469	2465	2460	2460	2456	2456	2456	2451	2446	2442	2442	2433	2433
0	0	0	0	0	0	0	0	0	0	0	0	0	0	0	0	0	0	0	0	0	0	0	0	0	0	0	0	0	0	0	0	0	0	0	0	0	0	0	0	0	0	0	0	0	0	0	0	0	0	0	0	0	0	0	0	0	0	0	0	0	0	0	0	0	0	0	0	0	0	0	0	0	0	0	0	0	0	0	0	0	0	0	0	0	0	0	0	0	0	0	0	0	0	0	0	0	0	0	0	0	0	0	0	0	0	0	0	0	0	0	0	0	0	0	0	0	0	0	0	0	0	0	0	0	0	0	0	0	0	0	0	0	0	0	0	0	0	30437	29084	29084	28452	27267	27267	26710	26176	26176	25169	24237	23371	23371	22566	22183	22183	21456	21456	21456	21456	0	0	0	0	0	0	0	0	0	0	0	0	329	329	329	328	328	329	329	329	329	329	329	329	329	329	329	329	0	0	0	0	0	0	0	0	0	0	0	0	0	0	0	0	0	0	0	0	0	0	0	0	0	0	0	0	0	0	0	0	0	0	0	0	0	0	0	0	0	0	0	0	0	0	0	0	0	0	0	0	0	0	0	0	0	0	0	0	0	0	0	0	0	0	0	0	0	0	0	0	0	0	0	0	0	0	0	0	0	0	0	0	330	330	330	331	331	332	332	333	334	334	336	336	337	337	338	338	339	339	339	340	340	340	341	341	342	342	342	343	343	343	343	343	344	344	345	345	345	0	0	0	0	0	0	0	0	0	0	0	0	0	0	0	0	0	0	0	0	0	0	0	0	0	0	393	393	393	393	393	393	393	0	0	0	0	0	0	0	0	0	0	0	0	0	0	0	0	0	0	0	0	0	0	0	0	0	0	0	0	0	0	0	0	0	0	0	0	0	0	0	0	0	0	0	0	0	0	0	0	0	0	0	0	0	0	0	0	0	0	0	0	0	0	0	0	0	0	0	0	0	0	0	0	0	0	0	0	0	0	0	0	0	0	0	0	0	0	0	0	0	0	0	0	0	0	0	0	0	0	0	0	0	0	0	0	0	2676	2676	2715	2715	2755	2755	2791	2815	2815	2839	2870	2870	2928	2928	2981	2995	2995	3009	3009	3016	3023	3023	3023	3023	3023	3023	3023	3023	3023	3023	3023	3023	3023	3023	3023	3016	3016	3016	3002	3002	3002	2995	2995	2995	2995	2995	2995	2995	2995	2995	2995	3002	3002	3002	3002	3002	3002	3009	3009	3009	3009	3009	3009	3009	3009	3009	3009	3016	3009	3009	3016	3016	3016	3016	3016	3009	3009	3009	3009	3009	3009	3009	3009	3009	3009	3009	3009	3009	3009	3009	3009	3009	3009	3002	3002	3002	3002	2995	2995	2995	2995	2995	2988	2981	2975	2975	2961	2954	2954	2941	2935	2935	2915	2908	2896	2896	2889	2876	2876	2870	2864	2864	2858	2858	2858	2851	2851	2851	2851	2851	2851	2851	2845	2845	2845	2845	2845	2845	2845	2845	2845	2845	2845	2845	2845	2845	2845	2845	2845	2845	2839	2839	2839	2839	2839	2839	2833	2833	2833	2833	2827	2827	2827	2821	2821	2821	2821	2821	2821	2815	2815	2815	2815	2809	2809	2809	2809	2809	2809	2809	2809	2809	2803	2803	2803	2803	2803	2803	2803	2797	2797	2797	2797	2797	2797	2797	2797	2797	2791	2791	2791	2785	2785	2779	2779	2779	2779	2773	2761	2761	2755	2755	2755	2755	2744	2744	2744	2738	2738	2738	2732	2732	2721	2721	2715	2715	2704	2699	2699	2687	2682	2682	2676	2671	2671	2666	2666	2655	2655	2655	2649	2649	2644	2639	2639	2639	2633	2633	2633	2628	2628	2628	2623	2623	2618	2618	2618	2618	2618	2612	2612	2612	2612	2612	2612	2612	2612	2607	2602	2602	2597	2587	2587	2587	2581	2581	2581	2581	2581	2581	2581	2581	2581	2581	2587	2587	2587	2587	2587	2587	2587	2587	2587	2587	2587	2587	2597	2597	2597	2597	2602	2602	2602	2602	2597	2597	2597	2581	2566	2551	2551	2536	2532	2532	2512	2498	2493	2493	2488	2488	2488	2479	2474	2474	2474	2469	2469	2465	2465	2465	2460	2460	2465	2465	2465	2469	2469	2469	2474	2474	2474	2479	2479	2479	2479	2479	2483	2483	2483	2483	2483	2483	2483	2479	2479	2479	2479	2479	2474	2474	2474	2474	2469	2469	2465	2460	2460	2460	2456	2456	2451	2446	2442	2442	2433	2433
0	0	0	0	0	0	0	0	0	0	0	0	0	0	0	0	0	0	0	0	0	0	0	0	0	0	0	0	0	0	0	0	0	0	0	0	0	0	0	0	0	0	0	0	0	0	0	0	0	0	0	0	0	0	0	0	0	0	0	0	0	0	0	0	0	0	0	0	0	0	0	0	0	0	0	0	0	0	0	0	0	0	0	0	0	0	0	0	0	0	0	0	0	0	0	0	0	0	0	0	0	0	0	0	0	0	0	0	0	0	0	0	0	0	0	0	0	0	0	0	0	0	0	0	0	0	0	0	0	0	0	0	0	0	0	0	0	0	29745	29084	29084	28452	27267	27267	26710	26176	26176	25169	24237	23371	23371	22566	22566	22566	22183	21456	21456	21456	21456	0	0	0	0	0	0	0	0	0	0	0	0	0	0	0	0	0	329	329	329	329	329	329	329	329	329	329	0	0	0	0	0	0	0	0	0	0	0	0	0	0	0	0	0	0	0	0	0	0	0	0	0	0	0	0	0	0	0	0	0	0	0	0	0	0	0	0	0	0	0	0	0	0	0	0	0	0	0	0	0	0	0	0	0	0	0	0	0	0	0	0	0	0	0	0	0	0	0	0	0	0	0	0	0	0	0	0	0	0	0	329	329	330	330	331	331	332	332	333	334	334	336	336	337	337	338	338	339	339	339	340	340	340	341	341	342	342	342	343	343	343	343	343	344	344	345	345	345	346	347	0	0	0	0	0	0	0	0	0	0	0	0	0	0	0	0	0	0	0	0	0	0	0	0	0	0	0	0	0	0	0	0	0	0	0	0	0	0	0	0	0	0	0	0	0	0	0	0	0	0	0	0	0	0	0	0	0	0	0	0	0	0	0	0	0	0	0	0	0	0	0	0	0	0	0	0	0	0	0	0	0	0	0	0	0	0	0	0	0	0	0	0	0	0	0	0	0	0	0	0	0	0	0	0	0	0	0	0	0	0	0	0	0	0	0	0	0	0	0	0	0	0	0	0	0	0	0	0	0	0	0	0	0	0	2666	2666	2666	2676	2704	2704	2738	2755	2785	2809	2809	2833	2870	2870	2928	2928	2981	3002	3002	3016	3016	3030	3030	3030	3030	3030	3030	3037	3037	3037	3030	3030	3030	3030	3023	3023	3023	3016	3016	3016	3002	3002	3002	2995	2995	2995	2995	2995	2995	2995	2995	2995	2995	3002	3002	3002	3002	3002	3002	3009	3009	3009	3009	3009	3009	3009	3009	3009	3009	3016	3009	3009	3016	3016	3016	3016	3016	3009	3009	3009	3009	3009	3009	3009	3009	3009	3009	3009	3009	3009	3009	3009	3009	3009	3009	3002	3002	3002	3002	2995	2995	2995	2995	2995	2988	2981	2975	2975	2961	2954	2954	2941	2928	2928	2915	2908	2889	2889	2889	2870	2870	2870	2864	2864	2858	2858	2858	2851	2851	2851	2851	2851	2851	2851	2845	2845	2845	2845	2845	2845	2845	2845	2845	2845	2845	2845	2845	2845	2845	2845	2845	2845	2839	2839	2839	2839	2839	2839	2833	2833	2833	2833	2827	2827	2827	2821	2821	2821	2821	2821	2821	2815	2815	2815	2815	2809	2809	2809	2809	2809	2809	2809	2809	2809	2803	2803	2803	2803	2803	2803	2803	2803	2803	2803	2797	2797	2797	2797	2797	2797	2791	2791	2791	2785	2785	2785	2779	2779	2779	2773	2761	2761	2761	2755	2755	2755	2744	2744	2744	2738	2738	2738	2732	2732	2721	2715	2715	2715	2704	2699	2699	2687	2682	2682	2676	2671	2671	2671	2666	2655	2655	2655	2649	2649	2644	2639	2639	2633	2633	2633	2628	2628	2628	2623	2618	2618	2618	2618	2612	2612	2612	2612	2612	2612	2618	2618	2618	2612	2612	2612	2612	2612	2607	2602	2602	2597	2587	2587	2587	2587	2587	2587	2587	2587	2587	2587	2587	2587	2587	2587	2587	2581	2581	2581	2581	2581	2581	2581	2581	2587	2587	2597	2597	2597	2597	2597	2597	2587	2587	2571	2566	2551	2551	2536	2522	2522	2512	2498	2493	2493	2488	2483	2483	2479	2474	2474	2469	2469	2469	2465	2460	2460	2460	2460	2460	2460	2460	2465	2465	2469	2469	2469	2474	2479	2479	2479	2479	2479	2483	2483	2483	2483	2483	2483	2483	2479	2479	2479	2479	2479	2474	2474	2474	2474	2469	2469	2465	2460	2460	2460	2456	2446	2446	2442	2433	2433	2428	2428
0	0	0	0	0	0	0	0	0	0	0	0	0	0	0	0	0	0	0	0	0	0	0	0	0	0	0	0	0	0	0	0	0	0	0	0	0	0	0	0	0	0	0	0	0	0	0	0	0	0	0	0	0	0	0	0	0	0	0	0	0	0	0	0	0	0	0	0	0	0	0	0	0	0	0	0	0	0	0	0	0	0	0	0	0	0	0	0	0	0	0	0	0	0	0	0	0	0	0	0	0	0	0	0	0	0	0	0	0	0	0	0	0	0	0	0	0	0	0	0	0	0	0	0	0	0	0	0	0	0	0	0	0	0	0	0	0	0	29745	29084	29084	28452	27267	27267	26710	26176	26176	25169	24237	23371	23371	23371	22566	22566	22566	22183	22183	21456	21456	0	0	0	0	0	0	0	0	0	0	0	0	0	0	0	0	0	0	329	329	329	329	329	329	329	0	0	0	0	0	0	0	0	0	0	0	0	0	0	0	0	0	0	0	0	0	0	0	0	0	0	0	0	0	0	0	0	0	0	0	0	0	0	0	0	0	0	0	0	0	0	0	0	0	0	0	0	0	0	0	0	0	0	0	0	0	0	0	0	0	0	0	0	0	0	0	0	0	0	0	0	0	0	0	0	0	0	0	0	0	329	329	330	330	331	331	332	332	0	334	334	336	336	337	337	337	337	338	339	339	340	340	341	341	342	342	342	343	343	343	344	344	345	345	345	346	346	346	346	347	0	0	0	0	0	0	0	0	0	0	0	0	0	0	0	0	0	0	0	0	0	0	0	0	0	0	0	0	0	0	0	0	0	0	0	0	0	0	0	0	0	0	0	0	0	0	0	0	0	0	0	0	0	0	0	0	0	0	0	0	0	0	0	0	0	0	0	0	0	0	0	0	0	0	0	0	0	0	0	0	0	0	0	0	0	0	0	0	0	0	0	0	0	0	0	0	0	0	0	0	0	0	0	0	0	0	0	0	0	0	0	0	0	0	0	0	0	0	0	0	0	0	0	0	0	0	0	0	0	0	0	0	0	0	2666	2666	2666	2676	2704	2704	2738	2785	2785	2809	2809	2833	2870	2870	2928	2928	2988	3009	3009	3023	3023	3030	3037	3037	3044	3044	3044	3044	3044	3044	3044	3044	3044	3037	3030	3030	3023	3023	3023	3016	3009	3009	3002	3002	3002	3002	3002	3009	3009	3009	3009	3009	3009	3016	3016	3016	3016	3016	3016	3016	3016	3016	3023	3023	3023	3023	3023	3023	3023	3023	3023	3023	3023	3016	3016	3016	3016	3016	3016	3016	3016	3016	3016	3009	3009	3009	3009	3009	3009	3009	3009	3009	3009	3009	3009	3009	3002	3002	3002	3002	3002	2995	2995	2995	2988	2981	2975	2975	2961	2954	2954	2941	2928	2928	2915	2908	2889	2889	2889	2870	2870	2870	2864	2864	2858	2858	2858	2851	2851	2851	2851	2851	2851	2851	2845	2845	2845	2845	2845	2845	2845	2845	2845	2845	2845	2845	2845	2845	2845	2845	2845	2845	2839	2839	2839	2839	2839	2839	2833	2833	2833	2833	2827	2827	2827	2821	2821	2821	2821	2815	2815	2815	2815	2815	2815	2809	2809	2809	2809	2809	2809	2809	2809	2803	2803	2803	2803	2803	2803	2803	2803	2803	2803	2803	2797	2797	2797	2797	2797	2797	2791	2791	2791	2785	2785	2785	2779	2779	2779	2773	2761	2761	2761	2755	2755	2755	2744	2744	2744	2738	2738	2738	2732	2732	2721	2715	2715	2715	2704	2704	2704	2687	2682	2682	2676	2676	2676	2671	2666	2655	2655	2655	2649	2649	2644	2639	2639	2633	2633	2633	2628	2628	2628	2623	2618	2618	2618	2618	2612	2612	2612	2612	2612	2612	2618	2618	2618	2618	2618	2618	2618	2618	2612	2607	2607	2607	2602	2602	2602	2597	2597	2597	2597	2597	2597	2587	2587	2587	2587	2587	2587	2581	2581	2581	2581	2571	2571	2571	2571	2581	2581	2581	2587	2587	2587	2587	2587	2581	2581	2571	2561	2546	2546	2536	2522	2522	2512	2498	2493	2493	2488	2483	2483	2479	2474	2474	2469	2469	2469	2465	2460	2460	2456	2456	2460	2460	2460	2465	2465	2469	2469	2469	2474	2479	2479	2479	2479	2479	2483	2483	2483	2488	2488	2488	2488	2483	2483	2479	2479	2479	2479	2474	2474	2474	2469	2469	2465	2460	2460	2456	2451	2446	2446	2433	2428	2428	2419	2419
0	0	0	0	0	0	0	0	0	0	0	0	0	0	0	0	0	0	0	0	0	0	0	0	0	0	0	0	0	0	0	0	0	0	0	0	0	0	0	0	0	0	0	0	0	0	0	0	0	0	0	0	0	0	0	0	0	0	0	0	0	0	0	0	0	0	0	0	0	0	0	0	0	0	0	0	0	0	0	0	0	0	0	0	0	0	0	0	0	0	0	0	0	0	0	0	0	0	0	0	0	0	0	0	0	0	0	0	0	0	0	0	0	0	0	0	0	0	0	0	0	0	0	0	0	0	0	0	0	0	0	0	0	0	0	0	0	0	29745	29084	29084	28452	27267	27267	26710	26176	26176	25169	24237	23371	23371	23371	22566	22566	22566	22183	22183	21456	21456	0	0	0	0	0	0	0	0	0	0	0	0	0	0	0	0	0	0	329	329	329	329	329	329	329	0	0	0	0	0	0	0	0	0	0	0	0	0	0	0	0	0	0	0	0	0	0	0	0	0	0	0	0	0	0	0	0	0	0	0	0	0	0	0	0	0	0	0	0	0	0	0	0	0	0	0	0	0	0	0	0	0	0	0	0	0	0	0	0	0	0	0	0	0	0	0	0	0	0	0	0	0	0	0	0	0	0	0	0	0	329	329	0	331	331	331	332	332	0	0	0	0	0	337	337	337	337	338	339	339	340	340	341	341	342	342	343	344	344	345	345	345	345	345	0	0	0	348	348	0	0	0	0	0	0	0	0	0	0	0	0	0	0	0	0	0	0	0	0	0	0	0	0	0	0	0	0	0	0	0	0	0	0	0	0	0	0	0	0	0	0	0	0	0	0	0	0	0	0	0	0	0	0	0	0	0	0	0	0	0	0	0	0	0	0	0	0	0	0	0	0	0	0	0	0	0	0	0	0	0	0	0	0	0	0	0	0	0	0	0	0	0	0	0	0	0	0	0	0	0	0	0	0	0	0	0	0	0	0	0	0	0	0	0	0	0	0	0	0	0	0	0	0	0	0	0	0	0	0	0	0	0	0	2660	2660	2666	2666	2676	2704	2704	2738	2738	2785	2809	2809	2833	2864	2864	2928	2928	2988	3009	3009	3023	3023	3030	3037	3037	3044	3051	3051	3051	3051	3051	3051	3051	3051	3044	3037	3037	3037	3030	3030	3023	3023	3023	3023	3023	3023	3023	3023	3023	3023	3023	3023	3016	3016	3023	3023	3023	3023	3023	3023	3023	3023	3023	3023	3030	3030	3023	3023	3023	3023	3023	3023	3023	3023	3023	3023	3023	3023	3016	3016	3016	3016	3016	3016	3016	3016	3016	3016	3016	3016	3016	3016	3016	3016	3016	3016	3009	3009	3009	3009	3002	3002	3002	2995	2995	2988	2981	2975	2975	2961	2954	2954	2941	2928	2928	2915	2908	2889	2889	2889	2876	2876	2870	2864	2864	2864	2858	2858	2858	2851	2851	2851	2851	2851	2851	2845	2845	2845	2845	2845	2845	2845	2845	2851	2845	2845	2845	2845	2845	2845	2845	2845	2845	2839	2839	2839	2839	2833	2833	2833	2833	2833	2833	2827	2827	2827	2821	2821	2821	2815	2815	2815	2815	2815	2815	2815	2809	2809	2809	2809	2809	2809	2809	2809	2803	2803	2803	2803	2803	2803	2803	2803	2803	2803	2803	2797	2797	2797	2797	2797	2797	2791	2791	2791	2791	2791	2785	2779	2779	2779	2773	2761	2761	2755	2755	2755	2744	2744	2744	2744	2738	2738	2732	2732	2732	2721	2715	2704	2704	2704	2704	2704	2687	2682	2682	2676	2676	2676	2671	2660	2655	2655	2655	2649	2649	2644	2639	2639	2633	2633	2633	2628	2628	2628	2623	2618	2618	2612	2612	2612	2612	2612	2612	2612	2612	2618	2618	2618	2618	2618	2618	2618	2618	2612	2607	2607	2607	2602	2602	2602	2597	2597	2597	2597	2597	2597	2587	2587	2587	2587	2581	2581	2581	2571	2571	2571	2571	2571	2571	2571	2581	2581	2581	2587	2587	2587	2587	2587	2581	2581	2571	2561	2546	2546	2536	2522	2522	2512	2498	2493	2493	2488	2483	2483	2479	2474	2474	2469	2469	2469	2465	2460	2460	2456	2456	2460	2460	2460	2465	2465	2469	2469	2469	2474	2479	2479	2479	2479	2479	2483	2488	2488	2488	2488	2488	2488	2488	2488	2483	2479	2479	2479	2474	2474	2474	2469	2469	2465	2460	2460	2456	2451	2451	2446	2433	2428	2428	2419	2419
0	0	0	0	0	0	0	0	0	0	0	0	0	0	0	0	0	0	0	0	0	0	0	0	0	0	0	0	0	0	0	0	0	0	0	0	0	0	0	0	0	0	0	0	0	0	0	0	0	0	0	0	0	0	0	0	0	0	0	0	0	0	0	0	0	0	0	0	0	0	0	0	0	0	0	0	0	0	0	0	0	0	0	0	0	0	0	0	0	0	0	0	0	0	0	0	0	0	0	0	0	0	0	0	0	0	0	0	0	0	0	0	0	0	0	0	0	0	0	0	0	0	0	0	0	0	0	0	0	0	0	0	0	0	0	0	0	0	29745	29084	29084	28452	27267	27267	26710	26176	26176	25169	24237	23371	23371	23371	23371	23371	23371	22566	22566	22566	23371	0	0	0	0	0	0	0	0	0	0	0	0	0	0	0	0	0	0	0	0	329	329	329	329	0	0	0	0	0	0	0	0	0	0	0	0	0	0	0	0	0	0	0	0	0	0	0	0	0	0	0	0	0	0	0	0	0	0	0	0	0	0	0	0	0	0	0	0	0	0	0	0	0	0	0	0	0	0	0	0	0	0	0	0	0	0	0	0	0	0	0	0	0	0	0	0	0	0	0	0	0	0	0	0	0	0	0	0	0	0	329	329	0	331	331	331	332	332	0	0	0	0	336	336	336	337	337	338	339	339	340	340	341	341	342	342	343	344	344	345	345	345	345	345	0	348	348	348	348	0	0	0	0	0	0	0	0	0	0	0	0	0	0	0	0	0	0	0	0	0	0	0	0	0	0	0	0	0	0	0	0	0	0	0	0	0	0	0	0	0	0	0	0	0	0	0	0	0	0	0	0	0	0	0	0	0	0	0	0	0	0	0	0	0	0	0	0	0	0	0	0	0	0	0	0	0	0	0	0	0	0	0	0	0	0	0	0	0	0	0	0	0	0	0	0	0	0	0	0	0	0	0	0	0	0	0	0	0	0	0	0	0	0	0	0	0	0	0	0	0	0	0	0	0	0	0	0	0	0	0	0	0	0	2660	2660	2671	2671	2682	2704	2704	2738	2738	2779	2803	2803	2833	2864	2864	2935	2935	2988	2995	3016	3023	3023	3044	3051	3051	3051	3051	3051	3051	3051	3051	3051	3051	3051	3044	3037	3037	3037	3030	3030	3023	3023	3023	3023	3023	3023	3023	3023	3023	3023	3023	3023	3016	3016	3023	3023	3023	3023	3023	3023	3023	3023	3023	3023	3030	3030	3023	3023	3023	3023	3023	3023	3023	3023	3023	3023	3023	3023	3016	3016	3016	3016	3016	3016	3016	3016	3016	3016	3016	3016	3016	3016	3016	3016	3016	3016	3009	3009	3009	3009	3002	3002	3002	2995	2995	2988	2981	2975	2975	2961	2954	2954	2941	2928	2928	2915	2908	2896	2896	2889	2876	2876	2870	2864	2864	2864	2858	2858	2858	2858	2858	2851	2851	2851	2851	2851	2845	2845	2845	2845	2845	2845	2851	2851	2851	2845	2845	2845	2845	2845	2845	2845	2845	2839	2839	2839	2839	2833	2833	2833	2833	2833	2833	2827	2827	2827	2821	2821	2821	2815	2815	2815	2815	2815	2815	2815	2809	2809	2809	2809	2809	2809	2809	2809	2803	2803	2803	2803	2803	2803	2803	2803	2803	2803	2803	2797	2797	2797	2797	2797	2791	2791	2791	2791	2785	2785	2785	2779	2779	2773	2773	2761	2761	2755	2755	2755	2744	2738	2738	2738	2732	2732	2732	2721	2721	2715	2715	2704	2704	2704	2699	2699	2687	2682	2682	2676	2671	2671	2671	2660	2655	2655	2649	2649	2649	2644	2639	2639	2633	2633	2633	2628	2628	2628	2623	2618	2618	2612	2612	2612	2612	2612	2618	2618	2618	2618	2623	2623	2623	2623	2623	2623	2623	2618	2618	2618	2612	2612	2612	2607	2607	2607	2602	2602	2602	2602	2597	2587	2587	2581	2581	2581	2571	2566	2566	2566	2566	2566	2566	2571	2571	2571	2571	2581	2581	2581	2581	2581	2581	2581	2566	2551	2546	2546	2532	2517	2517	2507	2498	2493	2493	2488	2483	2483	2479	2474	2474	2469	2469	2469	2465	2460	2460	2456	2456	2460	2460	2460	2465	2465	2469	2469	2469	2474	2479	2479	2479	2479	2479	2483	2488	2488	2488	2488	2488	2488	2488	2488	2483	2479	2479	2479	2474	2474	2474	2469	2469	2465	2460	2460	2451	2446	2442	2442	2428	2419	2419	2415	2410
0	0	0	0	0	0	0	0	0	0	0	0	0	0	0	0	0	0	0	0	0	0	0	0	0	0	0	0	0	0	0	0	0	0	0	0	0	0	0	0	0	0	0	0	0	0	0	0	0	0	0	0	0	0	0	0	0	0	0	0	0	0	0	0	0	0	0	0	0	0	0	0	0	0	0	0	0	0	0	0	0	0	0	0	0	0	0	0	0	0	0	0	0	0	0	0	0	0	0	0	0	0	0	0	0	0	0	0	0	0	0	0	0	0	0	0	0	0	0	0	0	0	0	0	0	0	0	0	0	0	0	0	0	0	0	0	0	0	29745	29084	29084	28452	27267	27267	26710	26176	26176	25663	24694	24237	24237	23796	23796	23796	23796	23371	23371	23371	23371	0	0	0	0	0	0	0	0	0	0	0	0	0	0	0	0	0	0	0	0	329	329	329	329	0	0	0	0	0	0	0	0	0	0	0	0	0	0	0	0	0	0	0	0	0	0	0	0	0	0	0	0	0	0	0	0	0	0	0	0	0	0	0	0	0	0	0	0	0	0	0	0	0	0	0	0	0	0	0	0	0	0	0	0	0	0	0	0	0	0	0	0	0	0	0	0	0	0	0	0	0	0	0	0	0	0	0	0	0	0	0	0	0	0	0	0	0	0	0	0	0	0	336	336	336	337	337	337	339	339	339	339	341	341	342	342	343	344	344	345	345	346	346	347	348	348	348	348	0	0	0	0	0	0	0	0	0	0	0	0	0	0	0	0	0	0	0	0	0	0	0	0	0	0	0	0	0	0	0	0	0	0	0	0	0	0	0	0	0	0	0	0	0	0	0	0	0	0	0	0	0	0	0	0	0	0	0	0	0	0	0	0	0	0	0	0	0	0	0	0	0	0	0	0	0	0	0	0	0	0	0	0	0	0	0	0	0	0	0	0	0	0	0	0	0	0	0	0	0	0	0	0	0	0	0	0	0	0	0	0	0	0	0	0	0	0	0	0	0	0	0	0	0	0	0	0	0	0	0	0	0	0	0	2676	2676	2682	2682	2687	2715	2715	2738	2738	2779	2803	2803	2833	2864	2864	2935	2935	2995	2995	3016	3030	3030	3044	3051	3051	3058	3065	3065	3072	3072	3072	3065	3065	3065	3058	3051	3051	3051	3051	3051	3044	3037	3037	3030	3030	3030	3030	3030	3030	3030	3023	3023	3023	3023	3023	3023	3023	3023	3023	3023	3023	3030	3030	3030	3030	3030	3030	3030	3030	3030	3030	3023	3023	3023	3023	3023	3023	3023	3016	3016	3016	3016	3016	3016	3016	3016	3016	3016	3016	3016	3016	3016	3016	3016	3016	3016	3016	3016	3016	3009	3009	3009	3002	2995	2995	2988	2988	2975	2975	2961	2954	2954	2941	2928	2928	2915	2908	2896	2896	2889	2876	2876	2870	2864	2864	2864	2858	2858	2858	2858	2858	2851	2851	2851	2851	2851	2845	2845	2845	2845	2845	2845	2851	2851	2845	2845	2845	2845	2845	2845	2845	2839	2839	2839	2839	2839	2839	2833	2833	2833	2833	2833	2833	2827	2827	2827	2821	2821	2821	2815	2815	2815	2815	2815	2815	2815	2809	2809	2809	2809	2809	2809	2809	2809	2803	2803	2803	2803	2803	2803	2803	2803	2803	2803	2797	2797	2797	2797	2797	2797	2791	2791	2791	2791	2785	2785	2785	2779	2779	2773	2773	2761	2761	2755	2755	2755	2744	2738	2738	2738	2732	2732	2732	2721	2721	2715	2715	2704	2704	2704	2699	2699	2687	2682	2682	2676	2671	2671	2671	2660	2655	2655	2649	2649	2649	2644	2639	2639	2633	2633	2633	2628	2628	2628	2623	2623	2623	2618	2618	2618	2618	2618	2618	2618	2618	2618	2623	2623	2628	2628	2628	2628	2628	2628	2623	2623	2623	2618	2618	2612	2612	2612	2607	2607	2607	2602	2597	2587	2587	2581	2571	2571	2566	2566	2566	2561	2561	2561	2561	2561	2561	2561	2566	2566	2566	2566	2571	2571	2566	2566	2561	2546	2536	2536	2522	2512	2512	2507	2498	2493	2493	2488	2483	2483	2479	2474	2474	2469	2469	2469	2465	2460	2460	2456	2456	2460	2460	2460	2465	2465	2469	2469	2469	2474	2474	2474	2479	2479	2479	2483	2483	2483	2488	2488	2488	2488	2483	2483	2479	2479	2479	2474	2474	2474	2469	2465	2465	2456	2451	2451	2446	2442	2433	2433	2419	2415	2415	2401	2401
0	0	0	0	0	0	0	0	0	0	0	0	0	0	0	0	0	0	0	0	0	0	0	0	0	0	0	0	0	0	0	0	0	0	0	0	0	0	0	0	0	0	0	0	0	0	0	0	0	0	0	0	0	0	0	0	0	0	0	0	0	0	0	0	0	0	0	0	0	0	0	0	0	0	0	0	0	0	0	0	0	0	0	0	0	0	0	0	0	0	0	0	0	0	0	0	0	0	0	0	0	0	0	0	0	0	0	0	0	0	0	0	0	0	0	0	0	0	0	0	0	0	0	0	0	0	0	0	0	0	0	406	406	406	406	407	407	407	29745	28452	28452	28452	27267	27267	26710	26176	26176	25663	24694	24237	24237	23796	23796	23796	23796	23371	23371	23371	23371	0	0	0	0	0	0	0	0	0	0	0	0	0	0	0	0	0	0	0	0	329	329	329	329	329	0	0	0	0	0	0	0	0	0	0	0	0	0	0	0	0	0	0	0	0	0	0	0	0	0	0	0	0	0	0	0	0	0	0	0	0	0	0	0	0	0	0	0	0	0	0	0	0	0	0	0	0	0	0	0	0	0	0	0	0	0	0	0	0	0	0	0	0	0	0	0	0	0	0	0	0	0	0	0	0	0	0	0	0	0	0	0	0	0	0	0	0	0	0	0	0	0	336	336	336	337	337	337	339	339	339	339	341	341	342	342	344	344	345	346	346	346	346	348	348	348	0	0	0	0	0	0	0	0	0	0	0	0	0	0	0	0	0	0	0	0	0	0	0	0	0	0	0	0	0	0	0	0	0	0	0	0	0	0	0	0	0	0	0	0	0	0	0	0	0	0	0	0	0	0	0	0	0	0	0	0	0	0	0	0	0	0	0	0	0	0	0	0	0	0	0	0	0	0	0	0	0	0	0	0	0	0	0	0	0	0	0	0	0	0	0	0	0	0	0	0	0	0	0	0	0	0	0	0	0	0	0	0	0	0	0	0	0	0	0	0	0	0	0	0	0	0	0	0	0	0	0	0	0	0	0	2671	2671	2671	2676	2682	2682	2687	2715	2715	2738	2738	2779	2803	2803	2833	2864	2864	2941	2941	3002	3002	3023	3044	3044	3051	3065	3065	3080	3080	3080	3087	3087	3087	3094	3094	3094	3094	3094	3080	3072	3065	3065	3058	3051	3051	3044	3044	3044	3037	3037	3037	3030	3030	3030	3030	3030	3030	3030	3030	3030	3030	3030	3030	3030	3030	3030	3030	3030	3030	3030	3030	3030	3030	3030	3023	3023	3023	3023	3023	3023	3023	3023	3016	3016	3016	3016	3016	3016	3016	3016	3016	3016	3016	3016	3016	3016	3016	3016	3016	3016	3016	3016	3009	3009	3002	3002	3002	2995	2988	2988	2981	2975	2954	2954	2941	2935	2935	2928	2908	2908	2908	2889	2889	2889	2876	2870	2870	2864	2864	2864	2858	2858	2858	2851	2851	2851	2851	2851	2851	2851	2851	2845	2845	2845	2845	2851	2845	2845	2845	2845	2845	2845	2839	2839	2839	2839	2839	2839	2839	2833	2833	2833	2833	2833	2827	2827	2827	2827	2821	2821	2821	2815	2815	2815	2815	2815	2815	2815	2809	2809	2809	2809	2809	2809	2803	2803	2803	2803	2803	2803	2803	2803	2803	2797	2797	2797	2797	2797	2797	2797	2797	2797	2791	2791	2791	2791	2785	2785	2785	2779	2779	2773	2773	2761	2761	2755	2755	2755	2744	2738	2738	2738	2732	2732	2721	2715	2715	2715	2704	2704	2704	2699	2699	2699	2687	2682	2682	2676	2671	2671	2666	2660	2655	2655	2649	2649	2649	2644	2639	2639	2633	2633	2633	2628	2628	2628	2623	2623	2623	2618	2618	2618	2618	2618	2618	2618	2618	2618	2623	2623	2628	2628	2628	2628	2628	2628	2623	2623	2623	2618	2618	2612	2612	2612	2607	2607	2607	2602	2597	2587	2587	2581	2571	2571	2566	2566	2566	2561	2561	2561	2561	2561	2561	2561	2566	2566	2566	2566	2571	2571	2566	2566	2561	2546	2536	2536	2522	2512	2512	2507	2498	2493	2493	2488	2483	2483	2479	2474	2474	2474	2469	2469	2465	2460	2460	2460	2460	2460	2460	2460	2469	2469	2469	2469	2469	2474	2474	2474	2479	2479	2479	2483	2483	2483	2488	2488	2488	2488	2483	2483	2479	2479	2479	2474	2474	2474	2469	2465	2465	2456	2451	2451	2446	2442	2433	2433	2419	2410	2410	2401	2397
0	0	0	0	0	0	0	0	0	0	0	0	0	0	0	0	0	0	0	0	0	0	0	0	0	0	0	0	0	0	0	0	0	0	0	0	0	0	0	0	0	0	0	0	0	0	0	0	0	0	0	0	0	0	0	0	0	0	0	0	0	0	0	0	0	0	0	0	0	0	0	0	0	0	0	0	0	0	0	0	0	0	0	0	0	0	0	0	0	0	0	0	0	0	0	0	0	0	0	0	0	0	0	0	0	0	0	0	0	0	0	0	0	0	0	0	0	0	0	0	0	0	0	0	0	0	0	0	0	0	0	406	406	406	406	407	407	407	407	407	407	791	26710	26710	26176	26176	26176	25169	24694	24237	24237	23796	23796	24237	23796	23796	23796	23796	23796	0	0	0	0	0	0	0	0	0	0	0	0	0	0	0	0	0	0	0	0	0	0	330	329	329	330	0	0	0	0	0	0	0	0	0	0	0	0	0	0	0	0	0	0	0	0	0	0	0	0	0	0	0	0	0	0	0	0	0	0	0	0	0	0	0	0	0	0	0	0	0	0	0	0	0	0	0	0	0	0	0	0	0	0	0	0	0	0	0	0	0	0	0	0	0	0	0	0	0	0	0	0	0	0	0	0	0	0	0	0	0	0	0	0	0	0	0	0	333	333	333	334	334	335	336	336	337	337	338	338	339	339	341	341	342	342	344	344	345	346	346	346	346	348	348	348	349	350	0	0	0	351	351	351	351	0	0	0	0	0	0	0	0	0	0	0	0	0	0	0	0	0	0	0	0	0	0	0	0	0	0	0	0	0	0	0	0	0	0	0	0	0	0	0	0	0	0	0	0	0	0	0	0	0	0	0	0	0	0	0	0	0	0	0	0	0	0	0	0	0	0	0	0	0	0	0	0	0	0	0	0	0	0	0	0	0	0	0	0	0	0	0	0	0	0	0	0	0	0	0	0	0	0	0	0	0	0	0	0	0	0	0	0	0	0	0	0	0	0	0	0	0	0	0	0	0	0	0	0	0	0	2671	2671	2671	2676	2687	2687	2704	2721	2721	2744	2744	2779	2809	2809	2827	2870	2870	2935	2935	3002	3002	3023	3044	3044	3051	3065	3065	3080	3080	3080	3087	3087	3087	3094	3094	3094	3094	3094	3080	3072	3065	3065	3058	3051	3051	3044	3044	3044	3037	3037	3037	3030	3030	3030	3030	3030	3030	3030	3030	3030	3030	3030	3030	3030	3030	3030	3030	3030	3030	3030	3030	3030	3030	3030	3023	3023	3023	3023	3023	3023	3023	3023	3016	3016	3016	3016	3016	3016	3016	3016	3016	3016	3016	3016	3016	3016	3016	3016	3016	3016	3016	3016	3009	3009	3009	3002	3002	2995	2988	2988	2981	2981	2961	2961	2954	2941	2941	2935	2915	2915	2908	2908	2896	2896	2889	2876	2876	2870	2870	2870	2864	2858	2858	2858	2858	2858	2851	2851	2851	2851	2851	2845	2845	2845	2845	2851	2845	2845	2845	2845	2845	2845	2839	2839	2839	2839	2839	2839	2839	2833	2833	2833	2833	2833	2827	2827	2827	2827	2821	2821	2821	2821	2815	2815	2815	2815	2815	2815	2809	2809	2809	2809	2809	2809	2803	2803	2803	2803	2803	2803	2803	2803	2803	2797	2797	2797	2797	2797	2797	2797	2791	2791	2791	2791	2791	2791	2785	2785	2785	2779	2779	2773	2773	2761	2761	2755	2755	2755	2744	2738	2738	2732	2721	2721	2721	2715	2704	2704	2704	2699	2699	2687	2687	2687	2682	2676	2676	2671	2666	2666	2666	2660	2655	2655	2649	2649	2649	2644	2639	2639	2639	2633	2633	2633	2628	2628	2628	2628	2628	2623	2623	2623	2618	2618	2618	2623	2623	2623	2628	2628	2628	2628	2628	2628	2628	2628	2628	2628	2623	2618	2618	2618	2612	2612	2607	2607	2607	2602	2597	2587	2587	2581	2571	2571	2566	2561	2561	2561	2551	2551	2551	2551	2561	2561	2561	2561	2561	2561	2561	2561	2551	2546	2546	2536	2532	2532	2517	2512	2512	2507	2498	2493	2493	2488	2483	2483	2479	2474	2474	2474	2469	2469	2465	2460	2460	2460	2460	2460	2460	2460	2469	2469	2469	2469	2469	2474	2474	2474	2479	2479	2479	2479	2479	2479	2483	2483	2483	2483	2479	2479	2479	2474	2474	2474	2469	2469	2465	2460	2460	2451	2446	2446	2442	2433	2428	2428	2415	2410	2410	2401	2397
