1306	1300	1299	1299	1299	1297	1293	1293	1291	1286	1286	1286	1286	1286	1286	1286	1292	1295	1299	1299	1301	1306	1306	1309	1320	1330	1334	1334	1339	1344	1356	1362	1365	1371	1381	1387	1394	1399	1403	1410	1415	1418	1418	1418	1416	1402	1402	1402	1402	1402	1402	1402	1407	1410	1410	1410	1409	1394	1394	1394	1386	1375	1364	1349	1342	1334	1320	1313	1306	1299	1296	1293	1286	1286	1286	1286	1286	1286	1292	1293	1293	1298	1299	1299	1305	1309	1313	1325	1332	1341	1353	1361	1371	1390	1399	1410	1430	1440	1451	1458	1462	1468	1475	1479	1486	1486	1486	1486	1486	1486	1486	1486	1484	1477	1477	1477	1477	1471	1468	1468	1468	1467	1460	1460	1459	1451	1446	1441	1426	1421	1417	1410	1401	1394	1394	1390	1386	1386	1382	1379	1379	1379	1379	1379	1382	1386	1394	1394	1394	1402	1406	1410	1425	1433	1443	1450	1462	1477	1485	1490	1495	1503	1511	1523	1523	1523	1523	1523	1523	1523	1523	1523	1523	1515	1513	1513	1513	1513	1513	1513	1513	1513	1513	1511	1504	1504	1502	1495	1495	1495	1495	1489	1486	1486	1480	1477	1477	1477	1477	1477	1483	1487	1495	1501	1505	1513	1524	1533	1541	1547	1551	1551	1545	1539	1513	1498	1485	1460	1442	1426	1410	1402	1394	1386	1379	1371	1364	1364	1364	1356	1356	1356	1349	1342	1334	1334	1331	1327	1327	1327	1327	1327	1330	1334	1340	1338	1334	1334	1334	1334	1340	1344	1349	1349	1347	1341	1335	1334	1334	1323	1316	1306	1301	1298	1293	1293	1294	1299	1299	1300	1306	1311	1316	1327	1337	1345	1364	1379	1391	1418	1429	1439	1468	1490	1506	1523	1540	1554	1581	1599	1614	1644	1656	1667	1688	1701	1712	1723	1729	1735	1735	1735	1735	1748	1748	1748	1748	1736	1723	1723	1723	1723	1723	1750	1785	135	0	0	1770	1954	1954	1996	2013	2034	2020	2001	1970	1905	1884	1866	1843	1834	1825	1814	1803	1785	1765	1757	1748	1748	1745	1735	1726	1720	1712	1703	1697	1688	1680	1675	1666	1658	1654	1654	1632	1618	1601	1594	1589	1581	1568	1558	1541	1535	1532	1532	1537	1396	0	0	0	0	0	95	1677	1677	1678	1700	1706	1712	1723	1717	1712	1700	1700	1700	1700	1700	1700	1678	1677	1677	1667	1661	1654	1645	1635	1622	1613	1604	1591	1582	1577	1571	1554	1544	1532	1532	1532	1532	1539	1544	1551	1567	1574	1581	1581	1581	1581	1581	1581	1581	1581	1581	1581	1581	1579	1571	1571	1571	1571	1571	1571	1571	1578	1583	1591	1591	1591	1591	1597	1601	1601	1608	1612	1612	1618	1622	1622	1628	1634	1644	1644	1645	1654	1649	1644	1644	1638	1633	1622	1617	1612	1591	1581	1571	1561	1552	1541	1532	1528	1523	1514	1509	1504	1504	1508	1513	1513	1513	1513	1513	1513	1513	1505	1504	1504	1496	1492	1486	1479	1472	1460	1453	1449	1443	1430	1426	1426	1426	1426	1426	1433	1435	1435	1435	1437	1443	1449	1455	1468	1487	1497	1504	1523	1537	1561	1581	1597	1633	1661	1682	1712	1734	1752	1785	1809	1826	1838	1854	1865	1852	1852	1852	1852	1844	1838	1825	1818	1811	1785	1779	1773	1760	1754	1748	1748	1748	1748	1748	1748	1748	1759	1766	1773	1773	1773	1773	1796	1803	1811	1823	1825	1825	1836	1838	1838	1850	1852	1852	1864	1870	1880	1880	1312	0	0	0	0	1454	1880	1880	1880	1891	1924	508	0	0	0	440	2121	2121	2139	2216	711	390	2298	2298	2301	2319	2319	2322	2341	2369	2391	2433	2463	2487	2532	2563	2589	2640	2673	2701	2757	2810	2856	2920	2938	2954	2954	2972	2990	3026	3045	3064	3064	3012	2954	2954	2893	2820	2650	2604	2558	2511	2476	2433	2390	2368	2341	2284	2262	2236	2185	2150	2103	2044	2023	2001	2001	1359	0	0	0	0	0	0	0	0	0	0	0	0	0	0	0	0
1320	1314	1313	1313	1307	1306	1306	1300	1297	1293	1293	1293	1293	1293	1293	1293	1298	1299	1299	1304	1306	1306	1306	1309	1320	1325	1329	1334	1334	1335	1341	1351	1356	1356	1361	1367	1379	1389	1395	1402	1402	1403	1410	1415	1416	1402	1402	1402	1402	1402	1402	1402	1407	1410	1410	1410	1410	1402	1398	1394	1386	1375	1364	1349	1342	1334	1313	1306	1299	1286	1283	1279	1273	1273	1273	1273	1273	1273	1273	1273	1273	1278	1279	1279	1285	1291	1299	1311	1315	1320	1337	1348	1364	1388	1401	1418	1438	1448	1460	1466	1470	1477	1484	1488	1495	1495	1495	1495	1489	1484	1477	1477	1475	1468	1468	1467	1460	1460	1460	1460	1454	1451	1451	1451	1450	1443	1433	1425	1418	1413	1409	1402	1397	1394	1386	1386	1386	1386	1382	1379	1379	1379	1379	1386	1390	1394	1394	1398	1402	1417	1422	1426	1442	1446	1451	1475	1484	1495	1503	1508	1513	1522	1523	1523	1523	1523	1523	1523	1523	1523	1523	1523	1523	1515	1513	1513	1513	1516	1523	1523	1523	1523	1523	1521	1513	1513	1511	1504	1498	1495	1495	1495	1493	1486	1486	1486	1486	1486	1486	1486	1486	1487	1495	1501	1506	1523	1528	1534	1551	1551	1552	1561	1561	1560	1551	1541	1531	1513	1503	1495	1477	1468	1460	1435	1427	1418	1402	1394	1386	1379	1372	1364	1356	1349	1341	1335	1331	1327	1327	1327	1327	1327	1327	1327	1333	1334	1334	1334	1336	1341	1348	1351	1356	1356	1356	1356	1350	1349	1349	1343	1339	1334	1329	1325	1320	1320	1320	1320	1325	1327	1327	1332	1335	1341	1351	1359	1371	1386	1396	1410	1426	1438	1460	1476	1489	1513	1524	1535	1561	1573	1583	1612	1624	1634	1654	1667	1677	1688	1688	1688	1700	1700	1700	1700	1711	1723	1735	1729	1723	1723	1723	1723	1723	1750	1785	1847	1876	1909	1950	1954	1954	1981	1991	2001	1960	1922	1866	1797	1768	1735	1716	1701	1677	1677	1670	1654	1646	1644	1644	1652	1660	1677	1677	1680	1688	1680	1675	1666	1666	1664	1654	1654	1654	1654	1632	1618	1601	1594	1589	1581	1568	1558	1541	1535	1532	1532	1537	1396	0	0	0	0	0	90	1591	1591	1593	1644	1661	1677	1700	1700	1700	1700	1700	1700	1688	1683	1677	1666	1661	1654	1645	1639	1633	1623	1609	1591	1582	1577	1571	1562	1561	1561	1552	1544	1532	1532	1532	1532	1539	1544	1551	1559	1561	1561	1561	1561	1561	1561	1561	1561	1561	1561	1561	1554	1551	1551	1551	1551	1551	1558	1561	1561	1568	1573	1581	1581	1581	1581	1587	1591	1591	1597	1602	1612	1618	1622	1622	1628	1633	1633	1639	1645	1654	1654	1654	1644	1644	1644	1622	1617	1612	1612	1602	1591	1581	1572	1561	1551	1546	1541	1533	1532	1532	1532	1532	1532	1532	1532	1532	1532	1532	1532	1524	1519	1513	1505	1501	1495	1488	1483	1477	1463	1455	1443	1437	1435	1435	1428	1426	1426	1433	1437	1443	1449	1451	1451	1463	1472	1486	1499	1506	1513	1539	1556	1581	1601	1618	1654	1676	1693	1723	1746	1764	1798	1822	1839	1852	1852	1852	1852	1852	1851	1838	1831	1824	1811	1804	1798	1773	1766	1760	1723	1723	1723	1723	1723	1723	1723	1723	1723	1734	1735	1735	1747	1753	1760	1772	1778	1785	1797	1808	1825	1836	1838	1838	1850	1852	1852	1864	1862	1852	1852	1293	0	0	0	0	1454	1873	1852	1852	1398	0	0	0	0	0	0	0	0	0	0	1532	2256	2256	2284	2301	2319	2333	2344	2364	2378	2394	2457	2487	2512	2558	2590	2614	2640	2689	2729	2757	2810	2854	2886	2922	2954	2954	2972	2990	3026	3026	3026	3063	3029	2990	2990	2928	2853	2679	2621	2558	2511	2476	2433	2390	2368	2341	2284	2262	2236	2185	2150	2103	2073	2045	2001	2001	1359	0	0	0	0	0	0	0	0	0	0	0	0	0	0	0	0
1327	1324	1322	1320	1317	1315	1313	1307	1305	1303	1300	1298	1296	1296	1296	1296	1298	1300	1302	1305	1306	1306	1306	1309	1316	1322	1325	1330	1330	1332	1338	1345	1349	1352	1358	1362	1372	1379	1384	1394	1394	1396	1406	1413	1417	1410	1412	1414	1418	1418	1419	1422	1425	1426	1426	1424	1422	1414	1408	1402	1390	1379	1368	1352	1343	1334	1313	1306	1299	1286	1281	1276	1270	1268	1266	1266	1266	1266	1266	1266	1266	1272	1272	1272	1281	1286	1292	1304	1311	1320	1337	1348	1364	1388	1401	1418	1441	1452	1464	1471	1475	1482	1488	1492	1495	1495	1495	1495	1485	1481	1477	1474	1472	1468	1465	1463	1456	1456	1455	1452	1449	1447	1447	1445	1443	1439	1429	1421	1414	1412	1409	1402	1397	1394	1386	1386	1386	1386	1382	1379	1379	1381	1382	1390	1394	1398	1402	1406	1410	1422	1428	1434	1446	1452	1460	1476	1484	1495	1507	1510	1513	1522	1523	1523	1523	1523	1523	1523	1523	1523	1523	1523	1523	1519	1518	1518	1518	1519	1523	1523	1524	1528	1524	1522	1518	1514	1512	1508	1502	1499	1495	1495	1493	1486	1486	1486	1486	1486	1486	1486	1489	1491	1495	1501	1506	1523	1528	1533	1546	1549	1552	1566	1569	1571	1566	1561	1556	1542	1535	1528	1509	1500	1492	1470	1459	1448	1427	1419	1410	1391	1383	1375	1364	1357	1348	1342	1337	1330	1327	1327	1327	1327	1327	1327	1333	1335	1338	1338	1339	1341	1348	1351	1356	1359	1360	1360	1357	1356	1356	1353	1352	1349	1341	1337	1334	1332	1330	1330	1336	1338	1338	1340	1344	1352	1360	1365	1375	1388	1396	1410	1426	1438	1460	1473	1484	1504	1518	1530	1551	1563	1573	1596	1608	1618	1633	1642	1650	1660	1663	1666	1672	1672	1672	1677	1688	1700	1711	1709	1706	1706	1711	1718	1728	1751	1779	1840	1868	1902	1935	1945	1954	1981	1988	1993	1959	1922	1866	1766	1730	1694	1659	1646	1634	1669	1670	1654	1605	1592	1592	1600	1610	1629	1641	1647	1655	1655	1653	1644	1644	1643	1638	1631	1628	1628	1073	809	800	797	795	790	784	779	770	768	766	766	769	698	0	0	0	0	0	90	1591	1541	1502	1527	1553	1578	1616	1626	1636	1650	1656	1661	1671	1671	1672	1660	1653	1644	1634	1628	1622	1612	1601	1586	1577	1572	1566	1557	1554	1551	1547	1266	766	766	766	766	770	772	776	1413	1558	1551	1551	1551	1551	1559	1558	1551	1548	1546	1546	1546	1545	1542	1542	1542	1542	1548	1552	1556	1563	1568	1576	1576	1577	1581	1584	1587	1591	1597	1602	1612	1615	1617	1622	1625	1628	1633	1636	1639	1649	1652	1654	1644	1644	1644	1628	1625	1622	1617	1609	1602	1586	1579	1571	1561	1556	1551	1547	1544	1542	1542	1542	1542	1542	1542	1542	1537	1536	1536	1529	1524	1518	1510	1504	1495	1488	1483	1477	1466	1460	1452	1442	1439	1439	1432	1430	1430	1440	1444	1447	1453	1456	1460	1469	1475	1486	1502	1511	1522	1545	1561	1586	1610	1628	1660	1686	1705	1736	1759	1776	1804	1829	1846	1852	1852	1852	1852	1848	1845	1838	1827	1817	1798	1791	1785	1760	1751	1742	1718	1715	1712	1712	1712	1712	1712	1714	1718	1723	1726	1729	1747	1753	1760	1772	1778	1785	1797	1806	1818	1824	1827	1832	1837	1841	1845	1851	1850	1845	1845	1288	0	734	926	926	1653	1860	1845	1845	1618	919	924	716	0	0	0	0	0	0	0	1526	2246	2246	2273	2292	2319	2333	2345	2375	2396	2416	2470	2500	2523	2558	2598	2627	2640	2689	2729	2757	2810	2854	2886	2922	2954	2954	2972	2990	3008	3017	3026	3063	3029	2990	2990	2928	2853	2693	2635	2572	2512	2471	2421	2389	2364	2330	2283	2262	2236	2185	2150	2103	2073	2048	2010	2010	1365	0	0	0	0	0	0	0	0	0	0	0	0	0	0	0	0
1334	1334	1331	1327	1327	1324	1320	1314	1313	1313	1307	1304	1299	1299	1299	1299	1299	1301	1306	1306	1306	1306	1306	1308	1313	1318	1322	1327	1327	1328	1334	1339	1343	1349	1354	1357	1364	1369	1373	1386	1386	1388	1402	1412	1418	1418	1423	1427	1435	1435	1436	1443	1443	1443	1443	1439	1435	1426	1418	1410	1394	1382	1371	1356	1345	1334	1313	1306	1299	1286	1280	1273	1266	1263	1260	1260	1260	1260	1260	1260	1260	1265	1266	1266	1277	1282	1286	1297	1306	1320	1337	1348	1364	1388	1401	1418	1444	1456	1468	1475	1479	1486	1493	1495	1495	1495	1495	1495	1482	1477	1477	1471	1468	1468	1463	1458	1451	1451	1450	1443	1443	1443	1443	1438	1435	1435	1425	1417	1410	1410	1409	1402	1397	1394	1386	1386	1386	1386	1382	1379	1379	1383	1386	1394	1398	1402	1410	1414	1418	1426	1434	1443	1451	1458	1468	1476	1484	1495	1511	1513	1513	1522	1523	1523	1523	1523	1523	1523	1523	1523	1523	1523	1523	1523	1523	1523	1523	1523	1523	1523	1525	1532	1525	1523	1523	1516	1513	1513	1507	1502	1495	1495	1493	1486	1486	1486	1486	1486	1486	1486	1492	1495	1495	1501	1506	1523	1528	1533	1541	1547	1553	1571	1577	1581	1581	1581	1581	1571	1566	1561	1541	1532	1523	1504	1491	1477	1451	1443	1435	1403	1395	1386	1372	1364	1356	1350	1343	1334	1328	1327	1327	1327	1327	1327	1333	1337	1341	1341	1341	1341	1348	1351	1356	1362	1364	1364	1364	1364	1364	1364	1364	1364	1353	1349	1349	1343	1341	1341	1347	1349	1349	1349	1352	1364	1369	1372	1379	1389	1396	1410	1426	1438	1460	1471	1479	1495	1512	1525	1541	1553	1563	1581	1592	1602	1612	1617	1622	1633	1639	1644	1644	1644	1644	1654	1665	1677	1688	1688	1688	1688	1699	1712	1734	1751	1773	1833	1861	1894	1921	1936	1954	1981	1985	1985	1958	1922	1866	1735	1692	1654	1602	1591	1591	1661	1670	1654	1564	1541	1541	1549	1559	1581	1604	1614	1622	1630	1631	1622	1622	1622	1622	1607	1601	1601	514	0	0	0	0	0	0	0	0	0	0	0	0	0	0	0	0	0	0	90	1591	1492	1410	1410	1445	1478	1532	1552	1571	1601	1611	1622	1653	1660	1666	1654	1644	1633	1623	1618	1612	1602	1593	1581	1572	1567	1561	1552	1547	1541	1541	989	0	0	0	0	0	0	0	1266	1555	1541	1541	1541	1541	1556	1556	1541	1534	1532	1532	1539	1539	1532	1532	1532	1532	1538	1543	1551	1558	1563	1571	1571	1573	1581	1581	1582	1591	1597	1602	1612	1612	1613	1622	1622	1623	1633	1633	1634	1644	1649	1654	1644	1644	1644	1633	1633	1633	1622	1617	1612	1591	1586	1581	1571	1566	1561	1561	1557	1551	1551	1551	1551	1551	1551	1551	1542	1541	1541	1533	1529	1523	1515	1507	1495	1488	1483	1477	1470	1466	1460	1447	1443	1443	1437	1435	1435	1447	1451	1451	1458	1462	1468	1474	1479	1486	1505	1517	1532	1552	1566	1591	1619	1638	1666	1696	1717	1748	1771	1788	1811	1836	1852	1852	1852	1852	1852	1844	1838	1838	1823	1810	1785	1779	1773	1748	1735	1723	1712	1706	1700	1700	1700	1700	1700	1705	1712	1712	1717	1723	1746	1753	1760	1772	1778	1785	1797	1803	1811	1811	1816	1825	1825	1829	1838	1838	1838	1838	1838	1283	0	1468	1852	1852	1852	1848	1838	1838	1838	1838	1848	1433	0	0	0	0	0	0	0	1519	2236	2236	2263	2283	2319	2333	2347	2386	2415	2439	2482	2512	2534	2558	2606	2640	2640	2689	2729	2757	2810	2854	2886	2922	2954	2954	2972	2990	2990	3008	3026	3063	3029	2990	2990	2928	2853	2707	2649	2585	2513	2466	2409	2388	2359	2319	2282	2262	2236	2185	2150	2103	2073	2051	2018	2018	1371	0	0	0	0	0	0	0	0	0	0	0	0	0	0	0	0
1349	1349	1346	1341	1341	1338	1334	1328	1327	1327	1321	1318	1313	1313	1311	1306	1306	1308	1313	1308	1306	1306	1306	1308	1313	1318	1322	1327	1327	1328	1334	1339	1341	1341	1346	1350	1356	1366	1372	1379	1383	1388	1402	1412	1420	1435	1440	1445	1460	1460	1461	1468	1473	1476	1468	1464	1459	1443	1430	1418	1402	1390	1379	1356	1345	1334	1313	1306	1299	1286	1280	1273	1266	1263	1260	1254	1253	1253	1253	1253	1253	1259	1260	1260	1265	1269	1273	1290	1297	1306	1329	1341	1356	1387	1404	1426	1453	1465	1477	1484	1488	1495	1495	1495	1495	1495	1493	1486	1480	1475	1468	1462	1460	1460	1454	1451	1451	1446	1443	1443	1438	1435	1435	1429	1426	1426	1421	1417	1410	1410	1409	1402	1397	1394	1386	1386	1386	1386	1386	1386	1386	1390	1394	1394	1398	1402	1418	1422	1426	1435	1439	1443	1459	1463	1468	1476	1484	1495	1503	1508	1513	1513	1517	1523	1523	1523	1523	1523	1523	1523	1523	1523	1523	1523	1523	1523	1530	1532	1532	1532	1532	1532	1532	1530	1523	1523	1521	1513	1513	1511	1504	1498	1495	1495	1489	1486	1486	1486	1486	1486	1492	1495	1495	1501	1506	1523	1528	1533	1541	1547	1553	1571	1577	1582	1591	1596	1601	1601	1601	1601	1581	1576	1571	1551	1532	1513	1495	1478	1460	1436	1424	1410	1387	1379	1371	1357	1350	1341	1335	1334	1334	1334	1334	1334	1340	1341	1341	1341	1341	1341	1348	1354	1364	1364	1366	1371	1377	1379	1379	1379	1375	1364	1364	1362	1356	1356	1356	1356	1356	1356	1356	1356	1358	1364	1369	1372	1379	1389	1396	1410	1420	1428	1443	1459	1470	1486	1497	1506	1523	1528	1533	1551	1557	1562	1571	1571	1571	1571	1582	1591	1601	1601	1601	1622	1633	1644	1666	1676	1688	1688	1699	1712	1734	1751	1773	1833	1861	1894	1921	1936	1954	1981	1985	1985	1999	1284	0	1454	1692	1654	1602	1591	1591	300	0	0	1221	1536	1523	1523	1530	1551	1581	1596	1612	1612	1610	1601	1601	1605	1622	1607	1601	1601	514	0	0	0	0	0	0	0	0	0	0	0	0	0	0	0	0	0	0	0	0	772	1410	1410	1445	1478	1532	1552	1571	1581	1596	1612	1643	1649	1654	1634	1628	1622	1613	1607	1601	1592	1583	1571	1562	1557	1551	1551	1547	1541	1541	989	0	0	0	0	0	0	0	0	465	1541	1541	1541	1541	349	407	1541	1534	1532	1532	1539	1539	1532	1532	1532	1532	1538	1543	1551	1558	1563	1571	1571	1573	1581	1581	1582	1591	1597	1602	1612	1612	1612	1612	1618	1622	1622	1628	1634	1644	1644	1644	1654	1654	1654	1644	1644	1644	1633	1628	1622	1622	1612	1601	1591	1586	1581	1581	1577	1571	1571	1571	1571	1571	1567	1561	1552	1551	1551	1542	1535	1523	1515	1507	1495	1488	1483	1477	1470	1466	1460	1453	1449	1443	1443	1445	1451	1451	1451	1451	1458	1462	1468	1474	1479	1486	1499	1509	1532	1552	1566	1591	1619	1640	1677	1707	1728	1760	1784	1799	1811	1827	1837	1825	1825	1825	1825	1825	1824	1811	1797	1784	1760	1754	1748	1723	1717	1712	1688	1688	1688	1700	1700	1700	1700	1705	1712	1712	1717	1723	1723	1728	1735	1747	1753	1760	1772	1773	1773	1783	1790	1798	1798	1802	1811	1811	1815	1825	1825	1825	1825	1825	1829	1838	1828	1821	1811	1811	1811	1811	1811	1820	1852	1852	1873	1954	1954	1972	2051	2111	2152	2216	2256	2287	2341	2356	2367	2386	2430	2460	2482	2512	2537	2585	2601	2614	2640	2673	2701	2757	1248	0	0	1561	2954	2954	2972	2990	2990	3008	3026	3063	3029	2990	2826	2820	2820	2624	2577	2532	2440	2395	2341	2321	2302	2277	2241	2236	2236	2219	2209	2196	2164	2152	2139	2139	1453	0	0	0	0	0	0	0	0	0	0	0	0	0	0	0	0
1356	1356	1353	1348	1348	1346	1342	1335	1333	1330	1325	1321	1316	1316	1315	1313	1313	1313	1313	1310	1310	1310	1310	1310	1313	1318	1322	1327	1327	1328	1330	1335	1338	1338	1343	1347	1356	1364	1369	1375	1380	1385	1398	1408	1417	1439	1449	1457	1468	1474	1478	1482	1484	1485	1477	1472	1468	1452	1438	1426	1406	1394	1382	1356	1347	1338	1313	1306	1299	1286	1280	1273	1266	1263	1260	1254	1253	1253	1253	1253	1253	1256	1258	1260	1265	1269	1273	1290	1297	1306	1329	1341	1356	1387	1404	1426	1453	1466	1482	1485	1488	1495	1495	1495	1495	1492	1488	1482	1475	1471	1464	1461	1459	1456	1452	1450	1447	1444	1442	1439	1436	1435	1435	1429	1426	1426	1421	1417	1410	1410	1409	1402	1400	1398	1390	1390	1390	1390	1390	1390	1394	1396	1398	1402	1404	1406	1418	1422	1426	1435	1440	1447	1459	1463	1468	1476	1484	1495	1503	1506	1508	1512	1515	1518	1522	1523	1523	1523	1523	1523	1523	1523	1523	1527	1528	1528	1531	1532	1532	1535	1536	1536	1536	1534	1528	1524	1522	1518	1514	1512	1508	1502	1499	1495	1492	1490	1486	1486	1486	1486	1492	1495	1495	1501	1506	1518	1524	1529	1541	1547	1553	1571	1577	1582	1596	1604	1612	1612	1614	1617	1602	1594	1586	1571	1554	1537	1518	1501	1482	1457	1443	1426	1403	1395	1386	1369	1360	1348	1339	1338	1338	1338	1338	1338	1341	1341	1341	1341	1342	1345	1351	1356	1364	1367	1370	1375	1378	1380	1382	1382	1380	1372	1372	1370	1364	1364	1364	1364	1361	1360	1360	1360	1361	1368	1373	1376	1382	1390	1396	1410	1420	1428	1443	1459	1470	1486	1497	1506	1523	1528	1533	1546	1549	1552	1561	1561	1561	1566	1571	1576	1586	1586	1586	1612	1625	1638	1665	1676	1688	1688	1701	1718	1746	1761	1779	1834	1864	1902	1922	1936	1954	1975	1978	1978	1984	1274	0	727	846	827	1449	1570	1557	912	759	752	1363	1523	1523	1523	1530	1551	1577	1592	1612	1612	1610	1601	1601	1437	811	804	800	800	257	0	0	0	0	0	0	0	0	0	0	0	347	574	574	574	531	0	0	0	0	386	705	705	723	739	766	1179	1576	1581	1596	1612	1643	1649	1654	1634	1628	1622	1613	1607	1601	1592	1583	1571	1557	1554	1551	1547	1542	1536	1536	986	0	0	0	0	0	0	0	0	233	770	770	771	770	174	410	1551	1544	1542	1542	1545	1545	1542	1538	1536	1536	1540	1544	1556	1559	1563	1571	1574	1578	1586	1586	1587	1596	1599	1602	1612	1612	1612	1612	1615	1617	1622	1628	1634	1644	1644	1644	1654	1654	1654	1649	1649	1649	1638	1636	1633	1628	1623	1617	1607	1602	1596	1591	1589	1586	1586	1582	1576	1571	1569	1566	1553	1549	1546	1538	1532	1523	1511	1504	1495	1484	1479	1472	1469	1466	1460	1456	1453	1447	1447	1448	1451	1451	1451	1451	1458	1461	1464	1473	1479	1486	1499	1509	1532	1552	1566	1591	1619	1639	1672	1701	1722	1754	1774	1787	1798	1810	1818	1818	1814	1811	1805	1805	1804	1792	1785	1778	1760	1754	1748	1723	1717	1712	1688	1688	1688	1688	1688	1688	1688	1694	1700	1700	1705	1712	1717	1722	1729	1735	1740	1748	1759	1763	1766	1772	1777	1786	1791	1794	1798	1803	1807	1812	1817	1818	1818	1824	1827	1832	1821	1814	1804	1804	1804	1804	1804	1811	1832	1841	1860	1917	1938	1966	2051	2105	2145	2216	2256	2287	2341	2363	2378	2398	2442	2472	2494	2525	2549	2585	2601	2614	2640	2665	2688	2757	1248	56	1477	2257	2954	2954	2972	2990	3008	3026	3045	3064	3029	2990	2782	2774	2774	2596	2541	2482	2437	2382	2309	2290	2267	2236	2201	2197	2197	2180	2171	2158	2142	2130	2112	2112	1435	0	0	0	0	0	0	0	0	0	0	0	0	0	0	0	0
1364	1364	1361	1356	1356	1353	1349	1342	1339	1334	1328	1325	1320	1320	1320	1320	1320	1318	1313	1313	1313	1313	1313	1313	1313	1318	1322	1327	1327	1327	1327	1332	1334	1334	1339	1344	1356	1361	1365	1371	1376	1381	1394	1404	1414	1443	1458	1469	1477	1488	1495	1495	1495	1494	1486	1481	1476	1460	1447	1435	1410	1398	1386	1356	1349	1341	1314	1306	1299	1286	1280	1273	1266	1263	1260	1254	1253	1253	1253	1253	1253	1253	1256	1260	1265	1269	1273	1290	1297	1306	1329	1341	1356	1387	1404	1426	1453	1467	1486	1486	1488	1495	1495	1495	1495	1488	1484	1477	1471	1466	1460	1460	1458	1451	1451	1450	1443	1443	1442	1435	1435	1435	1435	1429	1426	1426	1421	1417	1410	1410	1409	1402	1402	1402	1394	1394	1394	1394	1394	1394	1402	1402	1402	1410	1410	1410	1418	1422	1426	1435	1442	1451	1459	1463	1468	1476	1484	1495	1503	1504	1504	1512	1513	1513	1522	1523	1523	1523	1523	1523	1523	1523	1523	1530	1532	1532	1532	1532	1532	1539	1541	1541	1541	1539	1532	1525	1523	1523	1516	1513	1513	1507	1502	1495	1495	1493	1486	1486	1486	1486	1492	1495	1495	1501	1505	1513	1519	1525	1541	1547	1553	1571	1577	1582	1601	1612	1622	1622	1628	1633	1622	1611	1601	1591	1576	1561	1541	1524	1504	1478	1462	1443	1419	1411	1402	1381	1369	1356	1342	1341	1341	1341	1341	1341	1341	1341	1341	1341	1344	1349	1355	1359	1364	1370	1373	1379	1379	1381	1386	1386	1384	1379	1379	1377	1371	1371	1371	1371	1366	1364	1364	1364	1365	1371	1376	1380	1386	1391	1396	1410	1420	1428	1443	1459	1470	1486	1497	1506	1523	1528	1533	1541	1541	1542	1551	1551	1551	1561	1561	1561	1571	1571	1571	1601	1617	1633	1665	1676	1688	1688	1704	1723	1758	1771	1785	1834	1867	1909	1923	1936	1954	1968	1970	1970	1970	1264	0	0	0	0	1296	1549	1523	1523	1517	1504	1504	1509	1523	1523	1530	1551	1574	1589	1612	1612	1610	1601	1601	1269	0	0	0	0	0	0	0	0	0	0	0	0	0	0	0	0	694	1149	1149	1149	1062	0	0	0	0	0	0	0	0	0	0	805	1581	1581	1596	1612	1643	1649	1654	1634	1628	1622	1613	1607	1601	1592	1583	1571	1553	1551	1551	1542	1538	1532	1532	983	0	0	0	0	0	0	0	0	0	0	0	0	0	0	412	1561	1553	1551	1551	1551	1551	1551	1544	1541	1541	1541	1545	1561	1561	1563	1571	1578	1583	1591	1591	1592	1601	1601	1602	1612	1612	1612	1612	1612	1613	1622	1628	1634	1644	1644	1644	1654	1654	1654	1654	1654	1654	1644	1644	1644	1633	1633	1633	1622	1617	1612	1602	1601	1601	1601	1593	1581	1572	1571	1571	1553	1547	1541	1533	1529	1523	1507	1501	1495	1480	1474	1468	1468	1466	1460	1460	1457	1451	1451	1451	1451	1451	1451	1451	1458	1460	1460	1472	1479	1486	1499	1509	1532	1552	1566	1591	1619	1638	1666	1696	1717	1748	1764	1774	1785	1793	1799	1811	1803	1797	1785	1785	1784	1773	1773	1773	1760	1754	1748	1723	1717	1712	1688	1688	1688	1677	1677	1677	1677	1682	1688	1688	1693	1700	1711	1717	1723	1723	1728	1735	1747	1753	1760	1760	1765	1773	1783	1785	1785	1796	1798	1798	1809	1811	1811	1822	1825	1825	1814	1808	1798	1798	1798	1798	1798	1801	1811	1830	1847	1880	1921	1960	2051	2099	2137	2216	2256	2287	2341	2370	2389	2409	2454	2485	2507	2538	2561	2585	2601	2614	2640	2656	2674	2757	1248	111	2954	2954	2954	2954	2972	2990	3026	3045	3064	3064	3029	2990	2737	2727	2727	2568	2504	2433	2433	2368	2277	2258	2232	2196	2162	2158	2158	2142	2133	2121	2121	2109	2085	2085	1416	0	0	0	0	0	0	0	0	0	0	0	0	0	0	0	0
1379	1372	1371	1371	1365	1361	1356	1350	1346	1341	1335	1332	1327	1327	1325	1320	1320	1318	1313	1313	1313	1313	1313	1313	1313	1318	1322	1327	1327	1327	1327	1327	1327	1327	1337	1342	1349	1354	1357	1364	1368	1373	1386	1401	1414	1443	1464	1478	1486	1491	1496	1513	1513	1513	1513	1503	1494	1468	1459	1451	1426	1410	1394	1379	1364	1349	1321	1313	1306	1287	1283	1279	1267	1263	1260	1254	1253	1253	1248	1247	1247	1252	1256	1260	1265	1271	1279	1291	1300	1313	1336	1351	1371	1396	1414	1443	1463	1473	1486	1493	1497	1504	1497	1495	1495	1488	1484	1477	1471	1466	1460	1460	1458	1451	1451	1450	1443	1443	1442	1435	1435	1435	1435	1429	1426	1426	1421	1418	1418	1413	1410	1410	1410	1410	1410	1410	1410	1410	1410	1410	1410	1414	1418	1418	1422	1426	1435	1439	1443	1451	1455	1460	1468	1472	1477	1485	1490	1495	1503	1504	1504	1512	1513	1513	1522	1523	1523	1523	1523	1523	1530	1532	1532	1532	1532	1532	1539	1541	1541	1541	1541	1541	1541	1541	1541	1534	1530	1523	1523	1521	1513	1513	1511	1504	1498	1495	1495	1495	1495	1495	1495	1495	1495	1501	1505	1513	1519	1525	1541	1547	1553	1571	1582	1592	1601	1612	1623	1644	1649	1654	1654	1654	1654	1633	1623	1612	1591	1577	1561	1524	1510	1495	1462	1453	1443	1420	1405	1386	1366	1361	1356	1350	1349	1349	1349	1349	1349	1349	1351	1356	1363	1366	1371	1377	1381	1386	1386	1386	1386	1386	1386	1386	1381	1379	1379	1379	1379	1379	1373	1371	1371	1371	1373	1379	1384	1387	1394	1399	1403	1410	1415	1420	1435	1445	1453	1468	1468	1470	1486	1497	1504	1504	1509	1513	1513	1513	1513	1523	1528	1532	1532	1537	1541	1571	1591	1612	1643	1665	1688	1688	1704	1723	1758	1771	1785	1834	1850	1866	1891	1900	1909	1936	1939	1939	1966	1264	0	0	0	0	1296	1549	1523	1523	1517	1504	1504	1512	1532	1539	1544	1551	1574	1589	1612	1612	1610	1601	1601	1269	0	0	0	0	0	0	0	0	0	0	0	0	0	0	133	1171	1158	1149	1149	1143	1138	1138	1138	1074	0	0	0	0	0	0	0	0	0	0	0	0	0	0	0	0	0	0	1501	1587	1581	1563	1557	1551	1542	1537	1532	1532	1529	1523	1514	1507	1495	1495	987	0	0	0	0	0	0	0	0	0	0	0	423	1601	1601	1601	1601	1601	1599	1591	1591	1591	1591	1591	1591	1591	1591	1591	1591	1591	1591	1591	1597	1601	1601	1601	1602	1612	1612	1612	1612	1612	1613	1622	1628	1634	1644	1644	1644	1654	1654	1654	1654	1654	1654	1666	1660	1654	1654	1649	1644	1633	1633	1633	1623	1618	1612	1602	1601	1601	1583	1573	1561	1552	1547	1541	1525	1516	1504	1496	1492	1486	1471	1468	1468	1462	1460	1460	1453	1451	1451	1445	1443	1443	1449	1451	1451	1458	1460	1460	1466	1472	1486	1499	1509	1532	1552	1566	1591	1611	1627	1654	1676	1693	1723	1730	1736	1748	1778	1799	1811	1803	1797	1785	1785	1784	1773	1766	1759	1735	1729	1722	1688	1688	1688	1666	1660	1654	1654	1654	1654	1654	1659	1666	1666	1671	1677	1687	1693	1700	1711	1716	1723	1723	1732	1748	1758	1765	1773	1783	1785	1785	1796	1798	1798	1809	1811	1811	1822	1825	1825	1814	1808	1798	1798	1798	1798	1798	1801	1811	1830	1847	1880	1921	1957	2034	2093	2137	2216	2256	2287	2341	2385	2412	2433	2464	2485	2507	2538	2561	2585	2601	2614	2640	2656	2518	0	1616	2954	2954	2954	2955	2990	3008	3026	3064	3083	3102	3102	3049	2990	2737	2727	2727	2472	2447	2433	2269	2231	2196	2162	2143	2121	2105	2096	2085	2085	2079	2068	2054	2051	2051	2079	1416	0	0	0	0	0	0	0	0	0	0	0	0	0	0	0	0
1379	1372	1371	1371	1365	1361	1356	1350	1348	1345	1336	1333	1330	1328	1326	1324	1321	1319	1316	1314	1313	1313	1313	1313	1313	1318	1322	1327	1327	1327	1327	1327	1327	1327	1337	1342	1349	1354	1357	1364	1368	1373	1386	1401	1414	1443	1464	1478	1490	1496	1501	1513	1518	1522	1522	1510	1499	1477	1466	1455	1430	1416	1402	1379	1366	1352	1324	1315	1306	1287	1283	1279	1267	1262	1256	1250	1250	1250	1245	1244	1244	1249	1251	1254	1264	1270	1276	1290	1300	1313	1340	1355	1375	1400	1418	1447	1464	1474	1490	1494	1497	1504	1501	1498	1495	1488	1485	1482	1475	1471	1464	1461	1459	1456	1452	1450	1443	1443	1442	1435	1435	1435	1435	1429	1426	1426	1424	1422	1418	1416	1414	1414	1414	1414	1414	1416	1418	1418	1418	1418	1418	1422	1426	1426	1430	1434	1443	1447	1452	1459	1462	1464	1472	1476	1482	1486	1490	1495	1503	1506	1508	1512	1515	1518	1522	1523	1523	1523	1525	1528	1531	1532	1532	1536	1536	1536	1540	1541	1541	1541	1541	1541	1541	1541	1541	1534	1531	1528	1524	1522	1518	1515	1512	1508	1502	1500	1500	1497	1495	1495	1498	1500	1500	1505	1510	1518	1524	1529	1541	1547	1553	1576	1587	1597	1606	1618	1628	1649	1655	1660	1671	1671	1671	1655	1647	1639	1623	1608	1592	1558	1544	1528	1511	1168	722	710	702	693	683	951	1360	1357	1356	1356	765	674	674	674	909	1364	1367	1370	1375	1378	1380	1382	1385	1386	1386	1386	1385	1382	1380	1379	1379	1379	1379	1379	1376	1375	1375	1375	1376	1382	1385	1387	1394	1397	1399	1406	1409	1413	1435	1445	1453	1468	1468	1469	1477	1482	1486	1486	1489	1490	1490	1490	1491	1500	1507	1514	1522	1530	1536	1571	1591	1612	1643	1665	1688	1688	1704	1723	1758	1771	1785	1828	1846	1866	1891	1900	1909	1936	1939	1939	1111	632	0	0	0	0	1308	1565	1542	1542	1536	1522	1519	1522	1532	1539	1550	1576	1591	1603	1622	1622	1620	1612	1612	1446	816	816	812	790	790	656	0	455	687	674	665	658	643	633	688	1171	1158	1149	1149	1143	1138	1136	1130	1093	556	556	536	0	0	0	0	0	0	0	0	0	0	0	0	0	0	0	1501	1587	1581	1563	1557	1551	1542	1537	1532	1532	1529	1523	1514	1507	1495	1495	987	0	0	0	0	0	0	0	0	0	0	0	431	1634	1634	1632	1628	1628	1625	1618	1610	1606	1606	1603	1602	1602	1602	1602	1602	1602	1602	1602	1605	1606	1606	1606	1607	1612	1612	1612	1612	1615	1617	1622	1628	1634	1644	1644	1644	1654	1654	1654	1660	1660	1660	1666	1663	1660	1665	1658	1649	1644	1641	1638	1628	1623	1617	1612	1607	1601	1583	1571	1556	1547	1542	1536	1520	1511	1500	1492	1487	1482	1470	1467	1464	1461	1459	1456	1452	1451	1451	1445	1443	1443	1449	1451	1451	1458	1460	1460	1466	1472	1486	1499	1508	1528	1547	1560	1581	1608	1627	1654	1676	1693	1723	1730	1736	1748	1771	1786	1792	1784	1778	1766	1766	1766	1754	1744	1735	1718	1711	1705	1677	1671	1666	1650	1644	1638	1638	1638	1638	1638	1643	1650	1650	1654	1660	1670	1678	1688	1699	1705	1712	1717	1724	1736	1746	1757	1773	1783	1787	1792	1802	1807	1812	1822	1824	1824	1836	1835	1825	1820	1814	1804	1804	1803	1798	1798	1801	1811	1830	1847	1880	1916	1948	2018	2082	2128	2206	2246	2278	2341	2385	2414	2445	2468	2486	2520	2551	2575	2612	2620	2527	1320	1328	1259	0	1616	2954	2954	2983	3010	3046	3065	3084	3123	3132	3142	3162	2376	1495	1368	1364	1364	2395	2452	2445	2208	2165	2132	2107	2091	2070	2054	2049	2043	2043	2052	2068	2054	2051	2051	1214	708	0	0	0	0	0	0	0	0	0	0	0	0	0	0	0	0
1379	1372	1371	1371	1365	1361	1356	1350	1349	1349	1337	1334	1334	1328	1327	1327	1321	1320	1320	1315	1313	1313	1313	1313	1313	1318	1322	1327	1327	1327	1327	1327	1327	1327	1337	1342	1349	1354	1357	1364	1368	1373	1386	1401	1414	1443	1464	1479	1495	1500	1505	1513	1524	1532	1532	1517	1503	1486	1472	1460	1435	1422	1410	1379	1368	1356	1328	1317	1306	1287	1283	1279	1267	1260	1253	1247	1247	1247	1242	1241	1241	1246	1247	1247	1263	1269	1273	1290	1300	1313	1343	1359	1379	1404	1422	1451	1464	1476	1495	1495	1497	1504	1504	1502	1495	1488	1486	1486	1480	1475	1468	1462	1460	1460	1454	1450	1443	1443	1442	1435	1435	1435	1435	1429	1426	1426	1426	1425	1418	1418	1418	1418	1418	1418	1418	1422	1426	1426	1426	1426	1426	1431	1435	1435	1439	1443	1451	1455	1460	1468	1468	1468	1476	1481	1486	1486	1490	1495	1503	1508	1513	1513	1517	1523	1523	1523	1523	1523	1526	1532	1532	1532	1532	1539	1541	1541	1541	1541	1541	1541	1541	1541	1541	1541	1541	1534	1532	1532	1526	1523	1523	1516	1513	1513	1507	1504	1504	1498	1495	1495	1501	1504	1504	1510	1514	1523	1528	1533	1541	1547	1553	1581	1592	1602	1612	1623	1634	1654	1660	1666	1688	1688	1688	1677	1672	1666	1654	1639	1622	1592	1577	1561	1561	884	0	0	0	0	0	540	1364	1364	1364	1364	180	0	0	0	466	1371	1371	1374	1379	1379	1379	1379	1385	1386	1386	1386	1384	1379	1379	1379	1379	1379	1379	1379	1379	1379	1379	1379	1380	1386	1386	1387	1394	1394	1395	1402	1402	1406	1435	1445	1453	1468	1468	1468	1468	1468	1468	1468	1468	1468	1468	1468	1468	1477	1487	1495	1513	1523	1532	1571	1591	1612	1643	1665	1688	1688	1704	1723	1758	1771	1785	1822	1842	1866	1891	1900	1909	1936	1939	1939	256	0	0	0	0	0	1321	1581	1561	1561	1555	1541	1534	1532	1532	1539	1557	1601	1609	1617	1633	1633	1631	1622	1622	1624	1633	1633	1623	1581	1581	1313	0	911	1374	1349	1330	1316	1286	1265	1244	1171	1158	1149	1149	1143	1138	1133	1122	1113	1113	1113	1071	0	0	0	0	0	0	0	0	0	0	0	0	0	0	0	1501	1587	1581	1563	1557	1551	1542	1537	1532	1532	1529	1523	1514	1507	1495	1495	987	0	0	0	0	0	0	0	0	0	0	0	440	1666	1666	1663	1654	1654	1652	1644	1628	1622	1622	1615	1612	1612	1612	1612	1612	1612	1612	1612	1612	1612	1612	1612	1612	1612	1612	1612	1612	1618	1622	1622	1628	1634	1644	1644	1644	1654	1654	1654	1666	1666	1666	1666	1666	1666	1677	1666	1654	1654	1649	1644	1634	1628	1622	1622	1613	1601	1583	1569	1551	1542	1538	1532	1516	1507	1495	1487	1483	1477	1470	1465	1460	1460	1457	1451	1451	1451	1451	1445	1443	1443	1449	1451	1451	1458	1460	1460	1466	1472	1486	1499	1508	1523	1542	1554	1571	1605	1627	1654	1676	1693	1723	1730	1736	1748	1763	1773	1773	1765	1759	1748	1748	1747	1735	1722	1712	1700	1694	1688	1666	1655	1644	1633	1628	1622	1622	1622	1622	1622	1627	1633	1633	1638	1644	1653	1664	1677	1687	1693	1700	1711	1716	1723	1733	1749	1773	1783	1789	1798	1809	1815	1825	1836	1838	1838	1849	1844	1825	1825	1821	1811	1811	1808	1798	1798	1801	1811	1830	1847	1880	1911	1939	2001	2070	2119	2196	2236	2269	2341	2385	2415	2457	2473	2488	2532	2564	2590	2640	2640	2441	0	0	0	0	1616	2954	2954	3012	3065	3102	3122	3141	3182	3182	3182	3222	1703	0	0	0	0	2318	2457	2457	2146	2099	2068	2053	2038	2018	2003	2001	2001	2001	2025	2068	2054	2051	2051	348	0	0	0	0	0	0	0	0	0	0	0	0	0	0	0	0	0
1379	1372	1371	1371	1365	1361	1356	1350	1346	1341	1335	1334	1334	1328	1327	1327	1327	1325	1320	1320	1320	1320	1320	1320	1320	1320	1322	1327	1327	1327	1327	1327	1327	1327	1332	1337	1349	1354	1357	1364	1368	1373	1386	1401	1414	1443	1464	1478	1486	1497	1505	1513	1524	1532	1532	1522	1512	1495	1481	1468	1443	1430	1418	1386	1375	1364	1335	1324	1313	1294	1287	1279	1267	1260	1253	1247	1245	1241	1236	1235	1235	1240	1243	1247	1258	1265	1273	1290	1302	1320	1350	1366	1386	1426	1443	1460	1481	1489	1495	1502	1504	1504	1504	1502	1495	1495	1493	1486	1480	1477	1477	1471	1468	1468	1463	1460	1460	1454	1451	1451	1446	1443	1443	1443	1442	1435	1435	1435	1435	1435	1435	1435	1435	1435	1435	1439	1443	1443	1443	1443	1443	1447	1451	1451	1455	1460	1460	1464	1468	1477	1477	1477	1485	1490	1495	1503	1504	1504	1512	1517	1523	1523	1523	1523	1523	1526	1532	1532	1532	1532	1532	1535	1541	1541	1541	1541	1541	1541	1541	1541	1541	1541	1541	1541	1541	1541	1539	1532	1532	1530	1523	1523	1521	1513	1513	1513	1513	1513	1512	1504	1504	1505	1513	1519	1524	1532	1532	1534	1551	1557	1563	1591	1597	1603	1633	1644	1655	1677	1689	1700	1712	1718	1723	1723	1718	1712	1700	1689	1677	1666	1666	1666	1676	1677	1677	127	0	0	0	0	0	0	0	0	0	0	0	0	468	1379	1379	1379	1379	1379	1379	1379	1379	1379	1379	1379	1377	1371	1371	1371	1371	1371	1371	1371	1371	1371	1371	1371	1371	1371	1376	1379	1379	1384	1386	1386	1386	1388	1402	529	0	0	0	135	1435	1435	1435	1435	1435	1435	1443	1443	1443	1451	1460	1469	1495	1514	1532	1581	1596	1612	1653	1676	1700	1734	1735	1735	1759	1782	1811	1824	1842	1866	1879	1886	1894	1894	1894	1894	1858	1828	1785	1743	1735	1735	295	510	1591	1583	1578	1571	1563	1561	1561	1569	1579	1601	1617	1627	1644	1644	1642	1633	1633	1633	1633	1633	1623	1581	1581	1313	0	911	1374	1349	1330	1316	1286	1265	1249	1217	1203	1192	1182	1166	1152	1133	1122	1113	1113	1113	1071	0	0	0	0	0	0	0	0	0	0	0	0	0	0	0	0	0	0	0	644	1551	1551	1551	1551	1551	966	0	0	0	0	0	0	0	0	0	0	0	0	0	0	0	0	0	455	1723	1715	1706	1688	1688	1686	1677	1661	1652	1644	1644	1642	1633	1633	1633	1633	1626	1622	1622	1622	1622	1622	1622	1622	1622	1622	1622	1622	1622	1622	1622	1628	1634	1644	1649	1654	1654	1660	1666	1666	1666	1666	1677	1682	1688	1677	1677	1677	1666	1666	1666	1645	1639	1633	1623	1609	1591	1582	1569	1551	1534	1529	1523	1507	1501	1495	1487	1480	1468	1461	1460	1460	1460	1457	1451	1451	1451	1451	1451	1451	1451	1451	1451	1451	1458	1460	1460	1466	1472	1486	1499	1508	1523	1542	1554	1571	1598	1615	1633	1661	1680	1700	1707	1713	1723	1723	1723	1723	1717	1712	1712	1712	1711	1700	1693	1687	1666	1660	1654	1633	1627	1622	1612	1607	1601	1591	1591	1591	1591	1596	1601	1611	1612	1612	1621	1635	1654	1665	1670	1677	1697	1705	1712	1732	1749	1773	1783	1789	1798	1809	1815	1825	1836	1842	1852	1863	1862	1852	1841	1835	1825	1814	1811	1811	1811	1814	1825	1844	1858	1880	1911	1933	1970	2060	2119	2196	2236	2272	2364	2408	2436	2457	2488	2513	2558	2591	2617	2669	1108	0	0	0	0	0	0	0	0	0	0	0	0	0	0	0	0	0	0	0	0	0	0	0	0	0	1961	2058	1970	1956	1948	1939	1939	1939	1939	1939	1944	1954	1954	1290	0	0	0	0	0	0	0	0	0	0	0	0	0	0	0	0	0	0	0
1375	1371	1370	1368	1361	1357	1352	1346	1344	1341	1335	1334	1334	1331	1329	1327	1327	1325	1320	1320	1320	1320	1320	1320	1320	1320	1322	1327	1327	1327	1327	1327	1327	1327	1332	1337	1349	1354	1357	1360	1367	1373	1386	1401	1414	1443	1464	1478	1486	1497	1505	1518	1526	1532	1532	1522	1512	1495	1481	1468	1443	1430	1418	1390	1379	1368	1338	1328	1316	1297	1288	1279	1267	1262	1256	1248	1245	1241	1236	1235	1235	1238	1240	1244	1258	1265	1273	1290	1303	1324	1354	1371	1394	1427	1444	1464	1481	1490	1500	1503	1504	1504	1504	1502	1495	1495	1494	1490	1484	1482	1482	1475	1472	1472	1470	1468	1464	1458	1456	1456	1453	1451	1447	1447	1446	1439	1439	1439	1439	1439	1439	1439	1441	1443	1443	1448	1452	1452	1452	1452	1456	1458	1460	1464	1466	1468	1473	1475	1477	1486	1486	1486	1494	1497	1500	1508	1511	1514	1518	1520	1523	1527	1528	1528	1528	1529	1532	1532	1532	1532	1536	1538	1541	1541	1541	1541	1541	1541	1541	1541	1541	1541	1541	1541	1541	1541	1540	1536	1536	1535	1528	1524	1522	1518	1518	1518	1518	1518	1517	1508	1508	1510	1518	1521	1524	1532	1535	1538	1551	1560	1568	1591	1600	1608	1638	1647	1655	1682	1695	1706	1724	1730	1736	1742	1736	1730	1724	1719	1712	1695	1692	1689	1678	1677	1677	907	844	844	80	0	0	0	0	0	0	0	0	0	468	1379	1379	1379	1379	1376	1375	1375	1378	1378	1375	1375	1373	1368	1368	1368	1368	1368	1368	1368	1368	1368	1368	1368	1368	1368	1370	1372	1375	1377	1378	1378	1378	1380	1390	954	689	690	690	758	1414	1414	1414	1414	1417	1419	1422	1434	1443	1451	1460	1469	1495	1514	1532	1591	1612	1633	1659	1682	1706	1740	1742	1742	1765	1786	1811	1824	1839	1859	1872	1879	1887	1893	1889	1880	1850	1823	1785	1743	1733	1729	1004	1106	1634	1621	1616	1612	953	781	780	1412	1600	1612	1632	1642	1655	1655	1652	1644	1644	1644	1644	1644	1636	1602	1602	1330	0	455	687	674	1110	1348	1314	1295	1281	1265	1236	1215	1200	1191	1182	1144	1138	1101	556	556	536	0	0	0	0	0	0	0	0	0	0	0	0	0	0	0	0	0	0	0	322	776	776	776	776	776	483	0	0	0	0	0	0	0	0	0	0	0	0	0	0	0	0	0	462	1748	1730	1719	1706	1706	1704	1700	1679	1669	1660	1660	1657	1644	1644	1644	1644	1637	1633	1633	1629	1628	1628	1628	1627	1622	1622	1622	1622	1625	1628	1628	1634	1639	1644	1649	1654	1660	1663	1666	1672	1672	1672	1682	1685	1688	1683	1680	1677	1672	1672	1672	1650	1644	1638	1623	1609	1591	1582	1569	1551	1534	1529	1523	1507	1501	1495	1484	1477	1468	1461	1460	1460	1460	1459	1456	1452	1451	1451	1451	1451	1451	1451	1451	1451	1458	1461	1464	1467	1472	1486	1499	1508	1523	1542	1554	1571	1594	1610	1633	1654	1669	1694	1701	1707	1712	1712	1712	1712	1705	1700	1700	1697	1694	1688	1682	1676	1655	1649	1643	1622	1617	1612	1602	1596	1591	1581	1581	1581	1581	1586	1591	1601	1604	1606	1616	1628	1644	1654	1662	1672	1691	1701	1712	1732	1749	1773	1783	1794	1812	1822	1831	1846	1856	1861	1866	1877	1876	1866	1861	1852	1832	1821	1818	1818	1818	1821	1832	1851	1863	1880	1911	1933	1970	1346	1059	1098	1118	1136	1182	1204	1218	1228	2049	2549	2572	2613	2517	1334	554	0	0	0	0	0	0	0	0	0	0	0	0	0	0	0	0	0	0	0	0	0	0	0	0	0	1837	1955	1911	1897	1893	1888	1895	1896	1896	1902	1916	1939	1926	1592	947	161	0	0	0	0	0	0	0	0	0	0	0	0	0	0	0	0	0
1371	1371	1368	1364	1357	1353	1349	1342	1341	1341	1335	1334	1334	1334	1332	1327	1327	1325	1320	1320	1320	1320	1320	1320	1320	1320	1322	1327	1327	1327	1327	1327	1327	1327	1332	1337	1349	1354	1356	1356	1366	1373	1386	1401	1414	1443	1464	1478	1486	1497	1505	1523	1528	1532	1532	1522	1512	1495	1481	1468	1443	1430	1418	1394	1383	1371	1342	1331	1320	1300	1290	1279	1267	1263	1260	1248	1245	1241	1236	1235	1235	1235	1237	1241	1257	1265	1273	1290	1305	1327	1358	1376	1402	1429	1445	1468	1482	1491	1504	1504	1504	1504	1504	1502	1495	1495	1495	1495	1489	1486	1486	1480	1477	1477	1477	1475	1468	1463	1460	1460	1460	1459	1451	1451	1450	1443	1443	1443	1443	1443	1443	1443	1448	1451	1451	1456	1460	1460	1460	1460	1468	1468	1468	1477	1477	1477	1486	1486	1486	1495	1495	1495	1503	1504	1504	1512	1517	1523	1523	1523	1523	1531	1532	1532	1532	1532	1532	1532	1532	1532	1539	1541	1541	1541	1541	1541	1541	1541	1541	1541	1541	1541	1541	1541	1541	1541	1541	1541	1541	1539	1532	1526	1523	1523	1523	1523	1523	1523	1521	1513	1513	1514	1523	1523	1524	1532	1537	1542	1551	1563	1573	1591	1603	1614	1644	1649	1655	1688	1701	1712	1735	1742	1748	1760	1754	1748	1748	1748	1748	1724	1718	1712	1679	1677	1677	1687	1688	1688	159	0	0	0	0	0	0	0	0	0	468	1379	1379	1379	1379	1373	1371	1371	1377	1377	1371	1371	1369	1364	1364	1364	1364	1364	1364	1364	1364	1364	1364	1364	1364	1364	1364	1365	1371	1371	1371	1371	1371	1372	1379	1379	1379	1379	1379	1380	1394	1394	1394	1394	1399	1402	1402	1424	1443	1451	1460	1469	1495	1514	1532	1601	1627	1654	1666	1688	1712	1747	1748	1748	1772	1789	1811	1824	1836	1852	1865	1872	1880	1892	1883	1866	1842	1819	1785	1743	1731	1723	1714	1701	1677	1658	1654	1654	343	0	0	1255	1622	1622	1646	1657	1666	1666	1663	1654	1654	1654	1654	1654	1648	1622	1622	1347	0	0	0	0	889	1380	1341	1324	1313	1313	1270	1239	1217	1217	1212	1154	1154	1089	0	0	0	0	0	0	0	0	0	0	0	0	0	0	0	0	0	0	0	0	0	0	0	0	0	0	0	0	0	0	0	0	0	0	0	0	0	0	0	0	0	0	0	0	0	0	468	1773	1744	1732	1723	1723	1723	1723	1698	1686	1677	1677	1673	1654	1654	1654	1654	1647	1644	1644	1637	1633	1633	1633	1632	1622	1622	1622	1622	1628	1633	1633	1639	1644	1644	1649	1654	1666	1666	1666	1677	1677	1677	1688	1688	1688	1688	1683	1677	1677	1677	1677	1655	1650	1644	1624	1609	1591	1582	1569	1551	1534	1529	1523	1507	1501	1495	1480	1474	1468	1461	1460	1460	1460	1460	1460	1453	1451	1451	1451	1451	1451	1451	1451	1451	1458	1462	1468	1468	1472	1486	1499	1508	1523	1542	1554	1571	1591	1606	1633	1646	1658	1688	1695	1700	1700	1700	1700	1700	1693	1688	1688	1682	1677	1677	1671	1665	1644	1638	1633	1612	1606	1601	1591	1586	1581	1571	1571	1571	1571	1576	1581	1590	1595	1601	1611	1621	1633	1643	1653	1666	1686	1697	1712	1732	1749	1773	1783	1799	1825	1836	1847	1866	1877	1880	1880	1891	1890	1880	1880	1869	1838	1828	1825	1825	1825	1828	1838	1858	1869	1880	1911	1933	1970	632	0	0	0	0	0	0	0	0	1610	2585	2585	2636	2417	0	0	0	0	0	0	0	0	0	0	0	0	0	0	0	0	0	0	0	0	0	0	0	0	0	0	0	1712	1852	1852	1839	1838	1838	1850	1852	1852	1864	1887	1924	1899	1894	1894	322	0	0	0	0	0	0	0	0	0	0	0	0	0	0	0	0	0
1364	1364	1361	1356	1350	1349	1349	1342	1339	1334	1334	1332	1327	1327	1327	1327	1327	1327	1327	1322	1320	1320	1320	1322	1327	1327	1327	1327	1327	1327	1327	1327	1327	1327	1337	1342	1349	1354	1356	1356	1366	1373	1386	1401	1414	1443	1458	1470	1486	1497	1505	1513	1513	1514	1523	1508	1494	1477	1468	1459	1426	1414	1402	1386	1375	1364	1341	1331	1320	1300	1293	1286	1267	1263	1260	1248	1245	1241	1241	1239	1235	1235	1237	1241	1257	1265	1273	1295	1311	1334	1371	1392	1418	1445	1456	1468	1489	1498	1504	1511	1513	1513	1506	1504	1504	1504	1504	1504	1504	1504	1504	1498	1495	1495	1489	1486	1486	1480	1476	1468	1468	1467	1460	1460	1460	1460	1460	1460	1460	1460	1460	1460	1465	1469	1477	1477	1477	1477	1482	1486	1486	1486	1486	1495	1495	1495	1504	1504	1504	1513	1513	1513	1522	1523	1523	1523	1527	1532	1532	1532	1532	1532	1532	1532	1532	1532	1532	1540	1541	1541	1541	1541	1541	1541	1541	1541	1541	1541	1541	1541	1541	1541	1541	1541	1541	1541	1541	1541	1541	1541	1541	1535	1532	1532	1526	1523	1523	1523	1523	1523	1523	1523	1523	1529	1533	1541	1547	1552	1561	1573	1583	1601	1613	1624	1654	1667	1678	1700	1712	1723	1748	1761	1773	1773	1779	1785	1785	1785	1785	1773	1767	1760	1749	1737	1723	1691	1688	1688	159	0	0	0	0	0	0	0	0	0	0	0	0	442	1379	1373	1371	1371	1377	1377	1371	1371	1369	1364	1364	1364	1364	1364	1364	1364	1364	1364	1364	1364	1364	1364	1364	1364	1364	1364	1364	1364	1364	1365	1371	1371	1371	1371	1376	1379	1379	1383	1386	1386	1391	1394	1394	631	0	0	790	1495	1495	1514	1532	1601	1627	1654	1687	1710	1735	1772	1773	1773	1784	1802	1825	1837	1844	1852	1865	1872	1880	1880	1875	1866	1842	1824	1798	1756	1740	1723	1714	1701	1677	1658	1654	1654	1700	1712	1712	1667	1654	1654	1680	1691	1700	1700	1697	1688	1688	1690	1700	1716	1398	0	0	272	1601	1568	1545	1513	1513	1497	1394	1394	1393	1386	1386	1255	0	0	0	0	0	0	0	0	0	0	0	0	0	0	0	0	0	0	0	0	0	0	0	0	0	0	0	0	0	0	0	0	0	0	0	0	0	0	0	0	0	0	0	0	0	0	0	0	0	532	1880	1869	1862	1852	1801	1785	1785	1767	1760	1760	1742	1733	1723	1707	1698	1688	1688	1686	1677	1670	1664	1654	1654	1653	1644	1644	1644	1644	1637	1633	1633	1633	1634	1644	1650	1654	1654	1654	1654	1666	1672	1677	1677	1683	1688	1700	1700	1700	1712	1706	1700	1700	1690	1677	1667	1661	1654	1635	1624	1612	1584	1573	1561	1535	1529	1523	1507	1501	1495	1480	1474	1468	1468	1465	1460	1460	1460	1460	1460	1457	1451	1451	1451	1451	1451	1451	1451	1458	1462	1468	1468	1472	1486	1499	1508	1523	1535	1546	1571	1584	1597	1633	1646	1657	1677	1684	1689	1700	1700	1700	1700	1693	1687	1677	1671	1666	1666	1659	1654	1644	1632	1622	1601	1596	1591	1581	1576	1571	1561	1561	1561	1561	1561	1561	1570	1575	1581	1590	1604	1622	1632	1641	1654	1674	1690	1712	1743	1757	1773	1805	1816	1825	1859	1875	1894	1906	1918	1939	1939	1935	1924	1924	1916	1894	1894	1905	1939	512	0	0	0	0	0	0	0	0	0	0	0	0	0	0	0	0	0	1626	2612	2612	1035	0	0	0	0	0	0	0	0	0	0	0	0	0	0	0	0	0	0	0	0	0	0	0	0	0	0	0	0	1616	1748	1748	1759	1765	1773	1795	1803	1811	1859	1887	1924	1899	1894	1894	322	0	0	0	0	0	0	0	0	0	0	0	0	0	0	0	0	0
1360	1357	1355	1352	1349	1348	1345	1336	1333	1330	1330	1329	1327	1327	1327	1327	1327	1327	1327	1324	1324	1324	1324	1324	1327	1330	1331	1334	1331	1330	1330	1333	1334	1334	1341	1346	1352	1357	1360	1360	1367	1373	1386	1401	1413	1434	1450	1461	1477	1485	1491	1500	1500	1500	1504	1492	1481	1460	1451	1442	1414	1402	1390	1375	1366	1356	1334	1326	1316	1297	1290	1282	1267	1262	1256	1245	1242	1238	1238	1237	1235	1235	1237	1241	1257	1265	1273	1295	1311	1334	1374	1394	1418	1442	1455	1472	1490	1498	1504	1511	1513	1513	1510	1508	1508	1508	1508	1508	1508	1508	1508	1505	1503	1500	1496	1494	1490	1488	1485	1477	1474	1472	1468	1468	1468	1468	1468	1468	1468	1468	1468	1468	1473	1477	1482	1484	1486	1486	1491	1495	1495	1495	1495	1504	1504	1504	1513	1514	1514	1518	1520	1522	1527	1528	1528	1528	1531	1536	1536	1536	1536	1536	1536	1536	1536	1536	1536	1540	1541	1541	1541	1541	1541	1541	1541	1541	1541	1541	1541	1541	1541	1541	1541	1541	1541	1541	1541	1541	1541	1541	1541	1538	1537	1536	1530	1528	1528	1528	1528	1528	1528	1528	1528	1530	1533	1541	1547	1552	1561	1573	1583	1601	1613	1624	1654	1667	1678	1700	1712	1723	1748	1761	1773	1773	1779	1785	1791	1792	1792	1786	1780	1772	1767	1761	1754	913	844	844	80	0	0	0	0	0	0	0	0	0	0	0	0	442	1379	1376	1375	1375	1375	1374	1371	1371	1369	1364	1364	1364	1364	1364	1364	1364	1364	1364	1364	1364	1364	1364	1364	1363	1360	1360	1360	1360	1363	1364	1368	1368	1368	1368	1372	1375	1379	1381	1382	1382	1389	1394	1394	631	0	0	395	762	1523	1532	1542	1612	1638	1666	1705	1725	1748	1778	1785	1792	1798	1810	1825	1837	1844	1852	1865	1872	1880	1880	1875	1866	1848	1833	1812	1779	1767	1754	1744	1733	1712	1703	1697	1688	1707	1712	1712	1690	1684	1688	1701	1707	1712	1712	1709	1700	1700	1702	1712	1720	1398	0	573	973	1601	1568	1545	1513	1513	1501	1422	1412	1404	1386	1386	1324	734	305	0	0	0	0	0	0	0	0	0	0	0	0	0	0	0	0	0	0	0	0	0	0	0	0	0	0	353	850	850	848	844	844	842	838	838	840	844	844	846	850	855	860	868	878	888	906	916	1191	1880	1869	1862	1852	1821	1810	1805	1786	1779	1779	1765	1756	1742	1725	1715	1706	1702	1698	1688	1681	1675	1666	1662	1659	1655	1651	1649	1649	1646	1643	1638	1638	1639	1649	1652	1654	1660	1660	1660	1672	1674	1677	1682	1688	1694	1706	1709	1712	1717	1715	1712	1706	1698	1688	1678	1672	1666	1641	1628	1612	1584	1573	1561	1539	1531	1523	1510	1505	1500	1488	1483	1477	1470	1465	1460	1460	1460	1460	1460	1459	1456	1456	1456	1456	1456	1456	1456	1462	1465	1468	1471	1476	1490	1500	1508	1523	1535	1546	1571	1584	1597	1633	1650	1662	1677	1684	1689	1700	1700	1700	1700	1693	1687	1677	1671	1666	1666	1659	1653	1638	1630	1622	1601	1593	1586	1576	1571	1566	1556	1556	1556	1556	1556	1556	1565	1570	1576	1585	1599	1617	1631	1639	1649	1674	1690	1712	1743	1759	1779	1812	1825	1838	1873	1889	1909	1927	1938	1954	1960	1958	1947	1947	1941	1924	1918	1922	1939	1237	762	0	0	0	0	0	0	0	0	0	0	0	0	0	0	0	0	813	1306	1306	517	0	0	0	0	0	0	0	0	0	0	0	0	0	0	0	0	0	0	0	0	0	0	0	0	0	0	0	0	1616	1748	1748	1721	1721	1725	1790	1803	1811	1049	943	962	949	947	947	161	0	0	0	0	0	0	0	0	0	0	0	0	0	0	0	0	0
1356	1350	1349	1349	1349	1346	1341	1329	1327	1327	1327	1327	1327	1327	1327	1327	1327	1327	1327	1327	1327	1327	1327	1327	1327	1332	1336	1341	1336	1334	1334	1339	1341	1341	1346	1350	1356	1361	1364	1364	1368	1373	1386	1401	1412	1426	1441	1453	1468	1473	1478	1486	1486	1486	1486	1476	1467	1443	1434	1426	1402	1390	1379	1364	1357	1349	1327	1320	1313	1294	1287	1279	1267	1260	1253	1242	1239	1235	1235	1235	1235	1235	1237	1241	1257	1265	1273	1295	1311	1334	1377	1396	1418	1438	1453	1477	1491	1498	1504	1511	1513	1513	1513	1513	1513	1513	1513	1513	1513	1513	1513	1513	1511	1504	1504	1502	1495	1495	1494	1486	1480	1477	1477	1477	1477	1477	1477	1477	1477	1477	1477	1477	1482	1486	1486	1491	1495	1495	1500	1504	1504	1504	1504	1513	1513	1513	1523	1523	1523	1523	1527	1532	1532	1532	1532	1532	1536	1541	1541	1541	1541	1541	1541	1541	1541	1541	1541	1541	1541	1541	1541	1541	1541	1541	1541	1541	1541	1541	1541	1541	1541	1541	1541	1541	1541	1541	1541	1541	1541	1541	1541	1541	1541	1541	1535	1532	1532	1532	1532	1532	1532	1532	1532	1532	1533	1541	1547	1552	1561	1573	1583	1601	1613	1624	1654	1667	1678	1700	1712	1723	1748	1761	1773	1773	1779	1785	1798	1798	1798	1798	1792	1785	1785	1785	1785	135	0	0	0	0	0	0	0	0	0	0	0	0	0	0	0	442	1379	1379	1379	1379	1373	1371	1371	1371	1369	1364	1364	1364	1364	1364	1364	1364	1364	1364	1364	1364	1364	1364	1364	1363	1356	1356	1356	1356	1361	1364	1364	1364	1364	1364	1368	1372	1379	1379	1379	1379	1387	1394	1394	631	0	0	0	29	1551	1551	1551	1622	1649	1677	1722	1740	1760	1784	1797	1811	1811	1817	1825	1837	1844	1852	1865	1872	1880	1880	1875	1866	1854	1842	1825	1802	1794	1785	1775	1765	1748	1748	1740	1723	1714	1712	1712	1712	1715	1723	1723	1723	1723	1723	1721	1712	1712	1714	1723	1723	1398	0	1147	1673	1601	1568	1545	1513	1513	1505	1451	1430	1414	1386	1386	1394	1468	609	0	0	0	0	0	0	0	0	0	0	0	0	0	0	0	0	0	0	0	0	0	0	0	0	0	0	706	1700	1700	1695	1688	1688	1684	1677	1677	1681	1688	1688	1692	1700	1710	1719	1735	1755	1775	1811	1832	1850	1880	1869	1862	1852	1841	1835	1825	1805	1798	1798	1789	1780	1760	1743	1733	1723	1716	1710	1700	1692	1686	1677	1670	1666	1666	1659	1654	1654	1654	1653	1644	1644	1645	1654	1654	1655	1666	1666	1666	1677	1677	1677	1688	1694	1700	1712	1717	1723	1723	1723	1723	1712	1707	1700	1689	1683	1677	1646	1631	1612	1584	1573	1561	1543	1534	1523	1514	1510	1504	1496	1492	1486	1471	1465	1460	1460	1460	1460	1460	1460	1460	1460	1460	1460	1460	1460	1460	1466	1468	1468	1474	1481	1495	1501	1508	1523	1535	1546	1571	1584	1597	1633	1654	1667	1677	1684	1689	1700	1700	1700	1700	1693	1687	1677	1671	1666	1666	1659	1653	1633	1627	1622	1601	1591	1581	1571	1566	1561	1551	1551	1551	1551	1551	1551	1560	1565	1571	1580	1594	1612	1631	1637	1644	1673	1690	1712	1743	1761	1785	1819	1834	1852	1887	1904	1924	1948	1959	1970	1982	1981	1970	1970	1966	1954	1943	1939	1939	1962	1524	0	0	0	0	0	0	0	0	0	0	0	0	0	0	0	0	0	0	0	0	0	0	0	0	0	0	0	0	0	0	0	0	0	0	0	0	0	0	0	0	0	0	0	0	0	0	0	0	1616	1748	1748	1684	1677	1677	1784	1803	1811	239	0	0	0	0	0	0	0	0	0	0	0	0	0	0	0	0	0	0	0	0	0	0	0
1356	1350	1346	1341	1335	1331	1327	1327	1325	1320	1320	1320	1320	1320	1320	1320	1326	1327	1327	1327	1327	1327	1332	1336	1341	1341	1343	1349	1349	1349	1349	1354	1356	1356	1356	1357	1364	1364	1365	1371	1371	1372	1379	1388	1396	1410	1420	1428	1443	1448	1452	1460	1460	1459	1451	1442	1434	1418	1405	1394	1379	1367	1356	1341	1334	1327	1313	1306	1299	1286	1277	1266	1254	1248	1241	1230	1229	1229	1224	1223	1223	1228	1231	1235	1245	1254	1266	1283	1300	1327	1364	1381	1402	1435	1451	1468	1482	1489	1495	1502	1506	1513	1513	1513	1513	1520	1525	1532	1532	1532	1532	1532	1532	1532	1526	1521	1513	1507	1504	1504	1498	1494	1486	1486	1486	1486	1486	1486	1486	1486	1487	1495	1495	1496	1504	1504	1504	1513	1513	1513	1523	1523	1523	1532	1532	1532	1532	1532	1532	1541	1541	1541	1541	1541	1541	1541	1541	1541	1541	1541	1541	1541	1541	1541	1541	1541	1541	1541	1541	1541	1541	1541	1541	1541	1541	1541	1549	1551	1551	1551	1551	1551	1551	1551	1551	1551	1551	1551	1551	1551	1551	1544	1541	1541	1541	1541	1541	1541	1540	1532	1532	1533	1541	1541	1541	1541	1547	1552	1561	1573	1583	1601	1613	1623	1644	1656	1667	1688	1701	1712	1735	1742	1748	1773	1773	1773	1785	1785	1785	1785	1780	1773	1773	1773	1773	134	0	0	0	0	0	0	0	0	0	0	0	0	0	0	0	445	1386	1380	1379	1379	1373	1371	1371	1371	1371	1371	1366	1364	1364	1364	1364	1364	1364	1364	1364	1364	1364	1364	1364	1363	1356	1356	1356	1356	1361	1364	1364	1364	1364	1364	1368	1372	1379	1379	1379	1379	1387	1394	1394	631	0	0	0	29	1551	1551	1551	1633	1655	1677	1734	1753	1773	1797	1810	1825	1825	1831	1838	1851	1852	1852	1865	1866	1866	1866	1866	1866	1866	1861	1852	1840	1838	1838	1838	1838	1838	1827	1825	1825	1814	1807	1798	1798	1795	1785	1785	1779	1760	1760	1760	1760	1751	1748	1748	1765	1780	1811	1727	1677	1622	1602	1588	1571	1552	1539	1523	1506	1493	1477	1472	1468	1468	1577	1529	0	0	0	0	0	67	1773	1773	1773	1785	1785	1785	1785	1785	1785	34	0	0	0	814	1798	1786	1780	1773	1761	1735	1700	1700	1695	1688	1688	1684	1677	1677	1681	1688	1688	1692	1700	1710	1719	1735	1755	1775	1811	1832	1850	1880	1880	1880	1880	1869	1863	1852	1852	1852	1852	1833	1817	1785	1777	1768	1748	1739	1731	1712	1704	1698	1688	1681	1677	1677	1670	1666	1666	1666	1666	1666	1666	1666	1666	1672	1677	1677	1683	1688	1688	1694	1700	1700	1706	1712	1723	1729	1735	1735	1735	1735	1735	1730	1723	1701	1695	1688	1668	1652	1633	1614	1600	1581	1546	1534	1523	1514	1510	1504	1496	1492	1486	1479	1477	1477	1477	1477	1477	1477	1477	1477	1477	1477	1477	1477	1477	1477	1484	1486	1486	1499	1506	1513	1526	1536	1551	1565	1576	1601	1615	1627	1654	1669	1678	1688	1695	1700	1700	1700	1700	1700	1693	1687	1677	1671	1666	1666	1659	1653	1633	1627	1622	1601	1591	1581	1571	1566	1561	1551	1546	1541	1541	1541	1541	1550	1555	1561	1579	1589	1601	1620	1631	1644	1673	1690	1712	1743	1766	1798	1821	1844	1880	1904	1923	1954	1979	1990	2001	2014	2018	2018	2018	2018	2018	1993	1981	1970	1970	1981	2018	571	0	0	0	0	0	0	0	0	0	0	0	0	0	0	0	0	0	0	0	0	0	0	0	0	0	0	0	0	0	0	0	0	0	0	0	0	0	0	0	0	0	0	0	0	0	0	0	0	0	1519	1677	1677	190	0	0	0	0	0	0	0	0	0	0	0	0	0	0	0	0	0	0	0	0	0	0	0	0	0	0
1352	1346	1342	1338	1331	1328	1324	1324	1321	1316	1316	1316	1316	1316	1318	1320	1323	1324	1324	1326	1327	1327	1332	1336	1341	1344	1347	1352	1352	1352	1352	1355	1357	1360	1360	1361	1364	1364	1365	1368	1368	1368	1372	1381	1388	1398	1408	1416	1430	1433	1435	1443	1443	1443	1438	1430	1422	1406	1396	1386	1372	1362	1352	1338	1331	1324	1310	1303	1296	1283	1275	1266	1251	1246	1241	1230	1228	1226	1223	1223	1223	1228	1231	1235	1245	1253	1263	1283	1299	1324	1360	1377	1398	1428	1442	1460	1477	1484	1490	1501	1506	1513	1513	1514	1518	1522	1525	1532	1535	1536	1536	1536	1537	1536	1533	1530	1522	1517	1513	1508	1506	1503	1495	1492	1490	1490	1490	1491	1495	1495	1495	1500	1502	1504	1508	1511	1514	1518	1520	1523	1528	1528	1528	1536	1536	1536	1536	1536	1536	1541	1543	1546	1546	1546	1546	1546	1546	1546	1546	1546	1546	1546	1546	1546	1546	1546	1546	1546	1546	1546	1546	1546	1546	1546	1546	1546	1550	1551	1551	1551	1551	1551	1551	1551	1551	1551	1551	1551	1551	1552	1556	1549	1546	1546	1546	1546	1546	1546	1545	1536	1536	1537	1541	1541	1542	1546	1549	1552	1561	1570	1578	1596	1608	1618	1633	1645	1656	1677	1692	1706	1724	1733	1742	1760	1760	1760	1772	1776	1779	1779	1771	1760	1760	1760	1760	929	862	862	81	0	0	0	0	0	0	0	0	0	0	0	0	222	693	690	901	1390	1387	1384	1378	1378	1378	1375	1369	1368	1368	1368	1368	1368	1368	1368	1368	1368	1367	1364	1364	1363	1360	1360	1360	1360	1363	1364	1364	1364	1364	1368	1370	1372	1379	1379	1379	1382	1389	1394	1394	631	0	0	0	15	776	776	776	816	1253	1706	1734	1744	1754	1778	1794	1812	1812	1817	1824	1837	1841	1845	1851	1855	1859	1859	1859	1859	1859	1856	1852	1846	1847	1852	1858	1861	1866	1867	1867	1867	1861	1858	1854	1848	1844	1840	1829	1819	1799	1799	1798	1792	1783	1780	1780	1788	1796	1811	1765	1733	1685	1667	1655	1647	1626	1613	1600	1588	1578	1560	1558	1556	1556	1613	1598	912	396	0	0	495	938	1773	1773	1773	1785	1785	1785	1785	1785	1785	916	899	899	899	1306	1798	1786	1780	1773	1761	1742	1718	1712	1707	1700	1700	1696	1688	1688	1690	1694	1699	1702	1706	1716	1725	1742	1767	1784	1811	1838	1857	1887	1893	1894	1894	1889	1884	1873	1873	1871	1866	1846	1832	1805	1791	1781	1760	1748	1738	1724	1712	1705	1700	1693	1688	1682	1679	1676	1672	1672	1672	1677	1677	1677	1677	1680	1682	1682	1689	1694	1694	1700	1706	1712	1715	1718	1729	1735	1742	1747	1748	1748	1742	1736	1729	1702	1695	1688	1668	1652	1633	1614	1600	1581	1550	1541	1532	1520	1515	1508	1501	1498	1495	1488	1486	1486	1486	1486	1486	1486	1486	1486	1489	1490	1490	1490	1490	1490	1497	1500	1500	1513	1520	1527	1541	1549	1561	1578	1590	1612	1626	1638	1666	1676	1684	1694	1701	1706	1706	1706	1705	1700	1693	1687	1677	1671	1666	1666	1659	1653	1633	1627	1622	1601	1591	1581	1571	1566	1561	1551	1546	1541	1541	1541	1541	1550	1555	1561	1575	1586	1601	1620	1631	1644	1668	1685	1706	1742	1766	1798	1826	1848	1880	1910	1931	1962	1987	2000	2018	2031	2034	2034	2041	2041	2034	2016	2008	2002	1996	1999	2018	1306	813	0	0	0	0	0	0	0	0	0	0	0	0	0	0	0	0	0	0	0	0	0	0	0	0	0	0	0	0	0	0	0	0	0	0	0	0	0	0	0	0	0	0	0	0	0	0	0	0	759	838	838	95	0	0	0	0	0	0	0	0	0	0	0	0	0	0	0	0	0	0	0	0	0	0	0	0	0	0
1349	1342	1338	1334	1328	1324	1320	1320	1318	1313	1313	1313	1313	1313	1315	1320	1320	1320	1320	1325	1327	1327	1332	1336	1341	1347	1351	1356	1356	1356	1356	1356	1358	1364	1364	1364	1364	1364	1364	1364	1364	1364	1364	1373	1380	1386	1396	1404	1418	1418	1419	1426	1426	1426	1426	1417	1409	1394	1386	1379	1364	1356	1349	1334	1327	1320	1306	1300	1293	1280	1273	1266	1248	1244	1241	1230	1227	1223	1223	1223	1223	1228	1231	1235	1245	1252	1260	1282	1298	1320	1357	1374	1394	1420	1434	1451	1472	1480	1486	1500	1506	1513	1513	1515	1523	1523	1525	1532	1538	1541	1541	1541	1541	1541	1541	1539	1532	1526	1521	1513	1513	1512	1504	1498	1495	1495	1495	1496	1504	1504	1504	1504	1509	1513	1513	1518	1523	1523	1528	1532	1532	1532	1532	1541	1541	1541	1541	1541	1541	1541	1546	1551	1551	1551	1551	1551	1551	1551	1551	1551	1551	1551	1551	1551	1551	1551	1551	1551	1551	1551	1551	1551	1551	1551	1551	1551	1551	1551	1551	1551	1551	1551	1551	1551	1551	1551	1551	1551	1551	1553	1561	1554	1551	1551	1551	1551	1551	1551	1549	1541	1541	1541	1541	1541	1542	1551	1551	1552	1561	1567	1573	1591	1603	1613	1622	1634	1645	1666	1684	1700	1712	1724	1735	1748	1748	1748	1760	1766	1773	1773	1762	1748	1748	1748	1748	1725	1723	1723	163	0	0	0	0	0	0	0	0	0	0	0	0	0	0	0	423	1402	1402	1397	1386	1386	1384	1379	1373	1371	1371	1371	1371	1371	1371	1371	1371	1371	1370	1364	1364	1364	1364	1364	1364	1364	1364	1364	1364	1364	1365	1371	1371	1372	1379	1379	1380	1386	1391	1394	1394	631	0	0	0	0	0	0	0	0	851	1735	1735	1735	1735	1759	1777	1798	1798	1804	1811	1824	1830	1838	1838	1844	1852	1852	1852	1852	1852	1852	1852	1852	1857	1866	1878	1884	1894	1906	1909	1909	1909	1909	1909	1897	1894	1894	1873	1859	1838	1838	1835	1825	1815	1811	1811	1811	1811	1811	1802	1790	1748	1731	1723	1723	1701	1687	1677	1670	1664	1644	1644	1644	1644	1650	1667	1825	792	0	0	991	1810	1773	1773	1773	1785	1785	1785	1785	1785	1785	1798	1798	1798	1798	1798	1798	1786	1780	1773	1761	1750	1735	1724	1719	1712	1712	1707	1700	1700	1700	1700	1710	1712	1712	1721	1731	1748	1778	1793	1811	1843	1864	1894	1906	1909	1909	1909	1905	1894	1894	1891	1880	1860	1846	1825	1806	1793	1773	1756	1746	1735	1720	1712	1712	1704	1698	1688	1688	1687	1677	1677	1678	1688	1688	1688	1688	1688	1688	1688	1695	1700	1700	1706	1712	1723	1723	1723	1735	1741	1748	1760	1760	1760	1748	1742	1735	1702	1695	1688	1668	1652	1633	1614	1600	1581	1554	1547	1541	1525	1519	1513	1505	1504	1504	1497	1495	1495	1495	1495	1495	1495	1495	1495	1502	1504	1504	1504	1504	1504	1511	1513	1513	1527	1534	1541	1555	1563	1571	1591	1605	1622	1637	1649	1677	1684	1690	1700	1707	1712	1712	1712	1711	1700	1693	1687	1677	1671	1666	1666	1659	1653	1633	1627	1622	1601	1591	1581	1571	1566	1561	1551	1546	1541	1541	1541	1541	1550	1555	1561	1570	1583	1601	1620	1631	1644	1664	1679	1700	1742	1766	1798	1832	1852	1880	1917	1939	1970	1995	2011	2034	2047	2051	2051	2064	2064	2051	2038	2034	2034	2022	2018	2018	2042	1625	0	0	0	0	0	0	0	0	0	0	0	0	0	0	0	0	0	0	0	0	0	0	0	0	0	0	0	0	0	0	0	0	0	0	0	0	0	0	0	0	0	0	0	0	0	0	0	0	0	0	0	0	0	0	0	0	0	0	0	0	0	0	0	0	0	0	0	0	0	0	0	0	0	0	0	0	0	0
1349	1336	1331	1327	1327	1324	1320	1320	1318	1313	1313	1313	1313	1313	1313	1313	1319	1320	1320	1325	1327	1327	1332	1338	1349	1349	1351	1356	1356	1356	1356	1356	1356	1356	1356	1356	1356	1356	1356	1356	1356	1357	1364	1368	1372	1379	1388	1395	1402	1402	1402	1402	1407	1410	1402	1398	1393	1379	1375	1371	1364	1356	1349	1334	1327	1320	1306	1300	1293	1280	1270	1260	1248	1244	1241	1230	1227	1223	1223	1223	1223	1228	1231	1235	1245	1252	1260	1282	1298	1320	1357	1374	1394	1420	1434	1451	1472	1480	1486	1493	1497	1504	1511	1515	1523	1530	1532	1532	1538	1543	1551	1551	1551	1551	1551	1549	1541	1541	1540	1532	1526	1522	1513	1513	1513	1513	1513	1513	1513	1513	1514	1523	1523	1523	1523	1528	1532	1532	1537	1541	1541	1541	1541	1551	1551	1551	1551	1551	1551	1551	1551	1551	1551	1551	1551	1551	1551	1551	1551	1551	1551	1551	1551	1551	1551	1551	1551	1551	1551	1551	1551	1551	1551	1551	1551	1551	1551	1551	1551	1551	1551	1551	1551	1551	1551	1551	1553	1561	1561	1561	1561	1561	1561	1561	1561	1559	1551	1551	1551	1551	1545	1541	1541	1547	1551	1551	1551	1551	1551	1557	1563	1581	1587	1592	1612	1617	1623	1644	1661	1677	1688	1694	1700	1723	1729	1735	1735	1741	1748	1735	1730	1723	1713	1707	1700	1669	1661	1654	1635	1625	1612	1612	1004	0	0	0	0	0	0	0	0	0	0	0	0	0	1137	1430	1418	1412	1404	1386	1381	1377	1371	1371	1371	1371	1371	1371	1371	1371	1370	1364	1364	1364	1364	1359	1356	1356	1361	1363	1356	1356	1356	1356	1361	1364	1364	1368	1371	1371	1376	1379	1371	1371	1319	0	0	0	0	780	1532	1532	780	0	1635	1666	1666	1699	1710	1723	1747	1748	1748	1771	1783	1798	1810	1811	1811	1823	1830	1838	1838	1843	1852	1852	1857	1866	1878	1884	1894	1906	1909	1909	1909	1913	1924	1912	1909	1909	1898	1887	1866	1866	1869	1880	1870	1866	1866	1856	1852	1852	1852	1850	1838	1838	1832	1798	1798	1798	1798	1790	1785	1785	1793	1798	1798	1798	1799	1811	1811	1811	1811	1811	1811	1798	1798	1798	1798	1798	1798	1798	1798	1798	1798	1798	1798	1798	1798	1798	1786	1785	1785	1762	1750	1735	1735	1730	1723	1723	1723	1723	1713	1712	1712	1721	1723	1723	1733	1747	1773	1793	1806	1825	1857	1878	1909	1921	1924	1924	1924	1924	1924	1902	1891	1880	1880	1871	1838	1819	1806	1785	1777	1769	1748	1739	1733	1723	1716	1712	1712	1705	1700	1700	1700	1700	1700	1700	1700	1700	1707	1712	1712	1712	1712	1712	1718	1723	1723	1729	1735	1748	1754	1760	1760	1760	1760	1748	1742	1735	1735	1725	1712	1690	1679	1666	1636	1616	1591	1573	1563	1551	1542	1538	1532	1524	1520	1513	1513	1513	1513	1513	1516	1523	1523	1523	1523	1530	1532	1532	1539	1543	1551	1551	1551	1551	1565	1573	1581	1595	1603	1612	1634	1648	1666	1673	1682	1712	1719	1723	1723	1723	1724	1735	1728	1722	1712	1705	1699	1688	1682	1676	1666	1666	1665	1644	1632	1622	1601	1596	1591	1571	1566	1561	1551	1546	1541	1541	1541	1541	1550	1555	1561	1570	1579	1591	1619	1626	1633	1662	1679	1700	1742	1766	1798	1832	1852	1880	1917	1939	1970	1995	2011	2034	2061	2068	2068	2081	2085	2085	2072	2068	2068	2068	2064	2051	2051	1625	0	0	0	0	0	0	0	0	0	0	0	0	0	0	0	0	0	0	0	0	0	0	0	0	0	0	0	0	0	0	0	0	0	0	0	0	0	0	0	0	0	0	0	0	0	0	0	0	0	0	0	0	0	0	0	0	0	0	0	0	0	0	0	0	0	0	0	0	0	0	0	0	0	0	0	0	351	1551
1345	1335	1331	1327	1327	1323	1316	1316	1315	1313	1313	1313	1313	1313	1313	1313	1319	1320	1320	1325	1328	1330	1336	1340	1349	1352	1353	1356	1356	1356	1356	1356	1356	1356	1356	1356	1356	1354	1352	1352	1352	1353	1360	1365	1368	1372	1381	1387	1390	1393	1394	1394	1396	1398	1394	1390	1386	1379	1373	1367	1360	1354	1349	1334	1327	1320	1306	1300	1293	1280	1270	1260	1251	1246	1241	1233	1230	1226	1226	1226	1226	1229	1232	1238	1248	1255	1263	1283	1298	1320	1357	1374	1394	1417	1430	1447	1467	1475	1482	1492	1497	1504	1511	1515	1523	1530	1533	1536	1543	1548	1556	1556	1556	1556	1556	1555	1551	1548	1545	1536	1531	1527	1522	1520	1518	1518	1518	1518	1518	1518	1518	1523	1526	1528	1528	1532	1536	1536	1539	1541	1546	1546	1546	1551	1551	1551	1551	1551	1551	1551	1551	1551	1551	1551	1551	1551	1551	1551	1551	1551	1551	1551	1551	1551	1551	1551	1551	1551	1551	1551	1551	1551	1551	1551	1551	1551	1551	1551	1551	1551	1551	1551	1555	1556	1556	1556	1557	1561	1565	1566	1566	1566	1566	1566	1563	1560	1556	1553	1551	1551	1548	1545	1541	1544	1546	1546	1546	1546	1546	1552	1557	1571	1577	1582	1602	1607	1612	1633	1648	1661	1671	1680	1688	1706	1711	1718	1723	1727	1730	1718	1712	1706	1690	1684	1677	1652	1645	1638	1614	1606	1596	1596	1294	796	796	796	796	800	804	811	802	797	790	790	780	756	1304	1442	1426	1420	1412	1394	1383	1377	1371	1371	1371	1371	1371	1371	1371	1371	1370	1364	1364	1364	1364	1359	1356	1356	1361	1363	1356	1356	1356	1356	1361	1364	1364	1368	1371	1371	1376	1379	1371	1371	1346	697	699	701	709	1108	1492	1514	1149	770	1607	1638	1655	1671	1685	1700	1723	1724	1724	1752	1764	1779	1791	1794	1798	1810	1816	1824	1831	1836	1845	1851	1857	1866	1878	1884	1894	1906	1909	1909	1909	1913	1924	1918	1916	1916	1905	1898	1888	1888	1889	1894	1889	1886	1880	1875	1873	1873	1868	1865	1859	1854	1845	1804	1804	1804	1804	1796	1792	1792	1804	1812	1812	1807	1805	1811	1811	1811	1811	1811	1811	1798	1798	1798	1798	1798	1798	1798	1798	1798	1804	1804	1804	1798	1798	1798	1792	1789	1785	1768	1756	1742	1736	1733	1729	1724	1723	1723	1718	1718	1718	1722	1725	1729	1739	1754	1779	1800	1815	1838	1866	1883	1909	1921	1924	1924	1924	1922	1916	1900	1891	1880	1880	1871	1838	1819	1807	1792	1783	1776	1760	1752	1746	1736	1728	1724	1724	1716	1712	1712	1712	1712	1712	1712	1712	1712	1715	1718	1724	1724	1723	1718	1720	1723	1723	1729	1735	1748	1754	1760	1760	1760	1760	1754	1748	1742	1742	1731	1718	1696	1685	1672	1637	1618	1596	1578	1570	1561	1552	1548	1542	1533	1530	1527	1523	1522	1522	1522	1525	1532	1536	1537	1537	1544	1546	1546	1554	1558	1566	1570	1572	1576	1587	1594	1602	1616	1624	1633	1652	1664	1683	1691	1701	1736	1744	1750	1760	1760	1761	1766	1763	1760	1755	1744	1735	1712	1705	1699	1689	1689	1688	1655	1643	1633	1612	1604	1596	1576	1569	1561	1551	1546	1541	1541	1541	1541	1550	1555	1561	1570	1577	1586	1614	1623	1633	1662	1679	1700	1736	1757	1786	1825	1848	1880	1910	1931	1962	2001	2019	2042	2069	2076	2076	2090	2094	2094	2081	2076	2076	2076	2071	2051	2045	1830	1017	307	0	0	0	0	0	0	0	0	0	0	0	0	0	0	0	0	0	0	0	0	0	0	0	0	0	0	0	0	0	0	0	0	0	0	0	0	0	0	0	0	0	0	0	0	0	0	0	0	0	0	0	0	0	0	0	0	0	0	0	0	0	0	0	0	0	0	0	0	0	0	0	193	786	778	949	1542
1341	1335	1331	1327	1327	1322	1313	1313	1313	1313	1313	1313	1313	1313	1313	1313	1319	1320	1320	1325	1329	1334	1339	1343	1349	1354	1356	1356	1356	1356	1356	1356	1356	1356	1356	1356	1356	1351	1349	1349	1349	1350	1356	1361	1364	1364	1373	1379	1379	1383	1386	1386	1386	1386	1386	1382	1379	1379	1371	1364	1356	1352	1349	1334	1327	1320	1306	1300	1293	1280	1270	1260	1253	1248	1241	1235	1233	1229	1229	1229	1229	1229	1234	1241	1251	1258	1266	1283	1298	1320	1357	1374	1394	1413	1426	1443	1463	1471	1477	1491	1497	1504	1511	1515	1523	1530	1534	1541	1548	1553	1561	1561	1561	1561	1561	1561	1561	1554	1549	1541	1535	1532	1532	1526	1523	1523	1523	1523	1523	1523	1523	1523	1528	1532	1532	1537	1541	1541	1541	1541	1551	1551	1551	1551	1551	1551	1551	1551	1551	1551	1551	1551	1551	1551	1551	1551	1551	1551	1551	1551	1551	1551	1551	1551	1551	1551	1551	1551	1551	1551	1551	1551	1551	1551	1551	1551	1551	1551	1551	1551	1551	1551	1559	1561	1561	1561	1561	1561	1568	1571	1571	1571	1571	1571	1564	1561	1561	1554	1551	1551	1551	1550	1541	1541	1541	1541	1541	1541	1541	1547	1552	1561	1567	1572	1591	1596	1602	1622	1634	1644	1654	1666	1677	1688	1694	1700	1712	1712	1712	1700	1695	1688	1667	1661	1654	1635	1628	1622	1594	1587	1581	1581	1585	1591	1591	1591	1591	1599	1608	1622	1605	1595	1581	1581	1560	1513	1471	1453	1435	1428	1420	1402	1385	1377	1371	1371	1371	1371	1371	1371	1371	1371	1370	1364	1364	1364	1364	1359	1356	1356	1361	1363	1356	1356	1356	1356	1361	1364	1364	1368	1371	1371	1376	1379	1371	1371	1372	1394	1398	1402	1418	1435	1451	1495	1518	1541	1580	1611	1644	1644	1659	1677	1699	1700	1700	1732	1745	1760	1772	1778	1785	1797	1803	1811	1823	1830	1838	1850	1857	1866	1878	1884	1894	1906	1909	1909	1909	1913	1924	1924	1924	1924	1913	1909	1909	1909	1909	1909	1909	1906	1894	1894	1894	1894	1884	1880	1880	1871	1858	1811	1811	1811	1811	1803	1798	1798	1814	1825	1825	1817	1811	1811	1811	1811	1811	1811	1811	1798	1798	1798	1798	1798	1798	1798	1798	1798	1811	1811	1811	1798	1798	1798	1798	1792	1785	1774	1763	1748	1736	1735	1735	1724	1723	1723	1723	1723	1723	1723	1727	1735	1746	1760	1785	1806	1823	1852	1874	1888	1909	1921	1924	1924	1924	1920	1909	1898	1891	1880	1880	1871	1838	1819	1809	1798	1789	1783	1773	1764	1758	1748	1740	1735	1735	1728	1723	1723	1723	1723	1723	1723	1723	1723	1723	1724	1735	1735	1735	1723	1723	1723	1723	1729	1735	1748	1754	1760	1760	1760	1760	1760	1755	1748	1748	1737	1723	1702	1690	1677	1637	1620	1601	1583	1577	1571	1562	1557	1551	1543	1541	1541	1534	1532	1532	1532	1535	1541	1549	1551	1551	1559	1561	1561	1569	1573	1581	1588	1593	1601	1609	1614	1622	1637	1646	1654	1670	1681	1700	1708	1719	1760	1768	1776	1798	1798	1798	1798	1798	1798	1798	1783	1770	1735	1728	1722	1712	1712	1710	1666	1654	1644	1622	1611	1601	1581	1571	1561	1551	1546	1541	1541	1541	1541	1550	1555	1561	1570	1575	1581	1609	1620	1633	1662	1679	1700	1730	1749	1773	1817	1844	1880	1904	1923	1954	2006	2028	2051	2078	2085	2085	2099	2103	2103	2089	2085	2085	2085	2077	2051	2039	2034	2034	614	0	0	0	0	0	0	0	0	0	0	0	0	0	0	0	0	0	0	0	0	0	0	0	0	0	0	0	0	0	0	0	0	0	0	0	0	0	0	0	0	0	0	0	0	0	0	0	0	0	0	0	0	0	0	0	0	0	0	0	0	0	0	0	0	0	0	0	0	0	0	0	385	1571	1556	1547	1532
1341	1335	1331	1327	1327	1322	1313	1313	1313	1313	1313	1313	1313	1313	1315	1320	1326	1327	1327	1332	1336	1341	1347	1351	1356	1356	1356	1356	1351	1349	1349	1343	1341	1341	1341	1341	1341	1341	1340	1334	1334	1335	1341	1346	1349	1349	1349	1350	1364	1364	1364	1364	1364	1364	1371	1367	1364	1364	1364	1364	1349	1349	1349	1334	1331	1327	1306	1303	1299	1286	1280	1273	1261	1257	1253	1242	1241	1241	1241	1241	1241	1241	1243	1247	1258	1267	1279	1291	1305	1327	1358	1374	1394	1407	1420	1443	1456	1462	1468	1482	1488	1495	1502	1506	1513	1520	1525	1532	1538	1545	1561	1568	1571	1571	1571	1571	1571	1564	1559	1551	1551	1550	1541	1535	1532	1532	1532	1532	1532	1532	1532	1532	1532	1533	1541	1541	1541	1541	1546	1551	1551	1551	1551	1551	1551	1551	1551	1551	1551	1551	1551	1551	1551	1555	1561	1561	1561	1561	1561	1561	1561	1561	1561	1561	1561	1561	1561	1561	1561	1561	1553	1551	1551	1551	1551	1551	1559	1561	1561	1561	1561	1561	1561	1561	1561	1561	1563	1571	1571	1571	1571	1571	1571	1571	1571	1569	1561	1561	1559	1551	1551	1550	1541	1541	1540	1532	1532	1532	1532	1532	1533	1541	1547	1552	1561	1566	1571	1581	1592	1601	1622	1628	1633	1644	1649	1654	1666	1660	1654	1654	1649	1644	1634	1624	1612	1602	1593	1581	1572	1567	1561	1561	1569	1581	1581	1581	1581	1589	1598	1612	1603	1595	1581	1581	1560	1513	1492	1479	1460	1447	1436	1418	1400	1392	1386	1386	1384	1379	1373	1371	1371	1377	1377	1371	1371	1371	1371	1371	1371	1371	1371	1371	1371	1371	1371	1371	1376	1379	1379	1379	1379	1379	1379	1379	1379	1383	1386	1394	1398	1402	1410	1418	1426	1468	1486	1504	1540	1555	1571	1600	1615	1633	1664	1666	1666	1686	1703	1723	1746	1758	1773	1784	1790	1798	1821	1830	1838	1838	1848	1866	1878	1884	1894	1906	1909	1909	1921	1924	1924	1924	1924	1924	1924	1924	1924	1924	1924	1924	1935	1936	1924	1914	1909	1909	1909	1909	1909	1890	1874	1838	1830	1825	1825	1816	1811	1811	1819	1825	1825	1825	1824	1811	1811	1811	1811	1811	1811	1798	1798	1798	1798	1798	1798	1798	1798	1798	1798	1798	1798	1811	1805	1798	1798	1792	1785	1774	1763	1748	1748	1743	1735	1724	1723	1723	1723	1723	1723	1733	1735	1735	1756	1772	1798	1830	1846	1866	1877	1892	1924	1936	1939	1939	1928	1920	1909	1909	1906	1894	1894	1888	1866	1846	1836	1825	1815	1809	1798	1789	1783	1773	1765	1760	1760	1753	1748	1748	1748	1746	1723	1723	1723	1723	1723	1724	1735	1735	1735	1735	1735	1735	1735	1742	1748	1760	1760	1760	1773	1773	1773	1773	1767	1760	1760	1755	1748	1725	1708	1688	1657	1641	1622	1603	1597	1591	1582	1577	1571	1563	1561	1561	1561	1561	1561	1561	1564	1571	1579	1581	1581	1589	1594	1601	1609	1614	1622	1622	1627	1644	1651	1656	1666	1674	1681	1700	1716	1725	1735	1760	1779	1811	1820	1827	1838	1855	1866	1866	1874	1879	1866	1850	1836	1811	1789	1772	1748	1748	1747	1712	1688	1665	1633	1622	1612	1591	1581	1571	1561	1556	1551	1551	1551	1551	1551	1555	1561	1570	1575	1581	1609	1620	1633	1652	1667	1688	1718	1741	1773	1805	1830	1866	1902	1923	1954	2006	2028	2051	2078	2090	2103	2103	2103	2103	2103	2099	2085	2085	2081	2068	2044	2034	2034	2034	1650	0	0	0	0	0	0	0	0	0	0	0	0	0	0	0	0	0	0	0	0	0	0	0	0	0	0	0	0	0	0	0	0	0	0	0	0	0	0	0	0	0	0	0	0	0	0	0	0	0	0	0	0	0	0	0	0	0	0	0	0	0	0	0	0	0	0	0	0	0	1208	1594	1571	1556	1547	1532
1341	1335	1333	1330	1327	1324	1320	1317	1316	1316	1319	1320	1320	1320	1321	1324	1329	1330	1330	1336	1338	1341	1347	1350	1352	1352	1352	1352	1347	1345	1345	1340	1337	1334	1334	1335	1338	1335	1333	1330	1330	1331	1334	1339	1342	1342	1344	1346	1352	1352	1353	1356	1356	1357	1364	1362	1360	1360	1360	1360	1349	1349	1349	1334	1331	1327	1310	1306	1302	1290	1285	1280	1267	1262	1256	1248	1246	1244	1244	1244	1244	1250	1252	1254	1265	1272	1282	1300	1314	1334	1362	1375	1390	1406	1419	1439	1456	1462	1468	1482	1488	1495	1502	1506	1513	1520	1525	1532	1538	1545	1561	1568	1571	1571	1571	1571	1571	1568	1564	1556	1553	1550	1546	1540	1536	1536	1536	1536	1532	1532	1532	1532	1532	1533	1541	1541	1541	1541	1546	1551	1551	1551	1551	1551	1551	1551	1551	1551	1551	1556	1556	1556	1556	1558	1561	1561	1561	1561	1561	1563	1566	1566	1566	1566	1562	1561	1561	1561	1561	1561	1557	1556	1556	1556	1556	1556	1560	1561	1561	1561	1561	1561	1561	1561	1561	1565	1567	1571	1571	1571	1571	1571	1571	1571	1571	1570	1566	1563	1559	1551	1551	1550	1541	1538	1535	1528	1528	1528	1528	1525	1523	1527	1533	1538	1546	1549	1552	1561	1572	1581	1602	1607	1612	1618	1622	1628	1633	1631	1628	1623	1618	1612	1607	1598	1586	1581	1573	1561	1556	1556	1556	1560	1565	1571	1575	1576	1576	1584	1595	1612	1612	1607	1596	1584	1566	1532	1510	1498	1482	1462	1449	1430	1412	1404	1398	1392	1389	1386	1381	1378	1375	1378	1378	1375	1375	1375	1375	1375	1376	1378	1378	1378	1378	1378	1378	1378	1381	1383	1386	1386	1387	1390	1390	1390	1390	1392	1394	1398	1400	1402	1410	1418	1426	1460	1475	1490	1522	1536	1552	1580	1595	1612	1642	1651	1660	1670	1685	1706	1733	1743	1754	1770	1780	1792	1814	1823	1832	1837	1845	1859	1871	1877	1887	1905	1909	1909	1921	1924	1924	1924	1924	1924	1930	1932	1932	1932	1932	1932	1937	1937	1932	1926	1924	1924	1919	1916	1916	1897	1881	1845	1836	1831	1825	1821	1818	1818	1826	1832	1832	1828	1824	1811	1811	1811	1811	1811	1811	1804	1801	1798	1798	1798	1798	1798	1798	1798	1798	1798	1798	1811	1805	1798	1798	1790	1779	1767	1759	1748	1742	1737	1729	1719	1718	1718	1718	1718	1718	1727	1731	1735	1756	1774	1804	1837	1853	1873	1884	1897	1924	1930	1933	1939	1933	1930	1924	1924	1919	1902	1896	1891	1880	1856	1842	1832	1822	1817	1812	1803	1796	1786	1769	1760	1760	1753	1748	1748	1748	1747	1736	1736	1736	1736	1736	1736	1742	1742	1742	1742	1742	1742	1742	1748	1754	1760	1763	1766	1779	1779	1779	1773	1770	1766	1766	1761	1754	1731	1717	1700	1674	1658	1638	1614	1608	1602	1592	1587	1581	1577	1576	1576	1576	1576	1576	1576	1579	1586	1594	1598	1602	1610	1615	1622	1627	1630	1638	1642	1648	1660	1672	1679	1689	1697	1703	1718	1734	1744	1754	1784	1804	1832	1845	1854	1866	1884	1895	1895	1899	1901	1895	1878	1863	1832	1813	1797	1766	1766	1765	1730	1702	1676	1650	1639	1628	1602	1591	1581	1571	1566	1561	1556	1556	1556	1556	1560	1566	1575	1580	1586	1610	1618	1628	1642	1652	1666	1696	1717	1748	1785	1806	1832	1878	1904	1939	1984	2009	2042	2076	2090	2103	2110	2112	2112	2112	2108	2094	2087	2083	2076	2052	2041	2034	2034	1845	1034	332	0	0	0	0	0	0	0	0	0	0	0	0	0	0	0	0	0	0	0	0	0	0	0	0	0	0	0	0	0	0	0	0	0	0	0	0	0	0	0	0	0	0	0	0	0	0	0	308	816	812	811	811	816	816	816	139	0	0	0	0	0	0	0	0	0	0	0	1208	1592	1566	1548	1539	1532
1341	1335	1334	1334	1328	1327	1327	1321	1320	1320	1326	1327	1327	1327	1327	1327	1333	1334	1334	1339	1341	1341	1347	1349	1349	1349	1349	1349	1343	1341	1341	1336	1333	1327	1327	1328	1334	1329	1327	1327	1327	1327	1327	1331	1334	1334	1338	1341	1341	1341	1342	1349	1349	1349	1356	1356	1356	1356	1356	1356	1349	1349	1349	1334	1331	1327	1313	1310	1306	1293	1290	1286	1274	1267	1260	1254	1251	1247	1247	1247	1247	1259	1260	1260	1271	1278	1286	1309	1323	1341	1366	1376	1386	1405	1418	1435	1455	1462	1468	1482	1488	1495	1502	1506	1513	1520	1525	1532	1538	1545	1561	1568	1571	1571	1571	1571	1571	1571	1569	1561	1555	1551	1551	1545	1541	1541	1541	1540	1532	1532	1532	1532	1532	1533	1541	1541	1541	1541	1546	1551	1551	1551	1551	1551	1551	1551	1551	1551	1551	1561	1561	1561	1561	1561	1561	1561	1561	1561	1561	1565	1571	1571	1571	1571	1562	1561	1561	1561	1561	1561	1561	1561	1561	1561	1561	1561	1561	1561	1561	1561	1561	1561	1561	1561	1561	1568	1571	1571	1571	1571	1571	1571	1571	1571	1571	1571	1571	1564	1559	1551	1551	1550	1541	1535	1531	1523	1523	1523	1523	1517	1513	1513	1519	1524	1532	1532	1532	1541	1552	1561	1581	1586	1591	1591	1596	1601	1601	1601	1601	1591	1586	1581	1581	1572	1561	1561	1553	1541	1541	1545	1551	1560	1561	1561	1570	1571	1571	1579	1592	1612	1620	1619	1612	1587	1572	1551	1529	1518	1504	1476	1461	1443	1424	1416	1410	1398	1394	1394	1388	1385	1379	1379	1379	1379	1379	1379	1379	1379	1380	1386	1386	1386	1386	1386	1386	1386	1386	1387	1394	1394	1395	1402	1402	1402	1402	1402	1402	1402	1402	1402	1410	1418	1426	1451	1464	1477	1503	1517	1532	1560	1575	1591	1620	1636	1654	1654	1668	1688	1720	1728	1735	1757	1769	1785	1808	1816	1825	1836	1843	1852	1864	1870	1880	1904	1909	1909	1921	1924	1924	1924	1924	1924	1935	1939	1939	1939	1939	1939	1939	1939	1939	1939	1939	1939	1929	1924	1924	1904	1888	1852	1843	1836	1825	1825	1825	1825	1833	1838	1838	1830	1824	1811	1811	1811	1811	1811	1811	1811	1804	1798	1798	1798	1798	1798	1798	1798	1798	1798	1798	1811	1805	1798	1798	1787	1773	1761	1755	1748	1736	1730	1723	1713	1712	1712	1712	1712	1712	1721	1727	1735	1756	1776	1811	1844	1860	1880	1891	1902	1924	1924	1928	1939	1939	1939	1939	1939	1932	1909	1898	1894	1894	1865	1849	1838	1829	1825	1825	1816	1809	1798	1774	1760	1760	1753	1748	1748	1748	1748	1748	1748	1748	1748	1748	1748	1748	1748	1748	1748	1748	1748	1748	1754	1760	1760	1766	1773	1785	1785	1785	1773	1773	1773	1773	1767	1760	1737	1725	1712	1690	1675	1654	1626	1618	1612	1602	1597	1591	1591	1591	1591	1591	1591	1591	1591	1594	1601	1610	1615	1622	1631	1636	1644	1644	1646	1654	1663	1668	1677	1693	1702	1712	1720	1725	1735	1752	1762	1773	1807	1829	1852	1870	1882	1894	1913	1924	1924	1924	1924	1924	1906	1891	1852	1837	1823	1785	1785	1784	1748	1716	1688	1666	1655	1644	1612	1602	1591	1581	1576	1571	1561	1561	1561	1561	1565	1571	1580	1585	1591	1610	1616	1622	1632	1637	1644	1673	1693	1723	1765	1781	1798	1854	1885	1924	1961	1989	2034	2074	2090	2103	2117	2121	2121	2121	2117	2103	2090	2085	2085	2061	2047	2034	2034	2040	2068	663	0	0	0	0	0	0	0	0	0	0	0	0	0	0	0	0	0	0	0	0	0	0	0	0	0	0	0	0	0	0	0	0	0	0	0	0	0	0	0	0	0	0	0	0	0	0	0	616	1633	1623	1622	1622	1631	1633	1633	277	0	0	0	0	0	0	0	0	0	0	0	1208	1591	1561	1540	1532	1532
1341	1335	1334	1334	1334	1331	1327	1327	1327	1327	1327	1327	1327	1327	1329	1334	1334	1334	1334	1339	1341	1341	1347	1347	1341	1341	1341	1341	1336	1331	1320	1320	1320	1320	1320	1320	1320	1320	1320	1320	1320	1320	1320	1324	1327	1327	1331	1334	1334	1334	1335	1341	1341	1341	1349	1353	1356	1356	1356	1356	1349	1349	1349	1341	1334	1327	1320	1317	1313	1306	1300	1293	1286	1280	1273	1273	1273	1273	1273	1273	1273	1273	1275	1279	1285	1293	1306	1318	1327	1341	1366	1376	1386	1405	1415	1426	1446	1454	1460	1473	1479	1486	1500	1506	1513	1520	1527	1541	1548	1553	1561	1568	1573	1581	1581	1581	1581	1574	1571	1571	1565	1561	1561	1555	1550	1541	1541	1541	1541	1536	1532	1532	1532	1533	1541	1541	1541	1541	1546	1551	1551	1551	1551	1551	1551	1551	1551	1556	1561	1561	1561	1561	1561	1561	1561	1570	1571	1571	1571	1571	1571	1571	1571	1571	1571	1571	1571	1571	1571	1571	1571	1568	1561	1561	1561	1561	1561	1561	1561	1569	1571	1571	1571	1571	1571	1571	1571	1571	1571	1571	1571	1578	1581	1581	1581	1579	1571	1571	1569	1561	1555	1550	1541	1535	1531	1523	1512	1504	1504	1504	1504	1504	1504	1504	1504	1509	1513	1513	1523	1532	1541	1541	1541	1541	1541	1541	1532	1532	1532	1532	1523	1513	1513	1513	1513	1513	1513	1513	1513	1521	1532	1540	1545	1551	1551	1555	1561	1578	1588	1601	1618	1622	1622	1614	1603	1581	1557	1548	1541	1512	1494	1468	1449	1439	1426	1414	1408	1402	1396	1394	1394	1394	1394	1394	1389	1386	1386	1386	1387	1394	1394	1395	1402	1402	1402	1402	1402	1402	1402	1407	1411	1418	1418	1418	1418	1418	1418	1418	1418	1418	1418	1422	1426	1451	1459	1468	1503	1508	1513	1540	1555	1571	1599	1615	1633	1633	1647	1666	1697	1709	1723	1745	1757	1773	1795	1808	1825	1836	1838	1838	1861	1870	1880	1880	1889	1909	1909	1913	1924	1924	1924	1924	1935	1943	1954	1954	1958	1970	1970	1970	1970	1959	1954	1954	1954	1951	1939	1919	1909	1909	684	243	1838	1838	1838	1838	1838	1838	1838	1830	1824	1811	1811	1811	1811	1811	1811	1811	1811	1811	1811	1811	1811	1811	1805	1798	1798	1798	1798	1798	1798	1798	1786	1774	1760	1749	1738	1723	1713	1707	1700	1689	1688	1688	1688	1692	1700	1710	1716	1723	1744	1764	1798	1830	1851	1880	1891	1902	1924	1924	1928	1939	1939	1939	1939	1939	1932	1909	1898	1894	1894	1865	1849	1838	1829	1825	1825	1816	1809	1798	1790	1785	1785	1778	1773	1773	1773	1773	1773	1773	1773	1773	1773	1773	1773	1766	1760	1760	1760	1760	1760	1767	1773	1773	1779	1785	1785	1785	1785	1785	1785	1785	1785	1780	1773	1750	1743	1735	1703	1687	1666	1646	1644	1644	1634	1629	1622	1622	1622	1622	1622	1622	1622	1622	1629	1644	1644	1647	1654	1663	1669	1677	1685	1691	1700	1709	1714	1723	1732	1738	1748	1756	1765	1785	1794	1800	1811	1838	1856	1880	1899	1913	1939	1958	1970	1970	1970	1970	1970	1952	1938	1924	1899	1878	1838	1831	1824	1798	1758	1722	1688	1677	1666	1633	1623	1612	1591	1582	1571	1571	1571	1571	1571	1571	1571	1580	1585	1591	1610	1616	1622	1632	1637	1644	1663	1682	1712	1743	1761	1785	1818	1847	1894	1943	1973	2018	2058	2078	2103	2117	2121	2121	2121	2121	2121	2108	2103	2103	2078	2068	2068	2068	2068	2068	663	0	0	0	0	0	0	0	0	0	0	0	0	0	0	0	0	0	0	0	0	0	0	0	0	0	0	0	0	0	0	0	0	0	0	0	0	0	0	0	0	0	0	0	0	0	0	0	616	1633	1623	1622	1622	1631	1633	1633	1633	1633	1633	1633	1630	1622	1622	1625	1633	1617	1606	1591	1576	1566	1551	1537	1532	1532
1345	1338	1338	1338	1334	1333	1330	1330	1330	1330	1330	1330	1330	1330	1333	1338	1338	1338	1338	1340	1341	1341	1347	1346	1338	1338	1338	1338	1332	1328	1320	1318	1316	1316	1316	1316	1316	1316	1316	1313	1313	1313	1316	1321	1324	1324	1326	1327	1330	1330	1331	1338	1339	1341	1349	1351	1353	1356	1356	1356	1352	1352	1352	1345	1340	1334	1327	1324	1320	1313	1307	1300	1293	1290	1286	1283	1283	1283	1283	1283	1283	1283	1285	1289	1298	1304	1313	1325	1334	1348	1370	1380	1390	1406	1415	1426	1446	1454	1460	1470	1476	1486	1496	1502	1508	1519	1527	1541	1548	1553	1561	1568	1573	1581	1584	1586	1586	1579	1576	1576	1570	1565	1561	1558	1555	1546	1546	1546	1541	1538	1536	1532	1532	1533	1541	1541	1541	1541	1546	1551	1551	1551	1551	1551	1551	1551	1556	1558	1561	1561	1561	1561	1566	1566	1566	1571	1571	1571	1571	1571	1571	1571	1571	1571	1571	1571	1571	1571	1571	1571	1571	1569	1566	1566	1566	1566	1566	1566	1566	1570	1571	1571	1571	1571	1571	1571	1571	1571	1571	1572	1576	1579	1581	1581	1581	1580	1576	1573	1569	1561	1555	1550	1541	1535	1530	1518	1510	1503	1495	1495	1495	1495	1495	1495	1495	1500	1504	1504	1511	1518	1527	1527	1527	1527	1525	1522	1514	1514	1514	1514	1507	1500	1500	1500	1500	1500	1500	1500	1500	1507	1518	1526	1532	1542	1550	1555	1561	1574	1584	1601	1618	1624	1628	1619	1609	1591	1567	1555	1541	1512	1494	1468	1449	1439	1426	1411	1404	1398	1395	1393	1390	1390	1390	1390	1390	1390	1390	1390	1391	1398	1401	1403	1406	1406	1406	1406	1408	1410	1410	1415	1418	1422	1422	1422	1422	1422	1422	1422	1422	1422	1422	1426	1430	1451	1459	1468	1503	1508	1513	1540	1552	1566	1590	1607	1628	1628	1641	1660	1686	1698	1712	1738	1753	1773	1795	1808	1825	1836	1838	1838	1861	1870	1880	1880	1886	1902	1907	1911	1916	1922	1924	1924	1935	1943	1954	1960	1966	1978	1978	1978	1978	1972	1970	1970	1975	1972	1946	1937	1784	954	342	243	1838	1838	1838	1838	1838	1838	1838	1830	1824	1811	1811	1811	1811	1807	1804	1804	1804	1804	1804	1804	1804	1804	1801	1798	1792	1792	1792	1792	1792	1792	1780	1768	1754	1737	1726	1712	1696	1690	1683	1678	1677	1677	1677	1679	1683	1693	1700	1712	1736	1758	1792	1824	1844	1873	1890	1902	1924	1924	1928	1939	1939	1937	1932	1932	1926	1909	1898	1894	1894	1865	1851	1845	1836	1832	1832	1823	1816	1804	1796	1792	1792	1788	1786	1786	1782	1779	1779	1779	1779	1779	1779	1779	1779	1775	1772	1772	1772	1772	1772	1776	1779	1786	1788	1792	1792	1792	1792	1792	1792	1792	1792	1786	1779	1756	1749	1742	1709	1695	1677	1657	1653	1649	1644	1640	1633	1633	1633	1633	1633	1633	1633	1637	1645	1660	1665	1667	1671	1685	1690	1694	1703	1708	1718	1727	1733	1742	1750	1755	1760	1773	1783	1798	1807	1814	1824	1852	1870	1894	1913	1928	1954	1974	1986	1994	1994	1993	1986	1972	1961	1947	1922	1900	1859	1840	1824	1812	1771	1735	1700	1685	1672	1638	1626	1612	1591	1584	1576	1576	1576	1576	1576	1578	1581	1586	1590	1596	1610	1614	1617	1626	1630	1633	1652	1667	1689	1709	1729	1760	1797	1825	1866	1919	1955	2010	2049	2069	2094	2115	2121	2121	2121	2119	2112	2105	2101	2094	2081	2075	2068	2068	2068	2068	1378	873	0	0	163	1079	1073	1070	1070	1070	1070	1070	424	0	0	0	0	0	0	0	0	0	0	0	0	0	0	0	0	0	0	0	0	0	0	0	0	0	0	0	0	0	0	0	0	334	844	839	1145	1650	1640	1636	1633	1633	1633	1633	1633	1631	1628	1628	1624	1617	1617	1619	1622	1606	1597	1586	1571	1562	1551	1537	1531	1528
1349	1342	1341	1341	1335	1334	1334	1334	1334	1334	1334	1334	1334	1334	1336	1341	1341	1341	1341	1341	1341	1341	1347	1345	1334	1334	1334	1334	1329	1326	1320	1315	1313	1313	1313	1313	1313	1313	1312	1306	1306	1307	1313	1317	1320	1320	1320	1321	1327	1327	1328	1334	1338	1341	1349	1349	1349	1356	1356	1356	1356	1356	1356	1349	1345	1341	1334	1331	1327	1320	1314	1306	1299	1299	1299	1293	1293	1293	1293	1293	1293	1293	1295	1299	1311	1316	1320	1332	1341	1356	1375	1384	1394	1407	1415	1426	1446	1454	1460	1466	1473	1486	1493	1497	1504	1518	1527	1541	1548	1553	1561	1568	1573	1581	1588	1591	1591	1584	1581	1581	1575	1570	1561	1561	1560	1551	1551	1550	1541	1541	1540	1532	1532	1533	1541	1541	1541	1541	1546	1551	1551	1551	1551	1551	1551	1551	1561	1561	1561	1561	1561	1561	1570	1571	1571	1571	1571	1571	1571	1571	1571	1571	1571	1571	1571	1571	1571	1571	1571	1571	1571	1571	1571	1571	1571	1571	1571	1571	1571	1571	1571	1571	1571	1571	1571	1571	1571	1571	1571	1573	1581	1581	1581	1581	1581	1581	1581	1574	1569	1561	1555	1550	1541	1535	1530	1513	1508	1502	1486	1486	1486	1486	1486	1486	1486	1491	1495	1495	1500	1504	1513	1513	1513	1513	1509	1504	1495	1495	1495	1495	1491	1486	1486	1486	1486	1486	1486	1486	1486	1493	1504	1512	1520	1532	1548	1555	1561	1569	1581	1601	1618	1626	1633	1624	1616	1601	1577	1563	1541	1512	1494	1468	1449	1439	1426	1408	1400	1394	1394	1392	1386	1386	1386	1386	1391	1394	1394	1394	1395	1402	1407	1410	1410	1410	1410	1410	1415	1418	1418	1423	1426	1426	1426	1426	1426	1426	1426	1426	1426	1426	1426	1431	1435	1451	1459	1468	1503	1508	1513	1540	1550	1561	1580	1599	1622	1622	1635	1654	1675	1686	1700	1731	1749	1773	1795	1808	1825	1836	1838	1838	1861	1870	1880	1880	1884	1894	1906	1909	1909	1921	1924	1924	1935	1943	1954	1966	1973	1985	1985	1985	1985	1985	1985	1985	1996	1993	1954	1954	1659	0	0	243	1838	1838	1838	1838	1838	1838	1838	1830	1824	1811	1811	1811	1811	1804	1798	1798	1798	1798	1798	1798	1798	1798	1798	1798	1785	1785	1785	1785	1785	1785	1774	1762	1748	1725	1713	1700	1679	1673	1666	1666	1666	1666	1666	1666	1666	1675	1685	1700	1729	1751	1785	1817	1837	1866	1888	1902	1924	1924	1928	1939	1939	1935	1924	1924	1921	1909	1898	1894	1894	1865	1852	1852	1842	1838	1838	1829	1823	1811	1803	1798	1798	1798	1798	1798	1790	1785	1785	1785	1785	1785	1785	1785	1785	1785	1785	1785	1785	1785	1785	1785	1785	1798	1798	1798	1798	1798	1798	1798	1798	1798	1798	1792	1785	1762	1755	1748	1715	1702	1688	1668	1661	1654	1654	1650	1644	1644	1644	1644	1644	1644	1644	1652	1661	1677	1686	1688	1688	1707	1712	1712	1720	1726	1735	1745	1751	1760	1769	1773	1773	1790	1800	1811	1821	1827	1838	1866	1884	1909	1928	1943	1970	1989	2003	2018	2018	2016	2001	1992	1984	1970	1944	1922	1880	1850	1825	1825	1784	1747	1712	1694	1677	1644	1628	1612	1591	1586	1581	1581	1581	1581	1581	1585	1591	1591	1595	1601	1611	1612	1612	1621	1622	1622	1641	1652	1666	1675	1697	1735	1777	1802	1838	1896	1937	2001	2041	2061	2085	2113	2121	2121	2121	2117	2103	2103	2099	2085	2085	2081	2068	2068	2068	2068	2092	1746	0	0	326	2158	2146	2139	2139	2139	2139	2139	848	0	0	0	0	0	0	0	0	0	0	0	0	0	0	0	0	0	0	0	0	0	0	0	0	0	0	0	0	0	0	0	0	669	1688	1678	1673	1666	1656	1650	1644	1635	1633	1633	1633	1629	1622	1622	1619	1612	1612	1612	1612	1596	1588	1581	1566	1559	1551	1537	1530	1523
1349	1349	1346	1341	1341	1341	1341	1341	1341	1341	1341	1341	1341	1341	1343	1349	1349	1349	1349	1349	1349	1349	1338	1334	1334	1329	1325	1320	1315	1313	1313	1308	1305	1299	1299	1300	1306	1306	1305	1299	1299	1300	1306	1310	1313	1313	1317	1320	1320	1324	1327	1327	1331	1334	1341	1345	1349	1356	1360	1364	1364	1364	1364	1364	1364	1364	1356	1353	1349	1349	1342	1334	1334	1328	1320	1320	1320	1320	1320	1320	1320	1320	1323	1327	1327	1332	1341	1354	1361	1371	1383	1391	1402	1415	1423	1435	1448	1456	1468	1468	1473	1486	1493	1497	1504	1525	1534	1541	1548	1555	1571	1578	1581	1581	1588	1591	1591	1591	1589	1581	1581	1580	1571	1565	1560	1551	1551	1550	1541	1541	1541	1541	1541	1541	1541	1541	1541	1541	1546	1551	1551	1551	1551	1551	1551	1551	1561	1561	1561	1561	1566	1571	1571	1571	1571	1571	1571	1571	1571	1575	1581	1581	1581	1581	1581	1581	1581	1573	1571	1571	1571	1571	1571	1571	1571	1571	1571	1571	1571	1571	1571	1571	1571	1571	1571	1571	1571	1571	1578	1581	1581	1581	1581	1581	1581	1581	1581	1574	1569	1561	1555	1550	1541	1535	1530	1513	1508	1502	1486	1481	1477	1477	1477	1476	1468	1468	1468	1477	1477	1477	1486	1486	1486	1486	1482	1477	1477	1477	1477	1468	1464	1460	1460	1460	1460	1460	1460	1460	1467	1468	1468	1500	1507	1513	1529	1535	1541	1566	1581	1601	1628	1637	1644	1644	1637	1622	1605	1593	1571	1534	1511	1477	1451	1437	1418	1400	1391	1379	1379	1379	1379	1379	1379	1379	1384	1387	1394	1399	1403	1410	1415	1418	1418	1418	1419	1426	1426	1427	1435	1440	1443	1443	1443	1443	1443	1443	1443	1443	1447	1451	1451	1451	1451	1468	1481	1495	1504	1513	1523	1540	1546	1551	1579	1590	1601	1620	1627	1633	1663	1675	1688	1719	1742	1773	1795	1808	1825	1836	1843	1852	1864	1870	1880	1891	1894	1894	1894	1898	1909	1921	1924	1924	1935	1943	1954	1966	1973	1985	1996	2001	2001	2013	2018	2018	2018	2012	1985	1985	1685	0	0	245	1852	1843	1838	1838	1838	1837	1825	1817	1811	1811	1811	1811	1811	1804	1798	1798	1791	1785	1785	1785	1785	1785	1785	1785	1773	1773	1773	1760	1760	1760	1736	1730	1723	1691	1679	1666	1655	1646	1633	1623	1622	1622	1632	1633	1633	1651	1658	1666	1723	1751	1785	1817	1837	1866	1888	1902	1924	1924	1924	1924	1924	1920	1909	1909	1909	1909	1898	1894	1894	1865	1852	1852	1852	1852	1852	1843	1836	1825	1816	1811	1811	1811	1811	1811	1811	1811	1811	1803	1798	1798	1798	1799	1811	1811	1811	1798	1798	1798	1798	1798	1798	1811	1811	1811	1811	1805	1798	1798	1798	1798	1786	1780	1773	1761	1750	1735	1703	1691	1677	1648	1644	1644	1634	1633	1633	1633	1633	1633	1642	1647	1654	1664	1673	1688	1698	1707	1723	1732	1735	1735	1745	1751	1760	1760	1763	1773	1773	1775	1785	1785	1790	1811	1821	1827	1838	1866	1887	1924	1943	1960	2001	2022	2040	2085	2085	2083	2068	2048	2032	2001	1992	1980	1894	1863	1838	1838	1790	1747	1700	1683	1666	1622	1612	1601	1581	1576	1571	1571	1571	1571	1571	1571	1571	1580	1581	1581	1590	1591	1591	1591	1595	1601	1611	1616	1622	1641	1655	1677	1715	1739	1773	1837	1883	1954	1991	2015	2051	2077	2085	2085	2085	2089	2103	2103	2099	2085	2085	2085	2085	2085	2085	2085	2097	2109	2139	2152	2155	2139	2127	2121	2121	2110	2099	2068	2018	1985	1985	824	0	0	0	0	0	0	0	0	0	0	0	0	0	1852	1845	1838	1812	1805	1798	1774	1767	1760	1749	1742	1735	1724	1723	1723	1702	1695	1688	1678	1673	1666	1656	1650	1644	1635	1629	1622	1614	1612	1612	1603	1598	1591	1591	1588	1581	1573	1568	1561	1539	1530	1523	1516	1513	1513
1356	1356	1353	1348	1348	1348	1348	1348	1348	1348	1348	1348	1348	1348	1350	1352	1350	1349	1349	1349	1347	1342	1336	1332	1327	1322	1319	1316	1311	1309	1306	1304	1301	1296	1296	1297	1300	1300	1299	1296	1296	1297	1302	1307	1310	1310	1314	1317	1320	1322	1324	1327	1331	1334	1341	1345	1349	1356	1360	1364	1368	1370	1372	1375	1375	1375	1371	1371	1372	1368	1363	1356	1356	1352	1346	1346	1344	1342	1342	1342	1342	1342	1343	1346	1349	1353	1360	1369	1376	1386	1396	1402	1410	1420	1426	1435	1448	1456	1468	1471	1476	1486	1493	1500	1514	1527	1535	1546	1553	1560	1576	1579	1582	1586	1593	1596	1596	1596	1594	1586	1586	1585	1576	1570	1565	1556	1553	1551	1546	1543	1541	1541	1541	1541	1541	1541	1541	1541	1544	1546	1551	1551	1551	1551	1551	1551	1561	1561	1561	1561	1566	1571	1571	1571	1571	1571	1571	1571	1576	1578	1581	1581	1581	1581	1581	1581	1581	1577	1576	1576	1572	1571	1571	1571	1571	1571	1571	1571	1571	1571	1571	1571	1571	1571	1571	1571	1571	1571	1578	1581	1581	1581	1581	1581	1581	1581	1581	1578	1574	1566	1556	1550	1541	1535	1530	1513	1508	1502	1486	1481	1477	1472	1470	1468	1464	1464	1464	1468	1468	1469	1477	1477	1477	1477	1471	1464	1464	1464	1464	1456	1454	1452	1452	1450	1448	1448	1449	1452	1455	1459	1464	1491	1500	1508	1525	1532	1541	1566	1581	1601	1632	1377	822	822	819	811	803	1020	1576	1535	1510	1472	1450	1436	1414	1394	1383	1372	1372	1372	1372	1372	1372	1375	1380	1384	1390	1395	1400	1410	1415	1419	1422	1422	1423	1434	1437	1439	1448	1450	1452	1456	1456	1456	1464	1464	1465	1469	1471	1473	1473	1473	1473	1486	1495	1504	1513	1520	1528	1540	1546	1551	1579	1590	1601	1626	1630	1633	1657	1669	1682	1714	1736	1766	1794	1808	1825	1836	1845	1859	1871	1875	1880	1891	1894	1894	1894	1898	1909	1921	1924	1924	1941	1948	1954	1966	1975	1993	2005	2010	2010	2021	1834	1009	1009	1006	992	992	843	0	0	245	1852	1843	1838	1838	1838	1837	1825	1817	1811	1811	1807	1804	1804	1801	1798	1798	1791	1785	1779	1779	1779	1772	1772	1772	1761	1760	1760	1748	1745	1742	1719	1710	1700	1679	1668	1655	1640	1632	1622	1618	1619	1622	1632	1633	1633	1651	1658	1666	1718	1743	1772	1809	1828	1852	1885	1900	1916	1922	1924	1924	1924	1920	1909	1909	1907	1902	1891	1884	1873	1858	1852	1852	1852	1852	1852	1847	1843	1832	1823	1818	1818	1818	1818	1818	1818	1818	1818	1814	1812	1812	1812	1812	1818	1818	1818	1812	1808	1804	1804	1804	1804	1811	1811	1811	1811	1805	1798	1798	1798	1798	1786	1777	1766	1755	1741	1724	1697	1683	1666	1637	1631	1628	1618	1617	1617	1617	1619	1622	1631	1638	1649	1658	1667	1682	1696	1707	1723	1732	1735	1735	1745	1749	1754	1754	1755	1760	1765	1768	1772	1777	1783	1798	1812	1820	1832	1864	1887	1924	1943	1961	2010	2035	2055	2085	2090	2092	2076	2062	2048	2010	1991	1972	1887	1849	1816	1769	1745	1723	1677	1660	1644	1596	1589	1581	1566	1564	1561	1561	1561	1561	1566	1566	1566	1575	1576	1576	1581	1581	1581	1581	1583	1586	1595	1602	1612	1626	1639	1660	1712	1739	1773	1837	1883	1954	1991	2015	2051	2077	2083	2076	2076	2081	2094	2101	2099	2085	2085	2085	2085	2085	2087	2094	2106	2117	2139	2145	2147	2139	2122	2112	2112	2096	2081	2043	2008	1985	1985	824	0	0	0	49	868	868	868	868	878	887	886	890	892	1852	1845	1838	1812	1805	1798	1774	1767	1760	1749	1742	1735	1724	1723	1723	1702	1698	1694	1679	1673	1666	1656	1650	1644	1635	1629	1622	1614	1610	1606	1598	1593	1586	1582	1578	1571	1563	1557	1546	1532	1525	1518	1511	1507	1504
