3202	3229	3229	3257	3257	3257	3286	3286	3286	3286	3315	3286	3286	3286	0	0	0	0	0	0	0	0	0	0	0	0	0	0	0	0	0	0	0	0	0	0	0	0	0	0	3375	3375	3375	3375	3375	3345	3345	3345	3345	3345	3345	3315	3286	3286	3257	3229	3202	3175	3175	3148	3148	3148	3148	3148	3148	3148	3148	3148	3148	3148	3148	3148	3148	3148	3148	3148	3148	3148	3148	3148	3148	3175	3175	0	0	0	0	3501	3501	3534	3602	3673	3709	3746	3784	3862	3862	3862	3902	3902	3902	3902	3902	3862	3862	3862	3862	3862	3862	3862	3822	3784	3784	3784	3784	3784	3784	3784	3784	3822	3822	0	0	0	0	0	0	0	0	0	0	0	0	0	0	0	0	0	0	0	0	0	0	0	0	0	0	0	0	0	0	0	0	3985	3943	3943	3902	3902	3902	3902	3902	3902	3943	3943	3943	3943	3985	3985	3985	3985	3985	3985	3985	4028	4072	4072	4116	4162	4257	4306	4356	4407	4407	4460	4513	4568	4568	4625	4683	4742	4803	4803	4865	4929	4929	4995	4995	5062	5062	5132	5132	5203	5276	5276	5351	5429	5429	5509	5509	5509	5509	5429	5429	5351	5276	5276	5203	5132	5132	0	0	0	0	0	0	0	0	0	0	0	0	0	0	0	0	0	0	0	0	0	0	0	0	0	0	0	594	593	592	591	590	589	588	586	585	584	583	583	583	582	582	581	581	581	581	581	581	581	581	581	581	581	581	582	582	582	583	583	583	583	583	583	583	583	583	583	583	583	583	583	583	582	582	582	582	583	583	583	583	583	583	583	583	583	583	583	584	584	584	585	586	586	588	589	591	592	593	0	0	0	0	0	0	0	0	0	0	0	0	0	0	0	0	5591	5591	5676	5676	5763	5853	5946	5946	5946	5946	5946	5946	5946	5946	5946	5853	5853	5853	5853	5853	5853	5853	5853	5946	6042	6042	6141	6243	6243	6349	6349	6459	6459	6459	6459	6572	6572	6572	6572	6459	6459	6459	6349	6349	6349	6349	6349	6349	6349	6349	6349	6349	6349	6349	6349	6349	6349	6349	6349	6349	6349	6349	6349	6349	6349	6349	6349	6349	6349	6349	6349	6349	6349	6349	6349	6349	6349	6459	6459	6459	6572	6572	6572	6572	6572	6689	6811	6811	6811	6811	6811	6937	6937	6937	6937	7068	7068	7068	7068	7068	6937	6811	6689	6689	6572	6572	6459	6459	6459	6459	6572	6572	0	0	0	0	0	0	0	0	0	0	0	0	0	0	0	0	0	0	0	0	0	0	0	994	991	988	986	983	981	978	978	976	973	970	970	968	968	968	970	973	973	976	978	981	983	988	991	991	991	988	986	983	981	973	970	965	961	958	956	953	951	951	951	953	953	956	956	961	963	963	965	965	968	968	968	965	963	963	961	958	958	958	958	961	961	963	965	968	970	976	978	981	983	986	986	988	988	986	986	983	983	981	981	981	981	981	981	981	978	978	978	976	976	976	976	978	978	978	981	981	983	986	986	986	986	986	986	983	983	983	983	983	983	983	983	983	983	981	981	981	981	983	0	0	0	0	976	976	978	978	981	983	983	986	988	994	994	996	999	999	1002	1004	1004	1004	1004	1004	1007	1007	1007	1007	1007	1010	1010	1012	1010	1010	1010	1010	1010	1015	1021	0	0	0	0	0	0	0	0	0	0	0	1007	1004	1004	1004	1004	1004	1004	1004	1004	1004	1007	1007	1010	1012	1012	1012	1015	1018	1018	1018	1018	1018	1018	1015	1015	0	0	0	0	0	0	0	0	0	0	0	0	0	0	0	0	0	0	0	0	0	0	0	0	0	0	0	0	0	0	0	0	0	0	0	0	0	538	537	535	534	533	531	530	528	527	526	525	524	523	522	522	520	520	518	517	516	515	512	511	508	507	505	503	501	499	498	496	494	494	494	493	493	495	0	0	0	0	0	513	513	516	519	520	522	524	524	525	525	525	525	524	524	523	523	522	522	522	522	522	523	523	524	525	525	526	527	527	527	527	526	526	525	525	525	525	525	525	525	0	0	0	0	0	0	0	0	0	0	0	0	0	0	923	923	925	930	932	932	937	939	944	946	951	953	958	963	968	973	978	981	986	988	991	991	991	991	991	991	991	991	991	991	991	994	996	996	996	999	1002	1002	1004	1002	1002	1002	1002	999	999	996	994	991	988	986	983	981	981	978	978	983	983	986	986	986	988	991	994	994	996	999	999	999	1002	1002	1004	1004	1007	1007	1010	1012	1012	1012	1010	1010	1007	1007	1004	1004	1002	1002	999	996	994	988	986	983	981	978	976	976	973	973	973	973	976	976	978	981	983	986	991	994	996	996	999	1002	1002	1002	999	999	999	996	996	996	996	996	996	996	996	996	996	996	996	999	999	1002	1004	1004	1007	1010	1010	1010	1007	1007	1004	1004	1002	1002	999	996	996	996	994	994	994	991	991	994	994	994	996	996	999	1002	1004	1004	1007	1010	1012	1015	1018	1021	1021	1023	1023	1023	1026	1026	1026	1023	1023	1023	0	0	0	0	0	0
3175	3202	3202	3229	3229	3257	3257	3257	3257	3286	3286	3286	3257	3257	3257	0	0	0	0	0	0	0	0	0	0	0	0	0	0	0	0	0	0	0	0	0	0	3229	3229	3257	3286	3315	3315	3315	3315	3315	3315	3286	3286	3286	3257	3257	3229	3202	3202	3148	3148	3122	3122	3122	3096	3096	3096	3096	3096	3122	3122	3122	3122	3122	3122	3122	3122	3122	3122	3122	3122	3122	3122	3122	3148	3148	3148	3202	3229	3257	3315	3375	3469	3501	3534	3602	3673	3709	3746	3784	3822	3862	3862	3902	3902	3902	3902	3862	3862	3862	3862	3862	3862	3862	3822	3822	3822	3784	3784	3822	3822	3822	3822	3862	3862	0	0	0	0	0	0	0	0	0	0	0	0	0	0	0	0	0	0	0	0	0	0	0	0	0	0	0	0	0	0	0	4072	4028	3985	3943	3943	3902	3902	3943	3985	3985	3985	3985	3985	3985	3985	3985	3985	3985	3985	3985	3985	3985	4028	4072	4116	4162	4209	4257	4306	4356	4407	4460	4513	4568	4568	4625	4683	4742	4803	4803	4865	4929	4929	4995	4995	4995	4995	5062	5062	5132	5132	5203	5276	5276	5351	5351	5351	5429	5351	5351	5351	5351	5276	5203	5203	5132	5132	0	0	0	0	0	0	0	0	0	0	0	0	0	0	0	0	0	0	0	0	0	0	0	0	0	0	0	593	592	592	591	590	589	588	586	585	584	583	583	583	582	582	581	581	581	581	581	581	581	581	581	581	581	581	582	582	582	583	583	583	583	583	583	583	583	583	583	583	583	583	583	582	582	581	581	581	582	583	583	583	583	583	583	583	583	583	583	583	583	584	584	585	586	587	589	591	592	593	0	0	0	0	0	0	0	0	0	0	0	0	0	0	0	0	5509	5509	5591	5763	5763	5853	5946	5946	5946	5946	5946	5946	5946	5946	5946	5853	5853	5853	5853	5853	5853	5853	5946	6042	6042	6141	6141	6243	6349	6349	6459	6459	6459	6459	6572	6572	6572	6572	6572	6572	6459	6459	6459	6349	6349	6349	6349	6349	6349	6349	6349	6349	6349	6349	6349	6349	6349	6349	6349	6349	6349	6349	6349	6349	6349	6349	6349	6349	6349	6349	6349	6349	6349	6349	6349	6349	6459	6459	6459	6572	6572	6572	6572	6572	6689	6689	6811	6811	6811	6811	6811	6937	6937	6937	6937	7068	6937	6937	6937	6937	6689	6572	6572	6459	6459	6459	6459	6349	6349	6459	6572	6572	0	0	0	0	0	0	0	0	0	0	0	0	0	0	0	0	0	0	0	0	0	0	0	0	994	991	988	986	983	978	978	976	973	970	968	968	965	965	968	970	973	976	978	981	986	991	994	996	996	994	991	988	983	978	973	968	963	958	956	953	953	953	953	953	956	958	961	963	968	970	970	973	976	976	976	973	970	968	965	965	965	965	965	965	968	968	970	973	976	978	981	983	986	988	988	988	988	988	986	986	983	983	981	981	981	981	981	981	981	983	983	983	983	983	983	983	983	983	986	986	988	988	986	986	986	983	981	981	981	978	978	978	981	978	978	981	981	981	978	978	978	978	0	0	0	978	976	976	981	981	981	983	986	988	991	994	996	996	999	1002	1004	1004	1004	1007	1007	1007	1007	1007	1010	1007	1007	1007	1010	1010	1010	1010	1007	1007	1010	1010	1012	0	0	0	0	0	0	0	0	0	1012	1007	1007	1004	1004	1004	1002	1002	1002	1002	1002	1002	1004	1007	1007	1010	1010	1012	1015	1015	1018	1018	1018	1018	1015	1015	1018	0	0	0	0	0	0	0	0	0	0	0	0	0	0	0	0	0	0	0	0	0	0	0	0	0	0	0	0	0	0	0	0	0	0	0	0	0	538	537	536	534	533	531	530	529	528	526	525	525	523	522	522	520	520	518	517	516	515	512	511	508	507	505	503	501	499	497	496	494	494	493	493	492	492	0	496	496	499	503	507	510	512	515	517	518	520	520	520	520	521	521	521	522	521	521	521	521	521	521	521	521	522	523	523	524	524	525	525	525	525	525	525	525	525	525	525	525	525	525	525	0	0	0	0	0	0	0	0	0	0	0	0	0	920	920	923	927	930	932	937	939	944	946	951	956	958	963	968	973	978	981	983	986	988	988	991	991	991	991	991	991	991	991	991	994	996	996	996	999	1002	1002	1002	1002	1002	1002	1002	999	996	994	991	988	986	983	983	981	981	978	978	978	981	981	983	983	983	986	986	988	988	991	991	991	994	996	996	999	1002	1004	1004	1007	1007	1010	1007	1007	1007	1007	1004	1004	1002	999	999	996	991	988	986	983	978	978	976	973	973	973	973	973	976	978	978	981	986	988	991	994	996	999	999	999	999	999	996	996	994	994	994	994	994	994	994	994	994	994	994	994	996	996	999	999	1002	1004	1007	1007	1010	1010	1007	1007	1007	1004	1004	1002	999	996	996	996	996	994	994	994	994	994	994	994	996	996	999	1002	1004	1007	1010	1010	1012	1015	1018	1021	1021	1021	1023	1023	1023	1023	1023	1023	1021	1018	1018	0	0	0	0	0
3175	3175	3175	3202	3202	3202	3202	3202	3202	3229	3229	3229	3202	3202	3202	3175	3175	0	0	0	0	0	0	0	0	0	0	0	0	0	0	0	0	0	3070	3070	3096	3148	3202	3202	3229	3257	3257	3257	3257	3257	3257	3257	3257	3229	3229	3202	3202	3175	3148	3122	3096	3096	3070	3070	3070	3070	3070	3070	3070	3070	3096	3096	3096	3096	3096	3096	3122	3122	3096	3096	3096	3096	3122	3122	3122	3122	3148	3175	3229	3229	3315	3345	3405	3469	3501	3534	3602	3673	3709	3746	3784	3822	3822	3862	3862	3862	3862	3862	3862	3902	3862	3862	3862	3862	3862	3862	3862	3862	3862	3862	3902	3902	3902	3902	3943	0	0	0	0	0	0	0	0	0	0	0	0	0	0	0	0	0	0	0	0	0	0	0	0	0	0	0	0	0	0	0	4028	4028	3985	3985	3943	3943	3985	3985	3985	4028	4028	4072	4072	4028	4028	3985	3985	3985	3985	3943	3943	3985	3985	4028	4072	4116	4209	4257	4306	4356	4407	4460	4513	4568	4568	4625	4683	4742	4803	4803	4865	4929	4929	4929	4929	4995	4995	4995	4995	5062	5062	5062	5132	5132	5203	5276	5276	5276	5276	5276	5276	5276	5276	5203	5132	5132	5132	0	0	0	0	0	0	0	0	0	0	0	0	0	0	0	0	0	0	0	0	0	0	0	0	0	0	0	592	591	591	590	589	589	588	586	585	584	583	583	583	582	581	581	581	580	580	580	580	580	580	580	581	581	581	581	582	582	582	583	583	583	583	583	583	583	583	583	583	583	582	582	582	581	581	581	581	582	582	582	583	583	583	583	583	583	583	583	583	583	583	583	584	585	587	588	590	591	592	594	0	0	0	0	0	0	0	0	0	0	0	0	0	0	0	5509	5509	5591	5676	5763	5853	5853	5946	5946	5946	6042	6042	6042	5946	5946	5946	5946	5946	5946	5946	5946	5946	6042	6042	6141	6141	6243	6349	6349	6459	6459	6459	6459	6572	6572	6572	6572	6572	6572	6572	6459	6459	6459	6349	6349	6349	6349	6349	6349	6349	6349	6349	6349	6349	6349	6349	6349	6349	6349	6349	6349	6349	6349	6349	6349	6349	6349	6349	6349	6349	6349	6349	6349	6349	6349	6349	6459	6459	6459	6572	6572	6572	6572	6572	6689	6689	6811	6811	6811	6811	6937	6937	6937	6937	6937	6937	6937	6937	6811	6811	6572	6459	6349	6349	6243	6243	6243	6243	6349	6349	6459	6572	0	0	0	0	0	0	0	0	0	0	0	0	0	0	0	0	0	0	0	0	0	0	0	0	0	994	991	986	983	981	981	976	973	970	968	965	965	965	965	970	973	976	981	983	988	994	996	999	999	996	994	991	986	981	976	973	965	963	958	956	956	956	956	956	961	961	965	968	973	978	978	981	981	983	983	981	978	976	973	973	970	970	970	970	973	973	976	978	981	981	986	986	988	988	988	988	988	988	986	986	983	983	981	981	981	981	983	983	986	986	988	988	988	988	988	988	988	988	991	991	991	988	988	988	986	983	978	978	976	976	976	976	976	976	976	978	978	978	978	978	978	978	983	0	981	978	978	978	981	981	983	986	986	988	991	994	996	999	1002	1002	1004	1004	1007	1007	1007	1007	1007	1010	1010	1010	1007	1007	1007	1007	1007	1004	1004	1004	1004	1007	1007	0	0	0	0	0	0	0	0	1012	1012	1007	1007	1004	1004	1004	1002	1002	1002	1002	1002	1002	1004	1004	1007	1010	1010	1010	1015	1015	1015	1015	1018	1018	1015	1015	1018	0	0	0	0	0	0	0	0	0	0	0	0	0	0	0	0	0	0	0	0	0	0	0	0	0	0	0	0	0	0	0	0	0	0	0	0	0	538	537	536	534	533	531	530	529	528	527	525	525	523	522	522	521	520	518	517	516	515	512	511	509	507	505	503	502	499	497	496	494	494	493	493	492	492	0	495	495	498	501	504	507	509	513	513	515	515	516	517	517	517	518	518	519	519	519	519	519	520	520	520	520	521	521	522	522	523	523	524	524	524	524	524	524	524	524	524	524	524	524	524	0	0	0	0	0	0	0	0	0	0	0	0	0	920	920	923	925	930	932	937	941	944	948	953	958	961	965	968	973	978	981	983	983	986	988	991	991	991	991	991	991	991	991	994	996	996	996	996	999	1002	1002	1002	1002	1002	1002	999	999	996	994	991	986	986	981	981	981	978	978	976	976	976	978	978	978	978	978	981	983	983	986	986	986	988	988	988	991	994	996	999	1002	1002	1004	1004	1004	1004	1004	1004	1004	1002	999	999	994	991	988	986	981	978	976	973	973	973	973	973	973	976	978	981	983	986	988	991	994	996	999	999	999	999	996	994	994	991	991	988	988	988	988	988	988	991	991	991	991	994	996	996	999	1002	1004	1007	1007	1010	1010	1010	1007	1007	1004	1002	1002	999	999	996	996	994	994	994	994	994	994	994	996	996	999	1002	1002	1004	1007	1010	1012	1015	1015	1018	1021	1021	1021	1023	1023	1023	1023	1023	1021	1021	1018	1018	0	0	0	0	0
3148	3148	3175	3175	3175	3175	3175	3175	3175	3175	3175	3175	3175	3175	3148	3148	3096	3070	3070	0	0	0	0	0	0	0	0	0	0	0	0	0	2950	2950	2997	3021	3070	3096	3148	3175	3175	3202	3202	3202	3202	3202	3202	3202	3202	3202	3202	3175	3148	3148	3096	3070	3046	3046	3021	3021	3021	3021	3021	3046	3046	3046	3046	3070	3070	3070	3070	3096	3096	3096	3096	3096	3096	3096	3096	3122	3122	3122	3148	3148	3202	3229	3257	3315	3375	3405	3469	3501	3568	3602	3673	3709	3746	3784	3784	3822	3862	3862	3862	3862	3902	3902	3902	3902	3902	3902	3902	3862	3862	3902	3902	3902	3943	3943	3943	3943	3985	4072	0	0	0	0	0	0	0	0	0	0	0	0	0	0	0	0	0	0	0	0	0	0	0	0	0	0	0	0	0	4028	4028	3985	3985	3985	3985	3985	4028	4028	4072	4072	4072	4116	4116	4072	4072	4028	4028	3985	3985	3943	3943	3943	3943	3985	4028	4072	4116	4209	4257	4306	4407	4460	4513	4513	4568	4625	4683	4742	4803	4803	4865	4929	4929	4929	4929	4929	4929	4929	4929	4929	4995	4995	4995	5062	5062	5132	5132	5132	5203	5203	5203	5203	5203	5203	5132	5132	5132	0	0	0	0	0	0	0	0	0	0	0	0	0	0	0	0	0	0	0	0	0	0	0	0	0	0	0	591	591	591	590	589	589	587	586	585	584	583	583	582	582	581	580	580	580	580	580	580	580	580	580	580	580	581	581	582	582	582	583	583	583	583	583	583	583	583	582	582	582	581	581	581	580	580	581	581	581	581	581	582	582	583	583	583	583	583	583	583	583	583	583	584	585	586	588	589	591	592	594	0	0	0	0	0	0	0	0	0	0	0	0	0	0	0	5509	5509	5591	5676	5763	5853	5853	5946	6042	6042	6042	6141	6042	6042	6042	6042	5946	5946	5946	5946	6042	6042	6042	6141	6141	6243	6243	6349	6349	6459	6459	6459	6459	6572	6572	6572	6572	6572	6572	6572	6459	6459	6349	6349	6349	6349	6349	6349	6349	6349	6349	6349	6349	6349	6349	6349	6349	6349	6349	6349	6349	6349	6349	6349	6349	6349	6349	6349	6349	6349	6349	6349	6349	6349	6349	6459	6459	6459	6572	6572	6572	6572	6572	6689	6689	6811	6811	6811	6811	6811	6937	6937	6937	6937	7068	6937	6937	6811	6689	6572	6459	6243	6243	6141	6141	6141	6141	6141	6243	6349	6459	6572	0	0	0	0	0	0	0	0	0	0	0	0	0	0	0	0	0	0	0	0	0	0	0	0	0	0	994	991	986	981	981	978	973	970	965	963	963	963	965	968	970	976	978	983	988	994	999	1002	1002	1002	999	996	991	986	981	973	968	963	961	958	958	956	956	958	961	963	968	973	976	981	983	983	986	986	986	986	983	981	978	978	978	978	978	978	978	978	981	983	983	986	986	988	988	988	988	988	988	988	986	986	983	983	981	981	981	981	983	986	988	991	991	994	996	996	996	994	994	994	994	994	994	991	991	988	986	983	978	976	973	973	973	973	973	973	973	976	976	976	978	978	981	981	983	983	981	981	981	981	983	986	986	988	988	991	994	996	999	1002	1002	1004	1007	1007	1007	1007	1010	1010	1010	1010	1010	1010	1007	1007	1004	1004	1004	1002	999	999	1002	1007	1007	0	0	0	0	0	0	0	0	1012	1012	1010	1007	1004	1004	1004	1004	1002	1002	1002	1002	1002	1002	1004	1004	1007	1007	1010	1010	1012	1015	1015	1015	1015	1015	1015	1015	0	0	0	0	0	0	0	0	0	0	0	0	0	0	0	0	0	0	0	0	0	0	0	0	0	0	0	0	0	0	0	0	0	0	0	0	0	538	537	536	535	534	532	531	530	528	527	526	525	524	522	522	521	520	519	517	516	515	512	511	509	507	505	504	502	500	498	496	495	494	494	493	493	493	494	494	495	497	499	502	504	506	508	509	510	512	512	512	513	514	515	515	517	517	517	517	517	517	518	518	518	519	520	520	520	521	522	522	522	522	522	522	522	522	522	522	523	523	524	524	0	0	0	0	0	0	0	0	0	0	0	0	0	920	920	923	925	930	932	937	941	944	948	953	958	963	965	970	973	978	981	983	983	986	988	991	991	991	991	991	991	994	994	996	996	999	999	999	999	1002	1002	1002	1002	999	999	996	996	994	991	988	986	986	981	978	978	976	973	973	973	973	973	973	973	973	973	976	976	976	976	978	978	981	981	981	983	986	988	991	996	996	999	1002	1002	1002	1004	1004	1002	1002	999	996	994	991	988	983	981	978	973	973	973	970	970	970	973	976	978	981	983	986	991	994	996	996	999	999	996	994	994	991	988	988	986	986	983	983	983	986	986	988	988	991	991	994	994	996	999	1002	1004	1004	1007	1010	1010	1010	1007	1007	1004	1002	1002	999	999	996	996	994	994	994	994	994	994	994	996	996	999	1002	1004	1007	1010	1010	1012	1015	1018	1018	1021	1021	1021	1023	1023	1023	1023	1023	1021	1021	1018	1015	1015	0	0	0	0
3148	3148	3148	3148	3148	3148	3148	3148	3148	3148	3148	3148	3148	3122	3122	3096	3070	3046	2997	2973	2904	2904	0	0	0	0	2796	2796	2817	2817	2838	2860	2882	2927	2950	2997	2997	3046	3070	3096	3096	3122	3148	3148	3175	3175	3175	3175	3175	3175	3148	3122	3096	3096	3046	3021	3021	2997	2997	2997	2997	2997	2997	2997	2997	2997	3021	3021	3021	3046	3046	3070	3070	3070	3070	3070	3070	3070	3070	3096	3096	3096	3096	3122	3148	3202	3257	3286	3345	3375	3405	3469	3534	3568	3602	3673	3709	3746	3784	3822	3822	3862	3862	3862	3902	3902	3943	3943	3943	3943	3943	3943	3943	3943	3943	3985	4028	3985	3985	3985	4028	4072	0	0	0	0	0	0	0	0	0	0	0	0	0	0	0	0	0	0	0	0	0	0	0	0	0	0	0	0	0	4028	3985	3985	3985	3985	3985	4028	4028	4072	4116	4116	4162	4162	4162	4116	4072	4028	4028	3985	3943	3943	3902	3902	3943	3943	3985	4028	4072	4162	4209	4257	4356	4407	4460	4513	4568	4625	4683	4742	4803	4803	4865	4865	4865	4865	4865	4865	4865	4865	4865	4865	4865	4865	4929	4929	4995	4995	5062	5062	5062	5132	5132	5132	5132	5132	5132	5132	5132	0	0	0	0	0	0	0	0	0	0	0	0	0	0	0	0	0	0	0	0	0	0	0	0	0	0	0	591	590	590	590	589	588	587	586	585	584	583	583	582	581	580	580	580	579	579	579	579	579	579	579	580	580	580	581	581	582	582	582	583	583	583	583	583	583	583	582	582	581	581	581	580	580	580	580	580	581	581	581	581	582	582	583	583	583	583	583	583	583	583	583	583	585	586	588	589	591	592	594	0	0	0	0	0	0	0	0	0	0	0	0	0	0	5429	5429	5509	5591	5676	5763	5853	5946	6042	6042	6141	6141	6141	6141	6141	6042	6042	6042	6042	6141	6141	6141	6141	6141	6141	6243	6243	6349	6349	6459	6459	6459	6459	6572	6572	6572	6572	6572	6572	6572	6459	6459	6459	6349	6349	6349	6349	6349	6349	6349	6349	6349	6349	6349	6349	6349	6349	6349	6349	6349	6349	6349	6349	6349	6349	6349	6349	6349	6349	6349	6349	6349	6349	6349	6349	6349	6459	6459	6572	6572	6572	6572	6572	6689	6689	6689	6811	6811	6811	6811	6937	6937	6937	7068	7068	7068	6937	6811	6811	6689	6572	6349	6141	6042	6042	6042	6042	6042	6042	6141	6243	6349	6572	0	0	0	0	0	0	0	0	0	0	0	0	0	0	0	0	0	0	0	0	0	0	0	0	0	0	0	991	988	983	981	978	973	970	965	963	963	963	965	968	970	976	978	983	988	994	999	1002	1004	1002	1002	999	994	988	983	978	973	968	965	961	961	961	961	961	963	965	970	973	981	983	988	988	991	991	991	991	988	988	986	986	983	983	983	983	983	983	986	986	988	988	988	988	988	988	988	988	988	988	986	986	983	983	981	981	981	981	983	986	986	991	994	994	996	999	999	999	999	999	999	999	996	994	991	988	986	983	978	976	973	973	973	973	973	973	973	973	976	976	976	978	981	983	983	983	983	983	983	983	986	988	988	991	991	994	996	999	1002	1002	1004	1007	1007	1010	1010	1010	1010	1010	1010	1010	1010	1010	1007	1007	1004	1002	1002	1002	999	996	996	0	0	0	0	0	0	0	0	0	0	0	0	0	1007	1004	1004	1002	1002	1002	999	999	999	1002	1002	1004	1004	1004	1007	1007	1007	1010	1012	1012	1012	1012	1012	1015	1012	1012	0	0	0	0	0	0	0	0	0	0	0	0	0	0	0	0	0	0	0	0	0	0	0	0	0	0	0	0	0	0	0	0	0	0	0	0	538	537	537	535	534	533	531	530	529	528	526	525	524	523	522	521	520	519	517	516	515	512	511	509	508	506	504	502	501	499	497	496	496	495	494	494	494	494	494	496	497	499	501	502	504	505	506	508	508	509	510	511	512	512	513	514	515	515	515	515	516	517	517	517	517	518	518	519	519	520	520	520	520	520	521	521	521	522	522	522	522	523	523	0	0	0	0	0	0	0	0	0	0	0	0	0	923	923	925	927	932	934	939	944	948	953	958	961	965	970	973	976	978	983	983	986	988	988	988	991	991	994	994	994	994	996	996	996	999	999	999	999	1002	1002	999	999	996	996	994	991	988	988	988	986	983	981	978	976	973	970	970	970	970	970	970	968	968	968	970	970	970	970	970	970	970	973	973	976	978	981	986	988	991	994	996	999	1002	1002	1002	1002	999	999	996	991	988	986	983	981	976	973	970	970	970	970	970	973	976	978	981	983	988	991	994	996	996	996	994	994	991	988	986	986	983	981	981	981	981	981	981	983	986	986	988	988	991	994	996	999	1002	1004	1004	1010	1010	1010	1010	1007	1007	1004	1004	1002	1002	999	999	996	996	996	996	996	996	996	996	999	999	1002	1004	1004	1007	1010	1012	1015	1018	1018	1021	1021	1021	1023	1023	1023	1023	1023	1023	1021	1021	1018	1015	1012	1012	0	0	0
3148	3148	3148	3148	3148	3148	3148	3122	3122	3122	3122	3122	3096	3096	3096	3070	3046	3021	2973	2950	2904	2860	2817	2796	2775	2775	2775	2775	2775	2796	2796	2838	2860	2882	2904	2927	2950	2997	2997	3021	3046	3046	3070	3070	3096	3096	3096	3122	3122	3096	3096	3070	3070	3046	3021	2997	2973	2973	2950	2950	2950	2950	2950	2950	2950	2973	2973	2997	2997	2997	3021	3021	3046	3046	3046	3046	3046	3046	3046	3046	3070	3096	3096	3122	3148	3175	3202	3257	3286	3345	3375	3437	3469	3534	3602	3637	3673	3709	3746	3784	3822	3862	3862	3862	3902	3943	3943	3943	3943	3943	3985	3985	3985	4028	4028	4028	4072	4072	4072	4072	4072	4116	4116	0	0	0	0	0	0	0	0	0	0	0	0	0	0	0	0	0	0	0	0	0	0	0	0	0	0	0	3985	3985	3985	3985	3985	3985	3985	4028	4072	4116	4116	4162	4162	4209	4162	4116	4072	4028	3985	3943	3902	3862	3862	3862	3862	3902	3943	3985	4072	4116	4162	4257	4306	4356	4460	4513	4568	4625	4683	4742	4803	4803	4803	4865	4865	4865	4865	4865	4865	4865	4803	4803	4803	4803	4865	4865	4929	4929	4995	4995	4995	5062	5062	5062	5132	5132	5132	5132	5132	0	0	0	0	0	0	0	0	0	0	0	0	0	0	0	0	0	0	0	0	0	0	0	0	0	0	0	591	590	590	590	589	588	587	586	585	584	583	583	582	581	580	580	579	579	579	579	579	579	579	579	579	579	580	580	581	581	582	582	583	583	583	583	583	583	582	582	581	581	581	580	580	580	579	579	579	580	580	581	581	581	581	582	582	582	582	582	582	583	583	583	583	584	585	587	589	591	592	594	0	0	0	0	0	0	0	0	0	0	0	0	0	0	5429	5429	5509	5591	5676	5763	5853	5946	6042	6042	6141	6243	6243	6243	6243	6243	6141	6141	6141	6141	6141	6141	6141	6141	6243	6243	6349	6349	6459	6459	6459	6459	6459	6572	6572	6572	6572	6572	6572	6572	6459	6459	6349	6349	6349	6349	6349	6349	6349	6349	6349	6349	6349	6349	6349	6349	6349	6349	6349	6349	6349	6349	6349	6349	6349	6349	6349	6349	6349	6349	6349	6349	6349	6349	6349	6459	6459	6459	6572	6572	6572	6572	6572	6689	6689	6689	6811	6811	6811	6937	6937	6937	7068	7068	7068	7068	6937	6811	6689	6572	6459	6243	6042	5946	5853	5853	5946	5946	6042	6042	6141	6349	6459	0	0	0	0	0	0	0	0	0	0	0	0	0	0	0	0	0	0	0	0	0	0	0	0	0	0	0	0	988	983	981	978	973	968	965	963	961	961	963	965	968	973	978	983	988	994	999	1002	1004	1002	1002	999	994	988	986	981	976	970	968	963	963	963	963	963	965	968	973	976	981	986	991	994	994	996	996	996	996	994	991	991	988	988	988	988	988	988	988	991	991	991	991	991	991	991	991	991	988	988	986	986	983	983	981	981	981	981	983	983	986	988	988	991	994	994	996	996	999	999	999	999	996	996	991	988	988	983	978	976	973	973	973	973	973	973	973	973	976	976	976	978	981	983	983	983	983	983	983	986	988	988	988	991	994	996	996	1002	1002	1004	1004	1007	1010	1010	1012	1012	1012	1012	1012	1012	1010	1010	1007	1007	1004	1002	999	999	996	996	996	0	0	0	0	0	0	0	0	0	0	0	0	0	0	0	0	1002	1002	1002	999	999	999	1002	1002	1004	1004	1004	1004	1004	1007	1007	1007	1010	1010	1010	1010	1012	1012	1012	0	0	0	0	0	0	0	0	0	0	0	0	0	0	0	0	0	0	0	0	0	0	0	0	0	0	0	0	0	0	0	0	0	0	0	0	540	538	537	536	535	534	532	531	529	528	527	525	524	523	522	520	520	518	517	516	515	512	511	510	508	506	504	503	501	500	498	497	496	496	496	496	496	496	496	497	498	499	501	502	503	503	505	506	506	507	508	509	510	510	511	512	513	513	514	514	515	515	515	515	516	517	517	517	517	517	518	518	518	519	519	519	520	520	520	521	522	522	523	0	0	0	0	0	0	0	0	0	0	0	0	0	0	927	927	930	934	939	944	948	951	956	961	965	970	973	976	978	981	983	986	986	988	988	988	991	991	994	994	996	996	996	999	1002	1002	1002	1002	1002	1002	1002	999	999	996	994	991	991	988	986	983	983	981	978	976	973	970	970	970	968	968	968	965	965	965	965	965	965	965	965	965	965	965	965	968	970	973	976	981	983	988	991	994	996	999	999	999	999	999	996	994	991	988	983	981	978	976	973	970	970	970	970	970	973	976	978	983	983	988	991	994	996	994	994	991	988	986	983	981	978	976	976	976	976	976	976	978	981	981	983	986	988	991	994	996	999	1002	1004	1004	1010	1010	1012	1010	1010	1010	1010	1007	1007	1004	1002	999	999	999	996	996	999	999	999	999	999	1002	1004	1004	1007	1010	1012	1012	1015	1018	1018	1021	1021	1021	1021	1023	1023	1023	1023	1023	1021	1021	1018	1015	1012	1012	0	0	0
3148	3148	3148	3122	3122	3122	3122	3122	3096	3096	3070	3070	3070	3046	3046	3021	2997	2973	2927	2904	2882	2838	2817	2775	2775	2775	2775	2775	2775	2775	2796	2796	2817	2838	2860	2882	2904	2927	2950	2973	2997	2997	3021	3021	3021	3046	3070	3070	3070	3070	3070	3046	3046	3021	2997	2973	2950	2950	2950	2950	2950	2950	2950	2950	2950	2973	2973	2973	2997	2997	3021	3021	3021	3021	3021	3021	3021	3021	3021	3046	3046	3070	3096	3122	3148	3148	3202	3229	3286	3345	3375	3405	3469	3534	3568	3602	3673	3709	3746	3784	3822	3862	3862	3862	3902	3943	3943	3943	3943	3985	4028	4028	4028	4072	4072	4072	4116	4116	4116	4116	4116	4116	4116	4162	0	0	0	0	0	0	0	0	0	0	0	0	0	0	0	0	0	0	0	0	0	0	0	0	0	3943	3943	3943	3943	3943	3943	3985	3985	4028	4072	4116	4116	4162	4162	4162	4116	4116	4072	4028	3943	3902	3902	3862	3822	3822	3822	3862	3902	3943	3985	4072	4116	4209	4257	4306	4407	4460	4568	4625	4683	4683	4742	4803	4803	4865	4865	4865	4803	4803	4803	4803	4803	4803	4803	4803	4803	4803	4865	4865	4929	4929	4995	4995	4995	5062	5062	5132	5062	5062	5062	0	0	0	0	0	0	0	0	0	0	0	0	0	0	0	0	0	0	0	0	0	0	0	0	0	0	0	591	590	590	590	589	588	587	586	585	583	583	582	581	580	580	579	578	578	578	578	578	578	578	578	579	579	579	580	580	581	582	582	582	583	583	583	583	583	582	582	581	581	581	580	580	579	579	579	579	579	580	580	580	581	581	581	582	582	582	582	582	582	583	583	583	584	585	587	589	591	592	594	0	0	0	0	0	0	0	0	0	0	0	0	0	0	5429	5429	5509	5591	5763	5853	5946	6042	6042	6141	6243	6243	6243	6243	6243	6243	6243	6243	6243	6243	6243	6243	6243	6243	6243	6349	6349	6349	6459	6459	6459	6459	6459	6572	6572	6572	6572	6572	6572	6572	6459	6459	6349	6349	6349	6243	6243	6243	6243	6243	6243	6243	6243	6243	6243	6243	6243	6243	6243	6243	6243	6349	6349	6349	6349	6349	6349	6349	6349	6349	6349	6349	6349	6349	6349	6459	6459	6459	6572	6572	6572	6572	6572	6572	6689	6689	6811	6811	6811	6937	6937	6937	7068	7068	7068	7068	6937	6811	6572	6459	6349	6141	5946	5853	5853	5853	5853	5946	5946	6042	6141	6349	6459	0	0	0	0	0	0	0	0	0	0	0	0	0	0	0	0	0	0	0	0	0	0	0	0	0	0	0	0	0	0	0	0	973	968	965	963	961	961	963	965	968	973	978	983	986	994	999	1002	1002	999	999	999	994	988	986	981	976	973	968	965	963	963	963	965	965	970	973	978	983	986	994	996	996	996	999	999	999	996	996	994	994	994	994	994	994	994	994	994	994	994	994	994	991	991	991	991	991	988	986	986	983	983	981	981	981	981	981	981	981	983	983	986	988	988	991	994	994	994	996	999	996	994	991	988	988	983	978	976	973	973	973	973	973	973	973	973	976	976	978	981	981	983	983	983	983	983	983	986	986	988	991	991	996	996	999	1002	1004	1004	1007	1007	1010	1012	1012	1012	1012	1012	1012	1012	1012	1010	1007	1007	1004	1002	999	999	996	996	0	0	0	0	0	0	0	0	0	0	0	0	0	0	0	0	0	0	0	0	0	0	0	0	0	1004	1004	1002	1002	1002	1004	1004	1004	1007	1007	1007	1010	1012	1012	0	0	0	0	0	0	0	0	0	0	0	0	0	0	0	0	0	0	0	0	0	0	0	0	0	0	0	0	0	0	0	0	0	0	0	0	0	540	539	538	537	536	534	533	531	530	528	527	526	524	523	522	520	520	518	517	515	514	512	511	510	508	507	506	503	503	501	500	499	499	498	498	497	497	497	497	498	499	500	501	502	503	503	504	505	506	506	507	508	509	509	510	511	512	512	512	512	514	514	514	514	515	515	515	515	515	515	516	516	516	517	517	517	517	518	519	520	520	521	521	0	0	0	0	0	0	0	0	0	0	0	0	0	0	934	934	934	939	944	948	951	956	961	965	968	973	976	978	981	983	983	986	986	986	988	988	991	994	994	996	996	999	999	1002	1004	1004	1004	1004	1002	1002	1002	999	996	994	994	991	988	986	983	981	978	978	976	973	970	970	970	968	968	965	965	963	963	963	961	961	961	961	961	958	958	961	961	961	963	965	970	973	978	983	986	988	994	994	996	996	996	996	996	994	991	988	983	981	978	976	973	970	970	970	970	970	973	976	978	983	983	988	991	994	994	991	988	986	983	981	978	976	973	970	970	968	968	970	973	973	976	978	981	983	986	988	991	996	999	999	1004	1007	1010	1010	1012	1012	1012	1012	1012	1010	1007	1007	1004	1004	1002	1002	1002	999	999	1002	1002	1002	1002	1004	1007	1007	1010	1010	1012	1012	1015	1018	1018	1018	1021	1021	1021	1023	1023	1023	1023	1023	1021	1021	1018	1015	1012	1012	1015	0	0
3148	3148	3122	3122	3122	3122	3122	3096	3096	3070	3070	3070	3046	3021	2997	2973	2950	2927	2904	2882	2838	2817	2796	2775	2754	2754	2754	2754	2775	2775	2775	2796	2796	2817	2838	2860	2882	2882	2927	2927	2950	2973	2973	2997	2997	2997	3021	3021	3021	3046	3046	3021	3021	2997	2997	2973	2950	2950	2950	2950	2950	2950	2950	2950	2950	2973	2973	2973	2997	2997	2997	3021	3021	3021	3021	3021	3021	3021	3021	3046	3046	3046	3070	3122	3148	3148	3202	3229	3257	3315	3345	3405	3437	3501	3568	3602	3637	3709	3746	3784	3822	3862	3862	3862	3902	3943	3943	3943	3985	4028	4028	4028	4072	4072	4072	4116	4116	4162	4162	4162	4162	4162	4162	4162	4257	4257	0	0	0	0	0	0	0	0	0	0	0	0	0	0	0	0	0	0	0	0	0	0	3943	3943	3943	3902	3902	3943	3943	3943	3985	4028	4028	4072	4116	4116	4116	4116	4116	4072	4028	3943	3902	3902	3822	3822	3784	3784	3822	3822	3862	3902	3943	4028	4072	4162	4209	4306	4356	4407	4513	4568	4625	4683	4742	4803	4803	4803	4803	4803	4803	4803	4803	4803	4803	4803	4803	4803	4803	4803	4865	4865	4929	4929	4995	4995	4995	5062	5062	5062	5062	5062	5062	0	0	0	0	0	0	0	0	0	0	0	0	0	0	0	0	0	0	0	0	0	0	0	0	0	0	0	0	590	590	590	589	588	587	586	584	583	583	582	581	580	579	578	578	577	577	577	577	577	577	578	578	578	579	579	580	580	581	582	582	582	583	583	583	582	582	582	581	581	580	580	579	579	579	579	579	579	579	579	579	580	581	581	581	582	582	582	582	582	583	583	583	584	585	587	589	591	593	594	0	0	0	0	0	0	0	0	0	0	0	0	0	0	5591	5591	5591	5676	5853	5853	5946	6141	6141	6243	6243	6349	6349	6349	6349	6349	6349	6243	6243	6243	6243	6349	6349	6349	6349	6349	6349	6459	6459	6459	6459	6459	6572	6572	6572	6572	6572	6572	6572	6459	6459	6459	6349	6349	6243	6243	6243	6243	6243	6243	6243	6243	6243	6243	6243	6243	6243	6243	6243	6243	6243	6243	6243	6349	6349	6349	6349	6349	6349	6349	6349	6349	6349	6349	6459	6459	6459	6459	6572	6572	6572	6572	6572	6572	6689	6689	6811	6811	6811	6937	6937	6937	7068	7068	7068	7068	6937	6689	6572	6459	6243	6042	5946	5853	5763	5763	5763	5853	5946	6042	6141	6243	6349	6459	0	0	0	0	0	0	0	0	0	0	0	0	0	0	0	0	0	0	0	0	0	0	0	0	0	0	0	0	0	0	0	0	0	0	0	0	0	0	0	0	0	983	983	986	994	996	999	999	999	996	996	991	986	986	981	978	973	970	968	965	965	965	965	968	973	976	981	986	991	996	999	999	999	999	1002	1002	999	999	996	996	996	996	996	996	996	996	996	996	996	996	994	994	994	994	991	991	988	988	986	986	983	981	981	981	981	981	981	981	981	981	983	983	986	988	988	991	994	994	996	999	994	991	991	988	986	981	976	976	976	973	973	973	973	973	976	978	981	981	983	983	983	983	983	983	983	983	983	986	988	991	994	996	996	1002	1004	1004	1007	1007	1010	1012	1012	1015	1015	1015	1015	1015	1015	1015	1010	1010	1007	1004	1002	1002	999	996	996	0	0	0	0	0	0	0	0	0	0	0	0	0	0	0	0	0	0	0	0	0	0	0	0	0	0	0	1002	1002	1002	1002	1002	1004	1004	1004	1004	1007	1007	1012	0	0	0	0	0	0	0	0	0	0	0	0	0	0	0	0	0	0	0	0	0	0	0	0	0	0	0	0	0	0	0	0	0	0	0	0	0	541	540	539	537	536	535	534	532	531	529	528	525	525	522	521	520	519	517	516	515	514	512	511	510	508	508	506	505	503	503	502	501	501	501	500	500	500	500	500	500	501	501	502	503	503	503	504	505	505	506	506	507	508	508	509	510	510	511	511	512	512	512	513	513	513	513	513	513	513	513	514	514	515	515	515	516	517	517	518	519	520	520	520	522	0	0	0	0	0	0	0	0	0	0	0	0	0	939	939	941	946	948	953	956	961	963	968	973	976	978	981	981	983	983	986	986	986	988	991	991	994	994	996	996	999	1002	1004	1004	1004	1004	1004	1004	1002	999	999	996	994	991	988	986	983	978	978	976	976	973	970	970	968	968	968	965	965	963	963	963	961	961	961	958	958	956	956	956	956	956	958	961	963	965	968	976	978	983	988	991	994	996	996	996	996	994	991	988	986	983	981	978	973	973	970	970	970	970	970	973	976	978	983	983	988	991	991	991	988	986	981	981	976	973	970	968	965	965	965	965	965	968	970	973	976	978	981	983	986	991	994	996	999	1002	1004	1007	1010	1012	1012	1015	1012	1012	1012	1010	1010	1007	1007	1004	1004	1004	1004	1002	1002	1004	1004	1004	1007	1007	1010	1010	1010	1012	1012	1015	1018	1018	1018	1021	1021	1023	1023	1023	1023	1023	1023	1023	1021	1018	1018	1015	1015	1015	0	0
3122	3122	3122	3122	3122	3122	3096	3070	3070	3046	3046	3046	3021	2997	2973	2950	2927	2904	2882	2860	2838	2817	2796	2775	2754	2754	2754	2754	2775	2775	2775	2796	2796	2817	2838	2838	2860	2860	2882	2904	2904	2927	2950	2950	2973	2973	2973	2997	2997	3021	3021	3021	3021	2997	2997	2973	2973	2950	2950	2950	2950	2973	2973	2973	2973	2973	2973	2973	2997	2997	2997	3021	3021	3021	3021	2997	2997	3021	3021	3021	3046	3046	3070	3096	3148	3175	3229	3229	3257	3315	3345	3405	3437	3501	3534	3602	3637	3673	3746	3784	3822	3822	3862	3902	3902	3943	3943	3985	3985	4028	4028	4072	4072	4116	4116	4162	4162	4162	4162	4162	4209	4209	4209	4209	4209	4257	0	0	0	0	0	0	0	0	0	0	0	0	0	0	0	0	0	0	0	0	0	0	3943	3902	3902	3902	3902	3902	3943	3943	3985	4028	4028	4072	4072	4072	4072	4072	4028	3985	3943	3902	3902	3862	3822	3784	3746	3746	3784	3784	3822	3862	3902	3943	4028	4072	4162	4257	4306	4407	4460	4513	4625	4683	4742	4742	4803	4803	4803	4803	4803	4803	4803	4803	4803	4803	4803	4803	4803	4803	4865	4865	4929	4929	4995	4995	4995	5062	5062	5062	5062	5062	5062	0	0	0	0	0	0	0	0	0	0	0	0	0	0	0	0	0	0	0	0	0	0	0	0	0	0	0	0	591	590	590	589	588	586	585	584	583	583	581	580	579	578	578	577	577	577	577	577	577	577	577	577	578	578	579	579	580	580	581	582	582	582	582	582	582	582	581	581	581	580	579	579	579	579	578	578	579	579	579	579	579	580	581	581	582	582	582	582	582	583	583	583	584	586	587	590	591	593	595	0	0	0	0	0	0	0	0	0	0	0	0	0	0	5591	5591	5676	5763	5853	5946	6141	6141	6243	6243	6349	6349	6349	6349	6349	6349	6349	6349	6349	6349	6349	6349	6349	6349	6349	6349	6459	6459	6459	6459	6459	6572	6572	6572	6572	6572	6572	6572	6459	6459	6459	6459	6349	6349	6243	6243	6243	6243	6243	6243	6243	6243	6243	6243	6243	6243	6243	6243	6243	6243	6243	6243	6243	6349	6349	6349	6349	6349	6349	6349	6349	6349	6349	6459	6459	6459	6459	6459	6572	6572	6572	6572	6572	6572	6689	6689	6811	6811	6811	6811	6937	6937	7068	7068	7068	7068	6937	6689	6572	6459	6243	6042	5853	5853	5763	5763	5763	5853	5853	5946	6042	6141	6349	6459	0	0	0	0	0	0	0	0	0	0	0	0	0	0	0	0	0	0	0	0	0	0	0	0	0	0	0	0	0	0	0	0	0	0	0	0	0	0	0	0	0	0	0	0	996	996	999	996	996	994	991	988	986	983	981	976	973	970	968	968	968	968	968	970	976	981	986	988	994	996	999	999	999	999	999	999	999	999	999	999	999	999	999	999	999	999	999	999	999	996	996	996	996	994	991	991	991	988	988	986	986	983	981	981	981	981	981	978	978	978	981	981	983	986	986	988	988	994	996	999	996	994	991	991	986	983	981	978	976	976	976	978	976	976	978	981	981	981	986	986	986	986	986	983	983	983	983	988	988	991	994	996	999	1004	1004	1007	1010	1010	1012	1015	1015	1018	1018	1018	1018	1015	1015	1015	1012	1010	1010	1007	1004	1002	999	999	999	0	0	0	0	0	0	0	0	0	0	0	0	0	0	0	0	0	0	0	0	0	0	0	0	0	0	0	0	1002	1002	1002	1002	1002	1004	1004	1004	1007	1007	0	0	0	0	0	0	0	0	0	0	0	0	0	0	0	0	0	0	0	0	0	0	0	0	0	0	0	0	0	0	0	0	0	0	0	0	0	0	541	540	539	537	537	535	534	532	531	529	528	525	524	522	521	520	518	517	516	515	514	512	511	510	509	508	507	506	505	504	503	503	503	503	502	502	503	503	503	503	503	503	504	504	505	505	505	505	505	506	506	506	508	508	508	508	509	510	510	511	511	511	511	512	512	512	512	512	512	512	512	512	513	514	514	515	515	516	517	517	519	520	520	522	0	0	0	0	0	0	0	0	0	0	0	0	0	946	946	948	953	956	958	961	965	968	973	976	978	981	981	983	983	983	986	986	988	988	991	994	994	996	996	999	1002	1004	1004	1004	1004	1004	1004	1004	1002	999	999	994	991	988	986	981	978	976	973	970	970	970	968	968	968	968	965	965	965	963	963	963	961	961	961	958	958	956	956	953	953	953	956	958	961	963	968	973	976	981	986	988	994	994	996	996	996	994	991	988	986	981	981	978	973	973	970	970	970	970	970	976	978	981	983	986	988	991	991	988	986	981	978	976	973	970	965	963	963	961	961	961	963	965	968	970	973	976	978	983	986	988	991	994	996	999	1002	1004	1007	1010	1010	1012	1012	1012	1012	1010	1010	1007	1007	1004	1004	1004	1004	1004	1004	1004	1004	1004	1007	1010	1010	1010	1010	1012	1012	1015	1015	1018	1018	1021	1021	1021	1023	1023	1023	1023	1023	1023	1023	1021	1018	1018	1018	1018	0	0
3122	3122	3122	3122	3122	3122	3096	3070	3070	3046	3046	3021	2997	2973	2950	2927	2904	2882	2860	2838	2838	2817	2796	2775	2775	2775	2775	2775	2775	2796	2796	2796	2817	2817	2838	2838	2838	2860	2882	2904	2904	2904	2904	2927	2950	2950	2973	2973	2973	2997	2997	2997	2997	2997	2997	2973	2973	2950	2950	2950	2950	2973	2973	2973	2973	2997	2997	2997	3021	3021	3021	3021	3021	3021	3021	2997	2997	3021	3021	3021	3046	3046	3070	3096	3148	3175	3202	3257	3257	3286	3345	3405	3437	3501	3534	3602	3637	3673	3709	3784	3822	3822	3862	3902	3902	3943	3943	3985	4028	4028	4028	4072	4072	4116	4116	4116	4162	4162	4162	4162	4162	4162	4162	4209	4209	4209	4257	0	0	0	0	0	0	0	0	0	0	0	0	0	0	0	0	0	0	0	3902	3902	3902	3902	3902	3902	3902	3902	3943	3985	3985	3985	4028	4028	4028	4028	4028	4028	3985	3943	3902	3862	3862	3822	3784	3746	3746	3746	3746	3784	3784	3822	3862	3902	3985	4028	4116	4162	4257	4356	4407	4513	4568	4625	4683	4742	4803	4803	4803	4803	4803	4803	4803	4803	4803	4803	4803	4803	4803	4803	4865	4865	4929	4929	4995	4995	4995	5062	5062	5062	5062	5062	5062	0	0	0	0	0	0	0	0	0	0	0	0	0	0	0	0	0	0	0	0	0	0	0	0	0	0	0	0	0	589	588	588	587	585	584	583	583	582	580	579	578	577	577	576	576	576	576	576	576	576	576	577	577	577	578	579	579	580	580	581	581	581	582	582	581	581	581	580	580	580	579	579	579	579	578	578	578	579	579	579	579	580	581	581	582	582	582	583	583	583	583	584	586	587	589	590	592	593	595	0	0	0	0	0	0	0	0	0	0	0	0	0	5853	5763	5763	5763	5853	6042	6141	6141	6243	6349	6349	6459	6459	6459	6459	6349	6349	6349	6349	6349	6349	6349	6349	6349	6349	6349	6349	6459	6459	6459	6459	6459	6572	6572	6572	6572	6572	6572	6572	6459	6459	6459	6459	6459	6349	6243	6243	6243	6243	6243	6243	6243	6243	6243	6243	6243	6243	6243	6243	6243	6243	6243	6243	6243	6349	6349	6349	6349	6349	6349	6349	6349	6459	6459	6459	6459	6459	6572	6572	6572	6572	6572	6572	6572	6572	6572	6689	6689	6811	6811	6811	6937	6937	7068	7068	7068	7068	6937	6689	6572	6459	6243	6042	5853	5853	5763	5763	5763	5763	5853	5946	6042	6141	6349	6349	0	0	0	0	0	0	0	0	0	0	0	0	0	0	0	0	0	0	0	0	0	0	0	0	0	0	0	0	0	0	0	0	0	0	0	0	0	0	0	0	0	0	0	0	0	0	999	994	991	991	988	986	983	981	978	976	973	970	970	968	968	968	970	973	976	981	986	988	994	996	996	996	996	996	996	996	996	996	996	996	999	999	999	999	1002	1002	999	999	999	999	996	996	996	994	994	994	994	991	991	988	988	986	983	983	981	981	981	978	978	978	981	981	983	983	986	986	988	991	996	996	996	994	991	991	988	983	981	981	981	981	978	978	978	978	978	981	983	983	983	986	986	986	986	986	986	986	986	986	988	991	994	996	1002	1004	1007	1010	1010	1012	1015	1015	1018	1018	1018	1018	1018	1018	1018	1018	1015	1012	1012	1007	1004	1004	1002	1002	1002	0	0	0	0	0	0	0	0	0	0	0	0	0	0	0	0	0	0	0	0	0	0	0	0	0	0	0	0	0	0	0	1002	1002	1004	1004	1004	0	0	0	0	0	0	0	0	0	0	0	0	0	0	0	0	0	0	0	0	0	0	0	0	0	0	0	0	0	0	0	0	0	0	0	0	0	0	0	0	541	540	539	538	537	536	534	532	531	529	528	525	524	522	520	520	517	517	516	515	513	512	512	510	510	508	508	507	506	506	506	506	505	505	505	505	506	506	506	506	506	506	506	506	506	506	506	506	506	506	506	506	507	507	508	508	508	509	509	510	510	510	511	511	511	511	511	511	511	511	512	512	512	512	513	514	515	516	517	517	518	520	520	521	0	0	0	0	0	0	0	0	0	0	0	0	0	953	953	956	958	961	963	965	968	970	973	978	978	981	983	983	983	986	986	986	988	991	991	994	996	996	999	1002	1004	1004	1004	1007	1007	1004	1004	1004	1002	999	994	991	988	986	981	978	973	970	968	968	968	968	968	968	965	965	965	965	965	965	965	963	963	963	961	958	958	956	956	953	953	953	956	956	961	963	968	973	976	981	986	988	991	994	996	996	994	994	991	988	986	981	981	978	976	973	970	970	973	973	973	976	978	981	983	986	988	988	988	986	983	978	976	973	968	965	963	961	961	958	958	961	961	963	965	968	970	973	978	981	983	986	988	991	994	996	999	1002	1004	1004	1007	1007	1007	1007	1010	1010	1007	1007	1007	1007	1007	1007	1004	1004	1007	1007	1007	1007	1007	1010	1010	1010	1012	1012	1012	1012	1015	1015	1018	1018	1021	1021	1023	1023	1026	1026	1026	1026	1023	1023	1021	1021	1018	1018	1023	0
3122	3122	3122	3122	3122	3122	3096	3070	3070	3046	3021	3021	2997	2973	2927	2927	2904	2882	2860	2838	2838	2817	2796	2796	2796	2796	2796	2796	2796	2817	2817	2817	2817	2817	2838	2838	2838	2860	2882	2882	2882	2882	2904	2927	2927	2950	2950	2973	2973	2973	2997	2997	2997	2997	2997	2973	2973	2973	2973	2950	2950	2973	2973	2973	2973	2997	3021	3021	3021	3021	3021	3021	3021	3021	3021	3021	3021	3021	3021	3021	3046	3046	3070	3096	3122	3148	3202	3257	3286	3286	3345	3375	3405	3469	3534	3568	3637	3673	3709	3746	3784	3822	3862	3902	3902	3943	3943	3985	4028	4028	4028	4072	4072	4116	4116	4116	4116	4116	4116	4116	4116	4116	4116	4162	4162	4209	4209	4209	0	0	0	0	0	0	0	0	0	0	0	0	0	0	0	0	0	3943	3902	3902	3902	3902	3902	3902	3902	3902	3943	3943	3985	3985	4028	4028	4028	3985	3943	3943	3943	3902	3862	3862	3822	3784	3746	3746	3709	3709	3746	3746	3784	3784	3822	3902	3943	4028	4072	4116	4209	4306	4407	4460	4568	4625	4683	4742	4803	4803	4865	4865	4865	4865	4803	4803	4803	4803	4803	4803	4865	4865	4865	4929	4929	4929	4995	4995	5062	5062	5062	5062	5062	5062	5062	0	0	0	0	0	0	0	0	0	0	0	0	0	0	0	0	0	0	0	0	0	0	0	0	0	0	0	0	0	589	588	587	586	585	583	583	582	581	579	578	577	577	576	575	575	575	575	575	575	575	576	576	576	577	577	578	578	579	580	580	580	581	581	581	581	581	581	580	580	580	579	579	579	579	578	578	578	579	579	579	579	580	581	581	582	582	583	583	583	583	584	585	586	588	589	591	592	594	596	0	0	0	0	0	0	0	0	0	0	0	0	0	5853	5853	5946	5946	6042	6141	6141	6243	6349	6459	6459	6459	6459	6459	6459	6349	6349	6349	6243	6243	6349	6349	6349	6349	6349	6349	6349	6459	6459	6459	6459	6572	6572	6572	6572	6572	6572	6572	6572	6572	6459	6459	6459	6459	6349	6349	6243	6243	6243	6243	6243	6243	6243	6243	6243	6243	6243	6243	6243	6243	6243	6243	6243	6243	6349	6349	6349	6349	6459	6459	6459	6459	6459	6459	6459	6459	6572	6572	6572	6572	6572	6572	6572	6572	6572	6572	6689	6689	6811	6811	6811	6811	6937	7068	7068	7068	7068	6937	6811	6689	6459	6349	6141	5946	5763	5763	5763	5763	5763	5853	5946	5946	6141	6243	6349	6349	0	0	0	0	0	0	0	0	0	0	0	0	0	0	0	0	0	0	0	0	0	0	0	0	0	0	0	0	0	0	0	0	0	0	0	0	0	0	0	0	0	0	0	0	0	0	991	988	988	986	983	981	978	976	973	970	970	968	968	968	970	973	976	976	981	0	994	994	991	991	991	991	991	991	991	994	994	994	994	996	996	999	999	1002	1002	1002	1002	999	999	996	996	996	996	996	996	994	994	994	991	991	988	986	983	983	983	981	981	981	981	981	981	981	983	983	983	986	988	991	996	994	994	994	991	988	986	981	981	981	981	981	978	978	978	978	981	981	983	983	983	983	983	983	986	983	983	986	986	988	991	994	999	1002	1004	1007	1010	1012	1015	1015	1018	1018	1021	1021	1021	1018	1018	1018	1018	1015	1012	1012	1010	1007	1004	1002	1002	1002	0	0	0	0	0	0	0	0	0	0	0	0	0	0	0	0	0	0	0	0	0	0	0	0	0	0	0	0	0	0	0	0	0	0	0	0	0	0	0	0	0	0	0	0	0	0	0	0	0	0	0	0	0	0	0	0	0	0	0	0	0	0	0	0	0	0	0	0	0	0	0	0	0	0	0	0	541	540	539	538	537	536	534	533	531	529	527	525	524	522	520	519	517	517	515	514	513	512	512	511	510	509	509	508	508	508	507	507	507	506	506	506	507	507	507	507	507	507	507	506	506	506	506	506	506	506	506	507	507	507	508	508	508	508	509	509	509	510	510	510	510	510	510	510	511	511	511	511	512	512	512	513	514	515	516	517	517	519	520	521	0	0	0	0	0	0	0	0	0	0	0	0	0	0	963	963	965	965	968	970	970	973	978	978	981	983	983	986	986	986	988	988	991	994	994	996	996	999	1002	1004	1004	1004	1007	1007	1007	1004	1004	1002	999	996	994	988	986	983	978	973	970	968	965	965	965	965	965	965	965	965	968	968	968	968	965	965	965	965	963	961	961	958	956	956	956	956	956	956	961	963	968	973	976	981	986	988	991	994	994	996	994	991	991	988	986	981	981	978	976	976	973	973	973	973	976	976	978	983	983	986	988	988	986	983	981	976	973	968	965	963	961	958	956	956	956	958	961	963	965	968	970	973	978	981	983	986	988	991	994	996	999	1002	1004	1004	1004	1007	1007	1007	1007	1007	1007	1007	1007	1007	1007	1007	1007	1007	1007	1007	1007	1007	1007	1010	1010	1010	1010	1010	1012	1012	1015	1015	1018	1018	1018	1021	1023	1023	1026	1026	1026	1026	1026	1026	1026	1023	1023	1023	1023	0
3096	3096	3096	3096	3122	3122	3096	3096	3070	3046	3021	3021	2997	2973	2927	2927	2904	2882	2882	2860	2838	2838	2817	2817	2817	2817	2817	2838	2838	2838	2838	2838	2838	2838	2838	2838	2838	2838	2860	2860	2882	2882	2904	2904	2927	2927	2950	2950	2950	2973	2973	2973	2997	2997	2997	2973	2973	2973	2973	2973	2973	2997	2997	2997	2997	3021	3021	3021	3021	3046	3046	3046	3021	3021	3021	3021	3021	3021	3021	3021	3046	3046	3070	3096	3122	3148	3202	3257	3286	3315	3375	3375	3405	3469	3534	3568	3602	3673	3709	3746	3784	3822	3862	3902	3902	3943	3985	3985	4028	4028	4028	4028	4072	4072	4072	4072	4072	4072	4072	4072	4072	4072	4116	4116	4116	4162	4162	4209	4257	0	0	0	0	0	0	0	0	0	0	0	0	0	0	0	3902	3902	3902	3902	3902	3902	3862	3862	3902	3902	3902	3943	3943	3985	3985	3943	3943	3943	3943	3902	3902	3862	3822	3784	3746	3746	3746	3709	3709	3709	3709	3746	3746	3784	3822	3862	3943	3985	4072	4116	4209	4306	4356	4460	4513	4568	4683	4742	4803	4865	4865	4865	4865	4929	4929	4865	4865	4865	4865	4865	4865	4865	4929	4929	4929	4995	4995	4995	5062	5062	5062	5062	5062	5062	5062	0	0	0	0	0	0	0	0	0	0	0	0	0	0	0	0	0	0	0	0	0	0	0	0	0	0	0	0	0	0	587	586	585	584	583	582	581	580	579	577	577	576	575	575	575	575	575	575	575	575	575	576	576	576	577	577	578	578	579	580	580	580	580	581	581	581	581	580	580	580	580	579	579	579	579	579	579	579	579	579	580	580	581	582	582	583	583	583	584	584	585	586	587	588	590	592	593	595	596	0	0	0	0	0	0	0	0	0	0	0	0	0	5946	5946	6042	6042	6141	6243	6349	6349	6459	6459	6459	6459	6459	6459	6459	6349	6349	6349	6243	6243	6243	6243	6243	6243	6349	6349	6349	6459	6459	6459	6459	6572	6572	6572	6572	6572	6572	6572	6572	6572	6572	6459	6459	6459	6349	6349	6243	6243	6243	6243	6243	6243	6243	6243	6243	6243	6243	6243	6243	6243	6243	6243	6243	6243	6349	6349	6349	6459	6459	6459	6459	6459	6459	6572	6572	6572	6572	6572	6459	6459	6459	6459	6572	6572	6572	6572	6572	6689	6689	6811	6811	6811	6937	6937	7068	7068	7068	6937	6811	6689	6459	6349	6141	5946	5763	5763	5763	5763	5763	5853	5946	5946	6141	6243	6243	6349	0	0	0	0	0	0	0	0	0	0	0	0	0	0	0	0	0	0	0	0	0	0	0	0	0	0	0	0	0	0	0	0	0	0	0	0	0	0	0	0	0	0	0	0	0	0	991	988	986	983	981	978	976	976	973	970	968	968	965	965	968	0	0	0	0	0	0	986	986	988	988	988	988	988	988	988	988	988	991	991	994	996	999	999	999	1002	1002	999	999	999	999	999	999	999	999	999	999	996	996	994	991	991	988	986	986	983	981	981	981	981	981	981	983	983	983	983	986	991	994	994	994	991	991	991	988	983	983	981	981	981	981	978	978	978	981	981	983	983	983	983	983	983	986	983	983	986	986	988	991	994	999	1002	1004	1010	1012	1012	1015	1018	1021	1021	1023	1021	1021	1021	1021	1018	1018	1018	1015	1012	1010	1007	1007	1004	1004	1004	0	0	0	0	0	0	0	0	0	0	0	0	0	0	0	0	0	0	0	0	0	0	0	0	0	0	0	0	0	0	0	0	0	0	0	0	0	0	0	0	0	0	0	0	0	0	0	0	0	0	0	0	0	0	0	0	0	0	0	0	0	0	0	0	0	0	0	0	0	0	0	0	0	0	0	0	541	540	538	537	537	535	534	532	530	529	527	525	523	522	520	519	517	516	515	514	513	512	512	511	510	510	509	509	508	508	508	508	508	508	508	508	508	508	508	508	508	508	508	507	506	506	506	506	506	506	506	507	507	507	508	508	508	508	508	509	509	509	509	510	510	510	510	510	510	510	510	511	511	512	512	513	514	515	515	517	517	519	520	520	0	0	0	0	0	0	0	0	0	0	0	0	0	0	970	970	970	970	970	973	973	976	978	981	983	983	983	986	986	988	991	994	994	996	996	999	999	1002	1004	1004	1004	1007	1007	1007	1007	1004	1002	1002	999	994	991	986	983	978	976	973	968	965	965	965	965	965	965	965	968	968	968	968	970	970	970	968	968	968	965	963	961	958	958	956	956	956	956	958	961	963	968	973	978	981	986	988	991	994	994	996	994	991	991	988	986	983	981	978	978	976	976	976	976	978	978	978	983	983	986	988	988	988	986	983	978	973	970	965	963	961	958	956	956	956	956	956	961	963	965	968	970	973	978	981	983	986	988	991	994	996	999	1002	1002	1004	1004	1004	1004	1004	1007	1007	1007	1007	1007	1007	1007	1007	1007	1007	1007	1007	1010	1007	1007	1010	1010	1010	1010	1010	1010	1012	1012	1015	1015	1018	1018	1021	1023	1023	1026	1026	1029	1029	1029	1029	1029	1026	1026	1026	1026	0
3096	3096	3096	3096	3096	3096	3096	3096	3070	3046	3046	3021	2997	2997	2973	2950	2927	2904	2904	2882	2860	2860	2860	2860	2860	2860	2860	2860	2860	2860	2860	2860	2860	2860	2860	2860	2838	2838	2860	2860	2882	2882	2904	2904	2904	2927	2927	2950	2950	2973	2973	2973	2997	2997	2997	2997	2997	2997	2997	2997	2997	2997	2997	2997	3021	3046	3046	3046	3046	3046	3046	3046	3021	3021	2997	2997	3021	3021	3021	3021	3046	3046	3070	3096	3122	3175	3202	3229	3257	3315	3375	3405	3405	3469	3501	3568	3602	3673	3709	3746	3784	3822	3862	3902	3943	3943	3985	4028	4028	4028	4028	4028	4028	4028	4028	4072	4072	4028	4028	4028	4028	4028	4072	4072	4116	4116	4162	4209	4209	4257	0	0	0	0	0	0	0	0	0	0	0	0	0	3902	3902	3902	3862	3862	3862	3862	3862	3862	3902	3902	3902	3943	3943	3943	3943	3943	3902	3902	3902	3862	3822	3822	3784	3746	3746	3709	3709	3709	3709	3709	3709	3746	3746	3784	3822	3862	3902	3985	4028	4116	4162	4257	4356	4407	4513	4568	4683	4742	4803	4865	4865	4929	4929	4929	4929	4929	4929	4929	4929	4929	4929	4929	4929	4995	4995	4995	4995	5062	5062	5062	5062	5062	5062	5062	5062	0	0	0	0	0	0	0	0	0	0	0	0	0	0	0	0	0	0	0	0	0	0	0	0	0	0	0	0	0	0	587	585	585	583	583	582	580	579	578	577	576	575	575	575	575	575	575	575	575	575	575	575	576	576	577	577	577	578	578	579	579	580	580	580	581	581	581	580	580	580	580	579	579	579	579	579	579	580	580	580	580	582	582	583	583	583	584	584	585	586	586	587	588	590	591	592	593	595	596	0	0	0	0	0	0	0	0	0	0	0	0	0	6141	6141	6243	6243	6349	6349	6459	6459	6459	6459	6459	6459	6459	6459	6349	6349	6349	6349	6243	6243	6243	6243	6243	6243	6243	6349	6349	6459	6459	6459	6459	6572	6572	6572	6572	6572	6572	6572	6572	6572	6572	6459	6459	6459	6349	6349	6349	6243	6243	6243	6243	6243	6243	6243	6141	6141	6141	6141	6141	6141	6141	6243	6243	6243	6243	6349	6349	6459	6459	6459	6459	6459	6572	6572	6572	6572	6572	6459	6459	6459	6459	6459	6459	6459	6572	6572	6572	6689	6689	6811	6811	6811	6937	6937	7068	7068	7068	6937	6811	6811	6572	6459	6243	6042	5946	5853	5853	5853	5853	5853	5946	5946	6141	6141	6243	6243	0	0	0	0	0	0	0	0	0	0	0	0	0	0	0	0	0	0	0	0	0	0	0	0	0	0	0	0	0	0	0	0	0	0	0	0	0	0	0	0	0	0	0	0	0	0	0	986	986	983	978	978	976	973	970	970	968	965	965	965	968	0	0	0	0	0	0	983	983	983	986	986	986	986	986	986	986	986	986	988	991	994	994	996	999	1002	1002	1002	1002	999	999	1002	1002	1002	1002	1002	1002	1002	999	999	996	994	994	991	988	988	986	983	981	981	981	981	983	983	983	983	986	991	991	994	994	991	991	991	988	986	986	983	983	981	981	981	981	981	981	983	983	983	983	983	983	986	986	986	986	986	986	988	991	996	999	1002	1007	1010	1012	1015	1018	1018	1021	1021	1023	1023	1023	1023	1021	1021	1021	1018	1018	1015	1012	1010	1010	1007	1004	1004	0	0	0	0	0	0	0	0	0	0	0	0	0	0	0	0	0	0	0	0	0	0	0	0	0	0	0	0	0	0	0	0	0	0	0	0	0	0	0	0	0	0	0	0	0	0	0	0	0	0	0	0	0	0	0	0	0	0	0	0	0	0	0	0	0	0	0	0	0	0	0	0	0	0	0	0	540	539	538	537	536	534	533	531	530	528	527	525	523	522	520	518	517	516	515	514	513	512	512	511	510	510	510	510	510	509	509	508	508	508	508	508	508	508	508	508	508	508	508	507	507	507	507	507	507	506	506	507	507	507	507	508	508	508	508	508	509	509	509	509	509	510	510	510	510	510	510	511	511	511	512	513	514	515	515	516	517	519	520	520	522	0	0	0	0	0	0	0	0	0	0	0	0	0	976	976	976	976	976	976	976	978	981	981	983	986	988	988	991	991	994	996	996	999	999	1002	1002	1004	1004	1007	1007	1007	1007	1007	1007	1004	1002	1002	999	994	991	986	983	978	976	973	968	965	965	965	965	965	968	968	970	970	973	973	973	973	973	973	970	970	968	965	963	961	958	956	956	956	958	958	961	965	970	976	981	983	986	991	991	994	996	996	994	994	991	988	986	986	983	981	981	981	981	981	981	981	981	983	983	986	988	991	991	991	986	983	978	973	970	965	963	958	958	956	956	956	956	956	961	963	965	968	973	976	978	983	986	988	991	994	996	996	999	1002	1002	1004	1004	1004	1004	1004	1004	1004	1007	1007	1007	1007	1007	1007	1007	1007	1007	1010	1007	1007	1007	1010	1010	1010	1010	1010	1010	1010	1012	1012	1015	1018	1021	1021	1023	1026	1026	1029	1029	1032	1032	1032	1032	1032	1029	1029	1029	0
3070	3070	3070	3096	3096	3096	3096	3096	3070	3070	3070	3046	3021	2997	2997	2973	2950	2950	2927	2904	2904	2904	2882	2882	2882	2882	2904	2904	2904	2882	2882	2882	2882	2860	2860	2860	2838	2838	2860	2860	2882	2882	2882	2904	2904	2927	2927	2950	2950	2950	2973	2973	2973	2997	2997	3021	3021	3021	3021	3021	3021	3021	3021	3046	3046	3070	3070	3070	3070	3046	3046	3046	3021	3021	2997	2997	2997	2997	3021	3021	3046	3046	3070	3096	3122	3148	3175	3229	3257	3315	3345	3405	3469	3469	3501	3568	3602	3673	3709	3746	3784	3822	3862	3902	3943	3943	3985	4028	4028	4028	4028	4028	4028	4028	4028	4028	4028	4028	4028	3985	3985	4028	4028	4028	4072	4116	4116	4116	4209	4257	4306	0	0	0	0	0	0	0	0	0	0	3943	3943	3902	3862	3862	3862	3862	3862	3862	3862	3862	3862	3902	3902	3902	3902	3902	3902	3902	3902	3862	3822	3822	3784	3784	3746	3746	3709	3709	3709	3709	3709	3709	3709	3746	3746	3746	3784	3822	3902	3943	3985	4072	4116	4209	4306	4407	4513	4568	4683	4742	4865	4865	4929	4929	4995	4995	4995	4995	5062	5062	5062	4995	4995	5062	5062	5062	5062	5062	5062	5062	5132	5062	5062	5062	5062	4995	4995	4995	0	0	0	0	0	0	0	0	0	0	0	0	0	0	0	0	0	0	0	0	0	0	0	0	0	0	0	0	0	0	585	584	583	582	581	580	579	578	577	576	575	575	575	575	575	575	575	575	575	575	575	576	576	576	577	577	578	578	579	579	579	580	580	580	580	580	580	580	580	580	580	580	580	580	580	580	580	580	580	581	582	583	583	583	584	585	586	586	587	588	588	589	590	591	593	594	595	596	0	0	0	0	0	0	0	0	0	0	0	0	0	6243	6243	6243	6349	6349	6459	6459	6572	6572	6572	6572	6572	6459	6459	6349	6349	6349	6243	6243	6243	6243	6243	6243	6243	6243	6349	6349	6459	6459	6459	6459	6572	6572	6572	6572	6572	6572	6572	6572	6572	6572	6572	6459	6459	6349	6349	6349	6349	6243	6243	6243	6243	6243	6141	6141	6141	6141	6141	6141	6141	6141	6141	6243	6243	6243	6243	6349	6349	6459	6459	6459	6459	6572	6572	6572	6572	6459	6459	6459	6459	6459	6459	6459	6459	6459	6572	6572	6572	6689	6811	6811	6811	6937	6937	7068	7068	7068	7068	6937	6811	6811	6572	6349	6243	6042	5946	5946	5946	5946	5946	5946	6042	6042	6141	6243	6243	6243	0	0	0	0	0	0	0	0	0	0	0	0	0	0	0	0	0	0	0	0	0	0	0	0	0	0	0	0	0	0	0	0	0	0	0	0	0	0	0	0	0	0	0	0	0	0	986	983	983	978	978	976	973	970	968	965	965	963	963	963	0	0	0	0	0	981	981	983	983	983	983	983	983	983	983	983	983	983	986	986	988	991	996	999	999	999	1002	999	999	999	999	1002	1002	1002	1002	1002	1002	1002	1002	999	999	996	996	994	991	988	986	986	983	983	983	983	983	983	986	986	991	991	994	991	991	991	991	988	988	986	986	986	983	983	983	981	981	981	983	983	986	986	986	986	986	986	986	986	986	988	991	994	999	1002	1004	1010	1012	1015	1018	1018	1021	1021	1023	1023	1026	1023	1023	1023	1023	1021	1021	1021	1018	1015	1012	1012	1010	1007	1007	0	0	0	0	0	0	0	0	0	0	0	0	0	0	0	0	0	0	0	0	0	0	0	0	0	0	0	0	0	0	0	0	0	0	0	0	0	0	0	0	0	0	0	0	0	0	0	0	0	0	0	0	0	0	0	0	0	0	0	0	0	0	0	0	0	0	0	0	0	0	0	0	0	0	0	540	539	538	537	537	535	534	532	531	530	528	526	525	523	522	520	518	517	516	515	515	513	513	512	512	511	511	510	510	510	510	510	509	509	509	508	508	508	508	508	508	508	508	508	508	507	507	507	507	507	507	507	507	507	507	507	507	507	508	508	508	508	508	508	509	509	509	509	509	510	510	510	510	511	511	512	513	514	515	515	516	517	519	520	520	521	0	0	0	0	0	0	0	0	0	0	0	0	0	976	973	973	973	973	973	976	976	978	981	983	986	988	991	994	994	996	999	999	1002	1004	1004	1007	1007	1007	1007	1007	1007	1007	1007	1004	1004	1002	999	996	994	991	986	983	981	976	973	970	968	968	968	968	968	970	970	976	976	978	978	981	978	978	976	973	973	970	968	965	963	961	961	961	961	961	963	965	970	976	978	983	988	991	994	994	996	996	996	996	994	994	991	991	988	988	986	986	986	986	986	986	986	986	988	988	991	991	994	994	991	988	983	978	976	970	965	963	958	958	956	956	956	956	958	961	963	965	970	973	978	981	986	988	991	994	996	996	999	1002	1002	1004	1004	1004	1004	1004	1004	1004	1004	1007	1007	1007	1007	1007	1007	1007	1007	1007	1007	1007	1007	1007	1010	1010	1010	1010	1010	1010	1010	1012	1012	1015	1018	1021	1021	1026	1026	1026	1029	1032	1032	1032	1035	1035	1035	1032	1032	1032	0
3046	3046	3046	3070	3070	3070	3070	3070	3070	3070	3070	3046	3046	3021	2997	2973	2973	2973	2950	2950	2950	2950	2927	2927	2927	2927	2927	2927	2927	2927	2904	2904	2904	2882	2860	2860	2860	2860	2860	2860	2882	2882	2882	2904	2904	2927	2950	2950	2950	2950	2973	2973	2973	2997	3021	3021	3021	3021	3021	3046	3046	3046	3070	3070	3070	3070	3070	3070	3046	3046	3046	3021	2997	2997	2973	2973	2973	2997	2997	3021	3046	3046	3070	3096	3122	3148	3175	3202	3257	3315	3345	3405	3469	3501	3568	3568	3602	3673	3709	3784	3822	3862	3902	3943	3943	3985	4028	4028	4028	4028	4028	4028	4028	3985	3985	3985	3985	3985	3985	3943	3943	3943	3985	3985	3985	4028	4072	4116	4116	4209	4209	4257	0	0	0	0	0	0	0	3985	3943	3943	3902	3862	3862	3862	3822	3822	3862	3862	3862	3862	3862	3902	3902	3902	3902	3902	3902	3902	3862	3822	3822	3822	3784	3746	3746	3746	3709	3709	3709	3709	3709	3709	3709	3746	3746	3746	3784	3822	3902	3943	3985	4028	4116	4209	4306	4407	4513	4568	4683	4742	4865	4929	4929	4995	5062	5062	5132	5132	5132	5132	5132	5132	5132	5132	5132	5132	5132	5132	5132	5132	5132	5132	5062	5062	5062	4995	4929	4929	0	0	0	0	0	0	0	0	0	0	0	0	0	0	0	0	0	0	0	0	0	0	0	0	0	0	0	0	0	0	585	583	583	582	581	580	579	578	577	576	576	575	575	575	575	575	575	575	575	575	575	576	576	576	577	577	578	578	579	579	579	579	580	580	580	580	580	580	580	580	580	580	580	580	581	581	581	581	581	583	583	583	584	585	586	586	587	588	588	589	589	590	591	592	593	595	596	596	0	0	0	0	0	0	0	0	0	0	0	0	0	6243	6243	6349	6349	6459	6459	6572	6572	6572	6572	6572	6572	6459	6349	6349	6349	6243	6243	6243	6243	6243	6243	6243	6243	6243	6349	6349	6459	6459	6459	6459	6572	6572	6572	6572	6689	6572	6572	6572	6572	6572	6572	6459	6459	6349	6349	6349	6349	6243	6243	6243	6243	6243	6141	6141	6042	6042	6042	6042	6042	6042	6141	6141	6243	6243	6243	6349	6349	6459	6459	6459	6459	6572	6572	6572	6459	6459	6459	6459	6459	6459	6459	6459	6459	6459	6572	6572	6572	6689	6811	6811	6811	6937	6937	7068	7068	7204	7204	7068	6937	6937	6811	6572	6349	6141	6042	6042	6042	5946	5946	5946	6042	6042	6141	6243	6141	6141	0	0	0	0	0	0	0	0	0	0	0	0	0	0	0	0	0	0	0	0	0	0	0	0	0	0	0	0	0	0	0	0	0	0	0	0	0	0	0	0	0	0	0	0	0	0	986	983	983	981	978	976	973	970	968	965	965	963	963	963	965	968	968	973	976	978	981	983	983	983	983	983	983	983	983	983	983	983	983	986	988	991	994	994	996	996	999	999	999	999	999	999	1002	1002	1002	1002	1002	1002	1004	1002	1002	1002	999	999	996	996	994	991	991	988	986	986	986	986	986	988	991	991	991	991	988	988	988	988	988	988	986	986	986	983	983	983	981	981	983	986	986	986	986	986	988	988	988	988	988	994	996	999	1002	1007	1010	1012	1015	1018	1021	1021	1023	1023	1026	1026	1026	1023	1023	1023	1023	1023	1021	1021	1018	1018	1015	1012	1012	1012	0	0	0	0	0	0	0	0	0	0	0	0	0	0	0	0	0	0	0	0	0	0	0	0	0	0	0	0	0	0	0	0	0	0	0	0	0	0	0	0	0	0	0	0	0	0	0	0	0	0	0	0	0	0	0	0	0	0	0	0	0	0	0	0	0	0	0	0	0	0	0	0	0	0	0	0	540	539	537	537	536	534	534	532	531	529	528	526	525	523	522	520	519	517	516	515	515	514	513	512	512	512	512	512	511	510	510	510	510	510	509	508	508	508	508	508	508	508	508	508	507	507	507	507	507	507	507	507	507	507	507	507	507	507	507	508	508	508	508	508	508	508	509	509	509	510	510	510	510	511	512	512	513	514	515	516	517	517	519	520	520	521	0	0	0	0	0	0	0	0	0	0	0	0	0	970	970	970	970	970	970	973	973	976	978	981	986	988	991	996	996	999	1002	1004	1004	1007	1007	1007	1007	1007	1007	1007	1007	1007	1004	1004	1002	999	999	994	994	988	986	983	981	978	976	970	970	970	970	973	973	976	978	978	981	983	983	983	983	983	981	978	976	973	970	968	965	965	963	963	963	965	968	973	976	981	986	988	991	994	996	999	999	999	999	999	996	996	994	994	991	991	991	991	991	991	991	991	991	991	994	994	994	996	996	996	994	991	988	983	976	973	968	965	961	961	961	958	958	961	961	963	965	968	973	976	978	983	986	988	991	994	996	999	999	1002	1002	1004	1004	1004	1007	1007	1004	1004	1004	1007	1007	1007	1007	1007	1007	1007	1007	1007	1007	1007	1007	1010	1010	1010	1010	1010	1010	1010	1010	1012	1012	1015	1018	1021	1023	1026	1029	1029	1032	1032	1032	1035	1035	1035	1035	1035	1035	1035	0
3021	3021	3046	3046	3070	3070	3070	3070	3070	3070	3070	3046	3046	3046	3021	3021	2997	2973	2973	2973	2973	2973	2973	2973	2973	2973	2973	2973	2973	2950	2950	2927	2927	2904	2882	2882	2860	2860	2882	2882	2882	2882	2904	2904	2904	2927	2927	2950	2950	2950	2973	2973	2973	2997	2997	3021	3021	3021	3021	3021	3021	3021	3021	3046	3046	3046	3046	3046	3021	3021	2997	2997	2973	2973	2973	2973	2973	2973	2997	2997	3021	3046	3046	3070	3122	3148	3175	3202	3257	3286	3345	3405	3437	3501	3568	3637	3637	3673	3746	3784	3822	3862	3902	3943	3943	3985	4028	4028	4028	4028	4028	4028	4028	3985	3985	3985	3985	3943	3943	3902	3902	3943	3902	3902	3943	3985	4028	4072	4116	4162	4162	4209	4257	4209	4162	4116	4072	4028	4028	3985	3943	3902	3902	3862	3862	3822	3822	3822	3822	3822	3822	3822	3862	3862	3902	3902	3902	3902	3902	3862	3862	3822	3822	3822	3784	3746	3746	3746	3709	3709	3709	3709	3709	3709	3709	3746	3746	3746	3784	3822	3902	3943	3985	4028	4116	4209	4306	4356	4460	4568	4683	4803	4865	4929	4995	5062	5132	5132	5203	5203	5203	5203	5203	5203	5203	5203	5203	5203	5203	5203	5203	5203	5203	5132	5132	5062	4995	4995	4929	4929	0	0	0	0	0	0	0	0	0	0	0	0	0	0	0	0	0	0	0	0	0	0	0	0	0	0	0	0	0	0	0	583	583	582	581	580	579	578	577	577	576	575	575	575	575	575	575	575	575	576	576	576	577	577	577	577	578	578	579	579	579	579	580	580	580	580	580	580	580	580	580	580	581	581	581	581	581	582	583	583	583	584	585	586	587	588	588	589	589	589	590	591	592	593	594	595	596	596	0	0	0	0	0	0	0	0	0	0	0	0	0	6349	6349	6349	6459	6459	6572	6572	6572	6572	6572	6572	6459	6459	6349	6349	6349	6243	6243	6243	6243	6243	6243	6243	6243	6243	6349	6349	6459	6459	6459	6459	6572	6572	6572	6572	6689	6572	6572	6572	6572	6572	6459	6459	6459	6349	6349	6349	6349	6243	6243	6243	6243	6141	6141	6042	6042	6042	6042	6042	6042	6042	6042	6141	6243	6243	6243	6349	6349	6459	6459	6459	6459	6459	6459	6459	6459	6459	6459	6459	6459	6349	6349	6459	6459	6459	6459	6572	6572	6689	6811	6811	6811	6937	7068	7068	7068	7204	7204	7204	7068	7068	6811	6572	6349	6243	6141	6042	6042	6042	6042	6042	6042	6042	6141	6141	6141	6141	0	0	0	0	0	0	0	0	0	0	0	0	0	0	0	0	0	0	0	0	0	0	0	0	0	0	0	0	0	0	0	0	0	0	0	0	0	0	0	0	0	0	0	0	0	0	986	986	983	981	978	976	973	970	968	965	965	965	963	963	965	968	968	973	976	978	983	983	986	986	986	986	986	983	983	983	983	983	983	986	986	988	991	991	994	994	996	996	996	996	996	999	999	1002	1002	1002	1002	1002	1004	1004	1007	1004	1004	1004	1004	1004	1002	999	996	994	991	991	991	988	988	988	991	991	988	988	988	988	988	986	986	986	986	988	988	986	986	983	983	983	983	983	986	986	988	988	988	991	991	994	994	996	999	1004	1007	1010	1015	1018	1021	1021	1023	1023	1026	1026	1026	1026	1026	1026	1026	1023	1023	1023	1021	1021	1021	1018	1018	1015	1015	1015	0	0	0	0	0	0	0	0	0	0	0	0	0	0	0	0	0	0	0	0	0	0	0	0	0	0	0	0	0	0	0	0	0	0	0	0	0	0	0	0	0	0	0	0	0	0	0	0	0	0	0	0	0	0	0	0	0	0	0	0	0	0	0	0	0	0	0	0	0	0	0	0	0	0	0	0	539	538	537	536	535	534	532	531	530	528	527	525	524	522	522	520	519	518	517	516	515	515	514	514	513	512	512	512	512	511	510	510	510	509	508	508	508	508	508	507	507	507	507	507	507	506	506	506	506	506	506	506	506	506	506	506	506	507	507	507	508	508	508	508	508	508	509	509	509	509	510	510	510	511	512	512	513	514	515	516	517	518	519	520	521	521	0	0	0	0	0	0	0	0	0	0	0	0	0	968	968	968	968	968	968	968	970	973	976	981	983	986	991	996	999	1002	1004	1004	1007	1007	1007	1010	1010	1007	1007	1004	1004	1002	1002	999	999	996	994	991	991	986	986	983	981	981	978	976	976	976	976	978	978	981	981	983	986	988	988	988	988	986	983	981	976	976	973	970	970	968	968	968	968	973	976	978	981	986	991	994	996	999	999	1002	1002	1004	1002	1002	1002	999	999	999	996	996	996	996	996	996	996	996	996	996	999	999	999	999	1002	999	999	994	991	986	981	978	973	970	968	965	963	963	963	963	965	965	968	970	973	978	981	986	986	991	994	996	996	999	1002	1002	1004	1004	1007	1007	1007	1007	1004	1004	1004	1007	1007	1007	1007	1007	1007	1007	1010	1010	1010	1010	1010	1010	1010	1010	1010	1010	1010	1010	1012	1012	1015	1018	1021	1023	1023	1026	1029	1032	1032	1035	1035	1038	1038	1038	1038	1035	1035	1035	0
3021	3021	3021	3046	3046	3046	3070	3070	3070	3070	3070	3070	3070	3046	3046	3046	3046	3021	3021	3021	3021	3021	2997	2997	2997	2997	2997	2973	2973	2973	2950	2927	2927	2904	2882	2882	2882	2882	2882	2882	2882	2904	2904	2904	2927	2927	2927	2950	2950	2973	2973	2973	2973	2973	2997	2997	2997	2997	2997	2997	2997	2997	2997	2997	2997	2997	2997	2997	2973	2973	2973	2950	2950	2950	2927	2927	2950	2950	2973	2997	2997	3021	3046	3070	3096	3122	3148	3202	3229	3286	3345	3375	3437	3501	3568	3602	3673	3673	3746	3784	3822	3862	3902	3943	3985	3985	4028	4028	4072	4072	4028	4028	4028	4028	3985	3985	3985	3943	3943	3902	3902	3902	3902	3902	3902	3902	3985	4028	4072	4116	4162	4209	4209	4209	4162	4116	4072	4028	4028	3985	3943	3902	3862	3822	3822	3822	3784	3784	3784	3822	3822	3822	3822	3862	3862	3902	3902	3902	3902	3862	3862	3822	3822	3822	3784	3746	3746	3746	3746	3709	3709	3709	3709	3709	3709	3746	3746	3784	3822	3862	3902	3943	3985	4028	4116	4209	4257	4356	4460	4568	4683	4742	4865	4929	5062	5132	5132	5203	5276	5276	5276	5276	5276	5276	5276	5276	5276	5276	5203	5203	5203	5203	5203	5132	5132	5062	4995	4929	4929	4865	4865	0	0	0	0	0	0	0	0	0	0	0	0	0	0	0	0	0	0	0	0	0	0	0	0	0	0	0	0	0	0	583	583	582	581	580	579	579	577	577	577	576	576	576	575	575	576	576	576	577	577	577	577	578	578	578	578	579	579	579	579	580	580	580	580	580	580	580	580	580	581	581	581	581	581	582	582	582	583	583	584	585	586	587	587	588	589	590	590	591	591	591	592	593	594	595	596	596	0	0	0	0	0	0	0	0	0	0	0	0	0	6349	6349	6349	6459	6459	6459	6459	6459	6459	6572	6572	6459	6459	6459	6349	6349	6349	6243	6243	6243	6243	6243	6243	6243	6349	6349	6459	6459	6459	6459	6459	6572	6572	6572	6689	6689	6572	6572	6572	6572	6459	6459	6459	6349	6349	6349	6349	6349	6243	6243	6243	6243	6141	6042	6042	6042	6042	6042	6042	6042	6042	6042	6141	6141	6243	6243	6243	6349	6349	6459	6459	6459	6459	6459	6459	6459	6459	6459	6349	6349	6349	6349	6349	6459	6459	6459	6572	6572	6689	6811	6811	6811	6937	7068	7068	7204	7204	7345	7204	7204	7068	6937	6689	6572	6349	6243	6141	6141	6141	6042	6042	6042	6042	6141	6042	6042	5946	5946	0	0	0	0	0	0	0	0	0	0	0	0	0	0	0	0	0	0	0	0	0	0	0	0	0	0	0	0	0	0	0	0	0	0	0	0	0	0	0	0	0	0	0	0	0	988	986	986	981	981	978	973	973	970	970	968	968	968	968	968	970	973	978	981	983	986	988	988	986	986	986	986	986	983	983	983	983	983	983	986	986	988	988	991	991	991	994	994	994	994	999	999	999	1002	1002	1004	1004	1007	1007	1010	1010	1010	1010	1012	1010	1007	1004	1002	999	996	994	991	991	991	988	988	988	986	986	986	986	986	986	986	986	986	986	988	986	983	983	981	981	983	983	986	986	988	988	991	994	996	996	999	1004	1004	1010	1012	1018	1021	1023	1026	1026	1026	1026	1026	1026	1026	1026	1026	1026	1023	1023	1023	1023	1023	1021	1021	1018	1018	1015	1015	1015	0	0	0	0	0	0	0	0	0	0	0	0	0	0	0	0	0	0	0	0	0	0	0	0	0	0	0	0	0	0	0	0	0	0	0	0	0	0	0	0	0	0	0	0	0	0	0	0	0	0	0	0	0	0	0	0	0	0	0	0	0	0	0	0	0	0	0	0	0	0	0	0	0	0	0	0	539	538	537	536	534	534	532	531	529	528	527	525	524	522	522	520	519	518	517	517	516	515	515	514	514	513	513	512	512	511	510	510	509	509	508	508	507	507	507	507	506	506	506	506	506	506	506	506	506	506	506	506	506	506	506	506	506	506	507	507	508	508	508	508	508	508	509	509	509	509	510	510	510	511	512	512	513	514	515	516	517	518	520	520	521	522	0	0	0	0	0	0	0	0	0	0	0	0	0	963	963	963	963	963	963	965	965	970	973	976	981	986	991	996	999	1002	1004	1007	1007	1007	1010	1010	1007	1007	1004	1002	1002	999	999	996	994	994	991	988	988	986	986	983	983	981	981	981	981	981	981	983	983	986	986	988	991	994	994	994	991	988	986	981	978	978	976	973	970	970	970	973	976	978	981	983	988	991	996	999	999	1002	1004	1007	1007	1007	1007	1007	1004	1004	1004	1004	1002	1002	1002	1002	1002	1002	1002	1002	1002	1002	1002	1002	1004	1004	1002	1002	999	996	991	988	983	981	976	973	970	968	968	968	968	968	968	970	973	973	978	981	983	988	988	994	996	996	999	1002	1004	1004	1004	1004	1007	1007	1007	1007	1004	1004	1004	1007	1007	1007	1007	1007	1010	1010	1010	1010	1010	1010	1010	1010	1010	1010	1012	1010	1010	1012	1012	1015	1018	1021	1021	1023	1026	1029	1032	1035	1035	1038	1038	1038	1038	1038	1038	1038	1038	0	0
3021	3021	3021	3021	3046	3046	3046	3046	3046	3070	3070	3070	3070	3070	3070	3070	3070	3070	3046	3046	3046	3046	3046	3046	3021	3021	3021	2997	2997	2973	2973	2950	2950	2927	2904	2904	2882	2882	2882	2882	2904	2904	2904	2904	2927	2927	2950	2950	2950	2973	2973	2973	2973	2973	2973	2973	2973	2973	2973	2973	2973	2950	2950	2950	2950	2950	2950	2950	2927	2927	2927	2927	2904	2904	2904	2904	2904	2927	2950	2973	2997	3021	3021	3046	3070	3122	3148	3202	3229	3286	3315	3375	3437	3501	3534	3602	3673	3746	3746	3784	3822	3862	3943	3943	3985	4028	4028	4072	4072	4072	4072	4028	4028	4028	4028	3985	3985	3943	3943	3902	3862	3862	3862	3862	3862	3902	3943	4028	4072	4116	4162	4162	4209	4209	4162	4116	4072	4028	3985	3985	3943	3902	3862	3822	3822	3784	3784	3784	3784	3784	3784	3822	3822	3862	3862	3902	3902	3902	3902	3862	3862	3822	3822	3822	3784	3784	3746	3746	3746	3746	3709	3709	3709	3746	3746	3746	3746	3784	3822	3862	3902	3943	3985	4028	4116	4162	4257	4356	4407	4513	4625	4742	4803	4929	4995	5132	5203	5203	5276	5351	5351	5351	5351	5351	5351	5351	5276	5276	5276	5276	5203	5203	5203	5132	5062	5062	4995	4929	4929	4865	4865	0	0	0	0	0	0	0	0	0	0	0	0	0	0	0	0	0	0	0	0	0	0	0	0	0	0	0	0	0	0	0	583	583	582	580	580	579	578	577	577	577	577	577	576	576	577	577	577	577	578	578	578	579	579	579	579	579	579	580	580	580	580	580	580	580	580	580	580	581	581	581	581	582	582	582	583	583	583	584	585	586	587	588	589	589	590	590	590	591	592	592	592	593	594	595	595	0	0	0	0	0	0	0	0	0	0	0	0	0	0	6243	6243	6349	6349	6459	6459	6459	6459	6459	6459	6459	6459	6459	6459	6349	6349	6349	6243	6243	6243	6243	6243	6243	6349	6349	6459	6459	6459	6459	6572	6572	6572	6572	6689	6689	6689	6572	6572	6572	6572	6459	6459	6349	6349	6349	6349	6349	6243	6243	6243	6243	6141	6141	6042	6042	6042	6042	6042	6042	6042	6042	6042	6141	6141	6243	6243	6243	6349	6349	6349	6459	6459	6459	6459	6459	6459	6459	6349	6349	6349	6349	6349	6349	6459	6459	6459	6572	6572	6689	6811	6811	6811	6937	7068	7068	7204	7345	7345	7345	7345	7345	7068	6937	6689	6572	6459	6349	6243	6243	6141	6141	6141	6141	6042	6042	5946	5946	5946	0	0	0	0	0	0	0	0	0	0	0	0	0	0	0	0	0	0	0	0	0	0	0	0	0	0	0	0	0	0	0	0	0	0	0	0	0	0	0	0	0	0	0	0	991	988	986	986	983	981	981	978	973	973	973	970	970	970	970	973	976	978	983	986	986	988	991	991	991	991	991	988	988	988	983	983	983	983	983	986	986	986	986	988	991	991	994	994	994	994	996	999	999	999	999	1002	1004	1007	1007	1010	1012	1015	1015	1015	1015	1012	1010	1007	1004	999	996	996	991	991	988	988	986	986	983	983	983	983	983	983	983	983	986	988	986	983	983	981	981	983	983	986	988	988	991	994	996	999	1002	1004	1007	1010	1015	1018	1023	1023	1026	1029	1029	1026	1026	1026	1026	1026	1026	1026	1023	1023	1023	1023	1023	1023	1021	1021	1021	1018	1018	1015	1015	0	0	0	0	0	0	0	0	0	0	0	0	0	0	0	0	0	0	0	0	0	0	0	0	0	0	0	0	0	0	0	0	0	0	0	0	0	0	0	0	0	0	0	0	0	0	0	0	0	0	0	0	0	0	0	0	0	0	0	0	0	0	0	0	0	0	0	0	0	0	0	0	0	0	0	0	539	538	537	536	534	533	531	531	529	528	526	525	524	523	522	521	520	519	518	517	517	516	515	515	514	513	513	512	512	511	510	510	508	508	508	507	507	506	506	506	506	506	506	506	506	506	506	506	506	506	506	506	506	506	506	506	506	506	507	507	508	508	508	508	508	508	509	509	509	509	510	510	510	511	512	512	513	515	515	517	517	519	520	520	522	522	0	0	0	0	0	0	0	0	0	0	0	0	0	963	961	961	961	961	961	963	965	965	970	973	978	983	988	994	996	1002	1004	1007	1010	1010	1007	1007	1007	1004	1002	999	999	996	996	994	994	991	988	988	986	986	986	983	983	983	983	983	983	983	986	986	988	991	994	994	996	996	996	994	994	991	986	981	978	976	976	973	973	973	976	976	978	983	986	988	994	996	999	1002	1004	1004	1007	1007	1010	1010	1010	1010	1010	1007	1007	1007	1007	1007	1007	1007	1007	1007	1007	1007	1007	1007	1007	1007	1007	1004	1004	1004	1002	999	994	991	986	983	978	976	973	970	970	968	968	968	970	973	976	978	983	983	986	991	994	996	999	1002	1004	1004	1007	1007	1007	1010	1012	1012	1012	1010	1010	1007	1007	1007	1010	1007	1007	1010	1010	1010	1010	1010	1010	1010	1010	1010	1010	1012	1012	1012	1012	1012	1015	1018	1018	1021	1023	1026	1029	1032	1032	1035	1038	1038	1041	1041	1041	1041	1038	1038	1041	0	0
2997	3021	3021	3021	3046	3046	3046	3046	3046	3070	3070	3070	3070	3070	3070	3070	3070	3070	3070	3070	3070	3070	3070	3046	3046	3046	3046	3021	2997	2997	2973	2950	2950	2927	2904	2904	2904	2904	2904	2904	2904	2904	2904	2927	2927	2927	2950	2950	2973	2973	2973	2973	2973	2973	2973	2973	2973	2950	2950	2950	2950	2927	2927	2927	2927	2927	2927	2927	2904	2904	2904	2882	2882	2882	2882	2882	2882	2904	2927	2950	2973	2997	3021	3046	3070	3096	3148	3175	3229	3286	3315	3375	3437	3469	3534	3602	3673	3746	3784	3822	3822	3862	3943	3943	3985	4028	4028	4072	4072	4072	4072	4072	4072	4072	4028	3985	3985	3943	3902	3862	3862	3862	3862	3862	3862	3862	3943	3985	4072	4116	4162	4162	4162	4162	4162	4116	4072	4072	3985	3985	3943	3902	3862	3822	3822	3784	3784	3784	3784	3784	3784	3822	3822	3862	3862	3902	3902	3902	3902	3902	3862	3862	3822	3822	3822	3784	3784	3746	3746	3746	3746	3746	3746	3746	3746	3746	3746	3784	3822	3862	3902	3902	3943	4028	4072	4116	4209	4306	4356	4460	4568	4625	4803	4865	4995	5062	5132	5203	5276	5351	5351	5351	5429	5429	5351	5351	5351	5276	5276	5276	5203	5203	5132	5132	5062	5062	4995	4929	4929	4865	4803	4803	0	0	0	0	0	0	0	0	0	0	0	0	0	0	0	0	0	0	0	0	0	0	0	0	0	0	0	0	0	0	583	583	582	581	580	580	579	578	578	577	577	577	577	577	577	578	578	578	579	579	580	580	580	580	580	580	580	580	580	580	580	580	581	581	581	581	581	581	581	582	582	582	582	583	583	583	584	585	585	587	587	588	589	589	590	591	591	591	591	591	592	592	593	594	595	0	0	0	0	0	0	0	0	0	0	0	0	0	0	6243	6243	6349	6349	6459	6459	6459	6459	6459	6459	6459	6459	6459	6459	6459	6349	6349	6349	6349	6349	6349	6349	6349	6349	6459	6459	6459	6572	6572	6572	6572	6689	6689	6689	6689	6689	6572	6572	6572	6459	6459	6349	6349	6349	6349	6243	6243	6243	6243	6243	6141	6141	6042	6042	6042	6042	6042	6042	6042	6042	6042	6042	6141	6141	6243	6243	6243	6349	6349	6349	6459	6459	6459	6459	6459	6349	6349	6349	6349	6349	6349	6349	6349	6459	6459	6459	6572	6572	6689	6811	6811	6811	6937	7068	7068	7204	7345	7492	7492	7492	7345	7345	7068	6937	6689	6572	6459	6349	6349	6243	6243	6141	6141	6042	6042	5946	5946	5946	0	0	0	0	0	0	0	0	0	0	0	0	0	0	0	0	0	0	0	0	0	0	0	0	0	0	0	0	0	0	0	0	0	0	0	0	0	0	0	0	0	0	0	0	991	991	988	986	986	983	981	981	978	978	976	976	976	973	973	976	978	981	986	988	991	994	996	996	996	996	994	988	988	988	986	986	986	986	986	983	983	983	983	986	988	988	988	991	991	994	994	996	999	999	999	1002	1004	1007	1007	1012	1015	1015	1015	1015	1015	1012	1010	1007	1004	1002	999	996	994	991	988	988	986	986	983	983	981	981	981	981	983	983	0	0	0	0	986	986	986	986	986	988	988	991	994	996	999	1002	1004	1007	1012	1018	1021	1023	1026	1029	1032	1032	1032	1029	1029	1026	1026	1026	1026	1026	1023	1023	1023	1023	1023	1023	1021	1021	1021	1021	1018	1018	1018	0	0	0	0	0	0	0	0	0	0	0	0	0	0	0	0	0	0	0	0	0	0	0	0	0	0	0	0	0	0	0	0	0	0	1043	1043	1046	1049	1052	1055	0	0	0	0	0	0	0	0	0	0	0	0	0	0	0	0	0	0	0	0	0	0	0	0	0	0	0	0	0	0	0	0	0	0	0	0	539	538	537	536	534	533	531	530	528	528	526	525	524	523	522	521	520	520	519	517	517	517	516	515	515	514	513	512	512	510	510	509	508	508	507	506	506	506	506	506	506	506	506	506	506	506	506	506	506	506	506	506	506	506	506	506	506	506	507	507	508	508	508	508	508	508	508	509	509	509	510	510	510	511	512	513	514	515	516	517	518	519	520	521	522	522	0	0	0	0	0	0	0	0	0	0	0	0	0	0	961	961	961	961	961	963	965	965	970	973	978	983	988	994	996	1002	1004	1007	1007	1010	1007	1007	1004	1002	1002	999	996	996	994	991	991	988	988	986	986	986	986	986	986	986	986	986	988	988	991	991	994	996	999	999	1002	999	999	996	994	988	983	981	976	973	973	973	973	976	976	981	981	986	988	994	996	999	1002	1004	1007	1010	1010	1012	1012	1012	1012	1012	1012	1012	1010	1010	1010	1010	1010	1010	1010	1010	1010	1010	1010	1010	1010	1007	1007	1007	1004	1004	1002	999	994	991	986	983	981	976	973	973	970	970	970	970	973	973	976	981	983	986	991	991	996	999	1004	1004	1010	1010	1012	1012	1015	1018	1021	1021	1018	1015	1015	1012	1012	1010	1010	1010	1010	1010	1010	1012	1012	1012	1012	1012	1012	1012	1012	1012	1012	1012	1012	1015	1015	1018	1021	1023	1026	1029	1029	1032	1035	1038	1038	1041	1041	1043	1043	1043	1041	1041	1041	0	0
2997	3021	3021	3021	3021	3021	3046	3046	3046	3070	3070	3070	3070	3070	3070	3096	3096	3096	3096	3070	3070	3070	3070	3070	3046	3046	3046	3021	2997	2997	2973	2950	2950	2927	2927	2904	2904	2904	2904	2904	2904	2904	2927	2927	2927	2950	2950	2973	2973	2973	2950	2950	2950	2950	2950	2950	2950	2950	2927	2927	2927	2904	2904	2904	2904	2904	2904	2882	2882	2882	2882	2860	2860	2860	2860	2860	2860	2882	2904	2927	2950	2973	2997	3046	3070	3096	3122	3175	3202	3257	3315	3375	3437	3469	3534	3602	3673	3709	3784	3822	3862	3862	3902	3943	3985	3985	4028	4028	4072	4072	4072	4072	4072	4072	4028	3985	3943	3902	3862	3822	3822	3822	3784	3784	3784	3822	3862	3943	3985	4028	4072	4072	4116	4116	4116	4116	4072	4028	4028	3985	3943	3902	3862	3822	3822	3784	3784	3784	3784	3784	3784	3822	3822	3862	3862	3902	3902	3902	3902	3902	3902	3902	3862	3862	3822	3822	3822	3784	3784	3746	3746	3746	3746	3746	3746	3746	3784	3784	3822	3862	3902	3902	3943	4028	4072	4116	4209	4257	4356	4407	4460	4568	4683	4803	4865	4929	5062	5132	5203	5276	5276	5351	5351	5351	5351	5351	5351	5276	5276	5276	5203	5203	5132	5132	5062	5062	4995	4929	4929	4865	4803	4803	0	0	0	0	0	0	0	0	0	0	0	0	0	0	0	0	0	0	0	0	0	0	0	0	0	0	0	0	0	0	0	584	583	583	582	581	580	580	579	579	578	578	578	578	578	579	579	580	580	580	581	582	582	582	582	582	582	582	582	582	582	582	582	582	582	582	582	582	582	582	583	583	583	583	584	584	585	585	586	587	588	588	589	590	590	590	590	591	591	591	591	592	592	593	594	0	0	0	0	0	0	0	0	0	0	0	0	0	0	6243	6243	6349	6349	6459	6459	6459	6459	6459	6459	6572	6572	6459	6459	6459	6349	6349	6349	6349	6349	6349	6349	6459	6459	6459	6459	6572	6572	6689	6689	6689	6689	6689	6689	6689	6689	6572	6572	6572	6459	6459	6349	6349	6349	6243	6243	6243	6243	6243	6243	6141	6141	6042	6042	6042	6042	6042	6042	6042	6042	6042	6042	6141	6141	6243	6243	6243	6349	6349	6349	6349	6459	6459	6459	6349	6349	6349	6349	6349	6349	6349	6349	6349	6459	6459	6459	6572	6572	6689	6811	6811	6811	6937	7068	7204	7204	7345	7492	7492	7492	7492	7345	7204	7068	6937	6811	6689	6572	6459	6349	6243	6243	6141	6042	6042	5946	5853	5853	5853	0	0	0	0	0	0	0	0	0	0	0	0	0	0	0	0	0	0	0	0	0	0	0	0	0	0	0	0	0	0	0	0	0	0	0	0	0	0	0	0	0	0	988	988	991	991	988	988	986	983	983	981	981	978	978	978	978	978	981	983	986	991	994	996	999	1002	1002	1004	996	994	994	991	991	988	988	986	986	986	983	983	983	983	983	986	986	986	986	986	988	991	994	996	996	999	1002	1004	1007	1007	1012	1015	1015	1018	1018	1015	1015	1012	1007	1007	1002	999	996	994	991	991	988	986	986	983	983	981	981	981	981	0	0	0	0	0	0	0	986	986	986	988	988	991	994	996	999	1002	1004	1010	1012	1018	1023	1026	1032	1032	1035	1035	1035	1032	1032	1029	1029	1029	1026	1026	1026	1023	1023	1023	1023	1023	1023	1023	1023	1021	1021	1021	1021	1021	0	0	0	0	0	0	0	0	0	0	0	0	0	0	0	0	0	0	0	0	0	0	0	0	0	0	0	0	0	0	0	0	0	0	1043	1043	1046	1049	1052	1052	1052	1055	0	0	0	0	0	0	0	0	0	0	0	0	0	0	0	0	0	0	0	0	0	0	0	0	0	0	0	0	0	0	0	0	0	0	540	538	537	536	534	533	531	530	528	528	526	525	524	523	522	521	520	520	519	518	517	517	516	515	515	514	513	512	512	510	510	509	508	508	507	506	506	506	506	506	506	506	506	506	506	506	506	506	506	506	506	506	506	506	506	506	506	506	506	507	507	508	508	508	508	508	508	509	509	509	510	510	510	511	512	513	515	515	517	517	519	520	520	521	522	522	0	0	0	0	0	0	0	0	0	0	0	0	0	0	961	961	961	961	961	963	965	968	973	976	978	983	988	994	996	1002	1004	1004	1007	1007	1007	1007	1004	1002	1002	999	996	994	994	991	991	988	988	986	986	986	986	986	988	988	988	991	991	994	996	996	999	999	1002	1004	1004	1002	999	996	994	988	983	978	976	973	973	973	973	976	976	983	986	988	991	996	999	1002	1004	1007	1010	1012	1012	1015	1015	1015	1015	1015	1012	1012	1012	1012	1012	1010	1010	1010	1010	1010	1010	1012	1010	1010	1010	1010	1007	1007	1004	1004	1002	999	996	991	988	986	981	978	976	973	970	970	970	970	973	973	978	981	988	991	991	996	999	1004	1007	1010	1012	1015	1021	1023	1029	1032	1038	1038	1035	1035	1029	1026	1023	1023	0	1015	1012	1012	1015	1015	1015	1015	1012	1012	1012	1012	1012	1012	1012	1015	1015	1015	1018	1021	1021	1023	1026	1029	1032	1035	1038	1038	1041	1041	1043	1043	1043	1043	1043	1043	0	0	0
2997	3021	3021	3021	3021	3021	3021	3046	3046	3070	3070	3070	3070	3070	3070	3096	3096	3096	3096	3096	3096	3096	3070	3070	3070	3070	3046	3021	3021	2997	2973	2973	2950	2927	2927	2927	2904	2904	2904	2904	2927	2927	2927	2927	2927	2950	2973	2973	2973	2973	2950	2950	2950	2927	2927	2927	2927	2904	2904	2904	2882	2882	2860	2860	2860	2860	2860	2838	2838	2838	2838	2838	2838	2838	2838	2838	2860	2860	2882	2904	2927	2950	2997	3021	3046	3070	3122	3148	3202	3257	3286	3345	3405	3469	3501	3568	3637	3709	3746	3784	3862	3902	3902	3943	3943	3985	4028	4028	4072	4072	4028	4028	4028	4028	4028	3985	3943	3862	3822	3784	3784	3746	3709	3709	3746	3746	3784	3862	3902	3985	3985	4028	4072	4072	4072	4072	4072	4028	4028	3985	3943	3902	3862	3822	3822	3822	3784	3784	3784	3784	3822	3822	3862	3862	3902	3902	3943	3943	3943	3943	3902	3902	3902	3902	3862	3862	3822	3822	3822	3784	3784	3784	3784	3784	3784	3784	3822	3822	3822	3862	3902	3943	3985	4028	4072	4116	4162	4209	4257	4356	4407	4513	4568	4683	4803	4865	4929	5062	5132	5203	5276	5276	5351	5351	5351	5351	5276	5276	5203	5203	5203	5132	5132	5132	5062	5062	4995	4929	4929	4865	4803	4803	0	0	0	0	0	0	0	0	0	0	0	0	0	0	0	0	0	0	0	0	0	0	0	0	0	0	0	0	0	0	0	586	584	583	583	582	581	581	580	580	580	579	579	579	580	580	581	581	582	582	583	583	583	583	583	583	583	583	583	583	583	583	583	583	582	582	582	582	582	583	583	583	583	584	584	585	585	586	586	587	588	588	588	589	589	590	590	590	590	590	591	591	592	592	594	0	0	0	0	0	0	0	0	0	0	0	0	0	0	6243	6243	6349	6349	6459	6459	6459	6572	6572	6572	6572	6572	6572	6572	6459	6459	6459	6459	6459	6459	6459	6459	6459	6572	6572	6572	6572	6689	6689	6689	6689	6689	6689	6689	6689	6689	6572	6572	6572	6459	6349	6349	6349	6243	6243	6141	6141	6141	6243	6141	6141	6141	6042	6042	6042	6042	6042	6042	6042	6042	6042	6141	6141	6243	6243	6243	6349	6349	6349	6349	6349	6349	6459	6349	6349	6349	6349	6349	6349	6349	6349	6349	6349	6459	6459	6459	6572	6572	6689	6811	6811	6937	6937	7068	7204	7204	7345	7492	7492	7492	7645	7492	7345	7204	7068	6937	6811	6689	6572	6459	6349	6243	6141	6141	6042	5946	5853	5853	5853	0	0	0	0	0	0	0	0	0	0	0	0	0	0	0	0	0	0	0	0	0	0	0	0	0	0	0	0	0	0	0	0	0	0	0	0	0	0	0	0	983	983	986	988	988	991	991	991	988	988	986	983	983	983	983	983	983	986	986	988	994	996	999	1004	1007	1007	1010	1004	1002	1002	999	996	996	994	991	988	988	986	986	983	983	983	983	983	983	983	983	986	986	988	988	994	994	996	999	1004	1007	1007	1012	1012	1015	1018	1018	1015	1012	1012	1007	1004	1002	1002	999	996	994	991	988	988	986	986	983	983	981	981	983	0	0	0	0	0	0	0	991	991	991	991	994	994	996	999	1002	1007	1010	1012	1021	1023	1029	1035	1035	1038	1038	1038	1038	1035	1032	1032	1029	1029	1026	1026	1026	1026	1026	1023	1023	1023	1023	1023	1023	1023	1023	1023	1021	1021	0	0	0	0	0	0	0	0	0	0	0	0	0	0	0	0	0	999	999	0	0	0	0	0	0	0	0	0	0	0	0	0	0	0	1043	1043	1046	1049	1049	1052	1052	1052	0	0	0	0	0	0	0	0	0	0	0	0	0	0	0	0	0	0	0	0	0	0	0	0	0	0	0	0	0	0	0	0	0	0	540	538	537	536	534	533	531	530	528	528	526	525	524	523	522	522	521	520	520	519	518	517	516	516	515	514	513	512	511	510	510	509	508	507	507	506	506	506	506	506	506	506	506	506	506	506	506	506	506	506	506	506	506	506	506	506	506	506	506	507	507	508	508	508	508	508	508	509	509	510	510	510	511	512	512	514	515	516	517	518	519	520	521	522	522	523	0	0	0	0	0	0	0	0	0	0	0	0	0	0	961	961	961	963	963	965	968	970	973	976	978	983	988	994	994	999	1002	1004	1004	1004	1004	1004	1004	1002	999	999	996	994	994	991	991	991	988	988	988	988	988	988	988	991	991	994	996	996	1002	1002	1002	1004	1007	1007	1004	1002	999	996	991	986	983	978	976	973	973	973	973	976	978	983	986	991	994	999	1004	1007	1010	1010	1012	1015	1015	1015	1015	1015	1012	1012	1010	1010	1010	1007	1007	1010	1007	1007	1007	1007	1007	1010	1010	1010	1010	1010	1010	1007	1007	1004	1004	1002	996	994	991	986	983	981	976	973	973	973	973	973	976	978	981	986	991	991	994	999	1002	1004	1010	1012	1015	1023	1026	1035	1041	1043	1049	1049	1049	1049	1046	1043	1043	0	0	0	1018	1018	1018	1018	1015	1015	1015	1015	1012	1012	1012	1015	1015	1015	1015	1018	1018	1021	1023	1026	1029	1032	1035	1038	1041	1041	1043	1043	1043	1046	1043	1043	1043	1043	0	0	0
2997	3021	3021	3021	3021	3021	3021	3046	3046	3070	3070	3070	3070	3070	3070	3096	3096	3096	3096	3096	3096	3096	3096	3070	3070	3070	3046	3046	3021	2997	2973	2973	2973	2950	2927	2927	2904	2904	2904	2904	2927	2927	2927	2950	2950	2950	2973	2973	2973	2950	2950	2950	2927	2927	2927	2927	2904	2904	2882	2882	2860	2860	2838	2838	2817	2817	2817	2817	2817	2817	2796	2796	2796	2817	2817	2817	2838	2860	2860	2904	2904	2950	2973	2997	3021	3046	3096	3148	3175	3229	3286	3315	3375	3437	3501	3534	3602	3673	3709	3784	3822	3862	3902	3943	3943	3943	3985	4028	4028	4028	4028	4028	4028	4028	3985	3943	3862	3822	3784	3746	3709	3673	3637	3637	3673	3673	3709	3746	3822	3862	3902	3943	3985	4028	4072	4028	4028	4028	4028	3985	3943	3943	3862	3862	3862	3822	3822	3822	3822	3822	3822	3862	3902	3902	3902	3943	3985	3985	3985	3985	3943	3943	3943	3902	3902	3862	3862	3822	3822	3822	3822	3822	3822	3822	3822	3822	3822	3822	3862	3902	3902	3943	3985	4028	4072	4116	4162	4162	4257	4306	4356	4407	4513	4625	4683	4742	4865	4929	4995	5132	5203	5203	5203	5276	5276	5276	5276	5203	5203	5132	5132	5062	5062	5062	5062	4995	4995	4929	4929	4929	4865	4865	4865	0	0	0	0	0	0	0	0	0	0	0	0	0	0	0	0	0	0	0	0	0	0	0	0	0	0	0	0	0	0	587	585	585	583	583	583	582	581	581	581	580	580	580	581	581	582	583	583	583	584	585	585	585	585	585	585	585	585	584	584	584	583	583	583	583	583	583	583	583	583	583	583	584	584	585	585	586	586	587	587	588	588	589	589	590	590	590	590	590	590	591	591	592	593	0	0	0	0	0	0	0	0	0	0	0	0	0	0	0	6349	6349	6459	6459	6572	6572	6572	6572	6572	6572	6572	6572	6572	6572	6572	6572	6572	6572	6572	6572	6572	6572	6572	6572	6572	6689	6689	6811	6811	6811	6811	6811	6689	6689	6689	6572	6572	6459	6459	6349	6349	6349	6243	6243	6141	6141	6141	6243	6141	6141	6141	6141	6141	6042	6042	6042	6042	6141	6141	6141	6243	6243	6243	6243	6349	6349	6349	6349	6349	6349	6349	6349	6349	6349	6349	6349	6349	6349	6349	6349	6349	6349	6459	6459	6459	6572	6572	6689	6811	6811	6937	6937	7068	7204	7345	7345	7492	7492	7492	7492	7492	7492	7345	7204	7068	6937	6689	6689	6459	6459	6243	6243	6141	6042	5946	5946	5853	5853	0	0	0	0	0	0	0	0	0	0	0	0	0	0	0	0	0	0	0	0	0	0	0	0	0	0	0	0	0	0	0	0	0	0	0	0	0	0	978	978	981	983	983	986	988	988	991	991	991	988	988	986	986	986	986	988	988	991	991	996	999	1004	1007	1010	1012	1010	1010	1010	1010	1007	1004	1002	999	999	996	994	991	986	986	983	981	981	978	978	978	981	981	983	983	986	988	994	994	996	999	1004	1010	1010	1012	1012	1018	1018	1018	1015	1012	1010	1007	1004	1002	999	999	996	994	994	988	988	988	986	986	983	983	983	983	0	0	0	0	0	0	0	991	991	991	994	996	999	999	1002	1004	1007	1012	1018	1023	0	1038	1038	1038	1041	1041	1038	1038	1035	1032	1032	1029	1029	1026	1026	1026	1026	1026	1023	1023	1023	1023	1023	1026	1023	1023	1023	1023	1023	0	0	0	0	0	0	0	0	0	0	0	0	0	0	996	996	996	996	996	996	999	999	1002	1002	1004	1010	1012	1015	1021	1023	1026	1026	1029	1032	1038	1041	1043	1046	1049	1049	1052	1052	1052	1052	0	0	0	0	0	0	0	0	0	0	0	0	0	0	0	0	0	0	0	0	0	0	0	0	0	0	0	0	0	0	0	0	540	539	537	536	534	533	531	530	528	528	527	525	525	524	523	522	521	520	520	519	518	517	516	515	515	514	513	512	511	510	510	509	508	507	507	506	506	506	506	506	506	506	506	506	506	506	506	506	506	506	506	506	506	506	506	506	506	506	506	506	507	507	508	508	508	508	508	509	509	510	510	510	511	512	513	515	515	516	517	518	520	520	521	522	522	523	0	0	0	0	0	0	0	0	0	0	0	0	0	0	961	961	963	963	965	968	968	970	973	976	981	983	986	991	994	996	999	999	1002	1002	1002	1002	999	999	996	996	994	994	991	991	988	988	988	988	988	988	988	991	991	994	994	996	999	1002	1004	1004	1004	1007	1007	1007	1004	1002	996	994	988	986	981	976	973	970	970	973	973	976	978	983	986	991	994	999	1004	1004	1007	1010	1012	1012	1012	1012	1012	1012	1012	1010	1007	1007	1004	1004	1004	1004	1002	1002	1002	1004	1004	1007	1007	1007	1007	1010	1007	1007	1007	1004	1002	1002	999	994	991	988	983	981	976	976	976	973	973	973	976	981	983	988	991	994	996	999	1002	1004	1007	1015	1023	1029	1038	1043	1049	1055	1061	1064	1064	1064	0	0	0	0	0	0	0	0	0	1018	1018	1015	1015	1015	1015	1015	1015	1015	1015	1015	1015	1018	1021	1023	1023	1026	1032	1035	1038	1041	1043	1043	1046	1046	1046	1046	1046	1046	1046	0	0	0	0
2997	3021	3021	3021	3021	3021	3046	3046	3046	3070	3070	3070	3070	3070	3070	3096	3096	3096	3096	3096	3096	3096	3096	3096	3070	3070	3070	3046	3021	2997	2997	2973	2973	2950	2927	2927	2904	2904	2904	2904	2904	2927	2927	2950	2950	2950	2973	2973	2973	2950	2950	2927	2927	2927	2927	2904	2904	2882	2860	2860	2838	2838	2817	2817	2817	2817	2817	2796	2796	2796	2796	2796	2796	2796	2796	2817	2817	2838	2860	2882	2904	2927	2950	2973	2997	3046	3070	3122	3148	3202	3257	3315	3345	3405	3469	3534	3568	3637	3673	3709	3746	3784	3822	3862	3902	3943	3985	3985	3985	3985	3985	3985	3985	3985	3902	3862	3822	3784	3746	3673	3637	3602	3602	3602	3602	3602	3637	3673	3746	3784	3822	3862	3902	3943	3985	3985	3985	3985	3985	3985	3985	3943	3902	3902	3862	3862	3862	3822	3822	3862	3902	3902	3902	3943	3943	3985	3985	3985	3985	3985	3985	3985	3985	3943	3902	3902	3902	3902	3862	3862	3822	3822	3822	3822	3862	3862	3862	3902	3902	3943	3943	3985	4028	4028	4072	4116	4162	4162	4209	4209	4257	4306	4407	4513	4568	4625	4742	4803	4929	4995	5062	5132	5203	5203	5203	5203	5203	5203	5132	5132	5132	5062	5062	4995	4995	4995	4995	4929	4929	4929	4865	4865	4865	0	0	0	0	0	0	0	0	0	0	0	0	0	0	0	0	0	0	0	0	0	0	0	0	0	0	0	0	0	0	0	587	586	585	584	583	583	583	582	581	581	581	581	581	582	583	583	584	585	586	586	587	587	587	587	587	587	586	585	585	585	584	584	583	583	583	583	583	583	583	583	583	584	585	585	585	586	586	587	587	587	588	588	589	589	589	589	590	590	590	590	590	591	593	0	0	0	0	0	0	0	0	0	0	0	0	0	0	0	6459	6459	6459	6459	6572	6572	6572	6572	6572	6572	6572	6572	6572	6572	6572	6572	6572	6572	6572	6572	6572	6572	6689	6689	6689	6689	6811	6811	6811	6811	6811	6811	6689	6689	6572	6572	6572	6459	6459	6349	6349	6349	6243	6243	6141	6141	6243	6243	6243	6243	6141	6141	6141	6141	6141	6141	6141	6243	6243	6243	6243	6243	6349	6349	6349	6349	6349	6349	6349	6349	6349	6349	6349	6349	6349	6349	6349	6349	6349	6349	6349	6349	6349	6459	6459	6572	6572	6689	6811	6811	6937	6937	7068	7204	7204	7345	7345	7492	7492	7492	7492	7492	7345	7204	7068	6937	6811	6689	6572	6459	6349	6243	6141	6141	6042	5946	5853	5853	0	0	0	0	0	0	0	0	0	0	0	0	0	0	0	0	0	0	0	0	0	0	0	0	0	0	0	0	0	0	0	0	0	0	978	976	976	976	976	978	978	981	981	983	983	986	988	988	991	991	991	991	991	991	991	991	994	996	999	1002	1007	1010	1012	1012	1012	1015	1015	1015	1015	1012	1010	1007	1004	1002	999	996	991	988	986	983	981	981	978	978	978	981	981	981	983	986	991	994	0	0	1004	1004	1010	1010	1015	1015	1015	1018	1015	1015	1012	1010	1007	1004	1004	999	999	996	994	994	991	988	988	986	986	983	983	983	983	0	0	0	0	0	0	0	994	994	994	996	999	1002	1002	1007	1007	1012	1015	1021	0	0	1041	1041	1041	1041	1041	1038	1038	1035	1035	1032	1032	1029	1029	1029	1026	1026	1026	1026	1026	1026	1026	1026	1026	1026	1026	1026	1026	1026	0	0	0	0	0	0	0	0	0	0	0	0	0	999	996	996	996	996	996	996	996	999	999	1002	1004	1007	1007	1012	1015	1018	1021	1021	1026	1032	1035	1041	1043	1046	1049	1049	1049	1046	1046	1046	0	0	0	0	0	0	0	0	0	0	0	0	0	0	0	0	0	0	0	0	0	0	0	0	0	0	0	0	0	0	0	0	541	539	538	537	535	534	532	531	529	528	527	525	525	524	523	522	522	520	520	519	518	517	516	515	514	513	512	512	511	510	509	508	508	507	507	506	506	506	506	506	506	506	506	506	506	506	506	506	506	506	506	506	506	506	506	506	506	506	506	506	507	507	508	508	508	508	508	509	510	510	510	510	511	512	513	515	516	517	517	519	520	520	522	522	522	523	0	0	0	0	0	0	0	0	0	0	0	0	0	0	965	965	968	968	968	968	968	970	976	978	981	983	986	991	991	994	994	994	996	996	996	996	996	996	994	994	994	991	991	991	988	988	988	988	988	988	988	991	991	994	994	996	999	1002	1002	1004	1004	1004	1007	1004	1002	999	996	991	986	983	978	976	973	970	970	973	973	976	978	983	986	988	991	996	1002	1002	1004	1007	1007	1010	1010	1010	1010	1007	1007	1004	1004	1002	1002	1002	999	999	999	999	999	999	1002	1002	1004	1004	1004	1007	1007	1007	1004	1004	1002	999	996	994	991	986	981	981	976	976	973	973	973	973	976	981	983	991	991	994	996	999	1002	1004	1007	1018	1026	1032	1041	1049	1058	1064	1070	1073	0	0	0	0	0	0	0	0	0	0	0	0	1018	1018	1018	1015	1015	1015	1015	1018	1018	1018	1018	1021	1023	1023	1026	1029	1032	1035	1041	1043	1046	1046	1049	1049	1049	1049	1049	1049	1049	0	0	0	0
