1342	1342	1343	1344	1346	1348	1350	1353	0	1357	1360	1364	1368	1373	1377	1380	1382	1385	1387	1390	1392	1393	1394	1395	1396	1397	1398	1398	1398	1399	1400	1401	1401	1402	1403	0	0	0	0	0	0	0	0	0	0	0	0	1989	1987	1985	1983	1980	1976	1968	1958	1950	1941	1918	1907	1898	1890	1885	1881	1881	1878	1876	1876	1876	1878	1878	1880	1880	1881	1885	1889	1890	1894	1901	1912	1929	1944	1966	1983	0	2000	2020	2035	2043	2049	2054	2058	2058	2058	2060	2062	2064	2064	2066	2069	2073	2075	2080	2082	2082	2082	2086	2084	2086	2086	2084	2082	2082	2080	2077	2075	2075	2075	2077	2077	2077	2077	2077	2073	2071	2066	2064	2062	2062	2060	2060	2062	2062	2064	2069	2071	2071	2073	2075	2077	2080	2084	2084	2084	2084	2082	2082	2082	2080	2080	2077	2077	2080	2080	2077	2077	2077	2075	2075	2075	2075	2075	2075	2073	2071	2071	2066	2064	2066	2066	2066	2069	2069	2071	2071	2073	2075	2073	2073	2071	2071	2071	2071	2073	2073	2073	2075	2077	2077	2077	2080	2082	2082	2084	2086	2088	2088	2088	2088	2091	2091	2093	2093	2095	2095	2097	2097	2099	2099	2099	2099	2097	2095	2095	2093	2093	2088	2086	2084	2082	2082	2080	2077	2077	2077	2080	2082	2084	2086	2088	2093	2095	2095	2097	2095	2095	2091	2088	2082	2077	2075	2073	2066	2064	2060	2058	2056	2051	2047	2047	2045	2039	2037	2035	2030	2028	2024	2020	2020	2020	2022	2024	2026	2032	2037	2041	0	2047	2054	2060	2064	2069	2073	2077	2080	2084	2084	2086	2086	2088	2088	2088	2088	2086	2086	2088	2088	2088	2088	2088	2088	2088	2088	2088	2086	2084	2084	2084	2082	2082	2080	2077	2077	2077	2077	2077	2077	2080	2082	2086	2088	2091	2093	2093	2095	2097	2097	2099	2097	2097	2099	2099	2099	2099	2097	2097	2095	2095	2093	2093	2093	2093	2093	2093	2093	2093	2093	2093	2093	2091	2091	2091	2088	2088	2086	2086	2084	2082	2080	2077	2075	2075	2073	2073	2071	2069	2066	2066	2064	2054	2047	2045	2041	2037	2030	2026	2022	2020	2018	2016	2016	2018	2020	2020	2024	2026	2028	2028	2030	2030	2028	2028	2028	2024	2022	2016	2012	2006	2006	2006	2006	2010	2014	2018	2022	2030	2037	2039	2045	2049	0	2054	2058	2060	2062	2064	2066	2069	2071	2075	2075	2075	2075	2075	2075	2075	2073	2073	2073	2071	2071	2066	2066	2064	2064	2064	2066	2066	2069	2069	2069	2069	2069	2064	2062	2062	2060	2058	2056	2058	2058	2058	2060	2060	2060	2060	2060	2060	2060	2060	2062	2062	2064	2066	2069	2071	2071	2073	2075	2077	2077	2080	2080	2080	2077	2077	2077	2075	2071	2069	2066	2066	2066	2066	2066	2066	2066	2069	2069	2069	2071	2071	2069	2069	2066	2069	2071	2073	2075	2073	2073	2073	2071	2069	2054	2047	2041	2041	2041	2047	2049	2051	2056	2056	2060	2064	2066	2066	2066	2069	2073	2073	2073	2073	2071	2069	2066	2062	2058	2054	2049	2045	2041	2041	2037	2039	2037	2039	2037	2039	2037	2039	2037	2039	2039	2039	2043	2047	2054	2062	2069	2077	2084	2091	2097	2099	2099	2099	2099	2102	2102	2102	2102	2102	2102	2102	2102	2102	2102	2102	2104	2106	2106	2108	2111	2111	2113	2113	2113	2113	2113	2115	2113	2115	2115	2115	2113	2115	2117	2120	2122	2122	2124	2124	2124	2127	2124	2124	2122	2122	2120	2117	2113	2108	2104	2099	2095	2091	2084	2082	2077	2073	2071	2069	2069	2066	2066	2066	2066	2064	2064	2066	2066	2069	2069	2071	2073	2077	2082	2084	2088	2091	2093	2097	2099	2102	2104	2104	2106	2108	2111	2113	2113	2111	2111	2111	2113	2113	2111	2108	2104	2104	2099	2097	2093	2088	2086	2082	2080	2080	2080	2080	2077	2080	2082	2082	2084	2084	2084	2086	2086	2086	2088	2088	2091	2091	2093	2095	2095	2097	2097	2097	2099	2102	2102	2104	2104
1339	1338	1338	1338	1339	1341	1344	1347	1350	1354	0	1360	1364	1370	1375	1379	1382	1385	1388	1391	1392	1393	1395	1396	1396	1397	1397	1397	1398	1398	1399	1399	1401	0	0	0	0	0	0	0	0	0	0	0	0	0	1996	1993	1991	1991	1989	1985	1981	1976	1968	1956	1946	1922	1909	1900	1892	1885	1881	1880	1878	1876	1876	1874	1874	1874	1876	1878	1880	1881	1885	1887	1892	1901	1914	1931	1950	1974	0	1991	2008	2024	2039	2047	2054	2056	2058	2060	2060	2062	2064	2064	2064	2066	2069	2071	2073	2075	2077	2077	2077	2080	2080	2082	2080	2080	2077	2077	2075	2073	2073	2075	2075	2077	2077	2077	2077	2077	2073	2069	2062	2062	2058	2056	2056	2056	2056	2058	2060	2064	2066	2069	2071	2073	2077	2080	2082	2082	2082	2080	2080	2077	2077	2077	2077	2077	2077	2080	2077	2080	2077	2077	2077	2075	2075	2075	2073	2071	2071	2069	2069	2064	2064	2062	2064	2064	2066	2066	2066	2069	2071	2071	2071	2071	2069	2071	2071	2071	2071	2073	2075	2077	2077	2080	2080	2082	2082	2084	2084	2086	2088	2088	2086	2088	2088	2086	2086	2086	2086	2088	2088	2088	2091	2091	2093	2093	2091	2088	2091	2088	2086	2086	2084	2082	2082	2080	2077	2077	2077	2077	2080	2082	2084	2086	2088	2093	2095	2093	2093	2093	2091	2086	2077	2075	2073	2069	2066	2062	2058	2054	2051	2051	2049	2045	2043	2041	2037	2032	2030	2028	2026	2024	2020	2018	2020	2020	2022	2026	2028	2035	2039	2045	0	2051	2056	2062	2069	2073	2075	2080	2084	2086	2088	2088	2091	2091	2091	2088	2091	2088	2088	2088	2088	2088	2088	2088	2088	2086	2086	2086	2084	2084	2082	2080	2080	2075	2075	2075	2075	2073	2073	2073	2075	2077	2082	2084	2084	2088	2088	2088	2091	2091	2093	2091	2091	2093	2095	2095	2097	2095	2095	2093	2093	2091	2091	2091	2091	2093	2093	2091	2091	2088	2088	2086	2086	2086	2084	2084	2084	2082	2080	2077	2075	2073	2071	2071	2071	2069	2069	2066	2060	2060	2056	2051	2049	2043	2039	2035	2028	2024	2020	2016	2016	2016	2016	2016	2016	2020	2022	2024	2028	2032	2032	2035	2035	2037	2037	2035	2032	2030	2028	2026	2016	2016	2012	2014	2016	2018	2020	2024	2030	2035	2039	2043	2045	2049	2054	2058	2058	2060	2062	2064	2066	2069	2071	2073	2075	2075	2075	2075	2073	2073	2073	2071	2071	2071	2066	2066	2066	2066	2066	2069	2069	2071	2071	2071	2071	2069	2069	2066	2064	2062	2062	2062	2062	2064	2064	2066	2066	2069	2066	2066	2066	2066	2066	2069	2066	2069	2073	2075	2077	2080	2082	2082	2084	2084	2086	2086	2084	2080	2080	2080	2075	2073	2069	2066	2064	2066	2064	2064	2066	2066	2066	2069	2071	2071	2071	2066	2066	2066	2066	2066	2066	2066	2062	2060	2058	2049	2043	2032	2028	2022	2018	2024	2026	2028	2032	2037	2041	2045	2049	2056	2056	2058	2062	2064	2066	2069	2066	2064	2062	2058	2054	2051	2047	2037	2037	2037	2037	2037	2037	2035	2037	2035	2035	2032	2032	2032	2032	2032	2035	2039	0	2045	2051	2060	2069	2077	2088	2095	2099	2099	2102	2099	2102	2104	2104	2102	2102	2102	2102	2102	2102	2099	2102	2104	2104	2106	2106	2108	2111	2111	2111	2111	2113	2113	2111	2113	2115	2113	2113	2113	2115	2115	2117	2117	2120	2120	2120	2120	2120	2117	2115	2115	2115	2113	2111	2106	2104	2099	2097	2091	2088	2084	2080	2077	2073	2073	2071	2071	2069	2069	2069	2066	2064	2064	2064	2064	2064	2064	2066	2069	2071	2075	2080	2082	2086	2088	2091	2095	2099	2099	2102	2106	2108	2111	2113	2113	2111	2113	2113	2113	2115	2111	2111	2106	2106	2102	2099	2095	2093	2088	2086	2084	2082	2080	2080	2077	2077	2077	2077	2080	2080	2080	2082	2082	2084	2086	2086	2088	2091	2093	2093	2095	2099	2099	2099	2102	2102	2102	2104	2104
1338	1335	1333	1333	1333	1334	1336	1338	1341	1346	1351	1358	0	1364	1370	1376	1381	1385	1388	1391	1392	1394	1394	1396	1396	1397	1397	1397	1398	1398	1399	0	0	0	0	0	0	0	0	0	0	0	0	0	0	1998	1998	1998	1998	1996	1996	1993	1991	1983	1976	1968	1954	1944	1916	1903	1894	1887	1883	1880	1878	1876	1876	1874	1873	1873	1876	1876	1878	1880	1881	1887	1890	1901	1916	1933	1954	1980	0	1998	2014	2030	2043	2049	2054	2056	2060	2060	2060	2062	2064	2064	2064	2066	2066	2069	2069	2071	2071	2071	2073	2075	2073	2075	2075	2073	2073	2073	2069	2069	2071	2071	2073	2075	2075	2075	2073	2073	2071	2066	2060	2058	2054	2051	2051	2051	2051	2054	2056	2062	2064	2066	2071	2073	2077	2080	2082	2082	2080	2077	2075	2073	2073	2075	2075	2075	2077	2077	2080	2080	2082	2080	2077	2075	2075	2073	2073	2071	2066	2066	2064	2062	2060	2058	2058	2060	2060	2062	2064	2064	2066	2066	2066	2066	2066	2069	2069	2071	2071	2073	2075	2077	2080	2080	2082	2082	2084	2086	2086	2086	2086	2086	2086	2086	2086	2084	2084	2084	2084	2084	2084	2084	2084	2084	2084	2084	2084	2084	2084	2084	2084	2082	2082	2080	2080	2080	2077	2075	2077	2080	2080	2082	2082	2084	2086	2088	2091	2091	2088	2086	2084	2077	2073	2069	2066	2064	2060	2058	2054	2051	2049	2045	2043	2043	2041	2039	2037	2035	2032	2030	2026	2024	2020	2020	2020	2020	2022	2026	2028	2035	2037	2045	0	2049	2056	2060	2066	2071	2075	2080	2084	2086	2088	2088	2091	2091	2093	2093	2091	2091	2091	2088	2088	2088	2088	2088	2088	2086	2086	2084	2082	2082	2080	2080	2075	2075	2073	2071	2071	2071	2071	2071	2071	2073	2075	2080	2082	2082	2084	2084	2084	2084	2086	2086	2086	2086	2088	2088	2091	2093	2091	2093	2091	2091	2091	2091	2091	2091	2091	2088	2088	2086	2084	2082	2082	2080	2077	2075	2075	2073	2073	2071	2069	2066	2066	2064	2058	2058	2058	2056	2056	2051	2049	2045	2043	2037	2032	2028	2024	2020	2016	2016	2012	2014	2014	2014	2016	2018	2022	2026	2032	2037	2037	2039	2041	2043	2041	2041	2039	2039	2035	2035	2030	2026	2022	2022	2022	2024	2026	2028	2030	2035	2037	2039	2043	2047	2049	2054	2056	2060	2062	2064	2066	2066	2071	2073	2073	2073	2075	2075	2073	2073	2073	2071	2071	2069	2069	2066	2069	2069	2069	2071	2071	2073	2073	2075	2075	2073	2073	2071	2069	2069	2066	2069	2069	2069	2071	2073	2073	2073	2073	2073	2073	2073	2073	2075	2075	2077	2080	2082	2086	2091	2091	2093	2093	2095	2095	2095	2088	2084	2084	2080	2075	2071	2069	2064	2062	2064	2062	2062	2064	2064	2064	2066	2066	2069	2066	2064	2064	2062	2060	2060	2056	2051	2041	2037	2030	2026	2022	2014	2008	2004	2002	2006	2008	2014	2018	2024	2028	2032	2039	2043	2047	2049	2051	2056	2058	2058	2056	2056	2049	2037	2035	2032	2030	2028	2028	2028	2028	2028	2028	2030	2028	2030	2028	2026	2026	2026	2026	2026	2028	2030	2035	0	2045	2051	2062	2071	2084	2093	2099	2099	2102	2102	2102	2102	2102	2099	2102	2102	2099	2099	2099	2099	2102	2102	2102	2104	2104	2106	2108	2108	2111	2111	2111	2111	2111	2111	2113	2113	2113	2113	2113	2115	2115	2115	2115	2115	2115	2113	2113	2111	2111	2108	2108	2106	2104	2102	2097	2095	2093	2088	2086	2084	2080	2080	2077	2075	2075	2073	2073	2073	2071	2069	2066	2066	2064	2062	2062	2064	2062	2064	2066	2071	2073	2077	2080	2084	2088	2091	2095	2097	2099	2104	2106	2111	2113	2113	2113	2115	2115	2115	2115	2113	2111	2108	2106	2102	2099	2095	2093	2088	2086	2082	2080	2080	2077	2075	2075	2073	2073	2075	2075	2075	2077	2080	2082	2082	2084	2086	2088	2091	2095	2097	2099	2102	2102	2104	2104	2106	2106	2106
1332	1329	1327	1326	1325	1326	1327	1329	1332	1337	1342	1349	1357	0	1365	1372	1379	1384	1388	1391	1392	1394	1395	1396	1396	1397	1397	1398	1397	1398	0	0	0	0	0	0	0	0	0	0	0	0	0	0	1998	1998	2002	2002	2002	2002	2000	2000	1998	1993	1985	1980	1970	1958	1944	1914	1905	1896	1890	1885	1881	1878	1878	1876	1874	1876	1874	1874	1874	1876	1881	1885	1892	1903	1920	1941	1962	1985	0	2002	2018	2032	2043	2049	2054	2058	2060	2060	2062	2062	2064	2064	2064	2064	2064	2064	2064	2066	2066	2066	2069	2069	2069	2069	2069	2069	2069	2066	2064	2064	2066	2066	2071	2071	2071	2073	2073	2071	2069	2064	2060	2058	2056	2054	2054	2051	2054	2056	2060	2064	2066	2069	2071	2075	2077	2082	2080	2080	2077	2075	2073	2073	2073	2073	2073	2073	2073	2075	2075	2077	2077	2075	2075	2073	2071	2071	2071	2069	2066	2064	2062	2058	2056	2056	2056	2056	2058	2058	2060	2062	2064	2064	2064	2064	2064	2066	2069	2071	2071	2073	2077	2080	2082	2084	2084	2084	2084	2086	2088	2086	2086	2084	2084	2084	2082	2082	2082	2082	2082	2082	2082	2080	2080	2082	2082	2082	2082	2080	2082	2082	2082	2082	2082	2082	2080	2080	2080	2077	2080	2080	2082	2082	2082	2084	2084	2086	2086	2086	2084	2082	2077	2073	2066	2064	2060	2058	2054	2051	2051	2047	2045	2043	2043	2041	2041	2041	2037	2037	2035	2032	2030	2026	2024	2022	2022	2022	2026	2028	2030	2035	2039	2043	0	2049	2054	2060	2066	2071	2075	2080	2084	2084	2088	2091	2091	2093	2093	2093	2093	2091	2091	2091	2091	2088	2088	2088	2088	2088	2086	2084	2082	2080	2077	2077	2075	2073	2071	2071	2071	2069	2069	2069	2071	2071	2073	2075	2075	2077	2077	2077	2080	2080	2080	2080	2080	2080	2082	2084	2086	2088	2088	2091	2091	2091	2091	2091	2088	2088	2086	2084	2082	2080	2077	2075	2075	2073	2071	2069	2066	2066	2064	2064	2054	2054	2054	2054	2051	2054	2054	2049	2049	2047	2045	2041	2035	2030	2028	2024	2020	2016	2014	2014	2014	2014	2014	2016	2016	2020	2024	2028	2032	2037	2041	2045	2045	2047	2047	2047	2047	2045	2043	2043	2039	2039	2035	2032	2032	2030	2030	2032	2035	2035	2037	2041	2043	2045	2049	2054	2056	2058	2060	2064	2066	2069	2071	2073	2073	2075	2075	2075	2075	2075	2073	2071	2071	2069	2069	2069	2069	2069	2071	2073	2073	2075	2075	2075	2075	2075	2075	2073	2073	2073	2073	2073	2073	2073	2075	2075	2077	2077	2075	2075	2075	2075	2077	2077	2080	2082	2086	2091	2093	2095	2097	2099	2104	2104	2104	2102	2099	2091	2086	2082	2075	2071	2066	2062	2060	2060	2060	2060	2060	2060	2060	2062	2064	2064	2064	2062	2060	2056	2054	2051	2047	2032	2024	2020	2012	0	0	1998	1993	1987	1991	1993	1996	2002	2008	2014	2020	2024	2028	2037	2039	2041	2043	2045	2045	2035	2035	2032	2028	2028	2026	2024	2022	2022	2020	2020	2022	2020	2022	2022	2024	2022	2022	2020	2020	2020	2020	2020	2022	2024	2030	2037	2045	0	2054	2066	2080	2091	2097	2099	2099	2102	2102	2102	2102	2099	2099	2099	2099	2097	2097	2097	2099	2099	2099	2102	2102	2104	2106	2106	2108	2108	2108	2108	2108	2108	2108	2111	2111	2108	2108	2111	2111	2111	2111	2111	2108	2108	2106	2106	2104	2102	2102	2099	2097	2095	2095	2093	2088	2086	2084	2082	2082	2080	2080	2080	2080	2077	2077	2077	2077	2075	2071	2069	2066	2064	2062	2062	2062	2062	2064	2066	2071	2073	2077	2077	2084	2086	2091	2093	2097	2099	2102	2106	2111	2111	2111	2113	2115	2117	2115	2115	2113	2111	2108	2104	2102	2095	2093	2088	2084	2082	2080	2075	2075	2073	2069	2069	2069	2071	2071	2073	2075	2077	2080	2082	2084	2086	2088	2091	2095	2099	2102	2102	2104	2104	2106	2106	2108	2108
1326	1322	1319	1317	1316	1317	1318	1320	1322	1326	1332	1339	1348	1356	1364	1362	1373	1371	1378	1385	1389	1393	1394	1396	1397	1398	1398	0	0	0	0	0	0	0	0	0	0	0	0	0	1996	1998	2000	2000	2000	2002	2002	2004	2004	2006	2006	2006	2006	2002	1998	1991	1983	1976	1960	0	1920	1911	1903	1896	1890	1885	1883	1881	1876	1876	1874	1874	1873	1876	1878	1883	1892	1907	1925	1946	1968	0	1993	2008	2020	2035	2045	2051	2054	2056	2060	2062	2062	2062	2064	2064	2064	2062	2062	2060	2060	2060	2060	2060	2062	2062	2062	2064	2064	2062	2062	2062	2062	2062	2062	2066	2066	2069	2071	2071	2071	2071	2071	2066	2062	2060	2058	2056	2056	2056	2058	2060	2064	2066	2071	2071	2073	2075	2077	2080	2080	2077	2077	2075	2071	2071	2071	2071	2071	2071	2071	2071	2073	2073	2073	2071	2071	2071	2069	2069	2069	2064	2062	2060	2058	2056	2054	2054	2051	2054	2054	2056	2056	2058	2060	2060	2056	2058	2060	2062	2066	2069	2071	2073	2075	2080	2084	2086	2086	2086	2086	2086	2086	2084	2084	2084	2080	2080	2080	2077	2077	2077	2080	2080	2080	2080	2080	2077	2080	2077	2077	2077	2077	2080	2080	2080	2082	2082	2080	2080	2080	2080	2080	2082	2082	2082	2084	2082	2084	2082	2082	2080	2077	2071	2066	2062	2060	2056	2054	2051	2049	2047	2045	2043	2043	2043	2043	2041	2041	2041	2041	2039	2039	2035	2032	2030	2030	2028	2028	2028	2028	2032	2035	2039	2041	2045	0	2049	2056	2060	2064	2069	2073	2077	2082	2084	2086	2088	2091	2093	2091	2093	2093	2093	2093	2093	2091	2091	2091	2088	2091	2091	2088	2088	2086	2084	2082	2080	2077	2075	2073	2071	2071	2069	2069	2069	2069	2069	2071	2071	2073	2073	2073	2075	2075	2077	2075	2077	2077	2080	2080	2082	2084	2084	2086	2088	2091	2088	2086	2086	2086	2084	2082	2080	2077	2075	2071	2069	2066	2064	2062	2058	2049	2047	2047	2047	2047	2047	2047	2047	2045	2047	2045	2043	2041	2039	2037	2032	2028	2026	2024	2020	2018	2016	2014	2014	2014	2014	2016	2018	2020	2022	2026	2030	2035	2039	2043	2049	2051	2051	2051	2051	2051	2051	2047	2047	2043	2043	2039	2037	2037	2037	2037	2037	2039	2039	2041	2041	2043	2047	2049	2051	2054	2058	2060	2064	2066	2069	2071	2073	2075	2075	2075	2075	2075	2075	2073	2071	2069	2069	2069	2069	2069	2071	2071	2073	2075	2075	2075	2077	2077	2075	2075	2075	2075	2073	2073	2075	2075	2075	2075	2075	2077	2075	2077	2075	2077	2080	2082	2082	2084	2086	2091	2095	2102	2104	2106	2108	2113	2113	2113	2113	2106	2095	2091	2082	2075	2069	2064	2058	2056	2056	2054	2054	2054	2056	2054	2058	2058	2060	2060	2056	2056	2051	2047	2043	2026	2020	2012	2006	0	1993	1987	1983	1981	1978	1980	1981	1987	1989	1998	2006	2012	2018	2022	2028	2032	2028	2030	2030	2030	2030	2028	2026	2024	2022	2020	2020	2018	2018	2018	2018	2018	2018	2020	2018	2018	2020	2018	2018	2016	2016	2016	2016	2018	2020	2024	2032	2041	0	2049	2060	2073	2086	2095	2099	2099	2099	2099	2099	2099	2097	2097	2097	2097	2095	2097	2097	2097	2097	2097	2097	2099	0	2102	2104	2104	2104	2104	2106	2106	2106	2106	2106	2106	2106	2106	2106	2106	2106	2106	2106	2104	2102	2102	2099	2099	2097	2097	2095	2095	2093	2091	2091	2088	2086	2084	2084	2084	2082	2084	2084	2084	2084	2084	2084	2084	2080	2075	2073	2069	2066	2064	2062	2062	2062	2062	2064	2069	2069	2073	2075	2077	2082	2084	2086	2091	2095	2097	2102	2106	2108	2111	2111	2113	2115	2117	2115	2113	2111	2106	2102	2099	2093	2091	2084	2082	2077	2075	2071	2066	2066	2064	2064	2064	2064	2066	2069	2071	2073	2077	2080	2084	2086	2088	2091	2095	2099	2102	2104	2106	2106	2106	2108	2108	2111
1318	1314	1311	1308	1307	1307	1308	1309	1312	1315	1320	1327	1335	1330	1340	1350	1362	0	1370	1378	1384	1390	1394	1396	1397	0	0	0	0	0	0	0	0	0	0	0	1996	1993	1993	1996	1998	1998	2000	2002	2004	2004	2006	2006	2008	2008	2010	2012	2012	2010	2008	2004	1998	1989	1976	1964	0	1927	1918	1911	1901	1894	1890	1887	1880	1878	1876	1874	1874	1876	1880	1885	1894	1911	1931	1954	1978	0	2000	2014	2024	2037	2043	2049	2054	2056	2060	2060	2062	2062	2064	2062	2062	2060	2058	2058	2056	2056	2054	2054	2056	2056	2056	2056	2058	2058	2058	2058	2058	2058	2060	2062	2062	2064	2066	2069	2069	2069	2069	2066	2064	2062	2062	2060	2060	2060	2062	2062	2066	2071	2073	2073	2073	2077	2080	2080	2080	2080	2077	2075	2073	2071	2071	2071	2069	2069	2069	2069	2069	2071	2069	2069	2069	2066	2064	2064	2064	2062	2060	2058	2056	2054	2051	2049	2049	2049	2049	2051	2049	2049	2051	2051	2054	2054	2056	2058	2062	2066	2071	2073	2077	2082	2084	2084	2086	2086	2086	2084	2084	2082	2080	2077	2075	2075	2075	2075	2077	2077	2077	2077	2077	2077	2077	2077	2077	2075	2075	2075	2075	2077	2077	2077	2077	2077	2080	2080	2080	2080	2082	2082	2082	2082	2082	2080	2080	2077	2075	2071	2066	2062	2058	2056	2051	2049	2047	2045	2045	2043	2043	2043	2041	2041	2043	2043	2043	2043	2043	2043	2043	2041	2039	2039	2037	2035	2032	2032	2032	2035	2035	2039	2041	2043	2047	2051	2056	2060	2064	2066	2071	2075	2077	2080	2082	2086	2086	2088	2091	2091	2093	2093	2093	2093	2093	2093	2093	2093	2095	2093	2093	2093	2093	2091	2088	2086	2084	2080	2077	2073	2071	2069	2069	2066	2064	2066	2069	2069	2069	2069	2071	2071	2071	2071	2071	2071	2073	2075	2077	2080	2084	2084	2086	2088	2086	2086	2086	2084	2082	2080	2077	2073	2071	2066	2064	2051	2049	2045	2045	2041	2041	2039	2039	2037	2039	2037	2039	2039	2041	2041	2039	2039	2035	2032	2032	2030	2026	2024	2022	2020	2018	2016	2016	2016	2016	2018	2020	2020	2022	2026	2030	2035	2039	2043	2045	2049	2051	2054	2054	2054	2054	2051	2051	2051	2047	2043	2043	2041	2039	2039	2039	2039	2039	2041	2043	2043	2047	2047	2049	2054	2056	2058	2060	2064	2066	2069	2071	2073	2073	2075	2075	2075	2075	2075	2073	2073	2071	2071	2069	2071	2071	2071	2073	2073	2075	2075	2077	2077	2077	2077	2075	2075	2075	2075	2073	2075	2077	2077	2077	2077	2077	2077	2075	2075	2077	2082	2082	2086	2086	2093	2097	2102	2106	2111	2113	2117	2120	2120	2122	2117	2115	2108	2093	2084	2075	2069	2060	2056	2051	2049	2049	2049	2049	2049	2049	2051	2054	2054	2054	2054	2051	2047	2041	2028	2018	2010	0	1991	1983	1980	1976	1972	1972	1970	1974	1974	1980	1983	1991	2000	2008	2010	2014	2020	2024	2026	2028	2028	2028	2026	2026	2024	2022	2020	2020	2020	2020	2018	2018	2020	2018	2018	2018	2020	2018	2018	2018	2016	2016	2014	2014	2014	2014	2018	2022	2030	2037	2045	0	2058	2071	2082	2091	2095	2097	2097	2097	2097	2097	2097	2095	2095	2095	2095	2097	2097	2095	2095	2095	2095	2097	2097	2097	2099	2099	2099	2102	2102	2102	2102	2104	2104	2104	2104	2104	2104	2104	2104	2102	2102	2099	2097	2099	2097	2095	2095	2095	2093	2093	2091	2091	2088	2086	2086	2086	2084	2084	2084	2086	2086	2088	2088	2088	2088	2088	2084	2082	2077	2075	2071	2069	2066	2064	2064	2064	2066	2069	2069	2071	2071	2075	2077	2082	2084	2088	2091	2095	2097	2102	2104	2106	2108	2108	2113	2115	2113	2108	2106	2104	2099	2095	2091	2086	2080	2075	2071	2062	2058	2058	2054	2054	2054	2056	2056	2060	2066	2069	2073	2075	2080	2082	2086	2088	2091	2095	2099	2104	2106	2108	2108	2111	2113	2115	2115
1309	1305	1300	1300	1299	1299	1300	1293	1295	1299	1302	1308	0	0	0	1337	1348	1358	1367	0	1376	1384	1391	0	0	0	0	0	0	0	0	0	0	0	2000	2000	2000	1998	1998	1998	2000	2002	2004	2004	2006	2006	2008	2010	2012	2012	2014	2016	2016	2018	2016	2014	2010	2004	1993	1981	1970	1958	1933	1924	1914	1905	1898	1892	1887	1881	1880	1876	1876	1878	1880	1887	1898	1916	1939	1962	0	1985	2006	2016	2026	2037	2045	2049	2054	2056	2060	2060	2062	2062	2062	2060	2060	2056	2056	2051	2051	2049	2049	2049	2049	2051	2051	2049	2049	2051	2051	2051	2051	2054	2056	2058	2060	2062	2064	2066	2066	2066	2069	2066	2064	2064	2062	2062	2062	2062	2064	2064	2069	2071	2073	2073	2075	2080	2082	2082	2082	2080	2077	2075	2073	2071	2069	2069	2066	2064	2062	2062	2064	2064	2064	2062	2062	2062	2062	2062	2060	2058	2058	2054	2054	2051	2049	2047	2045	2045	2045	2045	2045	2047	2047	2047	2049	2051	2054	2056	2062	2066	2069	2073	2077	2082	2084	2084	2084	2084	2082	2080	2080	2077	2073	2073	2073	2073	2073	2073	2073	2075	2075	2077	2075	2077	2077	2075	2075	2073	2073	2071	2073	2073	2075	2075	2075	2075	2077	2077	2077	2077	2077	2080	2080	2080	2077	2075	2075	2073	2069	2062	2060	2056	2051	2049	2047	2045	2045	2045	2043	2043	2041	2041	2043	2043	2045	2045	2045	2047	2047	2047	2047	2047	2045	2043	2043	2041	2041	2041	2041	2041	2041	2043	2045	2047	2049	2054	2056	2058	2062	2064	2069	2071	2075	2077	2080	2082	2084	2086	2088	2088	2091	2091	2093	2093	2093	2095	2095	2097	2097	2099	2099	2099	2097	2097	2095	2093	2088	2084	2080	2077	2075	2071	2069	2069	2066	2066	2066	2066	2066	2066	2066	2066	2066	2069	2069	2071	2071	2073	2075	2077	2080	2082	2084	2086	2086	2084	2082	2082	2077	2077	2073	2064	2058	2054	2051	2045	2043	2039	2037	2035	2032	2030	2030	2030	2032	2032	2035	2035	2035	2037	2035	2035	2032	2030	2030	2028	2026	2022	2022	2020	2020	2020	2020	2020	2020	2022	2022	2024	2028	2030	2032	2037	2041	2047	2049	2051	2054	2054	2056	2056	2056	2056	2054	2051	2051	2047	2047	2045	2043	2043	2041	2043	2045	2045	2045	2045	2047	2049	0	2054	2056	2060	2062	2064	0	2069	2071	2073	2075	2075	2075	2075	2075	2075	2073	2073	2071	2071	2071	2071	2071	2073	2073	2073	2073	2073	2077	2077	2075	2075	2075	2075	2075	2073	2073	2075	2075	2075	2075	2075	2075	2075	2075	2075	2077	2080	2084	2088	2088	2095	2102	2106	2113	2115	2120	2122	2127	2129	2127	2127	2120	2115	2095	2086	2077	2069	2060	2054	2051	2047	2047	2045	2047	2045	2045	2047	2049	2049	2049	2047	2045	2043	2037	2024	2014	2004	1993	1985	1980	1974	1970	1968	1966	1966	1968	1972	1976	1980	1985	1993	2002	2008	2014	2020	2024	2024	2028	2028	2026	2028	2026	2024	2024	2022	2022	2020	2022	2022	2022	2022	2020	2020	2020	2020	2020	2018	2018	2018	2016	2016	2016	2016	2016	2018	2022	2026	2035	2043	0	2054	2066	2077	2086	2091	2093	2093	2093	2095	2095	2095	2095	2095	2095	2095	2095	2095	2095	2093	2093	2095	2095	2095	2095	2095	2097	2097	2097	2099	2099	2099	2099	2102	2102	2102	2102	2102	2102	2102	2099	2099	2099	2097	2097	2095	2095	2093	2093	2093	2091	2091	2088	2086	2086	2086	2086	2086	2086	2086	2088	2091	2091	2093	2093	2095	2093	2093	2086	2082	2080	2075	2073	2069	2066	2069	2066	2066	2069	2069	2071	2071	2073	2075	2077	2080	2082	2088	2091	2093	2097	2099	2102	2102	2106	2106	2108	2111	2108	2102	2097	2093	2088	2086	2080	2073	2069	2058	2054	2049	2047	2047	2045	2047	2049	2054	2056	2060	2066	2071	2075	2080	2082	2086	2088	2091	2095	0	2102	2106	2111	2113	2113	2115	2115	2117
1297	1295	1294	1287	1287	1287	1287	1288	1288	1290	1293	1297	1304	1313	0	0	0	1344	1354	1365	0	1378	0	0	0	0	0	0	0	0	0	0	2006	2006	2004	2002	2002	2002	2002	2002	2002	2004	2006	2008	2008	2010	2010	2014	2014	2016	2018	2020	2020	2022	2022	2020	2018	2014	2004	1996	1985	1972	1960	1937	1925	1916	1909	1900	1894	1889	1883	1880	1881	1881	1885	1890	1905	1924	1946	1968	0	1987	2008	2018	2028	2035	2045	2049	2051	2056	2056	2058	2058	2058	2058	2058	2056	2054	2051	2047	2047	2045	2045	2043	2045	2043	2043	2043	2043	2045	2045	2047	2047	2049	2051	2056	2058	2060	2062	2064	2066	2066	2069	2066	2066	2066	2064	2064	2064	2064	2066	2069	2071	2075	2075	2077	2077	2080	2082	2082	2082	2080	2077	2075	2073	2071	2066	2066	2060	2058	2058	2058	2058	2056	2058	2056	2056	2056	2058	2056	2054	2054	2054	2047	2047	2045	2045	2045	2043	2043	2043	2043	2043	2043	2045	2043	2045	2047	2049	2054	2060	2062	2064	2069	2073	2075	2077	2077	2077	2075	2073	2073	2069	2069	2069	2069	2066	2069	2066	2069	2071	2073	2073	2075	2077	2075	2075	2073	2073	2071	2069	2066	2066	2066	2071	2071	2073	2071	2073	2073	2075	2075	2075	2075	2077	2077	2075	2073	2071	2066	2060	2058	2054	2049	2047	2045	2043	2043	2043	2041	2043	2043	2041	2043	2043	2045	2047	2047	2047	2049	2049	2051	2051	2051	2051	2049	2047	2047	2045	2045	2045	2045	2045	2047	2047	2051	2051	2054	2056	2058	2060	2062	2064	2066	2069	2073	2075	2077	2080	2082	2084	2086	0	2091	2093	2093	2093	2095	2099	2099	2102	2104	2104	2106	2104	2102	2102	2097	2093	2091	2086	2082	2080	2075	2071	2069	2069	2069	2066	2066	2064	2064	2064	2064	2066	2069	2069	2066	2069	2071	2075	2077	2077	2082	2082	2084	2082	2082	2075	2073	2071	2069	2062	2058	2054	2049	2045	2041	2035	2032	2030	2026	2024	2024	2026	2026	2028	2030	2030	2032	2035	2035	2035	2032	2032	2030	2028	2028	2026	2026	2026	2024	2022	2022	2022	2022	2022	2024	2026	2028	2030	2032	2035	2039	2041	2047	2049	2051	2054	2054	2056	2056	2056	2056	2054	2054	2054	2051	2049	2049	2047	2047	2047	2047	2049	2049	2049	2049	2051	2054	2054	2056	2058	2060	2062	2064	2066	2069	2071	2073	2075	2075	2075	2075	2073	2071	2071	2071	2071	2071	2071	2071	2069	2069	2071	2069	2071	2071	2071	2073	2073	2073	2073	2073	2073	2073	2073	2075	2075	2073	2073	2073	2073	2073	2073	2073	2075	2077	2082	2086	2091	2097	2102	2111	2117	2122	2124	2129	2131	2133	2133	2131	2124	2117	2108	2088	2077	2069	2060	2054	2049	2047	2045	2045	2045	2045	2043	2045	2045	2047	2045	2045	2043	2039	2030	2022	2010	2002	1991	1983	1978	1972	1968	1966	1966	1966	1968	1972	1976	1983	1987	1996	2002	2006	2012	2018	2022	2026	2026	2026	2026	2028	2026	2026	2024	2024	2024	2024	2024	2024	2024	2024	2022	2022	2022	2020	2020	2018	2018	2020	2018	2018	2018	2018	2018	2020	2024	2030	2037	2043	0	2051	2062	2073	2082	2086	2088	2088	2091	2091	2093	2091	2093	2093	2093	2093	2093	2093	2093	2091	2091	2091	2091	2091	2091	2091	2091	2093	2093	2095	2095	2095	2097	2097	2099	2099	2099	2099	2099	2099	2097	2097	2097	2095	2095	2093	2093	2093	2091	2091	2091	2088	2088	2088	2086	2088	2088	2088	2088	2091	2091	2093	2095	2095	2097	2097	2099	2097	2095	2086	2082	2080	2075	2073	2071	2071	2071	2071	2069	2069	2071	2073	2073	2073	2075	2075	2080	2084	2086	2088	2091	2093	2095	2097	2099	2102	2104	2104	2099	2097	2093	2088	2084	2080	2073	2066	2056	2051	2049	2045	2043	2041	2041	2043	2045	2047	2054	2060	2066	2071	2073	2077	2082	2086	2088	2091	2095	0	2102	2106	2108	2111	2113	2115	2115	2117
1285	1285	1284	1284	1283	1282	1283	1283	1283	1284	1285	1288	1293	1301	1310	0	1319	1329	1339	1351	0	0	0	0	0	0	0	0	0	0	0	0	2010	2008	2006	2008	2006	2004	2004	2004	2006	2008	2006	2010	2012	2012	2014	2016	2018	2020	2022	2024	2024	2026	2026	2028	2026	2020	2014	2008	2000	1987	1978	1964	1954	1929	1920	1911	1901	1896	1890	1889	1887	1889	1894	1903	1916	1935	1954	1974	0	1989	2008	2018	2028	2037	2043	2047	2049	2051	2054	2054	2056	2056	2054	2054	2051	2049	2047	2045	2043	2041	2041	2041	2039	2039	2039	2039	2039	2041	2041	2043	2045	2047	2049	2054	2054	2058	2060	2062	2064	2066	2066	2064	2066	2066	2066	2066	2066	2069	2071	2073	2075	2075	2077	2077	2080	2080	2082	2082	2080	2080	2075	2073	2069	2066	2064	2062	2056	2054	2051	2051	2051	2049	2049	2049	2051	2051	2049	2045	2045	2045	2045	2045	2043	2043	2043	2041	2041	2039	2039	2039	2041	2041	2043	2041	2043	2045	2047	2051	2056	2058	2062	2064	2066	2069	2069	2069	2066	2064	2064	2062	2062	2062	2062	2062	2062	2062	2064	2066	2069	2071	2073	2075	2075	2075	2075	2073	2071	2069	2066	2064	2062	2064	2064	2066	2066	2069	2071	2071	2073	2073	2073	2073	2073	2073	2073	2071	2069	2064	2056	2054	2049	2045	2043	2043	2043	2041	2041	2041	2043	2041	2043	2045	2045	2047	2049	2049	2049	2051	2051	2054	2054	2054	2054	2051	2051	2051	2051	2049	2049	2047	2049	2049	2051	2051	2054	2054	2054	2056	2058	2058	2060	2064	2066	2069	0	2073	2077	2080	2082	2084	2088	2088	2093	2093	2097	2097	2099	2104	2106	2111	2111	2108	2108	2108	2106	2104	2099	2097	2091	2088	2086	2080	2077	2073	2071	2071	2066	2066	2066	2064	2064	2064	2064	2066	2066	2066	2069	2071	2073	2075	2075	2077	2075	2075	2075	2075	2073	2069	2066	2062	2058	2054	2047	2043	2039	2035	2030	2028	2024	2022	2020	2022	2024	2026	2026	2028	2028	2030	2032	2035	2035	2035	2032	2032	2030	2030	2030	2028	2028	2026	2026	2026	2028	2026	2026	2028	2028	2030	2032	2035	2037	2039	2041	2045	2047	2049	2051	2054	2056	2056	2058	2058	2058	2058	2056	2054	2054	2051	2051	2051	2051	2051	2051	2051	2054	2054	2054	2056	2056	2058	2058	2060	2062	2064	2066	2069	2071	2073	2073	2073	2073	2071	2071	2071	2071	2069	2066	2066	2066	2066	2064	2066	2066	2064	2064	2064	2064	2066	2066	2069	2069	2071	2069	2069	2069	2071	2071	2069	2069	2069	2069	2069	2069	2069	2073	2075	2080	2084	2088	2095	2104	2111	2117	2122	2127	2131	2133	2136	2136	2131	2127	2120	2111	2091	2080	2071	2062	2056	2051	2049	2047	2045	2045	2043	2041	2043	2043	2043	2043	2041	2039	2035	2028	2018	2008	2000	1991	1983	1978	1974	1970	1970	1968	1976	1978	1980	1983	1987	1991	1998	2002	2008	2012	2018	2024	2026	2026	2026	2026	2028	2028	2028	2028	2026	2024	2026	2026	2026	2026	2026	2026	2024	2024	2022	2022	2020	2020	2020	2020	2020	2020	2020	2020	2020	2024	2030	2035	2041	0	2049	2058	2066	2075	2077	2082	2084	2084	2084	2086	2088	2088	2088	2088	2088	2088	2091	2091	2088	2088	2088	2088	2088	2086	2086	2086	2086	2086	2088	2091	2091	2093	2095	2095	2097	2097	2097	2097	2097	2097	2095	2095	2095	2093	2095	2093	2093	2093	2091	2091	2091	2088	2088	2088	2091	2091	2091	2093	2095	2095	2097	2099	2102	2102	2102	2102	2102	2097	2093	2086	2084	2080	2077	2075	2073	2073	2073	2073	2071	2071	2071	2073	2073	2075	2075	2080	2082	2082	2086	2088	2091	2091	2093	2093	2097	2099	2099	2097	2093	2088	2084	2080	2073	2069	2062	2051	2047	2045	2043	2039	2039	2039	2041	2041	2047	2051	2054	2060	2064	2069	2077	2080	2084	2086	2088	2093	2097	0	2102	2106	2108	0	2113	2115	2117
1282	1281	1280	1279	1279	1279	1279	1279	1278	1279	1280	1282	1285	1290	1296	1304	0	0	0	0	0	0	0	0	0	0	0	0	0	0	0	2014	2012	2012	2010	2010	2008	2008	2006	2008	2008	2010	2012	2012	2014	2016	2018	2020	2020	2022	2024	2026	2028	2028	2030	2030	2028	2028	2022	2018	2010	2002	1991	1980	1968	1954	1931	1922	1911	1903	1900	1896	1896	1898	1901	1912	1927	1944	1964	0	1980	1993	2008	2018	2026	2032	2041	2043	2047	2049	2051	2051	2051	2051	2049	2049	2047	2045	2043	2041	2039	2037	2037	2035	2037	2035	2035	2037	2037	2039	2039	2041	2043	2045	2049	2051	2056	2058	2060	2062	2064	2064	2066	2066	2066	2066	2069	2069	2069	2069	2071	2073	2073	2075	2075	2075	2077	2077	2077	2080	2077	2073	2073	2071	2069	2064	2060	2056	2049	2049	2047	2047	2045	2043	2039	2039	2041	2041	2041	2041	2041	2041	2043	2043	2041	2041	2041	2041	2039	2039	2039	2039	2041	2041	2041	2041	2041	2045	2045	2049	2051	2054	2058	2058	2060	2060	2060	2060	2054	2054	2054	2054	2054	2054	2056	2056	2056	2060	2060	2064	2066	2069	2073	2075	2075	2075	2075	2073	2069	2066	2064	2060	2060	2062	2064	2064	2066	2066	2069	2069	2071	2069	2071	2071	2073	2073	2071	2069	2066	2062	2056	2051	2049	2045	2043	2043	2041	2039	2041	2041	2041	2043	2045	2047	2047	2049	2051	2051	2054	2054	2054	2056	2056	2056	2056	2056	2056	2054	2054	2051	2051	2049	2049	2051	2051	2051	2054	2054	2051	2054	2054	2056	2056	2058	2060	2062	2066	2069	2071	2075	2077	2080	2084	2086	2091	2093	2097	2099	2104	2106	0	2111	2113	2113	2113	2113	2111	2106	2104	2099	2097	2093	2091	2084	2080	2077	2075	2073	2071	2069	2069	2066	2064	2064	2064	2064	2064	2064	2066	2069	2069	2071	2071	2073	2073	2073	2073	2071	2069	2066	2062	2058	2054	2049	2043	2039	2037	2032	2028	2024	2022	2022	2020	2022	2022	2024	2026	2028	2030	2032	2035	2035	2035	2035	2032	2032	2032	2032	2032	2030	2030	2030	2032	2032	2032	2032	2032	2032	2035	2032	2035	2037	2039	2041	2043	2045	2047	2049	2051	2054	2056	2056	2058	2058	2058	2058	2058	2058	2058	2056	2056	2056	2056	2056	2056	2056	2056	2056	2056	2058	2058	2058	2058	2060	2062	2062	2066	2066	2069	2069	2069	2069	2069	2069	2066	2066	2066	2064	2064	2064	2064	2062	2062	2060	2060	2060	2060	2060	2060	2062	2062	2062	2064	2062	2064	2064	2064	2066	2066	2064	2062	2062	2062	2060	2062	2062	2066	2069	2073	2077	2086	2093	2102	2111	2115	2120	2127	2131	2131	2136	2133	2131	2124	2117	2111	2091	2080	2071	2064	2058	2054	2051	2049	2049	2047	2045	2041	2043	2043	2043	2039	2039	2037	2028	2024	2016	2010	2000	1993	1987	1981	1983	1980	1980	1980	1981	1983	1985	1989	1991	1996	2002	2006	2010	2014	2018	2024	2026	2028	2026	2028	2028	2028	2028	2028	2026	2026	2026	2028	2028	2028	2028	2026	2026	2024	2024	2022	2022	2020	2020	2020	2020	2020	2020	2022	2022	2026	2030	2035	2041	0	2047	2051	2060	2066	2071	2075	2075	2075	2077	2080	2082	2082	2084	2084	2084	2086	2086	2086	2086	2086	2084	2084	2084	2084	2082	2082	2082	2082	2084	2084	2086	2088	2091	2095	2095	2095	2095	2095	2095	2095	2095	2095	2095	2095	2093	2093	2093	2093	2093	2091	2093	2093	2091	2091	2093	2095	2095	2097	2097	2097	2102	2102	2104	2104	2104	2104	2102	2102	2097	2093	2086	2084	2080	2077	2077	2075	2075	2073	2073	2073	2073	2073	2075	2075	2077	2077	2080	2080	2082	2084	2086	2088	2088	2091	2091	2093	2093	2091	2088	2084	2080	2075	2069	2064	2051	2047	2043	2041	2039	2039	2037	2037	2037	2039	2043	2049	2051	2058	2062	2066	2073	2075	2080	2082	2082	2086	2093	2097	2099	2102	2106	2108	2111	0	2115
1279	1279	1279	1277	1277	1277	1276	1276	1275	1275	1276	1277	1279	1282	1286	1290	1295	0	0	0	0	0	0	0	0	0	0	0	0	0	0	2018	2016	2016	2014	2014	2012	2012	2010	2012	2012	2014	2014	2016	2016	2018	2020	2022	2024	2026	2026	2028	2030	2030	2032	2030	2030	2030	2026	2020	2016	2010	2000	1991	1980	1966	1943	1933	1924	1914	1911	1909	1907	1911	1918	1927	1941	1956	1972	0	1983	1998	2010	2018	2026	2032	2039	2041	2043	2047	2047	2047	2047	2047	2047	2045	2045	2043	2041	2037	2035	2035	2035	2035	2032	2032	2032	2035	2037	2037	2039	2041	2043	2047	2049	2051	2054	2056	2058	2058	2060	2062	2064	2062	2064	2064	2064	2066	2066	2066	2069	2071	2071	2073	2073	2073	2073	2073	2073	2073	2073	2071	2071	2069	2066	2062	2060	2051	2047	2045	2039	2037	2035	2035	2035	2037	2037	2037	2039	2039	2039	2041	2041	2041	2041	2041	2041	2039	2039	2039	2039	2039	2039	2039	2039	2039	2041	2041	2043	2047	2049	2049	2051	2051	2054	2054	2051	2047	2047	2047	2047	2047	2047	2049	2049	2051	2051	2054	2056	2060	2064	2066	2071	2073	2075	2075	2075	2073	2071	2066	2062	2062	2060	2060	2062	2064	2064	2064	2064	2069	2069	2069	2069	2069	2071	2071	2071	2066	2064	2058	2054	2051	2047	2043	2041	2041	2041	2039	2041	2041	2043	2045	2047	2047	2049	2054	2054	2056	2056	2056	2058	2058	2058	2058	2058	2056	2056	2056	2056	2054	2054	2051	2051	2051	2051	2051	2051	2051	2049	2049	2049	2051	2051	2054	2056	2056	2060	2062	2066	2071	2073	2077	2082	2084	2088	2093	0	2099	2104	2108	2111	2113	2115	2115	2113	2113	2111	2108	2104	2102	2097	2093	2091	2088	2084	2080	2077	2075	2073	2071	2069	2066	2064	2064	2064	2064	2062	2064	2064	2066	2066	2069	2069	2069	2069	2071	2069	2066	2064	2062	2058	2054	2049	2045	2041	2037	2032	2030	2028	2026	2024	2022	2022	2022	2024	2026	2028	2030	2032	2035	2037	2037	2035	2035	2035	2032	2035	2035	2035	2035	2035	2035	2035	2037	2037	2037	2037	2039	2037	2039	2039	2039	2041	2043	2043	2045	2047	2049	2049	2054	2056	2056	2058	2058	2060	2060	2060	2058	2058	2058	2058	2058	2056	2058	2058	2058	2058	2056	2056	2056	2056	2056	2056	2058	2060	2062	2064	2064	2066	2064	2066	2064	2064	2062	2062	2062	2062	2060	2060	2060	2060	2058	2056	2056	2056	2056	2054	2054	2054	2054	2054	2056	2058	2058	2060	2058	2058	2060	2058	2060	2058	2056	2056	2056	2056	2058	2060	2064	2066	2073	2080	2088	2097	2104	2113	2117	2122	2127	2129	2131	2131	2129	2122	2115	2106	2091	2082	2073	2066	2060	2058	2056	2054	2051	2049	2047	2045	2043	2043	2041	2039	2035	2032	2026	2022	2016	2014	2008	2004	1998	1993	1991	1989	1987	1987	1987	1989	1991	1993	1998	2002	2004	2008	2012	2014	2018	2022	2026	2026	2026	2026	2028	2028	2028	2028	2028	2028	2028	2028	2028	2026	2026	2026	2026	2026	2024	2022	2020	2020	2022	2020	2020	2022	2022	2024	2024	2026	2028	2035	2039	2043	2047	0	2056	2060	2064	2064	2066	2069	2071	2073	2075	2077	2080	2080	2080	2082	2084	2082	2084	2082	2084	2084	2082	2080	2080	2080	2080	2080	2082	2082	2082	2086	2091	2093	2095	2095	2095	2095	2097	2097	2097	2095	2095	2097	2095	2095	2095	2095	2095	2095	2095	2095	2097	2095	2097	2099	2099	2099	2102	2104	2106	2106	2106	2106	2106	2106	2104	2102	2099	2097	2088	2086	2084	2082	2080	2080	2077	2077	2075	2075	2075	2075	2075	2075	2075	2077	2080	2080	2082	2080	2082	2082	2084	2084	2084	2084	2084	2082	2080	2077	2075	2069	2064	2058	2047	2043	2041	2039	2037	2037	2037	2037	2039	2041	2045	2049	2054	2058	2062	2066	2069	2073	2075	2077	2077	2077	2082	2086	2091	2093	2097	2099	2104	2111	2113
1277	1276	1276	1275	1275	1275	1275	1275	1274	1275	1275	1275	1275	1278	1280	1283	0	0	0	0	0	0	0	0	0	0	0	0	0	0	0	2020	2018	2018	2018	2018	2016	2016	2016	2016	2016	2016	2018	2018	2020	2020	2022	2022	2024	2026	2028	2028	2030	2030	2032	2032	2032	2030	2026	2024	2020	2014	2006	1998	1987	1976	1964	1943	1935	1927	1922	1920	1922	1925	1931	0	1952	1966	0	1980	1991	2000	2010	2018	2024	2030	2037	2039	2041	2043	2045	2045	2043	2043	2043	2041	2041	2039	2037	2035	2032	2032	2032	2032	2030	2030	2032	2032	2035	2039	2041	2041	2045	2047	2049	2051	2051	2054	2056	2058	2060	2060	2060	2060	2062	2062	2062	2062	2064	2064	2066	2066	2066	2069	2066	2069	2069	2069	2069	2069	2069	2069	2066	2064	2062	2047	2047	2041	2037	2037	2035	2035	2030	2030	2032	2032	2035	2037	2037	2039	2039	2039	2041	2041	2041	2041	2041	2041	2039	2039	2039	2039	2039	2039	2039	2039	2039	2039	2043	2043	2047	2047	2047	2047	2047	2047	2043	2043	2041	2043	2043	2043	2045	2045	2045	2047	2049	2051	2054	2058	2062	2066	2071	2073	2075	2075	2075	2073	2069	2066	2062	2060	2060	2062	2062	2062	2062	2064	2064	2064	2066	2066	2066	2066	2069	2069	2069	2066	2064	2058	2054	2049	2047	2045	2043	2041	2041	2041	2041	2043	2045	2045	2047	2051	2054	2054	2056	2058	2058	2058	2058	2058	2058	2058	2058	2058	2056	2056	2056	2054	2054	2051	2051	2051	2049	2049	2049	2047	2045	2045	2047	2045	2047	2047	2049	2051	2054	2058	2060	2064	2069	2073	2077	2084	2091	2095	0	2102	2106	2111	2113	2115	2117	2115	2115	2113	2111	2108	2106	2102	2099	2095	2093	2088	2086	2082	2080	2077	2075	2073	2071	2069	2066	2064	2064	2064	2064	2062	2062	2064	2064	2066	2066	2066	2066	2066	2064	2062	2060	2056	2051	2049	2045	2043	2039	2035	2032	2030	2028	2026	2024	2024	2024	2024	2026	2030	2030	2032	2035	2035	2037	2037	2037	2037	2037	2037	2037	2037	2037	2039	2039	2039	2039	2041	2041	2041	2041	2041	2041	2041	2041	2041	2043	2043	2043	2045	2047	2047	2049	2051	2054	2056	2056	2058	2058	2058	2058	2058	2058	2056	2056	2056	2056	2058	2058	2058	2058	2056	2054	2054	2051	2051	2054	2054	2056	2058	2058	2058	2060	2060	2060	2060	2058	2058	2056	2056	2056	2056	2056	2056	2054	2054	2054	2051	2049	2049	2049	2049	2049	2049	2049	2049	2049	2051	2049	2051	2051	2051	2051	2049	2049	2049	2049	2049	2051	2051	2054	2060	2062	2066	2073	2082	2088	2095	2104	2108	2113	2117	2122	2124	2127	2122	2115	2108	2104	2088	2080	2075	2069	2064	2062	2060	2058	2058	2056	2051	2047	2045	2045	2043	2039	2035	2032	2028	2026	2022	2018	2012	2008	2004	2000	1998	1996	1993	1993	1993	1996	1998	2000	2002	2004	2006	2008	2012	2014	2018	2020	2024	2024	2026	2026	2026	2026	2026	2026	2026	2026	2026	2026	2028	2026	2026	2026	2024	2024	2024	2022	2022	2020	2020	2022	2022	2022	2022	2024	2024	2026	2030	2032	2037	2041	2045	2047	2051	0	2056	2058	2060	2062	2064	0	2069	2071	2073	2073	2075	2077	2077	2080	2077	2077	2080	2080	2080	2077	2077	2077	2077	2080	2080	2080	2082	2084	2088	2093	2093	2095	2095	2095	2097	2099	2097	2097	2097	2097	2097	2097	2097	2097	2099	2099	2099	2099	2102	2102	2102	2104	2104	2104	2106	2106	2108	2106	2108	2108	2108	2106	2106	2104	2102	2099	2095	2091	2088	2086	2086	2082	2082	2080	2080	2080	2077	2077	2075	2077	2077	2080	2077	2077	2077	2077	2077	2077	2077	2075	2077	2075	2077	2075	2073	2069	2066	2064	2058	2049	2041	2039	2037	2037	2037	2037	2039	2039	2041	2043	2047	2049	2056	2058	2062	2064	2069	2071	2071	2073	2073	2075	2075	2080	2082	2086	2088	2091	2095	2099	2102
1276	1276	1275	1275	1274	1274	1273	1273	1273	1273	1274	1274	1275	1275	1276	1277	0	0	0	0	0	0	0	0	0	0	0	0	0	0	0	2024	2022	2022	2022	2022	2020	2020	2018	2018	2018	2020	2020	2020	2022	2022	2022	2024	2026	2026	2028	2028	2030	2030	2030	2030	2030	2028	2026	2024	2020	2016	2010	2002	1993	1983	1974	1962	1946	1939	1935	1933	1933	1937	1944	1952	1962	1972	0	1983	1996	2004	2012	2018	2026	2030	2035	2037	2039	2041	2041	2041	2041	2041	2039	2039	2037	2037	2035	2032	2032	2030	2030	2030	2030	2030	2030	2032	2035	2039	2043	2043	2045	2047	2049	2051	2051	2054	2054	2056	2056	2058	2058	2058	2056	2058	2058	2058	2058	2058	2060	2060	2060	2062	2062	2062	2062	2062	2062	2062	2062	2054	2051	2049	2045	2043	2039	2037	2032	2030	2030	2030	2030	2030	2030	2032	2035	2037	2037	2039	2039	2041	2041	2041	2043	2043	2043	2041	2041	2041	2041	2039	2039	2039	2039	2039	2039	2039	2041	2041	2043	2043	2043	2043	2041	2041	2039	2037	2037	2039	2037	2037	2041	2043	2043	2045	2045	2049	2054	2056	2060	2064	2069	2071	2073	2073	2073	2071	2069	2064	2062	2060	2060	2060	2062	2060	2062	2062	2062	2062	2062	2062	2062	2064	2066	2066	2066	2064	2062	2056	2054	2049	2047	2045	2043	2041	2041	2041	2041	2043	2045	2047	2049	2051	2056	2056	2060	2060	2060	2060	2060	2060	2060	2058	2058	2056	2056	2056	2054	2051	2051	2049	2047	2047	2047	2045	2045	2043	2043	2041	2041	2041	2041	2043	2045	2047	2049	2054	2056	2060	2064	2069	2073	2084	2088	0	2097	2102	2108	2111	2113	2115	2117	2115	2115	2113	2111	2106	2104	2099	2097	2095	2091	2088	2084	2082	2077	2073	2071	2069	2066	2066	2064	2062	2062	2060	2060	2060	2060	2062	2062	2062	2062	2064	2062	2060	2060	2056	2054	2051	2047	2045	2041	2039	2035	2032	2032	2030	2028	2028	2028	2028	2028	2030	2030	2032	2035	2035	2037	2037	2037	2037	2037	2037	2037	2037	2039	2039	2039	2041	2041	2043	2043	2045	2045	2045	2045	2045	2043	2045	2043	2043	2043	2043	2045	2045	2045	2047	2047	2051	2051	2054	2054	2056	2056	2056	2056	2056	2056	2054	2054	2054	2054	2056	2056	2056	2054	2054	2049	2049	2049	2049	2049	2049	2051	2051	2054	2054	2054	2054	2056	2056	2054	2051	2051	2051	2051	2051	2051	2051	2051	2051	2051	2049	2047	2047	2045	2043	2043	2045	2043	2043	2045	2045	2045	2045	2045	2047	2045	2043	2043	2043	2043	2043	2045	0	2049	2051	2056	2060	2066	2073	2080	2086	2091	2097	2102	2106	2111	2113	2115	2113	2108	2102	2093	2086	2082	2075	2071	2069	2069	2066	2064	2062	2060	2056	2051	2049	2049	2045	2041	2037	2032	2030	2026	2024	2020	2016	2012	2010	2006	2004	2002	2000	2000	2002	2002	2002	2004	2004	2006	2008	2010	2010	2012	2014	2018	2020	2022	2022	2022	2024	2024	2024	2024	2024	2024	2024	2024	2026	2024	2024	2022	2022	2020	2020	2020	2020	2020	2020	2020	2020	2022	2022	2022	2024	2024	2028	2030	2035	2037	2039	2041	2045	2047	2049	2049	2051	2054	2056	2058	2058	2060	2062	2064	2066	2069	2071	2071	2073	2073	2075	2075	2075	2075	2075	2075	2075	2077	2077	2077	2080	2082	2088	2091	2093	2093	2095	2095	2099	2099	2099	2099	2099	2099	2099	2099	2099	2102	2102	2102	2104	2104	2104	2104	2106	2106	2106	2108	2108	2108	2108	2108	2108	2108	2106	2106	2104	2104	2102	2097	2097	2093	2091	2088	2088	2088	2086	2084	2082	2080	2080	2077	2077	2077	2077	2077	2077	2077	2075	2075	2073	2073	2071	2069	2066	2069	2064	2064	2062	2060	2056	2045	2041	2041	2041	2039	2039	2041	2041	2041	2043	2045	2045	2049	2051	2056	2058	2060	2062	2064	2066	2066	2069	2069	2066	2069	2071	2073	2075	2077	2080	2082	2086	2091	2093
1276	1275	1275	1274	1274	1273	1273	1272	1272	1273	1273	1273	1274	1273	1275	1274	0	0	0	0	0	0	0	0	0	0	0	0	0	0	0	2028	2026	2026	2026	2024	2024	2024	2022	2020	2020	2020	2022	2022	2022	2022	2024	2024	2026	2026	2028	2028	2030	2030	2030	2030	2028	2028	2026	2022	2020	2016	2012	2006	1998	1989	1980	1970	1966	1952	1948	1948	1950	1954	1960	1966	0	1974	1983	1991	2000	2006	2014	2018	2022	2028	2032	2035	2037	2037	2039	2037	2039	2037	2037	2035	2035	2035	2032	2030	2030	2030	2028	2028	2028	2028	2030	2032	2037	2041	2043	2045	2049	2049	2051	2054	2051	2051	2051	2054	2054	2054	2054	2051	2051	2051	2051	2051	2051	2051	2051	2054	2054	2054	2054	2054	2054	2047	2045	2045	2045	2045	2045	2041	2039	2035	2035	2030	2030	2028	2028	2028	2028	2028	2030	2030	2035	2037	2037	2039	2039	2041	2043	2043	2043	2043	2043	2043	2043	2041	2041	2039	2039	2039	2039	2039	2039	2039	2041	2041	2041	2039	2039	2037	2037	2035	2035	2032	2032	2032	2035	2037	2037	2039	2041	2043	2045	2047	2051	2056	2060	2062	2066	2069	2071	2073	2073	2069	2066	2064	2060	2060	2058	2060	2060	2060	2060	2058	2058	2060	2060	2060	2060	2062	2062	2062	2064	2060	2060	2054	2051	2049	2047	2043	2041	2041	2041	2041	2041	2043	2045	2047	2049	2054	2056	2058	2060	2062	2062	2062	2060	2060	2060	2058	2056	2056	2056	2054	2051	2049	2049	2047	2045	2045	2043	2041	2041	2041	2039	2039	2039	2037	2037	2039	2039	2041	2045	2047	2051	2056	2062	2066	2073	2082	2088	0	2095	2099	2104	2108	2113	2113	2113	2113	2111	2108	2106	2104	2099	2097	2093	2091	2088	2082	2080	2077	2073	2071	2069	2066	2066	2064	2062	2060	2060	2058	2056	2056	2058	2058	2058	2058	2058	2058	2058	2058	2054	2051	2047	2045	2041	2039	2037	2037	2032	2032	2032	2030	2030	2030	2030	2030	2030	2032	2032	2035	2035	2037	2037	2039	2037	2037	2039	2039	2039	2039	2041	2041	2043	2045	2045	2047	2049	2049	2049	2049	2049	2047	2047	2047	2045	2045	2045	2045	2043	2043	2045	2045	2045	2047	2049	2051	2051	2054	2054	2054	2054	2054	2051	2051	2051	2051	2051	2054	2054	2054	2051	2047	2045	2045	2043	2043	2043	2045	2047	2049	2049	2049	2051	2051	2051	2051	2049	2049	2049	2049	2049	2049	2049	2047	2047	2047	2047	2045	2045	2043	2041	2041	2039	2039	2039	2039	2037	2039	2039	2039	2039	2039	2039	2039	2039	2039	2039	2039	2041	2043	2045	2049	0	2056	2060	2062	2069	2071	2075	2080	2082	2086	2091	2095	2097	2095	2095	2093	2088	2084	2080	2077	2075	2073	2073	2071	2069	2069	2069	2064	2060	2056	2051	2047	2043	2039	2035	2032	2028	2026	2022	2020	2018	2014	2012	2010	2008	2006	2006	2006	2006	2006	2008	2008	2006	2008	2008	2008	2008	2010	2014	2016	2018	2018	2018	2020	2020	2020	2020	2020	2020	2020	2020	2022	2020	2020	2020	2018	2018	2016	2016	2016	2016	2016	2018	2018	2018	2018	2020	2022	2022	2024	2026	2028	2030	2032	2035	2035	2037	2039	2039	2039	2041	2043	2045	2047	2049	2049	2054	2056	2060	2062	2064	2064	2066	2069	2069	2071	2069	2069	2069	2069	2071	2073	2073	2075	2077	2082	2086	2086	2088	2091	2093	2095	2097	2099	2099	2102	2102	2102	2102	2102	2104	2104	2104	2106	2106	2108	2106	2108	2108	2108	2108	2108	2106	2106	2104	2104	2102	2099	2097	2097	2095	2095	2093	2091	2088	2088	2086	2086	2086	2084	2084	2082	2082	2080	2077	2077	2077	2077	2077	2075	2075	2073	2071	2066	2066	2064	2062	2060	2060	2058	2047	2043	2043	2039	2037	2037	2039	2041	2041	2043	2045	2049	2049	2051	2054	2054	2056	2058	2060	2062	2062	2064	2066	2066	2064	2066	2064	2062	2062	2064	2066	2066	2069	2071	2075	2077	2082	2082
1277	1276	1275	1275	1274	1273	1273	1272	1272	1273	1273	1273	1274	1274	1274	1274	0	0	0	0	0	0	0	0	0	0	0	0	0	0	0	0	2028	2028	2026	2026	2026	2024	2022	2022	2022	2022	2022	2022	2022	2022	2024	2024	2026	2026	2026	2028	2028	2028	2028	2028	2028	2026	2024	2022	2020	2018	2014	2008	2002	1996	1987	1980	1976	1970	1966	1964	1964	1966	1970	1976	1980	1985	1991	1998	2004	2008	2014	2018	2024	2026	2030	2032	2035	2035	2035	2037	2035	2035	2035	2032	2032	2032	2032	2030	2028	2028	2028	2028	2026	2028	2030	2035	2039	2043	2045	2047	2051	2051	2054	2054	2054	2054	2051	2051	2051	2049	2049	2049	2047	2047	2045	2045	2045	2045	2045	2045	2039	2039	2039	2037	2039	2037	2037	2035	2035	2035	2035	2035	2032	2030	2030	2026	2026	2026	2028	2028	2028	2030	2030	2032	2035	2039	2039	2041	2043	2045	2047	2047	2047	2047	2047	2047	2045	2043	2041	2041	2039	2039	2041	2039	2039	2039	2041	2039	2035	2037	2035	2035	2035	2032	2030	2030	2030	2032	2032	2035	2037	2039	2041	2041	2045	2047	2051	2054	2058	2060	2064	2066	2066	2071	2069	2066	2064	2062	2058	2058	2058	2058	2058	2058	2058	2058	2058	2058	2060	2060	2058	2060	2058	2060	2060	2058	2056	2054	2049	2047	2045	2043	2041	2041	2039	2039	2039	2043	2045	2047	2049	2051	2056	2058	2060	2062	2062	2060	2060	2060	2058	2056	2056	2054	2054	2051	2049	2047	2045	2045	2043	2041	2039	2039	2039	2037	2037	2037	2035	2035	2035	2035	2037	2039	2041	2045	2049	2054	2058	2064	2071	2080	2086	2093	2097	0	2102	2106	2108	2108	2108	2106	2106	2104	2102	2099	2091	2088	2086	2084	2080	2077	2077	2075	2071	2069	2066	2064	2064	2060	2060	2058	2056	2054	2054	2051	2051	2051	2051	2051	2051	2051	2051	2049	2047	2045	2043	2039	2037	2035	2032	2035	2032	2032	2032	2032	2032	2032	2032	2035	2035	2035	2035	2037	2037	2037	2037	2039	2039	2039	2039	2039	2039	2039	2041	2043	2043	2045	2047	2049	2051	2051	2051	2051	2051	2049	2049	2047	2045	2045	2045	2043	2043	2041	2041	2043	2043	2043	2047	2047	2049	2049	2049	2049	2049	2049	2049	2049	2047	2047	2047	2049	2049	2049	2047	2045	2043	2041	2041	2041	2041	2041	2043	2045	2047	2047	2047	2047	2047	2047	2047	2045	2045	2045	2045	2045	2045	2045	2045	2045	2043	2041	2041	2039	2039	2037	2035	2035	2035	2035	2032	2032	2032	2032	2035	2035	2035	2032	2035	2035	2037	2037	2037	2039	2041	2045	2047	2049	2051	2054	2056	2056	2060	2064	2064	2066	2073	2075	2075	2077	2080	2080	2080	2073	2073	2073	2073	2075	2075	2075	2073	2071	2069	2064	2060	2056	2051	2047	2043	2039	2035	2032	2032	2028	2026	2022	2020	2018	2016	2014	2014	2012	2012	2012	2012	2010	2010	2010	2008	2008	2006	2006	2006	2006	2010	2010	2012	2012	2012	2014	2014	2014	2014	2014	2014	2014	2014	2014	2014	2014	2014	2014	2012	2012	2010	2012	2010	2010	2012	2014	2014	2016	2016	2018	2020	2020	2022	2022	2022	2024	2024	2026	2028	2028	2028	2028	2030	2032	2035	2035	2037	2039	2043	2047	2051	2054	2056	2058	2060	2062	2064	2064	2064	2064	2064	2064	2066	2066	2069	2071	2071	2075	2077	2080	2082	2084	2086	2088	2093	2095	2097	2099	2102	2104	2104	2104	2106	2106	2106	2108	2111	2108	2108	2108	2108	2108	2106	2106	2102	2102	2097	2095	2095	2093	2093	2091	2086	2086	2082	2082	2082	2082	2082	2082	2082	2082	2080	2080	2077	2077	2075	2075	2075	2073	2073	2071	2069	2066	2064	2062	2060	2058	2049	2047	2043	2041	2039	2035	2032	2032	2032	2032	2037	2041	2047	2049	2054	2056	0	2060	2062	2064	2064	2064	2066	2066	2066	2066	2066	2066	2064	2062	2062	2060	2060	2058	2060	2060	2062	2062	2066	2069	2069	2071
1279	1277	1276	1275	1275	1274	1273	1273	1273	1273	1273	1274	1274	1275	1275	1274	1275	0	0	0	0	0	0	0	0	0	0	0	0	0	0	0	2030	2030	2028	2026	2026	2024	2022	2022	2022	2022	2022	2022	2022	2022	2024	2024	2024	2026	2026	2026	2028	2028	2028	2028	2026	2026	2024	2022	2020	2018	2014	2010	2006	1998	1993	1987	1983	1981	1978	1978	1978	1980	1981	1985	1989	1993	2000	2002	2006	2010	2014	2018	2022	2026	2028	2030	2032	2032	2032	2032	2032	2035	2032	2032	2032	2032	2032	2030	2030	2028	2028	2026	2026	2028	2032	2037	2041	2045	2049	2051	2054	2054	2056	2056	2054	2054	2051	2051	2049	2047	2045	2045	2043	2043	2041	2041	2035	2035	2032	2032	2032	2032	2030	2030	2030	2028	2028	2028	2026	2026	2026	2026	2026	2026	2026	2024	2024	2024	2024	2028	2030	2030	2032	2035	2037	2041	2043	2045	2045	2047	2049	2049	2051	2049	2049	2047	2047	2045	2043	2041	2043	2041	2041	2039	2039	2037	2039	2037	2032	2032	2030	2030	2028	2028	2026	2026	2028	2030	2030	2032	2035	2037	2039	2041	2045	2045	2049	2054	2058	2058	2062	2064	2064	2066	2064	2062	2060	2060	2058	2056	2056	2056	2056	2056	2056	2056	2056	2058	2056	2058	2058	2058	2056	2056	2056	2056	2054	2051	2049	2047	2045	2043	2041	2039	2039	2039	2039	2041	2043	2045	2049	2051	2056	2058	2060	2062	2062	2062	2062	2060	2058	2058	2056	2054	2054	2049	2047	2045	2043	2041	2039	2039	2037	2035	2037	2037	2035	2035	2032	2035	2032	2032	2035	2037	2041	2043	2047	2051	2058	2062	2071	2077	2086	2091	2095	0	2102	2104	2106	2106	2104	2102	2095	2093	2091	2086	2084	2082	2080	2080	2077	2075	2073	2073	2071	2066	2064	2062	2060	2058	2056	2054	2049	2049	2047	2045	2045	2045	2045	2045	2045	2041	2041	2041	2041	2037	2037	2032	2032	2032	2030	2032	2030	2032	2032	2032	2035	2035	2037	2039	2037	2039	2041	2041	2041	2041	2041	2041	2039	2039	2037	2037	2037	2039	2041	2043	2045	2047	2049	2051	2054	2054	2054	2054	2051	2049	2049	2047	2045	2043	2043	2041	2039	2039	2039	2037	2037	2039	2041	2045	2045	2045	2045	2045	2045	2045	2045	2045	2043	2043	2043	2045	2043	2045	2043	2041	2039	2037	2037	2037	2039	2039	2041	2043	2043	2045	2045	2045	2045	2045	2045	2043	2041	2041	2041	2041	2041	2041	2041	2041	2039	2039	2037	2035	2035	2030	2030	2030	2028	2028	2030	2028	2030	2030	2032	2032	2032	2032	2030	2030	2032	2032	2035	2037	2037	2039	2041	2041	2043	2043	2043	2041	2043	2045	2045	2047	2051	2056	2058	2062	2054	2058	2060	2064	2066	2069	2071	2073	2071	2071	2069	2066	2064	2060	2058	2054	2049	2045	2043	2039	2037	2032	2032	2028	2026	2024	2024	2022	2020	2020	2018	2018	2018	2016	2014	2014	2012	2010	2008	2006	2004	2004	2002	2002	2004	2004	2004	2004	2004	2006	2006	2006	2006	2006	2006	2006	2006	2006	2008	2008	2006	2004	2004	2004	2004	2004	2004	2006	2006	2008	2010	2010	2012	2012	2014	2014	2016	2016	2016	2018	2018	2020	2020	2020	2020	2020	2020	2022	2024	2028	2030	2032	2037	2043	2045	2047	2051	2054	2054	2058	2058	2060	2060	2060	2060	2060	2062	2062	2062	2064	2066	2069	2071	2073	2075	2077	2082	2084	2086	2091	2095	2097	2102	2106	2106	2106	2108	2108	2111	2111	2111	2111	2106	2106	2106	2104	2102	2099	2095	2093	2088	2088	2088	2084	2082	2077	2073	2073	2073	2073	2073	2075	2073	2073	2075	2073	2073	2071	2071	2071	2071	2071	2069	2069	2066	2064	2062	2054	2051	2047	2047	2045	2043	2039	2037	2030	2028	2026	2024	2026	2026	2030	2032	2043	2047	0	2054	2058	2066	2071	2073	2075	2075	2075	2073	2071	2069	2069	2069	2066	2064	2064	2062	2060	2058	2056	2056	2058	2058	2058	2058	2062	2064	2064
1279	1279	1277	1276	1275	1275	1274	1274	1274	1274	1274	1274	1275	1274	1275	1275	1275	1276	0	0	0	0	0	0	0	0	0	0	0	0	0	0	2030	2028	2028	2028	2024	2024	2022	2022	2022	2020	2020	2022	2022	2022	2024	2024	2024	2026	2026	2026	2028	2028	2028	2028	2026	2026	2024	2022	2020	2018	2016	2012	2008	2002	1998	1993	1991	1987	1985	1985	1985	1987	1987	1991	1993	1996	2000	2004	2008	2012	2014	2018	2022	2024	2026	2028	2028	2030	2030	2032	2032	2032	2032	2030	2030	2030	2030	2030	2028	2026	2026	2026	2028	2028	2032	2037	2043	2047	2051	2051	2056	2056	2058	2058	2056	2054	2051	2049	2049	2047	2045	2041	2037	2037	2032	2032	2030	2030	2028	2026	2024	2024	2024	2022	2022	2022	2018	2020	2020	2020	2020	2020	2020	2022	2022	2022	2022	2022	2024	2026	2028	2030	2032	2035	2039	2043	2045	2047	2049	2054	2054	2054	2056	2054	2054	2051	2049	2047	2045	2043	2043	2043	2043	2041	2039	2039	2039	2037	2030	2030	2028	2028	2026	2026	2026	2026	2026	2030	2032	2032	2035	2037	2039	2043	2043	2045	2049	2051	2056	2058	2058	2060	2060	2062	2062	2060	2058	2058	2056	2056	2056	2056	2056	2056	2056	2056	2054	2054	2056	2056	2056	2056	2054	2054	2054	2051	2051	2049	2047	2045	2043	2041	2041	2039	2037	2037	2037	2039	2041	2045	2047	2051	2054	2058	2060	2062	2062	2062	2062	2060	2058	2058	2056	2054	2051	2049	2045	2043	2041	2041	2039	2037	2035	2035	2032	2032	2032	2035	2032	2032	2032	2032	2035	2035	2039	2041	2045	2049	2056	2062	2071	2080	2084	2091	2095	2097	2099	2102	2095	2095	2091	2091	2088	2086	2084	2082	2080	2077	2077	2075	2073	2073	2071	2071	2066	2064	2062	2060	2058	2056	2051	2049	2047	2045	2043	2041	2039	2039	2039	2037	2035	2032	2032	2032	2030	2030	2030	2028	2026	2028	2028	2028	2030	2032	2035	2035	2037	2037	2039	2039	2039	2041	2041	2041	2041	2041	2041	2041	2041	2037	2037	2037	2037	2037	2039	2043	2045	2047	2047	2051	2051	2054	2054	2054	2051	2049	2049	2047	2045	2043	2041	2039	2037	2037	2032	2032	2032	2032	2035	2035	2037	2041	2041	2039	2039	2039	2039	2039	2039	2039	2039	2039	2039	2039	2035	2035	2032	2032	2032	2032	2035	2037	2039	2041	2041	2043	2043	2043	2043	2043	2041	2041	2039	2039	2039	2037	2037	2037	2035	2035	2035	2035	2030	2030	2028	2026	2026	2024	2024	2026	2024	2026	2026	2026	2028	2028	2028	2030	2030	2028	2030	2030	2030	2032	2035	2037	2037	2035	2035	2035	2032	2028	2028	2026	2028	2028	2022	2026	2030	2037	2041	2047	2054	2058	2060	2062	2064	2066	2066	2064	2062	2060	2058	2056	2051	2049	2047	2043	2041	2037	2035	2032	2032	2028	2028	2026	2026	2024	2022	2022	2020	2020	2018	2018	2016	2014	2012	2010	2008	2004	2002	2000	1998	1998	1998	1998	1996	1996	1996	1998	1998	1998	1998	1998	1998	2000	1998	2000	2000	1998	1998	1998	1998	1998	1998	1998	2000	2002	2002	2004	2004	2008	2008	2010	2010	2012	2014	2012	2014	2014	2014	2014	2014	2014	2014	2016	2016	2018	2020	2020	2024	2026	2032	2037	2041	2043	2045	2047	2051	2054	2056	2056	2056	2056	2056	2058	2058	2058	2058	2060	2060	2062	2064	2064	2066	2071	2073	2077	2080	2084	2088	2093	2097	2102	2108	2108	2108	2113	2113	2113	2113	2111	2106	2102	2102	2097	2093	2093	2086	2082	2077	2077	2075	2073	2069	2066	2066	2066	2064	2064	2064	2064	2064	2064	2064	2064	2064	2064	2062	2062	2062	2062	2062	2056	2054	2051	2049	2045	2043	2043	2041	2039	2035	2032	2026	2024	2022	2020	2018	2020	2020	2026	2028	2039	2049	0	2058	2064	2073	2077	2082	2084	2084	2084	2082	2080	2075	2071	2071	2066	2064	2062	2062	2058	2058	2056	2054	2054	2054	2054	2056	2058	2060	2060
1281	1280	1279	1277	1276	1275	1275	1275	1274	1274	1274	1275	1274	1275	1275	1276	1276	1276	0	0	0	0	0	0	0	0	0	0	0	0	0	0	2028	2026	2026	2024	2024	2022	2022	2020	2020	2020	2020	2020	2022	2022	2024	2024	2026	2026	2026	2028	2028	2028	2028	2028	2026	2026	2024	2022	2020	2018	2016	2012	2010	2006	2002	2000	1996	1993	1991	1989	1989	1991	1993	1996	1998	2000	2004	2006	2008	2012	2014	2018	2020	2022	2024	2026	2026	2028	2028	2028	2028	2030	2030	2030	2030	2030	2028	2028	2028	2026	2026	2026	2028	2030	2032	2037	2045	2049	2054	2054	2058	2056	2058	2058	2056	2054	2051	2047	2045	2043	2041	2037	2035	2032	2030	2028	2026	2024	2022	2022	2018	2016	2016	2016	2014	2014	2014	2014	2014	2014	2014	2016	2016	2016	2018	2018	2020	2020	2024	2026	2028	2032	2037	2039	2041	2045	2049	2051	2054	2056	2058	2058	2058	2058	2058	2056	2054	2051	2049	2047	2047	2045	2045	2043	2043	2041	2039	2037	2030	2028	2026	2026	2026	2026	2026	2026	2028	2030	2030	2032	2035	2037	2039	2043	2043	2045	2049	2051	2054	2056	2056	2058	2056	2058	2058	2058	2058	2056	2056	2056	2056	2056	2054	2054	2054	2054	2051	2054	2051	2054	2054	2051	2051	2049	2049	2047	2047	2047	2045	2043	2041	2039	2039	2037	2037	2037	2037	2037	2041	2043	2047	2051	2051	2056	2058	2060	2060	2060	2060	2058	2058	2054	2054	2051	2049	2045	2045	2041	2041	2039	2037	2037	2035	2035	2035	2032	2032	2032	2030	2030	2030	2032	2032	2035	2039	2041	2045	2049	2056	2062	2071	2077	2082	2084	2086	2088	2091	2091	2088	2088	2088	2084	2082	2082	2080	2077	2075	2073	2073	2073	2071	2071	2069	2066	2064	2062	2060	2058	2056	2054	2049	2047	2045	2043	2039	2039	2035	2035	2032	2030	2028	2028	2028	2026	2026	2026	2024	2022	2024	2024	2026	2026	2028	2030	2032	2035	2037	2039	2041	2041	2041	2041	2041	2041	2041	2041	2041	2039	2039	2037	2037	2037	2037	2037	2039	2041	2043	2045	2047	2049	2049	2051	2051	2051	2049	2047	2045	2045	2043	2039	2039	2035	2032	2030	2030	2028	2026	2026	2028	2030	2032	2035	2035	2035	2035	2035	2035	2035	2035	2032	2035	2035	2035	2035	2030	2030	2028	2030	2030	2032	2035	2037	2039	2041	2043	2043	2043	2043	2043	2043	2041	2039	2039	2037	2037	2035	2032	2030	2030	2032	2030	2028	2028	2026	2026	2024	2024	2022	2022	2022	2022	2024	2024	2026	2028	2028	2028	2028	2028	2028	2030	2030	2032	2032	2032	2032	2032	2030	2028	2026	2024	2022	2016	2014	2012	2012	2014	2018	2022	2026	2032	2039	2045	2049	2051	2056	2058	2060	2060	2058	2056	2056	2054	2051	2047	2045	2043	2041	2037	2037	2035	2032	2030	2030	2028	2028	2026	2026	2026	2024	2024	2024	2022	2020	2018	2014	2012	2008	2004	2004	1998	1998	1996	1991	1991	1991	1991	1991	1991	1991	1989	1991	1991	1991	1991	1991	1991	1993	1991	1989	1989	1989	1989	1991	1991	1993	1993	1996	1998	2000	2002	2004	2004	2008	2008	2010	2012	2012	2012	2012	2012	2012	2012	2012	2012	2012	2012	2014	2014	2016	2020	2022	2026	2030	2035	2039	2041	2045	2047	2049	2051	2051	2054	2054	2054	2054	2054	2054	2056	2056	2056	2056	2058	2058	2060	2062	2066	2069	2073	2077	2082	0	0	0	0	2106	2108	2111	2111	2111	2111	2108	2102	2097	2093	2088	2084	2080	2071	2060	2062	2060	2060	2060	2058	2058	2058	2058	2058	2058	2058	2058	2058	2058	2060	2060	2060	2058	2058	2058	2056	2051	2051	2049	2047	2045	2043	2039	2039	2037	2035	2030	2028	2024	2022	2018	2016	2014	2014	2016	2016	2020	2026	2037	2049	0	2060	2066	2077	2084	2088	2091	2091	2091	2088	2084	2082	2075	2071	2069	2066	2064	2062	2060	2056	2056	2054	2054	2054	2051	2054	2056	2056	2058
1283	1282	1279	1279	1277	1276	1275	1275	1275	1275	1275	1275	1275	1275	1275	1275	1275	0	0	0	0	0	0	0	0	0	0	0	0	0	0	0	2024	2022	2020	2020	2020	2020	2018	2018	2020	2020	2020	2020	2022	2024	2024	2024	2026	2026	2026	2028	2028	2028	2028	2028	2028	2026	2024	2022	2020	2018	2016	2014	2010	2008	2004	2002	2000	1996	1996	1993	1996	1996	1998	1998	2000	2002	2006	2008	2010	2012	2014	2016	2018	2020	2022	2022	2024	2024	2024	2024	2024	2024	2026	2026	2026	2026	2026	2026	2026	2024	2026	2026	2028	2030	2035	2039	2045	2049	2051	2056	2056	2056	2054	2051	2051	2049	2047	2045	2043	2041	2037	2035	2032	2030	2026	2024	2022	2020	2018	2016	2012	2012	2010	2010	2010	2010	2010	2010	2010	2010	2010	2012	2012	2012	2014	2014	2018	2018	2022	2026	2030	2035	2037	2039	2043	2047	2051	2056	2058	2060	2062	2064	2064	2062	2060	2060	2058	2056	2054	2049	2049	2049	2047	2045	2043	2043	2041	2037	2030	2030	2028	2026	2026	2026	2026	2026	2026	2028	2030	2032	2035	2035	2037	2041	2041	2043	2047	2047	2051	2051	2051	2051	2054	2054	2054	2054	2051	2051	2051	2051	2051	2054	2051	2051	2049	2049	2049	2051	2049	2049	2049	2049	2049	2047	2045	2045	2043	2043	2041	2039	2039	2037	2035	2035	2035	2035	2035	2037	2039	2043	2045	2047	2049	2054	2056	2056	2056	2056	2056	2054	2054	2051	2049	2047	2047	2043	2043	2041	2039	2037	2037	2035	2035	2032	2032	2032	2032	2030	2030	2028	2028	2030	2032	2035	2037	2041	2045	2051	2056	2062	2069	2075	2077	2080	2082	2082	2084	2084	2084	2084	2082	2080	2077	2077	2077	2075	2073	2073	2073	2071	2071	2071	2069	2066	2064	2062	2060	2058	2056	2054	2047	2047	2045	2041	2039	2037	2032	2032	2028	2028	2024	2024	2024	2024	2022	2022	2020	2022	2022	2022	2024	2026	2026	2030	2032	2032	2037	2037	2039	2039	2039	2041	2041	2041	2041	2041	2041	2039	2039	2037	2037	2035	2037	2037	2039	2041	2041	2045	2045	2045	2049	2049	2049	2047	2047	2045	2043	2041	2039	2037	2035	2032	2028	2028	2026	2024	2022	2024	2024	2026	2028	2030	2030	2030	2030	2030	2030	2030	2030	2030	2030	2030	2030	2032	2030	2028	2026	2028	2030	2032	2037	2037	2041	2043	2045	2047	2047	2047	2047	2045	2043	2041	2039	2039	2037	2035	2030	2028	2028	2028	2026	2024	2022	2022	2022	2022	2022	2022	2020	2020	2022	2024	2026	2028	2028	2030	2030	2030	2030	2028	2030	2030	2030	2030	2028	2030	2028	2020	2020	2016	2014	2012	2010	2010	2008	2008	2008	2012	2014	2020	2026	2032	2037	2043	2047	2049	2051	2054	2054	2051	2049	2049	2047	2045	2043	2041	2039	2037	2037	2035	2032	2030	2030	2030	2030	2028	2028	2026	2026	2026	2024	2024	2022	2022	2018	2014	2010	2006	2006	2002	1998	1993	1991	1989	1989	1989	1987	1987	1987	1987	1987	1987	1985	1987	1985	1987	1985	1985	1985	1985	1983	1983	1983	1985	1985	1987	1989	1991	1993	1996	1998	2002	2004	2006	2008	2010	2010	2010	2010	2010	2010	2010	2008	2008	2008	2008	2010	2010	2012	2014	2016	2018	2022	2026	2030	2035	2037	2039	2041	2043	2047	2047	2049	2049	2049	2049	2049	2049	2049	2049	2049	2049	2051	2051	2054	2056	2060	2062	2066	2071	2075	0	0	0	0	0	0	0	0	2106	2104	2102	2093	2088	2082	2077	2071	2060	2051	2047	2047	2047	2047	2047	2045	2047	2049	2049	2049	2049	2049	2054	2056	2056	2058	2058	2058	2058	2058	2058	2054	2051	2049	2047	2043	2041	2037	2035	2032	2030	2028	2024	2020	2016	2016	2012	2010	2010	2008	2010	2012	2018	2024	2032	2045	0	2058	2066	2075	2082	2086	2093	2093	2093	2093	2088	2084	2080	2075	2071	2069	2064	2062	2060	2058	2056	2056	2056	2054	2054	2056	2056	2056	2056
1284	1283	1281	1279	1278	1277	1276	1275	1275	1275	1275	1275	1275	1275	1276	1276	1275	1275	0	0	0	0	0	0	0	0	0	0	0	0	0	0	0	2020	2018	2018	2018	2018	2018	2018	2018	2020	2020	2022	2022	2024	2026	2026	2028	2028	2028	2030	2030	2030	2028	2028	2028	2026	2024	2022	2020	2018	2016	2014	2010	2008	2004	2002	2000	1998	1996	1996	1996	1996	1998	2000	2000	2004	2004	2006	2008	2010	2012	2014	2014	2016	2018	2018	2020	2020	2020	2020	2020	2020	2020	2020	2022	2022	2022	2022	2024	2024	2026	2026	2028	2030	2032	2037	2043	2043	2045	2049	2049	2049	2051	2049	2049	2047	2045	2043	2041	2039	2037	2032	2030	2028	2024	2022	2020	2018	2016	2010	2008	2008	2006	2006	2006	2004	2004	2004	2006	2006	2006	2008	2008	2010	2012	2014	2016	2018	2022	2026	2032	2037	2039	2043	2047	2051	2056	2060	2062	2066	2066	2066	2069	2066	2066	2064	2062	2058	2058	2056	2056	2051	2049	2047	2045	2043	2041	2037	2032	2030	2028	2028	2028	2024	2024	2026	2026	2028	2028	2030	2030	2032	2037	2039	2041	2041	2045	2045	2047	2047	2045	2047	2045	2045	2045	2045	2045	2045	2047	2047	2047	2049	2049	2049	2047	2047	2047	2047	2047	2047	2047	2047	2045	2045	2043	2041	2039	2039	2037	2037	2035	2035	2032	2032	2032	2032	2032	2035	2037	2041	2043	2045	2047	2049	2051	2051	2051	2051	2049	2049	2049	2047	2047	2045	2043	2043	2041	2041	2039	2037	2037	2035	2032	2032	2032	2030	2030	2030	2030	2030	2030	2030	2032	2035	2039	2043	2047	2054	2058	2066	2071	2073	2075	2077	2077	2077	2077	2080	2080	2077	2075	2075	2073	2073	2073	2073	2073	2071	2071	2071	2071	2071	2069	2066	2064	2062	2060	2058	2056	2054	2047	2045	2043	2039	2039	2035	2030	2028	2028	2024	2024	2022	2020	2020	2020	2020	2020	2018	2020	2020	2022	2024	2024	2028	2030	2030	2032	2035	2037	2039	2039	2039	2039	2039	2041	2041	2041	2039	2039	2037	2037	2035	2037	2037	2037	2039	2041	2043	2043	2045	2045	2047	2047	2045	2043	2041	2039	2039	2035	2032	2030	2028	2026	2024	2022	2022	2020	2022	2022	2024	2026	2028	2028	2028	2028	2028	2028	2028	2028	2028	2028	2030	2030	2030	2028	2030	2028	2032	2035	2039	2041	2045	2045	2049	2051	2054	2054	2054	2051	2051	2049	2045	2043	2039	2037	2035	2030	2028	2028	2026	2024	2022	2018	2018	2018	2018	2018	2018	2018	2020	2022	2024	2024	2026	2030	2030	2030	2030	2030	2028	2028	2028	2026	2020	2020	2018	2016	2014	2012	2010	2010	2008	2008	2006	2004	2004	2006	2008	2012	2016	2020	2026	2032	2037	2041	2043	2045	2045	2045	2045	2043	2043	2041	2039	2037	2035	2035	2035	2032	2032	2030	2030	2028	2028	2028	2028	2026	2026	2026	2024	2024	2024	2022	2018	2016	2012	2010	2006	2002	1998	1996	1991	1989	1987	1985	1987	1985	1985	1985	1985	1983	1983	1983	1983	1981	1981	1981	1980	1980	1980	1980	1980	1981	1981	1981	1983	1983	1987	1991	1993	1996	2000	2002	2004	2006	2008	2008	2008	2008	2008	2008	2008	2006	2006	2008	2006	2008	2008	2010	2010	2014	2018	2020	2024	2026	2030	2035	2037	2039	2041	2043	2045	2045	2047	2047	2047	2047	2047	2045	2045	2045	2045	2045	2045	2047	2049	2054	2056	2060	2066	2071	0	0	0	0	0	0	0	2102	2099	2097	2091	2084	2077	2073	2066	2056	2047	2039	2035	2035	2030	2032	2032	2035	2035	2037	2039	2041	2045	2045	2045	2049	2051	2054	2058	2058	2058	2056	2056	2051	2049	2047	2043	2041	2037	2032	2030	2028	2026	2022	2018	2016	2012	2008	2006	2004	2004	2006	2006	2010	2014	2020	2030	2043	0	2056	2062	2071	2080	2086	2091	2093	2093	2093	2088	2086	2082	2075	2073	2069	2066	2064	2060	2060	2058	2056	2056	2054	2054	2054	2056	2056	2056
1284	1283	1281	1279	1279	1277	1276	1275	1275	1275	1275	1275	1275	1275	1275	1275	1276	1275	0	0	0	0	0	0	0	0	0	0	0	0	0	0	0	2018	2018	2016	2016	2016	2018	2018	2020	2020	2022	2024	2026	2026	2028	2030	2030	2030	2030	2032	2032	2032	2032	2030	2030	2028	2026	2024	2022	2018	2016	2014	2012	2008	2006	2004	2002	2000	2000	1998	1998	1998	1998	2000	2002	2002	2004	2006	2006	2008	2010	2010	2012	2014	2014	2014	2016	2016	2016	2016	2016	2014	2014	2016	2018	2018	2020	2020	2022	2024	2024	2026	2026	2028	2030	2032	2037	2039	2041	2043	2045	2045	2047	2047	2047	2045	2043	2041	2039	2037	2035	2030	2028	2026	2022	2020	2016	2014	2012	2008	2006	2006	2004	2004	2004	2002	2002	2002	2002	2004	2004	2006	2006	2008	2010	2012	2016	2018	2022	2028	2032	2037	2041	2045	2049	2056	2060	2064	2066	2069	2069	2071	2069	2069	2069	2066	2064	2060	2058	2058	2056	2056	2051	2049	2047	2043	2041	2037	2032	2030	2030	2028	2026	2026	2024	2024	2024	2024	2024	2026	2026	2028	2030	2032	2032	2037	2037	2039	2039	2039	2039	2039	2039	2037	2039	2039	2041	2041	2041	2041	2041	2043	2043	2043	2043	2043	2043	2043	2043	2043	2043	2043	2041	2039	2039	2039	2037	2035	2035	2032	2032	2032	2030	2030	2030	2030	2030	2032	2035	2037	2041	2041	2043	2043	2045	2047	2047	2045	2045	2043	2043	2043	2043	2043	2041	2041	2039	2039	2039	2039	2037	2035	2035	2032	2032	2032	2032	2030	2030	2032	2032	2035	2035	2039	2041	2051	2054	2060	2064	2069	2071	2073	2075	2075	2073	2075	2075	2075	2075	2073	2073	2073	2071	2073	2071	2071	2071	2073	2071	2073	2071	2073	2071	2069	2066	2064	2062	2060	2056	2054	2047	2045	2043	2039	2035	2032	2028	2026	2024	2022	2020	2018	2018	2018	2018	2016	2016	2016	2018	2020	2018	2022	2022	2024	2026	2028	2030	2032	2035	2037	2037	2037	2037	2039	2039	2039	2041	2039	2039	2037	2037	2037	2035	2037	2037	2037	2039	2041	2041	2043	2043	2043	2043	2041	2041	2039	2037	2035	2032	2030	2028	2026	2022	2022	2022	2020	2020	2022	2022	2026	2030	2030	2030	2032	2030	2032	2032	2030	2030	2030	2030	2032	2032	2035	2032	2035	2037	2039	2041	2045	2049	2051	2054	2056	2058	2060	2060	2060	2058	2058	2054	2051	2047	2043	2039	2037	2030	2028	2026	2024	2020	2018	2014	2014	2016	2016	2014	2016	2018	2020	2020	2024	2026	2028	2030	2030	2030	2028	2028	2024	2022	2022	2018	2016	2014	2012	2012	2010	2008	2008	2008	2006	2004	2004	2004	2004	2004	2008	2010	2012	2018	2020	2026	2030	2035	2035	2037	2037	2037	2037	2037	2035	2035	2035	2032	2032	2030	2030	2030	2028	2028	2026	2026	2026	2026	2024	2024	2024	2022	2022	2022	2020	2018	2016	2014	2010	2006	2002	2000	1996	1993	1989	1987	1985	1985	1983	1983	1981	1981	1981	1983	1981	1981	1980	1980	1980	1978	1978	1978	1976	1978	1978	1978	1978	1980	1981	1983	1985	1987	1991	1996	1996	2000	2002	2002	2006	2006	2006	2006	2006	2006	2006	2006	2006	2006	2006	2006	2008	2010	2010	2012	2016	2018	2022	2024	2028	2032	2035	2037	2039	2041	2041	2043	2045	2045	2045	2045	2043	2043	2043	2041	2041	2041	2041	2041	2043	2047	2051	2054	2060	2064	2071	2080	2086	2091	0	2095	2095	2095	2091	2088	2084	2077	2071	2066	2051	2045	2039	2032	2026	2024	2024	2022	2022	2024	2026	2026	2028	2026	2030	2035	2041	2047	2051	2054	2056	2058	2058	2056	2054	2049	2049	2045	2043	2039	2035	2030	2026	2024	2020	2014	2012	2010	2006	2004	2002	2000	2000	2000	2002	2006	2010	2016	2026	2039	2047	0	2056	2066	2073	2080	2086	2088	2091	2091	2088	2086	2082	2075	2073	2071	2066	2064	2062	2060	2058	2058	2058	2056	2056	2056	2056	2058	2058
1283	1282	1280	1279	1278	1276	1275	1275	1274	1274	1274	1274	1275	1275	1274	1275	1275	1275	0	0	0	0	0	0	0	0	0	0	0	0	0	0	0	2016	2016	2016	2016	2018	2018	2018	2020	2022	2024	2026	2028	2030	2032	2032	2035	2035	2035	2035	2035	2035	2035	2032	2030	2030	2028	2024	2022	2018	2016	2014	2012	2008	2006	2002	2002	2000	1998	1998	1998	1998	1998	1998	2000	2000	2002	2002	2004	2004	2006	2006	2008	2008	2010	2010	2012	2012	2010	2010	2010	2008	2010	2010	2012	2014	2016	2018	2020	2020	2022	2024	2026	2028	2028	2030	2032	2035	2037	2039	2041	2041	2041	2041	2041	2041	2039	2039	2035	2032	2032	2028	2026	2022	2020	2016	2014	2012	2008	2004	2004	2002	2002	2002	2000	2000	2000	2000	2000	2000	2002	2004	2004	2006	2008	2010	2012	2018	2022	2028	2032	2039	2043	2047	2054	2058	2062	2066	2069	2069	2071	2071	2071	2069	2069	2066	2064	2062	2060	2056	2056	2056	2054	2049	2045	2043	2041	2039	2032	2030	2028	2026	2026	2024	2022	2022	2022	2020	2020	2020	2022	2024	2026	2028	2028	2030	2032	2032	2032	2035	2032	2032	2032	2030	2032	2035	2035	2035	2035	2037	2039	2039	2041	2041	2041	2039	2039	2041	2041	2041	2039	2037	2037	2037	2035	2035	2035	2032	2032	2030	2030	2030	2030	2030	2030	2030	2030	2030	2035	2035	2037	2037	2039	2039	2041	2041	2041	2039	2039	2039	2039	2039	2039	2039	2039	2039	2039	2039	2039	2039	2039	2039	2037	2037	2037	2037	2035	2035	2037	2035	2035	2045	2047	2049	2054	2056	2060	2062	2066	2069	2071	2073	2073	2071	2071	2073	2071	2071	2071	2069	2069	2069	2069	2069	2071	2071	2071	2073	2073	2073	2073	2075	2073	2071	2069	2066	2064	2060	2058	2054	2047	2045	2041	2039	2035	2030	2028	2026	2022	2020	2018	2016	2016	2014	2014	2016	2014	2014	2014	2016	2018	2018	2018	2022	2022	2024	2026	2028	2030	2032	2035	2035	2035	2039	2039	2041	2039	2039	2041	2039	2037	2037	2035	2035	2035	2035	2037	2039	2039	2039	2041	2041	2041	2039	2037	2035	2032	2030	2030	2026	2024	2024	2022	2020	2020	2020	2022	2022	2024	2028	2032	2035	2037	2037	2039	2037	2037	2037	2035	2032	2032	2035	2035	2035	2037	0	2041	0	2045	2049	2054	2058	2060	2062	2062	2064	2066	2066	2064	2062	2060	2056	2051	2047	2043	2037	2030	2026	2024	2020	2018	2014	2012	2012	2012	2012	2014	2014	2016	2018	2020	2022	2026	2028	2028	2028	2024	2024	2022	2020	2016	2016	2012	2010	2008	2008	2006	2004	2002	2004	2004	2002	2004	2002	2004	2004	2006	2008	2008	2010	2014	2018	2020	2024	2026	2028	2028	2030	2030	2030	2030	2030	2030	2030	2028	2028	2028	2026	2026	2026	2024	2024	2022	2022	2022	2022	2020	2020	2020	2018	2018	2016	2014	2012	2008	2006	2002	2000	1996	1993	1989	1987	1985	1983	1981	1981	1980	1980	1980	1980	1980	1981	1980	1978	1978	1978	1978	1978	1978	1978	1978	1978	1978	1978	1980	1980	1981	1983	1987	1989	1991	1993	1998	2000	2002	2004	2004	2004	2004	2004	2004	2004	2004	2004	2004	2006	2006	2006	2010	2010	2014	2016	2018	2022	2026	2028	2032	2035	2037	2039	2041	2043	2043	2045	2045	2045	2045	2043	2043	2041	2039	2039	2039	2037	2039	2039	2043	2045	2049	2056	2058	2064	2069	2075	2080	2082	2084	2084	2084	2082	2080	2075	2069	2064	2049	2043	2037	2030	2024	2018	2016	2014	2012	2014	2010	2014	2014	2018	2024	2028	2035	2039	2047	2051	2054	2058	2058	2058	2056	2054	2051	2047	2045	2041	2037	2032	2028	2024	2022	2014	2010	2008	2004	2002	2000	1998	1998	1996	1996	1998	2000	2006	2012	2020	2030	2041	2049	0	2058	2066	2073	2080	2084	2086	2086	2084	2084	2080	2073	2071	2069	2066	2064	2062	2060	2060	2058	2056	2056	2056	2056	2056	2056	2058
1282	1280	1279	1278	1276	1275	1275	1274	1273	1273	1273	1273	1273	1273	1274	1275	1273	1275	0	0	0	0	0	0	0	0	0	0	0	0	0	0	0	2016	2016	2016	2016	2018	2018	2020	2022	2024	2026	2028	2030	2032	2035	2037	2037	2039	2039	2039	2039	2039	2037	2037	2035	2032	2030	2026	2022	2020	2016	2014	2010	2008	2006	2002	2000	1998	1998	1996	1993	1993	1993	1996	1996	1996	1998	2000	2000	2002	2002	2004	2004	2006	2006	2006	2006	2006	2004	2004	2002	2002	2002	2006	2002	2006	2008	2012	2014	2016	2022	2022	2024	2026	2026	2028	2028	2032	2032	2035	2035	2035	2037	2037	2037	2037	2035	2032	2032	2030	2028	2026	2022	2020	2018	2014	2012	2010	2004	2002	2000	2000	1998	1998	1998	1996	1996	1996	1996	1996	2000	2000	2000	2002	2006	2008	2010	2016	2020	2026	2032	2039	2043	2047	2051	2058	2060	2064	2069	2069	2071	2071	2071	2069	2066	2066	2064	2060	2058	2056	2056	2054	2054	2049	2045	2043	2041	2039	2035	2032	2028	2028	2026	2024	2022	2022	2020	2018	2018	2018	2016	2018	2020	2022	2022	2024	2024	2028	2030	2028	2028	2028	2028	2026	2026	2028	2028	2028	2030	2032	2035	2035	2037	2037	2037	2039	2039	2039	2037	2037	2037	2037	2037	2035	2032	2032	2032	2032	2030	2030	2030	2032	2032	2030	2032	2030	2030	2032	2032	2032	2035	2035	2035	2035	2035	2035	2035	2032	2032	2032	2032	2032	2035	2035	2035	2037	2037	2037	2039	2039	2039	2039	2039	2039	2041	2037	2043	2045	2047	2049	2051	2054	2054	2058	2058	2060	2062	2062	2064	2066	2071	2069	2071	2069	2069	2069	2069	2069	2066	2066	2066	2066	2066	2069	2071	2071	2073	2073	2073	2073	2075	2077	2075	2073	2071	2069	2066	2062	2060	2054	2047	2043	2041	2037	2035	2030	2026	2024	2020	2018	2016	2014	2012	2012	2012	2012	2012	2012	2012	2012	2014	2016	2016	2018	2020	2022	2024	2026	2028	2030	2032	2035	2035	2037	2039	2041	2041	2039	2041	2039	2037	2037	2035	2035	2035	2035	2035	2037	2037	2037	2039	2037	2037	2037	2035	2032	2030	2028	2026	2024	2024	2022	2020	2020	2020	2020	2022	2024	2026	2030	2035	2039	2039	2041	2041	2041	2041	2041	2039	2039	2037	2035	2037	2037	2039	2041	2045	2049	2054	2058	2062	2064	2066	2069	2071	2071	2071	2073	2073	2069	2064	2060	2056	2049	2045	2039	2032	2026	2022	2020	2016	2010	2008	2008	2008	2010	2010	2014	2014	2016	2020	2020	2020	2022	2022	2022	2020	2018	2018	2014	2012	2010	2008	2006	2004	2002	2000	1998	2000	2000	2000	2000	2000	2002	2002	2004	2004	2008	2008	2010	2012	2014	2016	2020	2022	2022	2022	2024	2026	2024	2024	2024	2026	2026	2026	2024	2024	2024	2022	2022	2018	2016	2016	2016	2016	2014	2014	2014	2012	2012	2010	2010	2008	2006	2002	2000	1998	1993	1991	1989	1987	1983	1983	1981	1980	1980	1978	1978	1978	1978	1978	1980	1978	1978	1980	1980	1980	1980	1980	1980	1980	1981	1980	1981	1981	1981	1981	1985	1987	1989	1991	1991	1996	1998	2000	2002	2004	2004	2004	2006	2006	2006	2006	2008	2008	2008	2008	2010	2012	2012	2016	2020	2022	2024	2028	2030	2035	2037	2039	2043	2045	2047	2049	2049	2049	2049	2049	2047	2045	2045	2043	2041	2041	2039	2039	2039	2043	2043	2049	2049	2056	2060	2064	2066	2073	2075	2075	2075	2077	2073	2071	2069	2062	2058	2043	2037	2030	2022	2016	2014	2010	2010	2008	2010	2010	2012	2014	2018	2024	2028	2035	2039	2047	2051	2054	2058	2058	2058	2056	2054	2049	2047	2045	2039	2035	2030	2026	2022	2018	2010	2006	2004	2002	1996	1993	1993	1993	1991	1991	1993	1998	2002	2008	2014	2024	2035	2043	2051	0	2060	2066	2073	2077	2080	2080	2080	2080	2077	2071	2069	2069	2066	2064	2062	2060	2060	2058	2056	2056	2056	2056	2056	2056	2056
1279	1278	1277	1275	1275	1274	1272	1271	1271	1271	1271	1271	1271	1272	1271	1273	1273	1274	0	0	0	0	0	0	0	0	0	0	0	0	0	0	0	0	2016	2018	2018	2018	2020	2020	2022	2024	2028	2030	2032	2037	2037	2041	2041	2043	2043	2043	2043	2041	2041	2039	2037	2035	2032	2026	2022	2020	2018	2014	2010	2008	2006	2002	2000	1998	1996	1993	1993	1991	1991	1991	1991	1993	1993	1993	1996	1996	1998	2000	2000	2000	2002	2002	2002	2002	2000	2000	1996	1993	1996	1996	2000	2004	2006	2008	2012	2014	2018	2022	2022	2022	2022	2024	2024	2026	2028	2028	2030	2030	2030	2030	2030	2030	2030	2028	2028	2024	2024	2020	2018	2016	2012	2010	2008	2002	2000	1998	1996	1996	1996	1993	1993	1993	1991	1993	1993	1993	1996	1996	1996	1998	2002	2004	2006	2012	2016	2022	2028	2035	2039	2043	2049	2054	2058	2062	2064	2066	2066	2069	2066	2064	2064	2064	2060	2056	2056	2054	2054	2051	2051	2049	2045	2043	2041	2037	2035	2030	2028	2026	2024	2022	2020	2018	2016	2014	2014	2012	2014	2012	2014	2016	2016	2018	2020	2022	2022	2024	2024	2024	2022	2022	2022	2022	2022	2022	2024	2024	2026	2026	2030	2030	2032	2032	2035	2035	2035	2035	2035	2035	2032	2032	2030	2030	2032	2030	2032	2032	2032	2032	2032	2032	2032	2035	2032	2032	2032	2035	2032	2032	2032	2032	2032	2032	2030	2030	2030	2028	2028	2028	2030	2030	2032	2035	2035	2035	2037	2039	2041	2041	2041	2043	2045	2045	2045	2047	2051	2051	2054	2056	2056	2058	2058	2060	2060	2062	2062	2062	2066	2066	2066	2066	2066	2066	2066	2064	2064	2064	2064	2064	2066	2069	2071	2071	2071	2073	2073	2075	2075	2077	2077	2075	2073	2069	2066	2064	2058	2056	2047	2043	2041	2037	2035	2030	2026	2022	2020	2016	2014	2012	2012	2010	2010	2010	2010	2010	2010	2010	2010	2012	2012	2014	2016	2018	2020	2022	2026	2028	2032	2032	2035	2037	2037	2041	2041	2039	2041	2039	2037	2035	2035	2032	2032	2032	2035	2035	2035	2035	2035	2035	2035	2032	2030	2030	2028	2026	2024	2024	2022	2020	2020	2020	2022	2022	2024	2026	2030	2032	2039	2041	2043	2045	2045	2045	2045	2045	2043	2043	2041	2039	2039	2039	2043	2047	2049	2054	2056	2060	2064	2066	2071	2073	2075	2075	2077	2075	2077	2071	2066	2064	2058	2054	2045	2039	2032	2028	2024	2020	2014	2010	2008	2006	2010	2010	2012	2010	2012	2014	2016	2016	2018	2018	2018	2016	2016	2014	2014	2012	2008	2004	2002	2000	1998	1996	1993	1993	1993	1996	1996	1998	1998	2000	2002	2002	2004	2008	2008	2008	2010	2010	2014	2016	2018	2018	2018	2020	2020	2020	2020	2022	2026	2024	2024	2022	2022	2022	2022	2022	2014	2012	2012	2012	2012	2008	2008	2006	2006	2004	2002	2000	2000	1998	1996	1993	1989	1987	1985	1985	1981	1980	1980	1978	1976	1976	1976	1974	1974	1976	1978	1978	1978	1978	1980	1981	1981	1981	1983	1983	1985	1985	1985	1987	1987	1985	1987	1989	1989	1991	1993	1996	1998	2000	2004	2004	2006	2006	2006	2006	2006	2008	2008	2010	2010	2012	2012	2016	2016	2018	2020	2022	2026	2028	2032	2035	2037	2041	2043	2045	2047	2049	2051	2051	2054	2054	2051	2051	2049	2047	2045	2043	2043	2041	2041	2041	2043	2045	2047	2049	2054	2056	2056	2062	2062	2066	2069	2069	2069	2066	2062	2060	2056	2047	2039	2028	2022	2016	2014	2010	2008	2008	2008	2008	2008	2012	2014	2018	2022	2028	2032	2039	2047	2051	2054	2058	2058	2058	2056	2054	2051	2047	2043	2039	2035	2030	2024	2018	2010	2006	2002	2000	1996	1991	1989	1989	1989	1989	1989	1991	1993	1998	2002	2010	2018	2026	2037	2043	2051	0	2060	2064	2069	2071	2073	2073	2073	2071	2069	2066	2064	2062	2062	2060	2060	2058	2056	2056	2054	2054	2054	2054	2056	2054
1277	1275	1274	1273	1272	1271	1270	1270	1270	1269	1269	1270	1270	1271	1270	1271	1271	1272	0	0	0	0	0	0	0	0	0	0	0	0	0	0	0	2020	2018	2020	2018	2020	2020	2022	2024	2026	2028	2032	2035	2039	2041	2043	2045	2045	2047	2047	2047	2045	2045	2043	2039	2037	2035	2030	2024	2020	2018	2014	2012	2008	2006	2002	2000	1998	1996	1993	1991	1989	1989	1987	1989	1989	1989	1991	1991	1993	1996	1996	1998	1998	2000	1998	1998	1996	1996	1996	1993	1991	1991	1993	1998	2000	2002	2004	2008	2012	2016	2018	2018	2018	2020	2020	2022	2022	2022	2024	2024	2026	2026	2026	2026	2026	2026	2024	2022	2022	2018	2018	2014	2012	2008	2006	2000	1998	1996	1993	1991	1991	1989	1989	1989	1989	1989	1991	1991	1991	1993	1993	1996	1998	2000	2002	2004	2010	2016	2020	2026	2030	2035	2041	2045	2049	2054	2060	2062	2064	2064	2062	2062	2060	2060	2056	2056	2054	2051	2049	2049	2049	2049	2045	2045	2043	2041	2037	2032	2032	2028	2026	2024	2022	2018	2016	2014	2012	2010	2008	2008	2008	2010	2012	2012	2012	2016	2018	2018	2020	2020	2020	2020	2018	2018	2018	2018	2016	2016	2018	2020	2020	2022	2024	2026	2026	2030	2032	2032	2035	2035	2032	2032	2032	2032	2030	2030	2030	2030	2032	2032	2032	2035	2035	2032	2032	2035	2035	2032	2032	2032	2030	2030	2030	2028	2028	2026	2024	2022	2022	2022	2024	2024	2026	2022	2024	2026	2030	2032	2037	2039	2041	2043	2043	2045	2047	2047	2047	2049	0	2054	2054	2056	2056	2056	2056	2058	2058	2058	2058	2060	2060	2062	2062	2062	2062	2062	2062	2062	2062	2062	2062	2064	2066	2066	2069	2069	2069	2071	2071	2073	2075	2075	2073	2071	2069	2064	2062	2058	2054	2045	2043	2037	2035	2032	2028	2026	2022	2018	2016	2014	2012	2012	2010	2010	2008	2008	2008	2008	2006	2006	2008	2008	2010	2012	2016	2018	2020	2024	2026	2030	2030	2032	2035	2037	2037	2039	2037	2037	2037	2035	2032	2032	2032	2032	2032	2032	2030	2030	2032	2032	2032	2032	2030	2028	2028	2024	2024	2024	2022	2020	2020	2018	2020	2022	2024	2026	2030	2032	2037	2041	2045	2047	2047	2049	2049	2049	2049	2047	2045	2043	2043	2043	2045	2045	2049	2054	2058	2060	2064	2069	2073	2073	2075	2077	2077	2080	2080	2077	2075	2071	2064	2060	2054	2047	2039	2032	2026	2022	2018	2014	2012	2008	2008	2008	2010	2010	2010	2010	2012	2012	2012	2012	2014	2012	2010	2010	2010	2008	2004	2002	1998	1996	1993	1993	1991	1989	1989	1989	1993	1996	1998	1998	2000	2004	2004	2006	2008	2008	2008	2010	2010	2012	2014	2016	2016	2016	2018	2020	2020	2020	2024	2026	2026	2026	2024	2022	2022	2020	2014	2010	2006	2004	2004	2004	2002	2002	2000	1998	1998	1996	1993	1991	1989	1987	1985	1983	1981	1981	1978	1978	1976	1974	1974	1972	1972	1972	1972	1974	1976	1976	1978	1978	1980	1981	1983	1983	1985	1987	1989	1991	1991	1991	1991	1991	1991	1993	1993	1993	1996	1996	2000	2002	2004	2006	2006	2008	2008	2008	2010	2010	2012	2012	2014	2014	2014	2016	2018	2018	2020	2022	2024	2026	2028	2032	2035	2037	2041	2043	2045	2049	2051	2051	2054	2054	2054	2054	2051	2051	2049	2047	2045	2043	2041	2041	2041	2043	2045	2045	2047	2049	2051	2054	2056	2060	2062	2062	2062	2060	2060	2058	2041	2039	2037	2030	2024	2020	2016	2012	2010	2010	2008	2008	2008	2010	2010	2012	2016	2022	2028	2032	2039	2047	2049	2054	2056	2060	2058	2058	2056	2051	2047	2043	2039	2032	2028	2022	2010	2006	2000	1998	1993	1991	1987	1987	1987	1985	1985	1985	1987	1989	1993	2000	2006	2014	2020	2028	2035	2043	2049	2056	0	2060	2062	2064	2064	2064	2064	2062	2062	2062	2058	2058	2056	2056	2056	2054	2054	2054	2051	2051	2051	2051	2049
1273	1273	1271	1270	1269	1268	1267	1267	1267	1266	1267	1267	1268	1269	1270	1270	1270	1270	0	0	0	0	0	0	0	0	0	0	0	0	0	0	0	2018	2018	2018	2018	2020	2020	2022	2024	2026	2030	2032	2037	2039	2041	2045	2047	2047	2049	2049	2049	2049	2047	2045	2043	2039	2037	2032	2024	2022	2018	2014	2012	2010	2006	2004	2000	1998	1996	1991	1989	1987	1987	1987	1985	1987	1987	1987	1987	1989	1991	1991	1993	1996	1996	1996	1998	1996	1996	1993	1991	1991	1989	1991	1993	1996	2000	2002	2004	2008	2012	2014	2016	2016	2016	2016	2018	2018	2020	2020	2022	2022	2022	2022	2022	2022	2022	2020	2020	2016	2016	2012	2010	2008	2004	1998	1996	1991	1991	1989	1987	1985	1985	1985	1985	1985	1987	1987	1987	1989	1993	1993	1996	1998	2002	2004	2006	2010	2014	2018	2022	2026	2030	2035	2041	2043	2049	2051	2058	2058	2058	2060	2056	2054	2051	2047	2045	2043	2043	2041	2043	2043	2045	2043	2043	2039	2039	2037	2032	2030	2028	2026	2024	2020	2018	2014	2010	2008	2006	2006	2002	2004	2004	2006	2008	2010	2010	2012	2014	2018	2018	2016	2016	2016	2016	2014	2014	2012	2012	2010	2014	2014	2016	2016	2018	2022	2024	2026	2028	2028	2028	2028	2030	2030	2030	2030	2030	2030	2030	2030	2035	2035	2035	2035	2035	2035	2032	2032	2032	2032	2030	2028	2028	2026	2024	2024	2022	2020	2018	2016	2014	2012	2012	2012	2016	2018	2020	2024	2026	2030	2035	2037	2039	2043	2045	2045	2047	2047	2049	2051	2054	2051	2054	2054	2054	2051	2054	2054	2054	2054	2054	2058	2058	2056	2058	2058	2060	2060	2060	2060	2060	2062	2062	2064	2066	2066	2066	2069	2069	2069	2069	2071	2069	2066	2066	2064	2062	2058	2056	2045	2043	2041	2037	2032	2030	2028	2024	2022	2020	2018	2016	2014	2012	2012	2010	2008	2008	2006	2006	2004	2004	2004	2006	2006	2010	2012	2014	2018	2022	2026	2028	2030	2030	2032	2035	2037	2037	2037	2035	2035	2032	2032	2030	2028	2030	2028	2028	2028	2030	2030	2030	2030	2030	2028	2028	2026	2024	2024	2022	2020	2020	2020	2022	2022	2024	2026	2030	2032	2037	2041	2043	2047	2049	2049	2051	2051	2051	2049	2049	2047	2045	2045	2045	2047	2051	2054	2056	2060	2062	2066	2066	2071	2073	2073	2075	2075	2077	2077	2075	2071	2069	2064	2060	2054	2047	2039	2032	2028	2022	2018	2014	2012	2008	2010	2008	2008	2010	2010	2010	2008	2010	2010	2008	2008	2006	2006	2006	2004	2004	2000	1998	1993	1993	1993	1991	1991	1989	1991	1991	1996	1998	2000	2004	2004	2006	2008	2008	2012	2010	2010	2010	2010	2012	2014	2014	2016	2014	2018	2020	2022	2024	2026	2028	2030	2028	2026	2024	2024	2020	2014	2006	2002	2000	2000	1998	1996	1993	1991	1989	1989	1987	1985	1985	1983	1981	1980	1978	1978	1976	1976	1974	1972	1972	1970	1970	1970	1970	1970	1972	1974	1974	1976	1980	1981	1983	1985	1987	1991	1991	1993	1996	1998	1998	1998	2000	1998	2000	2000	2000	2000	2002	2002	2004	2004	2004	2006	2006	2008	2008	2010	2010	2012	2012	2014	2014	2016	2016	2018	2020	2022	2022	2024	2026	2030	2032	2035	2037	2041	2043	2045	2047	2049	2051	2054	2054	2054	2054	2051	2049	2049	2047	2045	2043	2043	2041	2041	2041	2041	2043	2045	2045	2047	2049	2049	2054	2054	2054	2054	2045	2043	2039	2037	2035	2030	2028	2024	2020	2016	2014	2012	2010	2010	2010	2010	2010	2012	2012	2016	2022	2026	2032	2037	2045	2047	2054	2054	2056	2056	2054	2049	2047	2045	2041	2037	2030	2026	2018	2008	2002	1998	1993	1991	1987	1987	1983	1983	1983	1983	1985	1987	1989	1993	1998	2004	2010	2016	2020	2028	2035	2041	2047	2051	2054	2056	2058	2058	2056	2058	2058	2056	2056	2056	2054	2054	2051	2051	2051	2049	2049	2049	2049	2049	2049	2047
1270	1269	1268	1267	1266	1266	1265	1264	1264	1265	1265	1266	1266	1267	1268	1269	1268	1268	1269	0	0	0	0	0	0	0	0	0	0	0	0	0	2020	2020	2018	2020	2022	2020	2022	2022	2024	2028	2030	2032	2037	2039	2043	2045	2047	2049	2051	2051	2051	2049	2049	2047	2045	2041	2037	2032	2026	2022	2018	2014	2012	2010	2006	2004	2002	1998	1993	1991	1989	1987	1985	1985	1985	1985	1985	1985	1987	1989	1991	1993	1993	1996	1996	1998	1998	1998	1996	1996	1993	1991	1991	1991	1993	1996	1998	2000	2002	2006	2008	2010	2012	2012	2014	2014	2016	2016	2018	2018	2020	2020	2020	2020	2020	2020	2018	2018	2016	2014	2012	2008	2006	2002	1996	1993	1991	1989	1987	1985	1983	1983	1983	1983	1985	1985	1985	1987	1989	1991	1993	1998	1998	2000	2004	2006	2010	2012	2014	2018	2020	2022	2024	2028	2030	2035	2037	2041	2045	2045	2047	2045	2043	2043	2041	2037	2037	2035	2032	2035	2035	2037	2039	2039	2039	2039	2037	2035	2030	2028	2028	2026	2022	2018	2016	2012	2008	2006	2002	2002	2000	2000	2002	2002	2004	2006	2008	2008	2010	2012	2012	2012	2012	2012	2010	2010	2010	2008	2008	2008	2008	2010	2012	2012	2014	2014	2018	2022	2022	2024	2024	2026	2028	2028	2028	2028	2028	2030	2032	2032	2035	2035	2037	2037	2035	2035	2035	2035	2032	2030	2030	2028	2026	2024	2024	2020	2018	2016	2014	2010	2010	2008	2006	2008	2010	2012	2016	2018	2022	2026	2030	0	2037	2037	2039	2041	2043	2045	2047	2047	2049	2049	2049	2049	2049	2047	2047	2047	2047	2049	2049	2049	2051	2054	2054	2056	2056	2056	2058	2058	2060	2060	2062	2064	2064	2064	2064	2064	2064	2064	2064	2066	2064	2064	2064	2062	2058	2054	2051	2045	2041	2039	2035	2032	2030	2028	2024	2022	2020	2018	2016	2014	2014	2012	2010	2008	2006	2006	2004	2002	2002	2002	2004	2006	2006	2010	2014	2018	2020	2024	2026	2028	2030	2032	2032	2035	2035	2035	2032	2030	2030	2028	2028	2028	2028	2028	2028	2026	2026	2028	2028	2028	2028	2028	2026	2024	2024	2022	2022	2020	2020	2022	2022	2024	2026	2028	2032	2035	2037	2041	2043	2045	2047	2047	2049	2049	2051	2051	2051	2049	2047	2047	2049	2051	2054	2056	2060	2062	2062	2064	2069	2069	2069	2069	2071	2071	2073	2071	2071	2066	2064	2062	2056	2051	2043	2037	2032	2028	2024	2020	2016	2012	2010	2008	2008	2008	2008	2006	2004	2004	2004	2002	2002	2002	2000	2000	2000	1998	1996	1996	1993	1991	1989	1991	1989	1989	1989	1989	1991	1996	2000	2002	2004	2006	2008	2010	2010	2014	2012	2012	2012	2012	2014	2014	2016	2018	2016	2020	2022	2026	2026	2028	2032	2035	2032	2030	2026	2024	2022	2010	2002	1998	1993	1991	1991	1989	1987	1985	1983	1981	1981	1980	1978	1976	1976	1974	1974	1974	1972	1972	1970	1968	1968	1968	1966	1966	1968	1970	1970	1972	1974	1976	1980	1983	1985	1987	0	1991	1996	1998	2000	2002	2004	2004	2006	2006	2006	2006	2006	2006	2006	2006	2006	2006	2008	2008	2008	2010	2010	2012	2012	2012	2014	2016	2014	2014	2014	2016	2016	2018	2020	2022	2022	2026	2030	2032	2035	2039	2041	2045	2047	2049	2049	2051	2051	2051	2051	2051	2049	2049	2047	2045	2043	2045	2043	2043	2043	2041	2043	2043	2043	2045	2045	2045	2041	2043	2041	2041	2041	2037	2037	2035	2032	2030	2028	2024	2022	2020	2016	2016	2012	2012	2012	2012	2012	2014	2014	2016	2022	2026	2030	2035	2037	2043	2045	2047	2049	2047	2045	2043	2041	2039	2032	2030	2026	2022	2016	2004	1998	1993	1991	1987	1985	1983	1983	1981	1981	1981	1983	1985	1989	1993	1998	2002	2008	2010	2016	2022	2028	2035	2039	2043	2047	2049	2049	2049	2049	2049	2049	2049	2049	2049	2047	2047	2047	2049	2047	2047	2047	2045	2045	2045	2043	2041
1266	1265	1264	1263	1262	1262	1262	1262	1262	1262	1262	1263	1264	1266	1266	1266	1266	1267	1267	0	0	0	0	0	0	0	0	0	0	0	0	0	2022	2020	2020	2020	2020	2020	2020	2022	2024	2026	2028	2032	2037	2039	2041	2045	2047	2049	2051	2051	2051	2051	2051	2049	2047	2043	2039	2035	2026	2022	2018	2014	2012	2010	2006	2004	2000	1998	1993	1991	1987	1985	1985	1983	1983	1985	1985	1987	1989	1991	1993	1996	1996	1998	1998	2000	2000	2000	2000	1998	1996	1993	1993	1991	1993	1996	1996	1998	2000	2002	2004	2006	2008	2010	2010	2010	2012	2014	2014	2016	2016	2018	2018	2018	2018	2016	2016	2014	2012	2010	2006	2004	2002	1998	1993	1989	1987	1985	1983	1981	1981	1981	1980	1983	1985	1985	1985	1987	1989	1993	1996	2000	2002	2004	2006	2008	2010	2014	2014	2016	2016	2018	2018	2020	2020	2020	2024	2026	2030	2030	2030	2028	2028	2028	2028	2024	2024	2022	2024	2026	2028	2030	2032	2032	2035	2035	2035	2030	2028	2028	2026	2024	2022	2018	2014	2010	2006	2004	2002	2000	1998	1998	1998	1998	2000	2002	2004	2006	2008	2008	2008	2008	2010	2008	2008	2006	2006	2004	2004	2004	2004	2006	2008	2008	2010	2010	2012	2014	2018	2018	2020	2020	2022	2024	2028	2028	2028	2030	2032	2035	2037	2037	2037	2037	2037	2037	2037	2035	2032	2032	2030	2028	2026	2024	2022	2020	2018	2014	2012	2008	2006	2002	2002	2000	2002	2002	2004	2006	2008	2012	2016	2022	2024	2028	2032	2035	2037	2039	2043	2043	2045	2045	2045	2045	2045	2045	2043	2043	2043	2043	2043	2045	2045	2047	2049	2051	2054	2056	2058	2058	2060	2060	2062	2062	2062	2060	2060	2058	2058	2058	2056	2058	2056	2054	2054	2051	2051	2047	2045	2041	2039	2037	2032	2030	2030	2028	2026	2024	2022	2020	2018	2016	2014	2012	2010	2008	2006	2004	2004	2002	2000	2002	2002	2004	2006	2008	2012	2016	2020	2024	2026	2026	2028	2030	2032	2032	2032	2032	2030	2030	2028	2028	2026	2026	2026	2026	2026	2026	2026	2028	2028	2028	2026	2026	2024	2022	2022	2022	2020	2020	2020	2018	2020	2020	2024	2026	2030	2030	2035	2037	2041	2043	2045	2047	2047	2047	2049	2049	2049	2049	2047	2047	2049	2051	2054	2058	2058	2062	2062	2064	2064	2064	2064	2064	2064	2064	2064	2064	2062	2060	2051	2049	2047	2043	2039	2035	2030	2026	2024	2020	2016	2014	2012	2010	2010	2008	2008	2006	2002	2000	1998	1996	1998	1996	1993	1993	1993	1991	1991	1989	1989	1987	1989	1989	1989	1989	1993	1993	1998	2002	2006	2008	2012	2014	2016	2018	2018	2018	2016	2014	2014	2014	2016	2016	2018	2020	2020	2022	2026	2028	2030	2032	2037	2037	2037	2032	2030	2028	2022	2008	2002	1993	1989	1987	1985	1983	1980	1980	1978	1976	1976	1974	1972	1972	1972	1970	1970	1970	1968	1968	1966	1964	1964	1964	1964	1964	1964	1966	1968	1970	1972	1976	1980	1983	1985	0	1989	1993	1998	2000	2004	2006	2008	2010	2010	2010	2010	2010	2008	2008	2008	2006	2006	2006	2008	2008	2010	2010	2012	2012	2012	2012	2012	2014	2012	2010	2012	2014	2014	2014	2014	2018	2018	2020	2024	2026	2028	2032	2037	2041	2043	2045	2047	2049	2047	2049	2049	2049	2049	2047	2047	2045	2043	2045	2045	2043	2043	2043	2043	2043	2041	2041	2039	2039	2039	2039	2037	2037	2035	2035	2032	2032	2032	2030	2028	2026	2026	2024	2022	2018	2016	2014	2014	2014	2014	2016	2016	2018	2020	2022	2026	2028	2030	2035	2037	2035	2035	2035	2035	2032	2030	2028	2026	2022	2018	2016	2004	2000	1993	1991	1987	1985	1983	1981	1980	1981	1981	1983	1983	1987	1989	1993	1998	2002	2006	2010	2014	2020	2024	2028	2032	2037	2041	2041	2043	2043	2045	2045	2045	2045	2043	2043	2043	2043	2041	2043	2043	2041	2041	2041	2041	2041	2039	2037
