3756	3756	3763	3763	3763	3763	3763	3763	3756	3756	3749	3742	3742	3742	3734	3727	3720	3706	3700	3693	3686	3686	3679	3679	3679	3686	3686	3693	3706	3713	3727	3742	3749	3756	3770	3770	3777	3777	3785	3785	3792	3799	3799	3806	3814	3821	3829	3829	3836	3836	0	0	0	0	0	0	0	0	0	0	0	0	0	0	0	0	0	0	0	0	0	0	0	0	0	0	0	0	0	0	9878	9590	9452	9363	9275	9319	9319	9407	9544	9732	9878	10079	10236	10398	10453	10564	10679	10795	10621	10564	10621	10621	10508	10508	10453	10453	10453	10621	10679	10737	10737	10795	10795	10855	10855	10915	10915	10915	10975	10975	11037	11099	11161	11225	11289	11354	11354	11354	11354	11289	11225	11225	11161	11099	11037	11037	10975	10975	10855	10855	10795	10679	10508	10453	10343	10236	10183	10131	10028	10028	9978	10028	9978	9978	10028	10028	10079	10079	10079	10079	10079	10131	10131	10131	10183	10183	10183	10289	10398	10453	10564	10679	10795	10975	11099	11225	11289	11354	11419	11553	11553	11621	11621	11690	11690	11690	11621	11621	11621	11621	11621	11621	11690	11690	11759	11830	11830	11901	11901	11901	11901	11901	11830	11830	11759	11690	11690	11621	11486	11354	11289	11161	11099	11037	10795	10621	10131	8703	0	0	0	6585	6520	6456	6332	6272	6193	6116	6023	5950	5897	5862	5845	5845	5845	5862	5897	5933	5950	5987	6023	6041	6079	6079	6097	6097	6116	6097	6116	6116	6135	6174	6193	6212	6212	6212	6212	6232	6232	6292	6332	6373	6373	6373	6373	6414	6393	6373	6312	6193	6154	6097	6079	6060	6041	6041	0	0	0	0	0	0	0	0	0	9021	9021	9062	9062	9062	9062	9104	9062	9021	0	0	0	0	0	0	0	0	9275	9407	9544	9684	9780	9829	9878	9878	9829	9780	9684	9637	9498	9407	9275	9232	9021	8939	8859	8819	8819	8780	8819	8819	8780	8741	8741	8703	8627	8589	8552	8589	8665	8741	8859	8899	9021	9104	9189	9189	9189	9146	9146	9104	9021	9021	9021	9062	9104	9232	9275	9363	9452	9590	0	0	0	0	0	0	0	0	0	0	0	0	9978	9978	10079	10131	10131	10236	10289	10398	10564	10679	10795	10915	11099	11225	11419	11553	11690	11759	11830	11973	11973	12120	12120	12120	12046	11901	11759	11621	11486	11225	10975	10737	10508	10183	10079	9927	9780	9637	9498	9363	9189	9021	8899	8741	8479	8371	8336	8301	8301	8301	8301	8301	8266	8266	8266	8266	8266	8266	8266	8266	8266	8266	8301	8301	8266	8266	8231	8231	8197	8163	8163	8130	8130	8097	8063	8063	8031	7998	7998	7966	7934	7902	7839	7808	7808	7778	7778	7747	7717	7717	7687	7687	7687	7657	7657	7628	7628	7598	7598	7569	7569	7540	7512	7483	7483	7483	7455	7455	7427	7427	0	0	0	0	0	0	0	0	0	0	2075	2071	2069	2064	2060	2054	2047	2041	2035	2028	2022	2012	2008	2004	2000	1996	1993	1996	1996	1996	1998	2002	2004	2006	2006	2008	2008	2008	2008	2006	2004	2002	1998	1993	1989	1983	1981	1978	1974	1972	1970	1968	1968	1968	1964	1964	1962	1960	1960	1960	1960	1958	1958	1956	1956	1954	1952	1950	1948	1944	1943	1939	1935	1931	1927	1925	1924	1922	1922	1920	1922	1922	1924	1924	1925	1925	1925	1927	1927	1927	1927	1927	1925	1925	1924	1924	1924	1922	1924	1922	1922	1922	1920	1920	1918	1916	1912	1911	1911	1909	1907	1907	1907	1907	1907	1905	1905	1905	1905	1903	1903	1901	1901	1901	1900	1900	1898	1898	1894	1894	1894	1894	1892	1894	1894	1896	1896	1898	1898	1898	1898	1900	1900	1901	1903	1905	1907	1909	0	1912	1914	1916	0	1918	1920	1922	1922	1924	1925	1929	1929	1931	1933	1935	1935	1935	1937	1937	1937	1937	1937	1935	1937	1935	1937	1935	1935	1933	1933	1931	1931	1931	0	0	0	0
3763	3763	3763	3763	3770	3770	3770	3763	3763	3756	3756	3749	3749	3742	3742	3734	3727	3720	3700	3693	3686	3679	3672	3672	3679	3679	3686	3693	3700	3713	3727	3734	3749	3756	3763	3777	3777	3785	3792	3792	3799	3806	3806	3814	3821	3829	3836	3836	3836	3836	0	0	0	0	0	0	0	0	0	0	0	0	0	0	0	0	0	0	0	0	0	0	0	0	0	0	0	0	10398	10236	10079	9732	9590	9498	9452	9498	9498	9544	9684	9829	9978	10236	0	10398	10508	10621	10737	10855	10679	10621	10621	10621	10564	10564	10508	10508	10508	10621	10737	10737	10737	10795	10795	10855	10855	10915	10915	10915	10915	10975	11037	11037	11099	11161	11225	11225	11225	11225	11225	11225	11161	11161	11099	11037	11037	11037	10975	10915	10855	10795	10737	10621	10508	10398	10289	10236	10183	10079	10028	10028	9978	10028	10028	10028	10028	10028	10079	10079	10079	10079	10079	10131	10131	10131	10183	10131	10183	10236	10289	10398	10508	10621	10737	10855	11037	11161	11225	11354	11419	11486	11553	11621	11621	11690	11690	11621	11621	11621	11621	11553	11621	11621	11621	11621	11690	11759	11759	11759	11759	11759	11759	11759	11690	11621	11486	11419	11419	11289	11225	11099	11037	10915	10795	10737	10564	10398	0	0	7871	6883	6674	6542	6477	6373	6312	6252	6174	6116	6023	5950	5915	5880	5862	5845	5862	5862	5897	5933	5968	6005	6023	6060	6079	6097	6097	6116	6116	6116	6135	6174	6174	6193	6212	6232	6232	6232	6232	6232	6252	6272	6312	6332	6332	6332	6352	6373	6352	6332	6232	6154	6116	6097	6060	6041	6060	6116	6252	0	0	0	0	0	0	0	8980	9021	9062	9062	9062	9062	9104	9104	9104	9062	9021	0	0	0	9062	0	0	9275	9363	9498	9684	9732	9829	9878	9878	9829	9780	9732	9684	9544	9452	9319	9232	9062	8939	8819	8741	8741	8703	8703	8741	8741	8703	8665	8665	8627	8552	8552	8552	8589	8627	8741	8819	8939	9021	9104	9189	9189	9189	9146	9146	9104	9021	9021	9062	9062	9104	9232	9275	9363	9452	9544	9684	9684	9732	9732	9732	9732	9732	9732	9732	9732	9732	9732	9780	9780	9878	9927	9978	10079	10079	10236	10343	10508	10679	10737	10915	11037	11225	11419	11486	11553	11621	11759	11830	11973	11973	11973	11901	11759	11690	11621	11419	11225	10975	10795	10564	10236	10131	10028	9878	9732	9590	9452	9275	9146	8980	8859	8703	8479	8443	8443	8443	8443	8407	8407	8371	8371	8371	8371	8336	8336	8336	8336	8336	8301	8336	8301	8266	8266	8231	8231	8197	8163	8163	8130	8130	8097	8063	8063	8031	8031	7998	7966	7934	7902	7871	7871	7871	7839	7839	7839	7808	7808	7778	7778	7747	7747	7747	7717	7717	7687	7687	7657	7628	7598	7569	7540	7512	7512	7483	7455	7455	7427	7427	0	0	0	0	0	0	0	0	2080	2075	2071	2069	2064	2058	2054	2049	2041	2035	2028	2024	2018	2008	2006	2002	1996	1996	1996	1998	1998	2000	2000	2004	2006	2008	2008	2008	2008	2008	2006	2004	2000	1996	1991	1989	1983	1980	1976	1972	1970	1968	1968	1966	1964	1962	1962	1960	1960	1960	1960	1958	1958	1958	1956	1956	1954	1952	1950	1948	1944	1943	1941	1939	1933	1931	1929	1927	1925	1925	1924	1924	1924	1924	1927	1927	1929	1929	1929	1929	1935	1933	1931	1931	1929	1927	1925	1924	1924	1924	1924	1922	1922	1922	1922	1920	1918	1916	1914	1914	1912	1911	1909	1909	1907	1907	1907	1905	1905	1903	1903	1901	1901	1900	1900	1900	1900	1898	1896	1896	1896	1894	1892	1892	1892	1894	1896	1896	1896	1896	1894	1896	1896	1896	1898	1900	1901	1905	1907	1909	1912	0	1914	1916	1918	0	1920	1922	1925	1927	1929	1933	1933	1937	1937	1939	1939	1939	1939	1939	1939	1939	1941	1941	1939	1941	1937	1937	1937	1935	1935	1933	1933	1933	0	0	0
3763	3770	3770	3770	3770	3770	3770	3763	3763	3756	3756	3749	3749	3749	3742	3734	3727	3706	3700	3686	3679	3672	3665	3665	3665	3665	3672	3679	3693	3700	3713	3727	3742	3749	3763	3770	3777	3785	3792	3799	3799	3806	3814	3821	3829	3829	3836	3843	3843	3843	3843	0	0	0	0	0	0	0	0	0	0	0	0	0	0	0	0	0	11690	11621	11553	11486	11419	11354	11225	11161	10975	10737	10621	10453	10289	10131	9780	9684	9684	9684	9684	9927	9978	10079	10183	0	10343	10453	10564	10621	10737	10855	10679	10679	10679	10679	10621	10564	10564	10508	10508	10679	10737	10737	10737	10795	10795	10855	10855	10855	10915	10915	10915	10915	10975	10975	10975	11037	11099	11099	11037	11037	11099	11099	11099	11037	11037	11037	10975	11037	10975	10915	10855	10795	10737	10621	10398	10343	10289	10236	10183	10079	10028	10028	10028	10028	10028	10028	10079	10079	10079	10079	10131	10131	10131	10131	10131	10131	10131	10131	10131	10183	10289	10343	10508	10564	10737	10855	10975	11099	11225	11289	11354	11486	11553	11621	11621	11690	11690	11621	11621	11621	11553	11553	11553	11553	11553	11553	11621	11690	11690	11690	11690	11690	11621	11553	11553	11486	11289	11225	11225	11099	11037	10915	10795	10679	10564	10564	10398	10236	0	0	7158	6812	6629	6499	6456	6332	6292	6232	6154	6079	6005	5950	5915	5880	5862	5862	5862	5880	5915	5933	5968	6005	6023	6041	6079	6097	6097	6135	6154	6154	6174	6193	6212	6232	6232	6252	6252	6252	6252	6252	6252	6272	6292	6312	6292	6272	6292	6292	6292	6193	6135	6079	6060	6023	6005	6023	6079	6154	6332	0	0	0	0	0	0	0	9021	9062	9062	9104	9104	9104	9104	9146	9146	9146	9104	9062	9104	9146	0	0	0	9407	9498	9684	9780	9878	9927	9927	9927	9878	9878	9780	9637	9544	9407	9275	9189	8980	8859	8741	8703	8665	8627	8627	8627	8627	8627	8589	8552	8515	8515	8479	8515	8552	8627	8703	8819	8899	9021	9104	9189	9189	9189	9104	9104	9062	9062	9021	9062	9104	9146	9232	9319	9363	9407	9498	9590	9590	9590	9544	9544	9452	9407	9407	9363	9407	9407	9407	9452	9498	9544	9637	9732	9780	9878	9978	10131	10289	10398	10564	10737	10795	10975	11161	11289	11419	11486	11621	11690	11830	11830	11901	11830	11759	11690	11553	11354	11225	11037	10855	10621	10453	10183	10028	9878	9732	9590	9452	9275	9146	9021	8899	8780	8665	8627	8589	8589	8589	8552	8552	8552	8515	8515	8515	8479	8443	8443	8407	8407	8407	8371	8336	8336	8301	8266	8231	8197	8197	8163	8163	8130	8097	8097	8063	8031	8031	7998	7966	7966	7966	7934	7934	7902	7934	7902	7902	7902	7871	7871	7839	7839	7839	7808	7808	7778	7747	7747	7717	7687	7657	7598	7569	7540	7512	7512	7483	7483	7455	7455	0	0	0	0	0	0	0	0	2080	2077	2073	2069	2064	2058	2054	2047	2041	2035	2030	2024	2020	2012	2008	2004	2000	1998	1998	2000	2002	2002	2004	2006	2006	2008	2008	2008	2008	2008	2006	2004	2000	1998	1993	1989	1983	1980	1976	1972	1970	1968	1968	1966	1966	1964	1962	1962	1960	1960	1960	1958	1958	1958	1956	1956	1954	1952	1950	1948	1946	1944	1943	1941	1939	1935	1931	1931	1929	1929	1929	1927	1927	1927	1931	1931	1935	1935	1937	1937	1937	1937	1937	1933	1933	1929	1925	1925	1924	1924	1924	1924	1924	1924	1922	1922	1922	1920	1918	1916	1914	1912	1912	1911	1909	1909	1907	1907	1905	1905	1903	1903	1901	1901	1901	1901	1901	1901	1900	1898	1898	1896	1896	1896	1896	1896	1896	1896	1894	1894	1894	1892	1894	1894	1896	1896	1900	1901	1905	1907	1911	1912	1914	1916	0	1918	1920	1922	1925	1929	1931	1933	1937	1939	1941	1941	1943	1943	1943	1943	1943	1943	1943	1943	1943	1943	1941	1941	1939	1939	1937	1937	1935	1935	0	0	0
3763	3770	3770	3770	3770	3770	3770	3763	3763	3763	3756	3756	3749	3749	3742	3734	3727	3700	3686	3679	3665	3665	3652	3652	3658	3658	3658	3665	3679	3693	3700	3713	3727	3742	3749	3763	3770	3785	3792	3792	3799	3806	3814	3821	3829	3836	3843	3843	3843	3843	3843	0	0	0	0	0	0	0	0	0	0	0	0	0	0	11973	11973	11830	11830	11690	11690	11621	11553	11486	11419	11289	11099	10975	10737	10621	10453	10289	10131	9978	10183	10183	10183	10131	10131	10236	10343	10398	10453	10564	10679	10737	10795	10915	10855	10737	10737	10737	10621	10621	10564	10564	10564	10679	10737	10737	10737	10795	10795	10795	10795	10855	10855	10855	10855	10855	10855	10855	10855	10855	10855	10915	10915	10915	10915	10975	10975	10975	10975	10975	10975	10975	10975	10915	10855	10737	10679	10564	10398	10343	10236	10183	10131	10079	10028	10028	10028	10028	10079	10079	10079	10079	10079	10131	10131	10131	10131	10131	10131	10079	10079	10079	10131	10183	10236	10289	10453	10508	10679	10795	10915	11037	11161	11289	11354	11419	11486	11553	11621	11621	11621	11621	11621	11553	11553	11486	11486	11486	11486	11419	11419	11486	11486	11486	11486	11486	11419	11354	11354	11161	11099	11037	10975	10915	10795	10679	10564	10453	10343	10289	10183	9978	0	0	0	6697	6542	6456	6332	6292	6252	6193	6135	6060	6005	5950	5915	5897	5880	5880	5880	5897	5915	5950	5968	6005	6041	6097	6116	6135	6154	6174	6193	6193	6193	6212	6232	6252	6252	6272	6272	6272	6252	6252	6272	6272	6272	6272	6252	6232	6232	6232	6174	6135	6079	6041	6005	5987	5968	6023	6116	6272	0	0	0	0	0	0	0	8980	9021	9104	9104	9146	9146	9104	9146	9146	9189	9189	9146	9189	9275	9319	9407	9498	9590	9684	9780	9927	9978	10028	10028	10028	9978	9878	9829	9732	9590	9452	9319	9189	8980	8859	8780	8627	8589	8552	8479	8479	8515	8515	8515	8479	8443	8443	8407	8407	8443	8515	8589	8665	8819	8899	9021	9104	9189	9189	9189	9104	9104	9062	9062	9021	9104	9104	9146	9232	9275	9319	9363	9407	9452	9407	9407	9363	9319	9232	9189	9189	9104	9146	9146	9104	9146	9232	9319	9363	9452	9544	9637	9732	9878	10028	10183	10289	10453	10621	10737	10915	11037	11161	11225	11354	11486	11621	11690	11759	11419	11354	11419	11354	11289	11161	10975	10795	10564	10453	10183	10028	9878	9732	9590	9452	9319	9189	9062	8939	8819	8741	8703	8665	8665	8703	8665	8665	8665	8665	8665	8627	8589	8552	8515	8479	8479	8443	8407	8371	8371	8336	8301	8301	8266	8231	8231	8197	8163	8163	8130	8097	8097	8063	8031	8031	7998	7966	7966	7966	7966	7966	7966	7966	7934	7934	7934	7902	7902	7902	7871	7871	7839	7808	7778	7778	7717	7687	7628	7598	7569	7540	7540	7512	7512	7483	7483	7483	0	0	0	0	0	0	0	0	2077	2073	2069	2062	2056	2054	2047	2041	2037	2030	2026	2022	2020	2012	2008	2004	2002	2002	2004	2004	2006	2006	2006	2008	2008	2010	2008	2008	2008	2006	2004	2000	1998	1993	1989	1985	1981	1976	1974	1970	1968	1968	1966	1966	1964	1962	1960	1960	1960	1960	1958	1958	1958	1956	1956	1954	1952	1950	1948	1948	1946	1946	1944	1943	1941	1939	1937	1937	1935	1935	1933	1931	1939	1937	1941	1941	1939	1941	1941	1943	1943	1939	1937	1935	1931	1927	1925	1924	1924	1924	1924	1924	1924	1924	1924	1924	1922	1922	1920	1918	1916	1914	1914	1912	1911	1909	1909	1907	1907	1905	1905	1903	1903	1903	1903	1901	1901	1901	1901	1900	1900	1898	1898	1898	1898	1898	1898	1896	1894	1892	1892	1890	1892	1892	1896	1898	1901	1903	1907	1909	1912	1912	1914	0	1918	1920	1924	1927	1929	1933	1935	1939	1941	1943	1943	1943	1943	1943	1943	1943	1943	1943	1943	1943	1943	1943	1943	1943	1941	1941	1939	1939	1937	0	0	0
3770	3770	3777	3777	3777	3777	3770	3770	3770	3763	3763	3756	3756	3756	3749	3734	3727	3700	3686	3672	3665	3652	3645	3645	3645	3645	3652	3658	3665	3679	3686	3706	3720	3727	3742	3756	3770	3777	3785	3792	3799	3806	3814	3821	3829	3836	3843	3843	3851	3851	3843	0	0	0	0	0	0	0	0	0	0	0	0	12120	12120	12046	12046	11973	11901	11830	11759	11759	11690	11621	11553	11419	11289	11099	10975	10855	10975	10855	10679	10621	10564	10564	10564	10453	10398	10508	10564	10564	10679	10737	10737	10795	10915	10975	10915	10795	10795	10795	10737	10679	10679	10621	10621	10737	10795	10737	10795	10795	10795	10795	10855	10795	10855	10795	10795	10795	10737	10737	10795	10795	10737	10737	10737	10737	10795	10855	10855	10915	10915	10975	10975	10975	10975	10915	10855	10795	10679	10621	10398	10343	10289	10183	10183	10131	10079	10079	10079	10079	10131	10131	10131	10131	10183	10183	10183	10131	10131	10131	10131	10131	10079	10079	10079	10131	10183	10289	10398	10508	10621	10737	10855	10975	11161	11225	11354	11419	11486	11486	11553	11621	11621	11621	11553	11553	11486	11486	11419	11419	11419	11354	11354	11354	11419	11354	11354	11289	11225	11225	11099	10975	10915	10795	10795	10737	10621	10453	10289	10183	10079	10028	9927	9732	9232	0	6766	6520	6435	6373	6292	6232	6174	6135	6079	6041	5987	5950	5933	5915	5897	5897	5897	5915	5933	6005	6041	6060	6097	6135	6154	6174	6193	6193	6212	6212	6232	6232	6252	6272	6292	6292	6292	6292	6272	6292	6272	6272	6272	6252	6232	6193	6174	6135	6116	6079	6023	5987	5968	5968	5950	6023	6174	0	0	0	0	0	0	0	8859	9021	9062	9104	9146	9146	9146	9146	9189	9189	9189	9232	9189	9232	9319	9407	9498	9590	9684	9780	9878	9927	10028	10079	10028	10028	9927	9829	9732	9637	9498	9363	9232	9104	8899	8780	8665	8552	8479	8443	8371	8371	8371	8371	8371	8371	8371	8371	8371	8371	8443	8552	8627	8741	8859	8939	9062	9146	9189	9189	9146	9104	9104	9104	9104	9104	9104	9146	9146	9232	9232	9275	9275	9319	9319	9275	9232	9189	9104	9062	8980	8980	8939	8899	8899	8899	8899	8980	9021	9146	9189	9319	9407	9498	9637	9780	9878	10028	10131	10289	10398	10564	10737	10795	10855	11037	10737	10855	10975	11037	11099	11099	11161	11161	11099	11037	10915	10737	10564	10453	10183	10028	9927	9732	9590	9452	9319	9189	9062	8939	8859	8780	8703	8703	8703	8741	8741	8741	8741	8741	8741	8703	8665	8627	8589	8589	8552	8515	8479	8443	8407	8371	8336	8301	8301	8266	8231	8231	8197	8163	8163	8163	8130	8097	8097	8063	8031	8031	8031	7998	7998	7998	8031	7998	7998	7998	7966	7966	7966	7966	7934	7934	7871	7871	7839	7808	7747	7687	7657	7628	7598	7569	7569	7540	7540	7512	7512	7540	7512	0	0	0	0	0	0	0	0	2069	2064	2060	2054	2049	2045	2039	2035	2030	2026	2024	2022	2020	2012	2008	2006	2006	2006	2008	2008	2008	2008	2010	2010	2010	2008	2008	2006	2006	2004	2002	1998	1993	1989	1985	1981	1976	1974	1970	1968	1966	1966	1964	1962	1960	1960	1960	1958	1960	1958	1958	1958	1956	1956	1954	1954	1952	1950	1950	1948	1948	1946	1946	1946	1944	1943	1943	1946	1946	1944	1944	1944	1944	1944	1944	1944	1946	1946	1946	1946	1943	1939	1937	1933	1927	1924	1924	1922	1922	1922	1922	1924	1924	1924	1924	1924	1924	1922	1922	1924	1922	1922	1920	1918	1916	1914	1912	1911	1909	1909	1909	1907	1907	1907	1905	1905	1905	1903	1903	1901	1901	1900	1900	1900	1900	1898	1898	1894	1894	1892	1890	1892	1892	1894	1898	1900	1903	1907	1909	1911	1912	1914	1916	0	1920	1924	1927	1929	1933	1937	1939	1943	1943	1944	1944	1943	1943	1943	1943	1943	1943	1943	1943	1943	1943	1943	1943	1943	1941	1941	1941	0	0	0	0
3777	3777	3777	3777	3777	3777	3777	3770	3770	3763	3763	3763	3756	3756	3749	3734	3727	3700	3686	3672	3658	3645	3638	3632	3632	3638	3638	3645	3652	3658	3672	3686	3706	3720	3734	3749	3763	3770	3785	3792	3799	3814	3821	3829	3836	3843	3843	3851	3851	3851	3851	0	0	0	0	0	0	0	0	0	0	12270	12195	12120	12120	12046	12046	12046	12046	11901	11901	11901	11830	11830	11690	11621	11759	11690	11690	11553	11486	11289	11161	11037	11037	10975	10975	10855	10737	10795	10795	10795	10855	10855	10855	10855	10915	10975	10975	10855	10795	10795	10795	10737	10679	10679	10679	10795	10795	10795	10795	10855	10855	10855	10855	10795	10795	10795	10737	10679	10679	10621	10621	10621	10564	10621	10621	10621	10679	10679	10737	10795	10915	10915	10915	10975	10975	10915	10855	10795	10679	10621	10453	10343	10289	10289	10236	10183	10183	10183	10183	10183	10183	10183	10183	10183	10183	10236	10236	10183	10183	10131	10131	10131	10131	10079	10079	10131	10183	10289	10343	10508	10621	10737	10855	10975	11099	11225	11289	11354	11419	11486	11553	11553	11553	11553	11553	11553	11486	11486	11419	11419	11354	11354	11289	11289	11289	11289	11225	11161	11099	10975	10915	10855	10795	10679	10621	10564	10398	10289	10131	9978	9878	9780	9684	8899	0	0	6563	6373	6352	6272	6212	6174	6135	6079	6041	6023	5987	5950	5933	5915	5915	5915	5950	5987	6005	6041	6079	6097	6116	6154	6174	6193	6212	6232	6232	6252	6252	6272	6272	6292	6292	6312	6312	6312	6292	6292	6312	6292	6272	6252	6193	6174	6116	6079	6060	6005	5968	5950	5933	5933	5933	6041	6232	0	0	0	0	0	7747	8443	8899	9062	9104	9146	9146	9189	9189	9189	9232	9232	9232	9232	9275	9275	9319	9407	9498	9590	9684	9780	9829	9978	10028	10079	10028	9978	9878	9780	9637	9544	9407	9275	9104	8899	8819	8703	8589	8479	8407	8336	8301	8301	8266	8301	8301	8266	8336	8336	8336	8371	8443	8552	8665	8741	8899	8939	9062	9146	9189	9189	9189	9146	9104	9104	9104	9146	9146	9189	9189	9189	9232	9189	9232	9232	9232	9189	9146	9104	9062	8980	8899	8899	8859	8780	8741	8741	8780	8859	8899	8980	0	9062	9146	9232	9363	9498	9637	9732	9829	9978	10079	10236	10398	10131	10183	10289	10398	10453	10564	10679	10737	10737	10855	10915	10915	10855	10795	10621	10508	10398	10131	9978	9878	9732	9590	9452	9319	9189	9062	8980	8859	8780	8780	8741	8780	8780	8819	8819	8819	8819	8859	8819	8780	8741	8703	8665	8589	8589	8515	8479	8443	8407	8371	8336	8336	8301	8266	8266	8231	8231	8231	8197	8197	8163	8130	8097	8063	8063	8063	8031	8031	8063	8063	8063	8031	8031	8031	8031	7998	7998	7966	7934	7902	7871	7839	7808	7778	7717	7657	7628	7628	7598	7569	7569	7569	7540	7540	7540	7540	0	0	0	0	0	0	0	0	2060	2056	2054	2047	2045	2043	2039	2035	2030	2028	2026	2024	2022	2016	2012	2010	2010	2010	2010	2010	2010	2010	2010	2010	2010	2008	2008	2008	2006	2004	2002	2000	1996	1989	1987	1981	1978	1974	1970	1968	1966	1964	1964	1962	1960	1958	1958	1958	1958	1958	1958	1956	1956	1956	1954	1954	1952	1952	1950	1950	1950	1950	1950	1950	1954	1954	1954	1954	1954	1954	1952	1952	1954	1954	1956	1954	1956	1956	1954	1950	1946	1943	1937	1933	1925	1924	1920	1920	1920	1920	1920	1922	1922	1922	1924	1924	1925	1925	1925	1927	1925	1925	1925	1924	1922	1920	1918	1916	1916	1914	1914	1912	1912	1912	1911	1911	1909	1909	1905	1905	1903	1903	1901	1901	1901	1901	1900	1898	1894	1892	1892	1892	1892	1894	1898	1900	1903	1905	1909	1911	1912	0	1914	1916	1920	1922	1925	1929	1933	1937	1941	1943	1944	1944	1943	1943	1941	1941	1941	1939	1939	1939	1941	1941	1941	1941	1941	1941	1941	1941	1939	0	0	0	0
3785	3785	3785	3785	3785	3785	3785	3777	3770	3770	3763	3763	3763	3756	3749	3742	3727	3700	3686	3672	3652	3645	3632	3625	3625	3625	3625	3632	3638	3645	3658	3672	3693	3706	3720	3734	3749	3763	3777	3785	3792	3806	3821	3829	3836	3843	3851	3851	3851	3858	3858	0	0	0	0	0	0	0	0	0	0	12195	12195	12195	12120	12120	12120	12046	12046	11973	11901	11973	12120	12120	12120	12120	12120	12195	12120	12046	11901	11830	11690	11553	11486	11419	11419	11289	11161	11161	11099	11037	11037	10975	10975	10915	10915	10975	10915	10855	10795	10795	10737	10737	10737	10737	10737	10795	10855	10855	10795	10855	10855	10855	10795	10795	10737	10679	10621	10564	10508	10508	10453	10453	10398	10453	10453	10453	10508	10564	10621	10737	10795	10855	10915	10915	10975	10915	10855	10795	10737	10621	10453	10398	10343	10343	10289	10236	10236	10236	10236	10289	10289	10289	10289	10289	10289	10289	10289	10236	10236	10236	10183	10183	10183	10183	10183	10183	10236	10289	10398	10508	10564	10679	10795	10915	11099	11161	11289	11354	11419	11486	11553	11553	11553	11553	11553	11486	11486	11486	11419	11419	11354	11354	11289	11289	11289	11225	11225	11161	11099	10915	10915	10737	10679	10621	10508	10398	10289	10183	9978	9829	9684	9590	9544	8741	0	0	6520	6292	6252	6212	6174	6135	6097	6060	6005	5987	5987	5950	5950	5950	5968	5968	5987	6023	6041	6079	6097	6135	6154	6193	6212	6212	6232	6232	6252	6272	6292	6292	6312	6312	6332	6332	6332	6312	6312	6312	6312	6312	6272	6232	6193	6116	6079	6041	5987	5968	5933	5915	5915	5933	5915	6041	6292	0	0	0	7371	0	7966	8627	8980	9104	9104	9189	9189	9232	9232	9232	9232	9275	9275	9275	9319	9363	9407	9452	9544	9637	9732	9829	9878	9927	9978	10028	10028	9927	9780	9684	9544	9452	9275	9146	8899	8819	8741	8627	8515	8443	8371	8336	8266	8231	8266	8266	8266	8266	8301	8336	8336	8371	8515	8589	8703	8819	8939	8980	9104	9189	9189	9189	9146	9146	9104	9104	9104	9146	9146	9146	9146	9146	9146	9146	9146	9146	9104	9062	9021	8980	8939	8859	8819	8741	8665	8627	8627	8627	8665	8703	8780	8819	8899	8980	9062	0	9189	9275	9363	9498	9590	9684	9590	9684	9780	9878	9927	9978	10079	10183	10236	10343	10453	10508	10621	10679	10679	10679	10621	10564	10398	10183	10079	9927	9829	9684	9544	9407	9275	9189	9062	8980	8899	8819	8780	8780	8819	8859	8859	8859	8859	8899	8939	8939	8899	8859	8859	8780	8741	8703	8627	8589	8552	8515	8443	8371	8371	8336	8301	8301	8301	8266	8266	8231	8231	8197	8163	8163	8130	8130	8130	8097	8097	8097	8097	8097	8097	8063	8031	8031	7998	7998	7966	7934	7902	7871	7808	7778	7747	7687	7657	7657	7628	7598	7598	7569	7569	7540	7569	7569	7569	0	0	0	0	0	0	0	0	0	2047	2045	2041	2041	2037	2035	2032	2030	2028	2026	2024	2022	2020	2016	2012	2012	2012	2012	2010	2010	2010	2010	2010	2010	2010	2008	2008	2008	2006	2004	2002	1996	1993	1987	1983	1980	1974	1972	1968	1966	1964	1964	1960	1960	1958	1958	1956	1958	1958	1958	1956	1956	1956	1954	1954	1952	1952	1950	1950	1952	1952	1954	1958	1958	1958	1958	1958	1960	1960	1964	1960	1962	1962	1964	1964	1964	1962	1960	1956	1948	1943	1939	1931	1924	1922	1918	1918	1918	1918	1918	1918	1918	1922	1924	1924	1924	1927	1927	1927	1929	1929	1929	1929	1927	1925	1925	1924	1922	1922	1922	1920	1918	1918	1916	1914	1914	1911	1909	1907	1907	1905	1903	1903	1903	1903	1901	1900	1898	1894	1894	1894	1894	1896	1898	1900	1903	1905	0	1909	0	1912	0	1916	1918	1922	1925	1929	1933	1937	1939	1941	1943	1943	1941	1941	1939	1937	1935	1935	1935	1935	1935	1937	1937	1937	1939	1939	1939	1939	1937	0	0	0	0
3792	3799	3799	3799	3799	3792	3792	3785	3777	3770	3770	3770	3763	3756	3749	3742	3727	3700	3679	3672	3652	3645	3632	3632	3625	3625	3625	3625	3632	3638	3645	3665	3672	3693	3700	3720	3734	3749	3763	3770	3785	3792	3814	3821	3829	3843	3851	3858	3858	3866	0	0	0	0	0	0	0	0	0	0	12270	12195	12195	12120	12120	12120	12120	12120	12046	12120	12120	12120	12195	12270	12347	12425	12425	12583	12664	12583	12503	12347	12195	12046	11973	11901	11830	11621	11486	11486	11354	11225	11225	11099	11037	10975	10975	10915	10915	10737	10795	10737	10737	10737	10737	10737	10737	10795	10855	10855	10855	10855	10855	10855	10795	10737	10679	10621	10564	10453	10398	10343	10289	10236	10236	10236	10236	10236	10289	10398	10453	10564	10737	10795	10855	10855	10915	10915	10855	10795	10737	10679	10564	10453	10453	10398	10343	10343	10343	10343	10343	10343	10398	10343	10343	10343	10343	10343	10343	10289	10289	10236	10236	10236	10236	10236	10236	10289	10289	10343	10398	10508	10564	10679	10795	10915	11037	11161	11225	11289	11354	11419	11486	11486	11486	11486	11486	11486	11486	11486	11419	11419	11354	11354	11289	11289	11225	11225	11161	11099	11037	10855	10795	10737	10621	10508	10398	10343	10183	10079	9878	9732	9590	9498	9407	8665	0	0	6232	6212	6193	6174	6079	6060	6041	6023	6005	5987	5987	5987	5968	5987	5987	5987	6023	6041	6079	6097	6135	6154	6174	6212	6232	6232	6252	6272	6272	6292	6292	6312	6312	6332	6332	6332	6332	6332	6312	6332	6332	6312	6292	6252	6174	6097	6041	6005	5968	5933	5897	5897	5897	5915	5915	6041	6312	0	0	0	7540	0	8163	8819	9104	9104	9146	9232	9232	9232	9275	9275	9275	9319	9319	9363	9363	9407	9452	9498	9590	9637	9684	9732	9829	9878	9927	9927	9878	9780	9684	9590	9498	9319	9189	9062	8819	8741	8665	8552	8479	8407	8336	8301	8266	8266	8266	8266	8301	8301	8336	8336	8407	8443	8552	8665	8741	8859	8980	9021	9104	9146	9189	9189	9146	9104	9062	9062	9062	9104	9104	9104	9104	9104	9062	9062	9062	9021	9021	8980	8899	8859	8819	8741	8627	8589	8552	8515	8515	8552	8589	8627	8665	8703	8780	8859	8939	9021	9104	0	9146	9232	9275	9498	9363	9498	9544	9637	9684	9780	9829	9927	10028	10079	10183	10289	10453	10564	10508	10508	10508	10453	10343	10131	10028	9878	9780	9637	9498	9363	9275	9146	9062	8980	8899	8819	8819	8819	8859	8859	8899	8899	8939	8939	9021	9021	9021	8980	8980	8980	8899	8859	8741	8703	8627	8552	8515	8479	8407	8407	8371	8336	8336	8301	8266	8301	8266	8266	8231	8231	8197	8197	8163	8163	8130	8130	8130	8130	8097	8097	8031	8031	7998	7966	7934	7902	7871	7839	7778	7747	7717	7657	7657	7628	7598	7598	7598	7598	7569	7598	7598	7628	0	0	0	0	0	0	0	0	0	0	0	2037	2037	2037	2035	2030	2030	2028	2026	2026	2024	2024	2020	2016	2014	2014	2012	2012	2010	2010	2010	2010	2010	2010	2010	2010	2010	2010	2008	2006	2004	1998	1993	1989	1983	1980	1976	1972	1968	1966	1964	1964	1960	1960	1958	1956	1956	1958	1956	1956	1956	1956	1954	1954	1954	1952	1952	1952	1952	1952	1954	1956	1958	1960	1960	1962	1964	1966	1968	1970	1970	1968	1972	1970	1970	1970	1968	1964	1958	1952	1944	1939	1931	1922	1918	1914	1914	1914	1912	1914	1916	1916	1918	1922	1922	1925	1925	1929	1931	1933	1933	1935	1935	1935	1933	1931	1931	1929	1927	1927	1925	1924	1924	1920	1920	1916	1914	1912	1909	1907	1907	1905	1905	1905	1903	1903	1901	1900	1898	1896	1896	1896	1898	1900	1901	1903	1905	1907	1909	0	1911	0	1914	1918	1922	1925	1929	1933	1937	1939	1941	1943	1943	1941	1937	1935	1933	1931	1931	1929	1929	1929	1931	1933	1933	1933	1935	1935	1935	1935	1937	0	0	0
3799	3806	3806	3806	3806	3799	3799	3792	3785	3777	3770	3770	3763	3763	3749	3742	3727	3700	3686	3672	3658	3645	3638	3632	3625	3625	3625	3625	3625	3632	3638	3652	3665	3679	3693	3700	3720	3727	3749	3763	3770	3785	3799	3814	3821	3843	3843	3851	0	0	0	0	0	0	0	0	0	0	0	12270	12270	12270	12195	12195	12195	12195	12195	12195	12195	12120	12120	12195	12270	12347	12503	12503	12583	12664	12828	12912	12828	12745	12583	12503	12425	12270	12120	11973	11830	11759	11621	11486	11354	11225	11099	11037	10975	10915	10855	10795	10737	10737	10679	10737	10737	10737	10737	10795	10855	10855	10855	10855	10855	10855	10795	10679	10621	10508	10398	10289	10183	10079	9927	9878	9829	9829	9878	9878	9978	10079	10183	10343	10564	10679	10795	10795	10915	10915	10855	10855	10737	10679	10621	10564	10508	10453	10398	10398	10398	10398	10398	10453	10453	10453	10453	10398	10398	10398	10343	10343	10289	10289	10289	10289	10289	10289	10289	10289	10343	10398	10453	10508	10621	10737	10855	10915	11037	11099	11225	11225	11289	11354	11419	11419	11419	11486	11486	11486	11486	11419	11419	11419	11419	11354	11354	11289	11225	11161	11161	11099	10915	10855	10795	10679	10564	10453	10343	10236	10131	9978	9780	9684	9498	9407	9363	8515	0	0	6174	6154	6116	6097	6060	6041	6023	6005	6005	6005	6005	5987	5987	6005	6005	6023	6041	6079	6097	6135	6154	6174	6212	6232	6252	6252	6272	6272	6292	6292	6312	6312	6332	6332	6332	6352	6352	6332	6332	6332	6332	6332	6292	6252	6193	6079	6041	5987	5933	5915	5880	5880	5897	5933	5933	6060	6312	0	6697	0	7628	0	8266	8939	9146	9146	9232	9275	9275	9319	9319	9319	9319	9363	9363	9407	9407	9452	9498	9544	9590	9637	9684	9732	9780	9780	9829	9829	9780	9684	9590	9498	9363	9232	9104	8980	8741	8703	8627	8552	8479	8407	8371	8336	8301	8266	8301	8336	8336	8336	8371	8443	8479	8515	8627	8703	8780	8899	9021	9062	9104	9146	9146	9146	9104	9062	9062	9021	9021	9062	9062	9062	9062	9062	9021	8980	8980	8939	8899	8859	8819	8741	8703	8589	8589	8515	8479	8479	8443	8443	8479	8515	8589	8589	8665	8741	8703	8780	8859	8899	8980	9062	9146	9189	9275	9363	9452	9498	9544	0	9637	9732	9780	9878	9978	10131	10236	10398	10398	10398	10398	10343	10236	10079	9927	9829	9732	9590	9498	9363	9232	9146	9062	8980	8939	8859	8819	8819	8859	8899	8899	8899	8980	8980	9062	9062	9062	9062	9062	9062	9062	8980	8899	8780	8741	8665	8627	8552	8515	8479	8443	8443	8407	8371	8371	8371	8336	8336	8301	8301	8266	8231	8231	8231	8197	8163	8163	8130	8097	8063	8063	7998	7966	7934	7902	7839	7808	7778	7747	7717	7657	7657	7628	7598	7598	7598	7598	7598	7628	7628	7657	0	0	0	0	0	0	0	0	0	0	2030	2030	2030	2028	2030	2030	2028	2028	2026	2026	2026	2026	2024	2020	2018	2014	2014	2012	2012	2010	2010	2010	2010	2010	2010	2010	2010	2010	2012	2010	2008	2006	2000	1998	1991	1985	1981	1976	1974	1970	1968	1964	1964	1960	1958	1958	1956	1956	1956	1956	1954	1954	1954	1954	1954	1952	1952	1950	1950	1950	1950	1952	1954	1958	1960	1962	1962	1966	1968	1972	1974	1974	1974	1976	1974	1974	1972	1968	1964	1958	1952	1944	1937	1929	1918	1916	1912	1911	1909	1909	1909	1909	1911	1914	1918	1920	1924	1927	1929	1933	1935	1939	1941	1941	1941	1939	1939	1939	1937	1935	1935	1931	1929	1927	1925	1924	1920	1916	1914	1911	1909	1909	1907	1907	1907	1905	1905	1905	1903	1901	1900	1900	1900	1900	1901	1903	0	1905	1907	0	1909	1911	1912	1914	1918	1922	1925	1929	1933	1937	1939	1943	1943	1943	1941	1937	1931	1929	1927	1925	1924	1924	1924	1925	1927	1927	1927	1929	1929	1931	1931	1931	0	0	0
3814	3821	3821	3821	3814	3814	3806	3792	3792	3785	3777	3770	3770	3763	3756	3742	3727	3713	3693	3672	3658	3652	3645	3638	3632	3625	3625	3625	3625	3632	3638	3645	3658	3665	3679	3693	3706	3720	3734	3749	3763	3777	3792	3806	3814	3829	3843	0	0	0	0	0	0	0	0	0	0	12270	12270	12270	12270	12270	12270	12270	12270	12270	12270	12270	12270	12195	12195	12270	12347	12425	12583	12664	12745	12912	12997	13083	13170	13083	12912	12828	12745	12583	12503	12347	12195	12120	11901	11690	11553	11354	11225	11099	11037	10915	10795	10679	10679	10679	10679	10679	10679	10737	10737	10795	10915	10915	10855	10855	10855	10855	10795	10679	10508	10398	10236	10079	9927	9780	9637	9544	9452	9452	9498	0	9637	9780	9978	10131	10398	10564	10679	10795	10855	10915	10915	10855	10795	10737	10679	10621	10564	10508	10508	10508	10508	10453	10453	10453	10453	10453	10453	10398	10398	10398	10343	10343	10343	10343	10343	10343	10398	10398	10343	10398	10398	10453	10508	10564	10679	10737	10855	10915	11037	11099	11161	11161	11225	11289	11354	11354	11419	11419	11419	11419	11419	11419	11419	11419	11419	11354	11354	11354	11289	11225	11161	11037	10915	10855	10795	10679	10564	10398	10343	10236	10079	9978	9780	9637	9498	9407	9062	8407	0	6652	6154	6135	6116	6097	6041	6041	6023	6005	6005	6005	6005	6005	6023	6023	6041	6060	6079	6097	6116	6154	6174	6193	6232	6232	6252	6252	6272	6272	6292	6292	6312	6312	6332	6332	6332	6332	6352	6332	6332	6352	6352	6332	6292	6252	6193	6097	6041	5968	5933	5915	5880	5880	5897	5933	5933	6079	0	6332	6720	0	0	7687	8301	8899	9189	9189	9275	9319	9319	9363	9363	9363	9363	9407	9407	9452	9498	9498	9544	9544	9590	9590	9637	9684	9684	9684	9684	9684	9637	9590	9452	9363	9275	9146	9021	8819	8703	8665	8589	8515	8479	8443	8371	8371	8336	8336	8336	8371	8407	8407	8479	8515	8552	8627	8703	8780	8859	8939	9021	9062	9104	9104	9104	9062	9021	9021	8980	8939	8939	8939	8980	8939	8939	8939	8939	8899	8859	8819	8819	8741	8703	8665	8627	8515	8479	8443	8407	8407	8371	8407	8407	8443	8479	8479	8515	8589	8627	8665	8741	8780	8859	8939	8980	9021	9104	9146	9232	9319	9363	9452	9498	9590	9684	0	9829	9978	10079	10183	10236	10289	10236	10183	10079	9978	9878	9780	9684	9544	9452	9319	9232	9146	9021	8939	8899	8819	8819	8780	8819	8859	8859	8899	8939	8980	9021	9104	9104	9146	9189	9189	9189	9146	9104	8939	8899	8819	8741	8665	8627	8589	8552	8552	8515	8479	8443	8443	8407	8407	8371	8336	8336	8301	8266	8231	8231	8197	8163	8163	8097	8097	7998	7966	7934	7871	7839	7778	7747	7717	7687	7657	7628	7598	7569	7569	7569	7569	7569	7598	7598	7657	0	0	0	0	0	0	0	0	0	0	2028	2026	2026	2026	2026	2026	2026	2024	2024	2026	2026	2026	2026	2024	2022	2018	2016	2014	2012	2012	2010	2010	2008	2010	2010	2010	2010	2010	2012	2012	2012	2010	2008	2004	1998	1996	1989	1983	1980	1976	1972	1968	1966	1964	1960	1958	1956	1956	1956	1954	1954	1954	1952	1952	1952	1950	1950	1950	1948	1948	1948	1948	1950	1952	1956	1956	1960	1964	1966	1970	1972	1974	1976	1976	1976	1976	1974	1972	1970	1966	1960	1950	1943	1935	1929	1918	1912	1909	1907	1907	1905	1905	1907	1907	1911	1914	1918	1922	1927	1931	1935	1941	1944	1946	1948	1946	1946	1946	1944	1943	1941	1939	1937	1933	1931	1927	1924	1922	1918	1914	1911	1911	1909	1909	1909	1909	1909	1909	1907	1907	1905	1903	1903	1901	1903	1903	1903	1905	1907	1907	1909	1911	1911	1912	1916	1918	1922	1925	1929	1935	1939	1941	1943	1943	1943	1939	1935	1929	1925	1924	1920	1920	1918	1918	1920	1922	1922	1924	1924	1924	1925	1925	1927	1927	0	0
3836	3836	3836	3829	3829	3821	3814	3806	3792	3785	3777	3777	3770	3763	3749	3742	3727	3713	3693	3679	3665	3658	3652	3645	3645	3632	3632	3632	3632	3632	3638	3645	3652	3658	3672	3686	3693	3706	3727	3734	3749	3770	3785	3792	3806	3821	3836	0	0	0	0	0	0	0	0	0	0	12270	12270	12270	12347	12347	12347	12270	12347	12347	12347	12270	12270	12270	12270	12270	12425	12503	12664	12745	12828	12997	13259	13259	13348	13439	13348	13259	13083	12912	12828	12664	12503	12347	12195	11973	11759	11553	11354	11161	11037	10975	10795	10679	10679	10679	10679	10737	10679	10737	10795	10855	10915	10915	10915	10915	10915	10855	10737	10621	10453	10289	10079	9878	9732	9544	9232	9189	9189	9189	9232	9363	9590	0	9780	10028	10289	10508	10679	10737	10915	10915	10915	10915	10855	10737	10679	10679	10621	10508	10508	10508	10453	10453	10453	10453	10453	10398	10398	10343	10343	10343	10343	10343	10343	10343	10398	10398	10398	10453	10453	10453	10508	10508	10564	10621	10679	10737	10855	10915	10975	11037	11099	11099	11161	11225	11225	11289	11354	11354	11354	11419	11419	11419	11419	11419	11419	11419	11354	11354	11289	11225	11161	11099	11037	10915	10795	10679	10564	10398	10289	10183	10079	9927	9780	9637	9498	9407	9021	8301	0	6629	6135	6116	6116	6079	6060	6041	6023	6023	6005	6023	6023	6023	6041	6041	6060	6079	6097	6116	6154	6174	6193	6212	6232	6252	6252	6252	6272	6272	6292	6292	6292	6292	6312	6312	6312	6312	6332	6332	6332	6332	6332	6332	6292	6252	6193	6079	6041	5987	5933	5915	5897	5897	5915	5950	5968	6079	6312	0	0	0	0	0	8301	8939	9275	9275	9319	9363	9407	9407	9407	9407	9407	9452	9452	9498	9498	9498	9544	9544	9590	9590	9590	9590	9590	9590	9590	9590	9544	9452	9363	9275	9146	9062	8939	8780	8703	8665	8627	8552	8515	8479	8443	8443	8407	8407	8407	8443	8479	8479	8552	8589	8627	8703	8741	8859	8899	8939	9021	9021	9062	9062	9062	9021	8980	8980	8939	8899	8899	8899	8899	8899	8899	8899	8819	8819	8780	8780	8703	8665	8627	8589	8515	8479	8443	8407	8371	8371	8371	8371	8371	8407	8443	8443	8479	8515	8552	8589	8627	8665	8741	8819	8859	8899	8980	9021	9062	9104	9189	9275	9363	9452	9544	9684	0	9829	9927	10028	10079	10131	10131	10028	9978	9878	9780	9684	9590	9498	9363	9232	9146	9021	8939	8859	8780	8741	8703	8703	8741	8780	8780	8819	8859	8899	8980	9021	9104	9146	9189	9232	9275	9275	9232	9146	9062	8980	8939	8899	8859	8780	8741	8703	8665	8627	8589	8552	8479	8479	8443	8443	8371	8371	8336	8301	8231	8231	8197	8163	8130	8063	7966	7934	7902	7839	7808	7747	7687	7657	7628	7598	7569	7569	7540	7540	7540	7540	7569	7569	7628	0	0	0	0	0	0	0	0	0	0	2026	2026	2024	2026	2024	2022	2024	2024	2024	2024	2024	2026	2024	2026	2024	2022	2020	2018	2014	2014	2012	2012	2010	2010	2010	2010	2010	2010	2012	2012	2012	2014	2012	2010	2006	2004	2000	1993	1989	1983	1978	1974	1972	1968	1966	1964	1958	1958	1956	1956	1954	1954	1952	1952	1950	1950	1948	1948	1946	1944	1944	1944	1944	1946	1950	1952	1954	1958	1962	1966	1970	1974	1976	1976	1976	1976	1976	1972	1972	1968	1964	1956	1948	1943	1933	1922	1914	1911	1907	1905	1905	1905	1903	1905	1907	1909	1912	1916	1920	1927	1933	1939	1944	1946	1950	1950	1950	1950	1948	1946	1946	1944	1941	1939	1935	1931	1929	1925	1922	1918	1914	1912	1911	1911	1909	1909	1909	1911	1911	1911	1909	1909	1907	1907	1905	1907	1907	1907	1907	1909	1909	1911	1911	1912	1914	1916	1918	1922	1927	1931	1935	1939	1943	1943	1944	1943	1939	1937	1927	1924	1920	1918	1914	1914	1914	1914	1916	1918	1918	1920	1920	1920	1922	1922	1920	0	0
3851	3858	3851	3843	3843	3829	3821	3806	3799	3792	3785	3777	3770	3763	3749	3742	3727	3720	3693	3686	3672	3665	3658	3652	3645	3638	3638	3632	3632	3632	3638	3638	3645	3652	3665	3679	3686	3700	3713	3734	3742	3763	3777	3785	3799	3814	0	0	0	0	0	0	0	0	0	0	0	12195	12270	12270	12270	12270	12270	12270	12270	12347	12347	12270	12270	12270	12347	12347	12503	12503	12664	12828	12997	13083	13348	13439	13531	13531	13531	13439	13439	13170	12997	12828	12745	12583	12425	12120	11901	11690	11486	11289	11161	10975	10795	10679	10679	10679	10737	10737	10737	10737	10795	10855	10975	10975	10975	10975	10915	10855	10737	10508	10343	10131	9978	9732	9498	9146	9021	8980	8980	9021	9062	9189	9363	9590	0	9878	10183	10453	10564	10679	10855	10915	10975	10915	10855	10795	10737	10679	10679	10564	10508	10508	10453	10453	10453	10398	10398	10343	10343	10343	10289	10289	10289	10289	10343	10398	10398	10453	10453	10508	10508	10564	10564	10621	10679	10679	10737	10795	10855	10915	10975	11037	11037	11099	11099	11161	11161	11225	11225	11289	11354	11354	11354	11354	11419	11419	11419	11419	11354	11354	11289	11225	11161	11099	10915	10855	10795	10679	10564	10398	10289	10183	10079	9978	9780	9684	9498	9407	9319	0	0	0	6154	6135	6135	6097	6060	6041	6041	6023	6023	6041	6041	6041	6060	6060	6079	6097	6135	6135	6174	6193	6212	6232	6252	6252	6252	6252	6272	6272	6272	6272	6292	6292	6292	6292	6312	6312	6312	6312	6332	6332	6352	6332	6292	6252	6193	6116	6041	5987	5950	5915	5915	5915	5933	5968	5987	6079	6252	0	6674	0	0	0	0	8980	9363	9363	9407	9452	9452	9452	9452	9452	9452	9498	9498	9498	9498	9544	9544	9590	9590	9590	9590	9544	9544	9544	9544	9498	9452	9363	9275	9189	9104	9021	8899	8780	8741	8703	8665	8627	8589	8552	8515	8515	8515	8479	8515	8515	8552	8552	8627	8665	8703	8741	8819	8859	8899	8939	9021	8980	9021	9021	9021	8980	8939	8899	8899	8859	8859	8859	8859	8859	8819	8819	8780	8741	8741	8703	8665	8589	8552	8479	8479	8443	8407	8407	8371	8371	8371	8371	8407	8407	8407	8443	8443	8479	8515	8515	8552	8589	8665	8703	8741	8780	8819	8859	8899	8980	9062	9146	9232	9319	9407	9544	9732	0	9829	9927	9927	9978	9927	9878	9829	9780	9684	9637	9544	9407	9319	9189	9062	8939	8859	8741	8665	8627	8627	8589	8627	8665	8703	8703	8780	8859	8899	8980	9021	9146	9189	9275	9275	9319	9275	9319	9275	9232	9104	9104	9062	9062	9021	8980	8899	8859	8819	8741	8703	8665	8627	8552	8515	8479	8407	8336	8266	8266	8197	8163	8130	8063	7966	7902	7871	7839	7778	7717	7657	7628	7569	7569	7540	7540	7512	7512	7540	7540	7569	7598	7657	0	0	0	0	0	0	0	0	0	2030	2028	2028	2026	2026	2026	2024	2026	2026	2024	2024	2026	2026	2026	2026	2024	2022	2020	2018	2014	2012	2012	2012	2010	2010	2010	2010	2012	2012	2012	2014	2016	2016	2014	2012	2010	2006	2002	1998	1993	1987	1981	1978	1974	1970	1968	1964	1962	1958	1956	1954	1954	1952	1952	1952	1950	1948	1948	1946	1944	1943	1943	1943	1943	1944	1946	1948	1952	1956	1960	1964	1970	1972	1976	1976	1974	1976	1974	1972	1970	1966	1960	1954	1946	1939	1931	1918	1912	1909	1907	1905	1903	1903	1903	1905	1905	1909	1912	1918	1922	1927	1935	1941	1946	1948	0	1952	1952	1950	1950	1946	1946	1944	1943	1939	1935	1931	1929	1925	1920	1918	1914	1912	1911	1911	1911	1911	1911	1912	1912	1912	1912	1911	1911	1909	1909	1909	1909	1909	1909	1911	1911	1911	1912	1912	1914	1916	1918	1924	1927	1931	1937	1941	1943	1944	1944	1944	1941	1937	1927	1924	1920	1916	1912	1911	1911	1911	1912	1912	1912	1914	1914	1916	1918	1916	1916	0	0
3874	3874	3866	3858	3851	3843	3829	3814	3806	3792	3785	3777	3770	3756	3749	3734	3727	3720	3700	3686	3679	3665	3658	3658	3652	3652	3638	3638	3638	3632	3638	3638	3645	3652	3665	3672	3686	3693	3713	3727	3742	3756	3770	3785	3799	3806	0	0	0	0	0	0	0	0	0	0	0	12195	12195	12195	12195	12270	12195	12195	12195	12270	12270	12270	12270	12270	12347	12347	12425	12503	12583	12745	12828	13083	13259	13439	13531	13531	13624	13624	13531	13439	13259	13083	12912	12828	12583	12347	12120	11830	11621	11354	11225	11037	10915	10795	10737	10737	10737	10737	10795	10795	10855	10915	10975	10975	10975	10975	10975	10855	10679	10508	10289	10079	9829	9590	9146	8980	8859	8859	8819	8859	8899	9062	9232	9452	0	9780	10079	10343	10508	10679	10915	10975	10975	10975	10915	10855	10795	10737	10679	10621	10508	10453	10453	10398	10343	10343	10343	10289	10289	10236	10236	10236	10236	10236	10289	10343	10398	10398	10453	10508	10508	10564	10564	10621	10679	10737	10795	10855	10915	10975	10915	10975	10975	11037	11037	11099	11099	11161	11161	11225	11289	11289	11354	11354	11419	11419	11419	11419	11354	11354	11289	11225	11161	11099	11037	10855	10795	10621	10508	10398	10289	10183	10079	9978	9780	9590	9407	9319	8780	0	0	0	6174	6154	6135	6097	6060	6060	6060	6041	6041	6060	6060	6060	6079	6079	6097	6116	6135	6154	6174	6193	6212	6212	6232	6252	6252	6252	6272	6272	6272	6272	6272	6272	6292	6292	6292	6292	6312	6312	6332	6352	6352	6332	6292	6252	6193	6135	6060	6005	5968	5968	5950	5950	5968	6023	6023	6079	6212	0	6652	0	0	0	0	8980	9452	9407	9452	9498	9498	9498	9498	9498	9498	9498	9544	9544	9544	9544	9544	9590	9590	9544	9544	9544	9498	9498	9452	9452	9363	9275	9232	9146	9062	8980	8899	8780	8741	8741	8703	8665	8627	8627	8627	8627	8627	8589	8589	8627	8665	8703	8703	8741	8780	8780	8859	8899	8939	8980	9021	9021	8980	8980	8980	8980	8899	8899	8859	8780	8780	8819	8819	8780	8780	8741	8703	8703	8665	8627	8589	8552	8515	8479	8443	8407	8407	8371	8371	8371	8371	8407	8407	8407	8443	8443	8443	8479	8479	8479	8515	8552	8552	8627	8627	8665	8703	8741	8780	8819	8899	8980	9062	9189	9275	9407	9590	9732	9780	9780	9878	9829	9829	9829	9732	9732	9637	9590	9498	9363	9275	9146	9021	8899	8819	8703	8665	8627	8589	8589	8589	8627	8665	8665	8703	8780	8859	8939	8980	9062	9189	9232	9319	9363	9363	9319	9363	9363	9363	9275	9275	9319	9319	9232	9189	9104	9021	8980	8939	8859	8819	8741	8703	8589	8515	8443	8336	8301	8266	8197	8130	8097	7966	7902	7871	7808	7747	7687	7657	7598	7569	7540	7512	7512	7483	7483	7512	7540	0	7598	7687	0	0	0	0	0	0	0	0	0	0	2030	2030	2028	2028	2028	2028	2026	2026	2026	2026	2028	2026	2026	2026	2024	2022	2020	2018	2016	2014	2012	2012	2012	2010	2012	2012	2014	2012	2014	2014	2018	2018	2016	2016	2012	2010	2008	2004	1998	1991	1985	1981	1980	1976	1972	1968	1964	1960	1958	1956	1954	1954	1952	1952	1950	1948	1946	1944	1943	1941	1939	1939	1939	1941	1943	1944	1948	1954	1958	1962	1968	1972	1974	1974	1974	1974	1972	1970	1966	1962	1956	1950	1943	1935	1929	1916	1911	1909	1907	1905	1905	1903	1905	1905	1909	1912	1916	1920	1925	1931	1937	1943	0	1948	1950	1950	1950	1950	1948	1946	1944	1943	1941	1937	1933	1931	1927	1924	1920	1918	1916	1912	1911	1911	1911	1911	1911	1912	1914	1914	1912	1912	1911	1911	1911	1911	1911	1911	1911	1911	1911	1911	1912	1912	1914	1916	1920	1924	1927	1933	1937	1941	1943	1944	1944	1944	1941	1937	1927	1924	1918	1914	1912	1909	1909	1909	1909	1909	1909	1911	1911	1912	1912	1912	1912	0	0
3889	3889	3881	3874	3866	3851	3836	3821	3806	3792	3785	3777	3763	3756	3749	3734	3727	3720	3700	3686	3679	3672	3672	3665	3658	3652	3652	3645	3645	3638	3645	3645	3645	3652	3658	3672	3679	3693	3706	3720	3734	3756	3777	3785	3792	3806	0	0	0	0	0	0	0	0	0	0	0	12046	12046	12120	12120	12120	12195	12195	12195	12195	12270	12270	12270	12270	12347	12347	12425	12425	12503	12664	12745	12997	13170	13348	13439	13624	13624	13624	13624	13624	13531	13259	13170	12997	12745	12503	12195	12046	11759	11553	11354	11099	10975	10855	10795	10795	10737	10795	10795	10855	10855	10915	10975	11037	11037	10975	10975	10855	10679	10398	10183	9978	9732	9452	9021	8859	8819	8741	8741	8819	8859	9021	9189	9407	0	9732	10079	10343	10508	10679	10855	10975	10975	10975	10915	10855	10795	10737	10679	10508	10508	10398	10398	10343	10289	10236	10236	10236	10183	10183	10131	10131	10131	10183	10236	10289	10343	10398	10398	10453	10508	10564	10621	10621	10679	10737	10795	10855	10855	10915	10915	10915	10975	10975	10975	11037	11037	11099	11099	11161	11225	11289	11289	11354	11354	11419	11419	11419	11354	11354	11289	11289	11225	11161	11037	10855	10737	10621	10508	10398	10289	10131	10028	9829	9637	9407	9232	8939	8479	7871	0	6585	6193	6193	6154	6116	6079	6060	6060	6060	6060	6060	6079	6079	6097	6097	6116	6135	6154	6174	6193	6212	6212	6232	6232	6232	6252	6252	6272	6272	6252	6252	6252	6252	6272	6292	6292	6292	6312	6332	6332	6332	6352	6332	6292	6252	6212	6154	6079	6060	6005	5987	5987	5987	6023	6041	6060	6097	6212	0	6674	0	0	0	0	9062	9498	9452	9498	9498	9498	9544	9544	9498	9544	9544	9544	9544	9544	9544	9544	9590	9590	9544	9544	9498	9498	9452	9407	9363	9319	9232	9189	9104	9021	8939	8859	8780	8780	8741	8703	8703	8703	8665	8665	8703	8665	8665	8665	8703	8703	8741	8780	8780	8780	8819	8859	8899	8899	8939	8980	8980	8980	8939	8939	8939	8859	8859	8819	8741	8741	8741	8741	8741	8703	8703	8665	8627	8627	8589	8589	8515	8479	8443	8443	8443	8407	8407	8407	8407	8407	8407	8407	8407	8407	8443	8443	8443	8443	8479	8479	8479	8515	8515	8552	8552	8589	8627	8665	8703	8780	8859	8939	9062	9189	9319	9452	9590	9637	9732	9732	9732	9732	9732	9732	9684	9637	9544	9498	9407	9275	9189	9021	8939	8819	8703	8627	8589	8589	8589	8589	8589	8627	8627	8665	8741	8819	8939	8980	9062	9189	9232	9319	9319	9407	9407	9452	9452	9407	9452	9407	9452	9452	9407	9319	9319	9232	9232	9189	9104	9021	8939	8859	8780	8665	8552	8479	8371	8301	8231	8163	8097	7966	7902	7839	7778	7717	7657	7628	7569	7540	7512	7455	7455	7455	7455	7483	7512	7540	0	0	0	0	0	0	0	0	0	0	0	0	2035	2032	2030	2030	2032	0	0	2028	2028	2028	2030	2028	2028	2026	2026	2022	2020	2020	2018	2014	2014	2012	2012	2012	2014	2014	2016	2014	2016	2018	2020	2022	2020	2018	2016	2014	2010	2008	2006	2000	1993	1989	1983	1980	1974	1970	1968	1964	1960	1958	1956	1956	1954	1952	1950	1948	1946	1944	1941	1941	1939	1937	1937	1937	1941	1943	1946	1950	1956	1962	1966	1972	1972	1974	1974	1972	1970	1968	1964	1960	1954	1946	1939	1933	1927	1916	1912	1911	1909	1909	1907	1907	1907	1909	1911	1914	1920	1924	1929	1933	1939	0	1944	1946	1948	1948	1946	1946	1944	1944	1943	1941	1939	1935	1931	1929	1927	1924	1920	1918	1916	1912	1911	1911	1911	1912	1912	1912	1914	1912	1912	1912	1911	1911	1911	1911	1911	1911	1911	1911	1911	1911	1912	1912	1914	1916	1920	1924	1929	1933	1937	1943	1944	1946	1946	1944	1943	1939	1935	1925	1920	1916	1912	1911	1909	1909	1907	1907	1909	1907	1909	1909	1911	1911	1909	0	0
3912	3904	3897	3889	3874	3858	3843	3829	3814	3799	3785	3777	3763	3756	3749	3734	3727	3720	3700	3693	3686	3679	3679	3672	3665	3665	3658	3652	3652	3652	3645	3652	3652	3658	3665	3672	3686	3693	3706	3727	3742	3756	3777	3785	3806	3814	3829	0	0	0	0	0	0	0	0	0	0	12046	12046	12120	12120	12120	12120	12195	12195	12195	12270	12270	12270	12347	12347	12347	12425	12425	12503	12583	12664	12828	12997	13170	13348	13531	13531	13531	13531	13531	13439	13348	13170	12997	12828	12583	12347	12120	11830	11621	11419	11225	11037	10975	10855	10855	10795	10795	10855	10855	10915	10915	11037	11037	11037	10975	10975	10855	10621	10343	10131	9878	9637	9363	8980	8819	8780	8741	8741	8780	8859	9021	9189	9452	0	9732	10028	10343	10564	10679	10915	10975	11037	10975	10915	10855	10795	10737	10679	10508	10453	10343	10289	10236	10183	10131	10131	10131	10079	10079	10079	10079	10079	10131	10131	10236	10236	10289	10343	10398	10453	10564	10621	10621	10679	10737	10795	10855	10915	10915	10915	10915	10915	10915	10915	10975	10975	11037	11099	11099	11161	11225	11289	11354	11354	11419	11419	11354	11354	11354	11289	11289	11225	11161	11037	10855	10737	10679	10508	10343	10236	10079	9878	9684	9407	9189	8780	8552	8163	7657	0	6607	6393	6212	6174	6135	6079	6079	6079	6079	6079	6079	6079	6097	6097	6116	6135	6154	6174	6193	6212	6212	6212	6232	6232	6232	6252	6252	6272	6272	6252	6252	6252	6252	6252	6272	6272	6292	6312	6332	6332	6332	6352	6352	6312	6272	6232	6174	6154	6079	6060	6041	6060	6060	6116	6135	6193	6272	0	6393	6883	0	0	0	0	9189	9544	9544	9544	9544	9544	9544	9544	9544	9544	9544	9544	9544	9590	9590	9590	9590	9590	9544	9544	9498	9452	9407	9363	9319	9275	9189	9146	9062	8980	8939	8859	8780	8780	8780	8741	8741	8741	8741	8741	8780	8741	8741	8741	8741	8741	8780	8780	8780	8819	8819	8859	8899	8899	8939	8939	8939	8939	8899	8899	8899	8859	8780	8741	8703	8665	8665	8703	8665	8665	8627	8627	8589	8589	8589	8552	8515	8479	8443	8443	8443	8443	8407	8407	8407	8407	8407	8407	8407	8407	8443	8443	8443	8443	8443	8443	8443	8443	8479	8479	8479	8515	8515	8552	8627	8665	8741	8859	8980	9062	9232	9363	9498	9544	9637	9637	9637	9684	9684	9732	9684	9684	9590	9544	9407	9319	9189	9104	8939	8819	8741	8665	8627	8627	8627	8627	8627	8627	8627	8665	8741	8819	8899	8980	9062	9146	9232	9275	9363	9407	9452	9452	9498	9544	9498	9498	9544	9590	9590	9544	9498	9498	9407	9363	9319	9232	9146	9021	8899	8819	8703	8552	8443	8371	8301	8197	8130	8063	7934	7871	7778	7717	7657	7598	7540	7512	7483	7455	7427	7455	7455	7455	7483	0	0	0	0	0	0	0	0	0	0	0	0	0	2037	2035	2035	2035	2035	2032	2030	2030	2030	2030	2030	2030	2030	2028	2026	2024	2022	2020	2018	2016	2014	2014	2014	2014	2016	2016	2018	2018	2018	2022	2024	2024	2024	2022	2022	2022	2020	2016	2010	2004	1998	1991	1987	1981	1978	1972	1970	1966	1964	1960	1958	1956	1954	1954	1950	1950	1946	1943	1941	1939	1937	1935	1935	1935	1937	1941	1944	1950	1954	1962	1966	1970	1970	1970	1970	1968	1966	1962	1958	1952	1948	1943	1937	1929	1925	1918	1916	1914	1912	1912	1912	1911	1912	1912	1914	1918	1922	1927	1933	1937	0	1943	1944	1946	1946	1944	1943	1943	1941	1939	1937	1935	1935	1931	1929	1927	1924	1922	1918	1916	1914	1912	1911	1912	1912	1912	1912	1912	1912	1912	1911	1911	1909	1909	1909	1909	1909	1909	1911	1911	1911	1912	1912	1912	1914	1918	1922	1925	1929	1933	1939	1943	1946	1946	1946	1946	1944	1941	1937	1929	1924	1920	1916	1916	1912	1911	1911	1909	1909	1909	1909	1911	1909	1909	1909	0	0
3920	3920	3912	3897	3881	3866	3851	3836	3821	3806	3785	3777	3763	3756	3749	3734	3727	3720	3700	3693	3693	3686	3679	3679	3679	3672	3665	3665	3658	3658	3658	3658	3658	3665	3672	3686	3693	3706	3720	3734	3749	3785	3799	3806	3821	3829	3843	0	0	0	0	0	0	0	0	0	0	11973	12046	12046	12120	12120	12120	12120	12195	12270	12270	12347	12270	12347	12347	12347	12347	12425	12425	12503	12583	12745	12828	12997	13170	13259	13348	13348	13348	13348	13259	13170	13083	12912	12745	12503	12347	12120	11973	11690	11486	11289	11161	11037	10915	10915	10915	10855	10855	10915	10915	10915	11037	11037	10975	10975	10915	10795	10564	10343	10079	9878	9590	9146	8939	8859	8780	8780	8780	8819	8899	9062	9232	9452	0	9780	10079	10343	10564	10679	10975	10975	11037	10975	10915	10855	10795	10737	10679	10453	10343	10289	10183	10131	10079	10079	10028	9978	9978	9978	9978	9978	9978	10028	10079	10131	10183	10236	10289	10343	10398	10508	10564	10621	10679	10737	10795	10855	10915	10915	10915	10855	10855	10855	10915	10915	10975	10975	11037	11099	11161	11225	11289	11354	11354	11419	11419	11354	11354	11354	11354	11289	11225	11161	11099	10975	10795	10621	10508	10343	10236	10079	9829	9544	9232	8741	8479	8231	7902	7512	0	6652	6477	6332	6232	6174	6135	6116	6097	6097	6097	6097	6097	6116	6116	6135	6154	6174	6193	6212	6212	6212	6232	6232	6252	6252	6252	6272	6272	6272	6252	6252	6252	6252	6252	6272	6272	6292	6292	6332	6332	6352	6352	6352	6312	6272	6232	6212	6193	6154	6135	6135	6154	6174	6193	6232	6292	6332	6477	6652	7132	0	0	0	0	9275	9590	9590	9544	9590	9590	9544	9590	9544	9544	9544	9590	9590	9590	9590	9590	9590	9590	9544	9498	9498	9452	9407	9363	9319	9232	9189	9104	9062	8980	8939	8859	8819	8780	8780	8780	8780	8741	8741	8741	8780	8741	8741	8703	8741	8741	8780	8780	8780	8780	8819	8819	8859	8899	8899	8939	8899	8899	8899	8859	8859	8819	8780	8741	8703	8665	8665	8665	8665	8665	8627	8627	8627	8627	8627	8552	8515	8479	8443	8443	8443	8443	8443	8407	8407	8407	8407	8407	8407	8407	8407	8443	8443	8407	8407	8407	8407	8407	8407	8443	8443	8443	8443	8515	8552	8627	8703	8819	8899	9021	9146	9275	9407	9452	9544	9590	9637	9684	9684	9780	9780	9732	9684	9590	9498	9407	9232	9146	9021	8899	8780	8741	8665	8627	8665	8627	8665	8627	8665	8665	8741	8780	8859	8939	9062	9104	9146	9232	9319	9363	9407	9452	9498	9544	9637	9590	9637	9684	9684	9684	9637	9637	9590	9637	9452	9407	9319	9189	9104	8980	8859	8703	8552	8443	8371	8266	8163	8097	7966	7871	7808	7717	7657	7598	7540	7512	7483	7427	7427	7455	7455	7483	7512	7540	0	0	0	0	0	0	0	0	0	0	0	0	2041	2039	2037	2037	2037	2035	2035	2032	2032	2032	2035	2032	2032	2030	2028	2026	2022	2022	2018	2016	2014	2014	2014	2016	2018	2018	2020	2020	2022	2024	2026	2032	2028	2030	2026	2024	2024	2020	2014	2008	2002	1996	1989	1983	1980	1976	1972	1968	1966	1964	1960	1958	1956	1954	1952	1950	1946	1944	1943	1939	1937	1935	1935	1933	1935	1937	1943	1946	1952	1958	1960	1962	1964	1964	1964	1962	1958	1954	1952	1946	1943	1939	1933	1927	1924	1920	1918	1916	1916	1916	1916	1916	1916	1918	1920	1925	1927	1933	1937	0	1941	1944	1946	1944	1944	1943	1941	1939	1937	1935	1935	1933	1929	1927	1925	1924	1922	1920	1916	1916	1914	1912	1912	1912	1912	1912	1912	1912	1912	1912	1909	1909	1907	1907	1907	1907	1907	1909	1909	1911	1912	1912	1912	1914	1916	1920	1924	1927	1931	1935	1939	1943	1946	1948	1948	1948	1946	1943	1941	1937	1927	1924	1920	1918	1916	1914	1912	1911	1909	1911	1911	1911	1909	1907	1909	0	0
3928	3928	3920	3904	3889	3874	3851	3836	3821	3806	3792	3777	3770	3756	3749	3742	3727	3720	3713	3700	3700	3693	3693	3693	3686	3686	3679	3679	3672	3672	3665	3672	3672	3672	3686	3700	3706	3734	3749	3763	3777	3799	3814	3821	3836	3843	3851	0	0	0	0	0	0	0	0	0	0	11973	11973	11973	11973	12046	12120	12120	12195	12270	12270	12347	12347	12347	12347	12347	12347	12347	12347	12425	12425	12583	12664	12745	12912	12997	13083	13170	13170	13170	13083	12997	12912	12828	12664	12425	12270	12120	11901	11759	11553	11419	11225	11099	11037	11037	10975	10975	10915	10975	10975	10975	11037	11037	10975	10975	10915	10737	10508	10236	10079	9829	9544	9146	8980	8859	8819	8819	8859	8899	8980	9104	9275	9544	0	9780	10079	10343	10564	10737	10975	10975	11037	10975	10915	10855	10795	10679	10621	10398	10289	10183	10079	10079	10028	9978	9927	9927	9927	9927	9927	9927	9927	9978	10028	10079	10079	10131	10236	10289	10343	10453	10564	10621	10679	10795	10795	10915	10915	10915	10915	10915	10855	10855	10915	10915	10975	10975	11037	11161	11225	11225	11289	11354	11354	11419	11419	11419	11419	11354	11354	11289	11225	11161	11099	10975	10795	10621	10453	10343	10183	10079	9732	9363	8741	8443	8197	7966	7687	7399	0	6720	6542	6393	6332	6232	6193	6154	6154	6135	6135	6116	6135	6135	6154	6154	6174	6193	6212	6212	6232	6232	6252	6252	6252	6252	6272	6272	6272	6272	6252	6232	6232	6232	6252	6272	6272	6292	6292	6332	6332	6332	6352	6332	6312	6272	6252	6232	6232	6232	6252	6252	6292	6352	6373	6414	6499	6607	6812	7030	7512	0	0	0	0	9407	9637	9637	9637	9590	9590	9590	9590	9590	9590	9590	9590	9590	9590	9590	9590	9590	9590	9544	9498	9498	9452	9363	9319	9275	9189	9104	9062	9021	8980	8939	8859	8819	8819	8819	8780	8780	8780	8780	8780	8780	8741	8703	8703	8741	8703	8741	8741	8741	8780	8819	8819	8859	8859	8899	8899	8899	8899	8859	8859	8859	8819	8780	8741	8703	8703	8703	8703	8703	8703	8703	8703	8703	8665	8665	8589	8552	8515	8479	8479	8443	8443	8443	8407	8407	8407	8407	8407	8407	8407	8407	8407	8407	8407	8407	8407	8407	8371	8407	8407	8407	8407	8443	8479	8515	8627	8703	8819	8899	8980	9062	9232	9319	9407	9498	9544	9544	9590	9684	9732	9732	9732	9684	9637	9544	9452	9319	9189	9062	8939	8819	8741	8703	8703	8665	8703	8703	8665	8665	8703	8741	8780	8859	8939	9021	9104	9146	9189	9275	9319	9407	9452	9544	9637	9637	9684	9684	9732	9829	9829	9780	9780	9732	9732	9684	9637	9498	9363	9232	9104	8980	8819	8665	8552	8479	8371	8266	8197	8130	7966	7871	7808	7717	7657	7569	7512	7512	7455	7427	7455	7455	7483	7512	7540	0	7657	0	0	0	0	0	0	0	0	0	0	0	2043	2043	2041	2041	2039	2037	2037	2035	2035	2037	2035	2035	2032	2030	2028	2024	2022	2020	2018	2016	2016	2018	2020	2020	2022	2024	2028	2030	2030	2035	2037	2032	2030	2028	2028	2026	2022	2016	2010	2004	2000	1993	1987	1983	1978	1974	1972	1968	1966	1962	1960	1960	1958	1954	1952	1948	1944	1943	1939	1937	1935	1933	1933	1933	1935	1939	1943	1946	1952	1954	1956	1956	1958	1958	1956	1954	1950	1946	1943	1939	1935	1931	1925	1924	1922	1922	1920	1922	1922	1922	1924	1922	1924	1925	1931	1933	0	1937	1941	1943	1944	1946	1943	1943	1939	1937	1935	1933	1931	1931	1927	1925	1924	1924	1922	1920	1918	1916	1914	1912	1911	1911	1912	1912	1912	1912	1911	1911	1909	1907	1907	1905	1905	1905	1905	1905	1907	1909	1911	1912	1914	1916	1916	1918	1922	1925	1929	1933	1937	1941	1943	1946	1948	1948	1948	1946	1946	1943	1939	1935	1929	1925	1922	1920	1918	1916	1914	1912	1912	1912	1911	1912	1909	1907	0	0
3935	3935	3920	3912	3889	3874	3858	3836	3821	3806	3792	3777	3770	3756	3749	3742	3734	3720	3720	3706	3706	3706	3700	3700	3700	3693	3686	3686	3686	3679	3679	3679	3686	3700	3713	3727	3734	3756	3770	3785	3799	3821	3836	3843	3851	3858	3866	0	0	0	0	0	0	0	0	0	0	11830	11830	11901	11973	11973	12046	12120	12195	12270	12347	12347	12347	12347	12347	12347	12347	12347	12347	12347	12347	12425	12503	12583	12664	12828	12912	12912	12912	12912	12912	12828	12745	12664	12503	12347	12195	12120	11901	11759	11621	11486	11354	11289	11161	11099	11099	11037	11037	10975	10975	10975	10975	10975	10975	10915	10855	10679	10453	10236	10028	9780	9590	9363	9021	8980	8939	8939	8980	9021	9062	9189	9363	9590	0	9829	10079	10343	10508	10679	10855	10975	10975	10915	10855	10795	10737	10621	10564	10343	10236	10131	10079	9978	9927	9927	9878	9878	9878	9878	9878	9878	9878	9927	9978	9978	10028	10079	10131	10236	10289	10453	10508	10621	10679	10795	10855	10915	10915	10975	10915	10915	10915	10855	10915	10915	10975	11037	11099	11161	11225	11289	11354	11419	11419	11419	11419	11419	11419	11354	11354	11289	11225	11161	11099	10975	10737	10621	10453	10343	10183	9978	9544	8780	8443	8197	7966	7717	7540	7106	6908	6766	6585	6456	6393	6332	6232	6212	6193	6174	6154	6154	6154	6154	6174	6174	6193	6212	6212	6232	6232	6252	6252	6272	6272	6272	6272	6272	6272	6272	6252	6232	6232	6232	6252	6272	6272	6272	6292	6312	6312	6332	6332	6332	6312	6312	6292	6312	6332	6352	6393	6456	6520	6585	6652	6720	6812	6908	7210	7483	0	7934	0	8703	9146	9498	0	9684	9637	9637	9637	9590	9590	9590	9590	9590	9590	9590	9590	9590	9590	9590	9590	9544	9544	9498	9452	9363	9319	9232	9189	9146	9104	9062	8980	8939	8899	8899	8859	8859	8819	8819	8780	8780	8780	8741	8703	8703	8665	8703	8703	8703	8703	8741	8741	8819	8819	8859	8859	8859	8859	8899	8899	8859	8859	8819	8819	8780	8741	8703	8703	8741	8780	8780	8780	8741	8741	8741	8741	8703	8665	8589	8552	8515	8515	8479	8443	8443	8407	8407	8407	8407	8371	8407	8407	8407	8407	8407	8407	8407	8407	8371	8371	8407	8407	8407	8443	8479	8479	8552	8627	8741	8819	8899	8980	9062	9189	9275	9319	9407	9452	9452	9544	9590	9637	9732	9684	9684	9637	9544	9452	9363	9232	9104	8980	8859	8780	8780	8741	8741	8703	8703	8665	8665	8703	8741	8780	8819	8899	8980	9062	9146	9189	9232	9275	9363	9452	9544	9637	9684	9732	9780	9829	9829	9878	9878	9829	9829	9780	9829	9732	9637	9498	9407	9319	9189	9021	8899	8819	8703	8627	8515	8407	8301	8197	7966	7871	7778	7687	7628	7569	7540	7483	7455	7455	7483	7512	7512	7569	0	7598	0	0	0	0	0	0	0	0	0	0	0	2047	2045	2045	2043	2041	2041	2039	2039	2037	2039	2037	2035	2035	2030	2028	2026	2024	2020	2018	2014	2016	2018	2020	2022	2024	2026	2028	2032	2032	2037	2039	2035	2035	2030	2030	2028	2024	2018	2012	2006	2002	1996	1991	1987	1981	1978	1976	1972	1970	1968	1966	1964	1962	1960	1956	1952	1948	1944	1943	1937	1935	1933	1933	1933	1933	1937	1941	1944	1946	1950	1952	1952	1954	1954	1952	1948	1946	1943	1939	1935	1933	1927	1924	1924	1922	1922	1922	1924	1924	1924	1927	1929	1929	0	1933	1937	1941	1943	1944	1944	1944	1944	1943	1939	1937	1935	1931	1929	1927	1927	1925	1924	1924	1922	1920	1918	1918	1914	1912	1912	1911	1911	1911	1911	1911	1911	1909	1909	1907	1905	1903	1901	1901	1901	1903	1905	1905	1909	1911	1914	1916	1916	1918	1922	1924	1927	1931	1933	1937	1939	1943	1944	1946	1948	1946	1946	1944	1944	1941	1939	1935	1929	1925	1924	1922	1920	1918	1916	1916	1912	1912	1911	1911	1909	0	0
3935	3935	3920	3904	3897	3874	3858	3843	3821	3806	3785	3777	3763	3756	3749	3742	3734	3727	3720	3720	3713	3713	3713	3713	3706	3706	3700	3700	3693	3706	3706	3706	3713	3713	3727	3742	3756	3770	3785	3799	3814	3836	3851	3858	3866	3874	3881	0	0	0	0	0	0	0	0	0	0	11901	11901	11901	11901	11973	12046	12120	12195	12347	12425	12425	12503	12425	12425	12425	12347	12347	12195	12195	12270	12347	12425	12503	12583	12583	12664	12664	12664	12664	12664	12583	12503	12425	12347	12195	12120	12046	11901	11759	11621	11553	11419	11354	11225	11225	11161	11099	11037	11037	10975	10975	10975	10915	10915	10915	10795	10621	10398	10183	9978	9780	9590	9407	9146	9062	9062	9062	9104	9146	9189	9319	9452	0	9637	9829	10079	10289	10453	10679	10795	10855	10855	10795	10795	10737	10679	10564	10398	10289	10236	10131	10079	10028	9978	9927	9878	9878	9878	9878	9878	9878	9878	9927	9927	9978	9978	10028	10079	10183	10236	10398	10508	10621	10679	10795	10855	10915	10975	10975	10915	10915	10915	10915	10915	10975	10975	11037	11161	11225	11289	11354	11354	11419	11419	11419	11419	11419	11419	11354	11354	11289	11225	11161	11099	11037	10795	10621	10453	10343	10183	9878	9363	8479	8163	7934	7717	7540	7236	7030	6883	6766	6629	6520	6456	6393	6312	6252	6232	6212	6193	6174	6174	6174	6174	6193	6193	6212	6232	6232	6252	6272	6272	6272	6272	6272	6272	6272	6272	6272	6252	6232	6232	6232	6252	6252	6272	6272	6272	6312	6312	6312	6312	6332	6312	6332	6373	6393	6456	6542	6674	6720	6836	6908	7005	7106	7210	7427	0	7717	7998	8371	8703	9021	9319	9590	0	9780	9684	9684	9637	9637	9637	9590	9590	9590	9590	9590	9590	9590	9590	9590	9590	9544	9544	9498	9452	9407	9363	9275	9232	9146	9104	9104	9021	8980	8980	8939	8899	8899	8899	8819	8780	8780	8741	8741	8665	8665	8665	8627	8665	8665	8665	8703	8741	8741	8819	8819	8859	8859	8859	8859	8859	8819	8819	8819	8819	8780	8780	8741	8741	8780	8819	8819	8819	8819	8819	8819	8780	8780	8703	8665	8589	8552	8515	8479	8443	8443	8407	8407	8371	8371	8371	8371	8371	8371	8371	8407	8407	8407	8407	8407	8407	8407	8443	8443	8479	8515	8552	8589	8665	8741	8859	8899	8980	9104	9146	9232	9275	9319	9363	9407	9452	9498	9590	9637	9637	9637	9590	9498	9452	9363	9232	9146	9021	8939	8819	8819	8780	8780	8780	8741	8703	8703	8703	8741	8780	8819	8859	8939	9021	9104	9146	9189	9232	9319	9407	9498	9590	9684	9684	9780	9829	9829	9878	9878	9829	9829	9829	9829	9732	9732	9684	9498	9452	9319	9189	9104	8980	8899	8780	8665	8589	8443	8301	8231	7966	7871	7778	7687	7628	7598	7540	7483	7512	7512	7540	7569	0	0	7598	0	0	0	0	0	0	0	0	0	0	0	2047	2047	2045	2045	2045	2043	2041	2041	2039	2039	2037	2037	2035	2032	2028	2026	2022	2018	2016	2014	2014	2016	0	2020	2024	2026	2030	2032	2035	2039	2041	2041	2035	2032	2030	2028	2024	2018	2014	2008	2004	2000	1993	1989	1985	1981	1978	1976	1974	1972	1972	1970	1968	1964	1960	1956	1952	1948	1944	1941	1939	1937	1935	1935	1935	1937	1941	1943	1944	1946	1948	1948	1950	1950	1948	1944	1943	1939	1935	1933	1929	1925	1922	1920	1922	1922	1922	1925	1925	1929	1931	1933	1935	1937	1939	1943	1944	1944	1948	1946	1946	1941	1941	1937	1933	1931	1927	1925	1925	1924	1922	1922	1920	1922	1920	1918	1918	1916	1916	1912	1912	1911	1911	1911	1911	1909	1909	1907	1905	1903	1901	1900	1900	1900	1901	1903	1905	1909	1912	1916	1918	1920	1922	1924	1927	1929	1933	1935	1937	1939	1941	1944	1946	1946	1946	1946	1944	1944	1943	1941	1939	1935	1931	1927	1925	1924	1920	1920	1918	1916	1914	1912	1912	1911	0	0
3935	3928	3920	3904	3889	3874	3858	3836	3821	3806	3792	3777	3770	3756	3749	3742	3734	3727	3727	3727	3727	3720	3727	3720	3720	3742	3734	3727	3727	3727	3720	3727	3727	3734	3742	3756	3770	3785	3799	3814	3836	3851	3866	3874	3881	3881	3889	0	0	0	0	0	0	0	0	0	0	11901	11901	11973	11973	11973	12120	12195	12270	12347	12425	12503	12503	12503	12425	12425	12347	12270	12120	12120	12120	12120	12195	12270	12347	12347	12347	12347	12347	12425	12425	12347	12270	12195	12120	12046	11973	11901	11830	11690	11621	11553	11486	11419	11354	11354	11289	11161	11161	11099	10975	10975	10915	10915	10855	10795	10737	10508	10343	10131	9978	9780	9590	9452	9319	9189	9232	9232	9232	9232	9275	9407	9498	0	9732	9829	10028	10183	10343	10564	10679	10737	10737	10679	10679	10621	10564	10508	10398	10289	10236	10131	10079	10028	9978	9978	9978	9978	9927	9927	9927	9927	9927	9927	9927	9927	9927	9978	10028	10131	10236	10398	10508	10621	10737	10855	10915	10975	10975	10975	10975	10915	10915	10975	11037	11099	11161	11161	11225	11289	11354	11354	11419	11419	11419	11486	11419	11419	11419	11354	11354	11354	11289	11225	11099	11037	10795	10621	10508	10343	10131	9732	9104	0	0	7657	7483	7236	7106	6981	6860	6766	6674	6563	6477	6435	6352	6312	6272	6232	6212	6193	6193	6193	6212	6212	6212	6232	6232	6252	6272	6272	6272	6272	6272	6272	6272	6272	6272	6272	6232	6232	6232	6232	6232	6252	6252	6252	6252	6272	6292	6272	6292	6332	6332	6393	6435	6520	6652	6766	6981	7158	7210	7344	0	7427	7628	7717	7934	8266	8552	8859	9104	9319	9498	0	9684	9780	9732	9684	9684	9637	9637	9637	9637	9637	9637	9590	9590	9590	9590	9590	9590	9590	9544	9498	9452	9407	9363	9319	9232	9189	9146	9146	9104	9062	9021	8980	8939	8939	8899	8859	8780	8780	8741	8703	8665	8627	8627	8627	8627	8589	8627	8665	8741	8741	8780	8819	8819	8859	8859	8859	8899	8899	8899	8859	8819	8819	8819	8780	8819	8859	8899	8899	8899	8899	8899	8899	8859	8819	8741	8703	8665	8627	8589	8552	8479	8443	8407	8371	8371	8371	8336	8336	8336	8371	8371	8371	8407	8407	8407	8407	8407	8443	8479	8515	8552	8589	8627	8665	8741	8819	8899	8939	9021	9104	9146	9232	9275	9275	9319	9363	9363	9452	9498	9590	9590	9590	9544	9498	9452	9407	9319	9189	9104	8980	8899	8859	8859	8859	8819	8780	8741	8741	8741	8780	8780	8780	8819	8899	8939	8980	9062	9104	9104	9189	9275	9407	9498	9590	9637	9637	9732	9829	9829	9829	9829	9829	9829	9780	9780	9732	9684	9637	9544	9407	9319	9189	9062	8980	8859	8780	8627	8552	8407	8301	8163	7902	7839	7747	7657	7657	7569	7540	7540	7512	7540	7540	7569	7569	7540	0	0	0	0	0	0	0	0	0	0	0	2047	2047	2045	2045	2045	2043	2043	2041	2041	2039	2039	2037	2035	2032	2028	2024	2022	2018	2014	2012	2014	2016	0	2020	2024	2026	2030	2035	2037	2041	2043	2041	2037	2032	2030	2028	2024	2020	2014	2010	2004	2000	1996	1991	1987	1983	1981	1980	1978	1978	1976	1974	1974	1972	1966	1960	1956	1952	1950	1944	1943	1941	1937	1937	1937	1939	1939	1943	1943	1944	1944	1944	1944	1944	1944	1941	1939	1935	1931	1929	1925	1924	1920	1918	1918	1920	1920	1924	1927	1929	1933	1937	1941	1943	1943	1946	1948	1950	1950	1948	1946	1943	1939	1935	1931	1929	1925	1925	1924	1922	1922	1920	1920	1920	1920	1920	1920	1918	1916	1914	1914	1912	1911	1911	1909	1909	1907	1907	1903	1901	1900	1898	1898	1898	1900	1901	1905	1909	1914	1916	1920	1922	1925	1927	1929	1931	1933	1935	1937	1939	1941	1943	1944	1944	1944	1944	1944	1944	1944	1941	1943	1939	1937	1935	1931	1927	1925	1922	1920	1920	1916	1916	1914	0	0	0
3920	3920	3912	3897	3881	3866	3843	3829	3814	3799	3785	3777	3770	3756	3749	3742	3742	3742	3734	3734	3742	3734	3756	3763	3763	3763	3756	3749	3749	3742	3742	3742	3742	3749	3756	3770	3785	3799	3814	3829	3843	3866	3881	3889	3897	3897	3904	0	0	0	0	0	0	0	0	0	0	11973	11973	12046	12046	12120	12195	12270	12347	12425	12503	12583	12583	12503	12503	12425	12270	12046	11973	11901	11901	11973	11973	12046	12046	12120	12120	12120	12120	12120	12120	12120	12046	11973	11901	11830	11759	11759	11690	11690	11553	11553	11486	11486	11419	11354	11289	11225	11161	11099	10975	10915	10855	10855	10795	10737	10621	10453	10236	10079	9927	9780	9637	9498	9407	9319	9319	9319	9363	9363	9363	9498	0	9590	9732	9829	9978	10131	10236	10398	10508	10564	10564	10564	10564	10564	10508	10453	10343	10289	10236	10183	10131	10079	10079	10028	10028	10028	9978	9978	9978	9978	9978	9927	9927	9927	9927	9978	10028	10131	10236	10343	10508	10621	10737	10855	10915	10975	11037	11037	11037	11037	11099	11099	11099	11161	11225	11289	11354	11354	11419	11419	11486	11486	11486	11486	11486	11419	11419	11354	11354	11289	11225	11161	11037	10975	10737	10564	10453	10289	10028	9544	8899	0	0	7455	7317	7106	7005	6932	6836	6742	6674	6585	6520	6456	6393	6352	6292	6272	6232	6232	6212	6212	6232	6232	6232	6232	6252	6272	6272	6272	6272	6272	6272	6272	6272	6272	6272	6272	6232	6232	6212	6212	6212	6232	6232	6232	6232	6252	6272	6272	6272	6312	6352	6435	6542	6652	0	7056	0	7399	7598	7808	7934	8063	8266	8443	8665	9021	9232	9407	0	9544	9637	9732	9780	9829	9732	9732	9684	9684	9684	9637	9637	9637	9637	9637	9637	9637	9590	9590	9590	9590	9544	9498	9452	9407	9363	9319	9275	9232	9232	9189	9146	9104	9062	9062	9021	8980	8939	8859	8819	8780	8741	8665	8627	8627	8589	8589	8589	8589	8627	8665	8703	8780	8819	8859	8899	8939	8939	8939	8939	8939	8899	8939	8939	8899	8899	8899	8939	8980	9021	9062	9021	9021	9021	9021	8980	8939	8859	8780	8703	8665	8627	8589	8479	8443	8407	8371	8371	8336	8336	8336	8336	8371	8371	8371	8407	8407	8443	8443	8479	8479	8552	8589	8627	8665	8703	8780	8819	8899	8939	8980	9062	9104	9146	9189	9232	9275	9275	9319	9319	9363	9452	9498	9544	9544	9544	9498	9452	9407	9319	9232	9146	9062	8980	8939	8939	8899	8899	8819	8741	8741	8780	8780	8780	8780	8819	8859	8899	8939	8980	8980	9021	9062	9189	9232	9319	9452	9498	9544	9637	9684	9732	9684	9732	9732	9732	9732	9684	9684	9590	9544	9498	9407	9275	9189	9104	9021	8899	8780	8665	8515	8443	8336	8163	7934	7871	7778	7687	7657	7569	7540	7512	7512	7512	7512	7512	7512	7512	0	0	0	0	0	0	0	0	0	0	2047	2045	2045	2045	2045	2043	2041	2041	2041	2041	2039	2039	2037	2035	2032	2028	2026	2022	2018	2016	2016	2014	2016	0	2020	2026	2030	2032	2037	2039	2041	2043	2041	2039	2032	2028	2028	2024	2020	2014	2010	2006	2002	1998	1996	1989	1987	1985	1983	1981	1980	1980	1978	1978	1976	1974	1966	1962	1956	1952	1948	1944	1943	1941	1941	1939	1939	1941	1941	1941	1943	1943	1943	1941	1941	1939	1937	1935	1931	1927	1925	1924	1920	1918	1916	1918	1918	1922	1925	1927	1931	1935	1939	1941	1944	1946	1948	1950	1950	1950	1948	1944	1939	1937	1933	1929	1927	1925	1924	1924	1922	1922	1922	1922	1922	1922	1922	1922	1920	1918	1916	1914	1914	1912	1911	1909	1909	1907	1905	1903	1901	1900	1898	1898	1898	1900	1903	1907	1911	1916	1920	1924	1925	1929	1931	1933	1935	1937	1937	1939	1939	1941	1941	1943	1943	1943	1943	1943	1944	1944	1943	1943	1943	1941	1941	1939	1933	1931	1927	1925	1924	1922	1920	0	0	0	0
3920	3912	3904	3889	3874	3858	3843	3821	3806	3799	3777	3770	3763	3756	3749	3749	3749	3742	3756	3756	3763	3770	3770	3777	3777	3777	3777	3770	3763	3763	3756	3756	3756	3763	3777	3785	3799	3814	3829	3843	3858	3881	3889	3897	3904	3904	3912	3920	0	0	0	0	0	0	0	0	0	12046	12120	12120	12195	12270	12347	12425	12503	12583	12664	12664	12664	12583	12503	12425	12270	12046	11973	11830	11830	11830	11830	11901	11901	11901	11901	11901	11901	11901	11901	11830	11830	11759	11759	11690	11621	11621	11553	11553	11553	11486	11486	11419	11354	11354	11289	11225	11161	11037	10915	10855	10795	10737	10679	10621	10508	10343	10183	10028	9878	9780	9637	9544	9452	9407	9407	9452	9452	9452	9452	9452	9544	9637	9732	9829	9927	10079	10183	10289	10343	10398	10398	10398	10453	10398	10398	10398	10343	10289	10289	10236	10236	10183	10183	10131	10131	10079	10079	10079	10079	10028	10028	9978	9978	9978	9978	9978	10079	10183	10236	10398	10508	10621	10795	10915	10975	10975	11037	11099	11099	11099	11161	11161	11161	11225	11289	11354	11419	11419	11486	11486	11486	11486	11486	11486	11486	11419	11354	11354	11354	11289	11161	11099	10975	10795	10679	10508	10398	10183	9878	9319	0	0	7483	7158	7081	7005	6932	6860	6789	6742	6674	6607	6520	6456	6414	6373	6332	6292	6272	6232	6232	6232	6232	6252	6252	6252	6252	6272	6272	6272	6272	6272	6272	6272	6272	6272	6272	6252	6232	6212	6212	6212	6212	6212	6212	6212	6232	6232	6232	6232	6232	6312	6393	6499	6607	6789	7081	0	7371	7747	7998	8231	0	8627	8859	8980	9232	0	9498	9684	9732	9780	9829	9878	9878	9878	9829	9732	9732	9732	9684	9684	9684	9684	9684	9684	9637	9637	9637	9637	9590	9590	9590	9544	9498	9452	9407	9363	9319	9275	9232	9189	9189	9146	9104	9062	9062	9021	8980	8939	8859	8819	8780	8703	8665	8627	8627	8589	8627	8627	8627	8665	8741	8899	8939	8980	8980	9021	9062	9062	9062	9062	9062	9104	9104	9104	9104	9104	9104	9189	9189	9232	9189	9189	9146	9146	9062	9021	8939	8859	8780	8741	8703	8627	8589	8479	8407	8371	8336	8336	8336	8336	8336	8336	8371	8371	8443	8443	8479	8515	8515	8589	8627	8703	8741	8780	8819	8899	8939	9021	9062	9104	9104	9146	9189	9232	9189	9232	9232	9275	9275	9319	9363	9452	9452	9452	9498	9452	9452	9407	9363	9275	9189	9104	9021	9021	8980	8939	8899	8899	8819	8780	8780	8780	8780	8780	8780	8819	8819	8859	8899	8939	8939	8980	9062	9104	9232	9319	9363	9452	9498	9590	9637	9590	9637	9637	9637	9637	9590	9590	9498	9452	9407	9319	9232	9146	9021	8980	8859	8741	8627	8515	8407	8301	8163	7934	7839	7747	7687	7657	7569	7540	7512	7483	7483	7483	7455	7483	0	0	0	0	0	0	0	0	0	0	0	2047	2045	2045	2043	2045	2043	2043	2041	2041	2039	2039	2037	2037	2035	2032	2028	2024	2022	2018	2016	2014	2014	2016	2018	2024	2028	2032	2037	2039	2043	2045	2043	2043	2041	2035	2030	2028	2026	2022	2016	2012	2010	2006	2002	1998	1993	1991	1989	1987	1985	1985	1983	1983	1981	1980	1978	1976	1966	1960	1956	1952	1950	1946	1944	1943	1943	1943	1943	1943	1943	1943	1941	1939	1939	1939	1937	1933	1929	1927	1925	1922	1920	1918	1916	1914	1916	1918	1922	1924	1927	1931	1937	1939	1944	1946	1946	1948	1948	1948	1948	1946	1943	1939	1937	1933	1931	1927	1925	1925	1925	1924	1924	1925	1925	1927	1925	1925	1925	1924	1922	1920	1918	1916	1914	1912	1911	1909	1909	1905	1903	1901	1900	1900	1900	1900	1901	1905	1909	1914	1920	1924	1927	1929	1933	1935	1937	1937	1939	1939	1939	1939	1939	1941	1941	1941	1941	1941	1941	1943	1943	1943	1944	1943	1943	1944	1943	1939	1935	1933	1929	1931	0	0	0	0	0	0
3897	3897	3889	3874	3858	3843	3829	3814	3799	3785	3770	3763	3756	3756	3749	3749	3749	3756	3763	3770	3777	3777	3785	3792	3792	3792	3792	3792	3785	3777	3777	3770	3770	3777	3785	3799	3806	3821	3836	3851	3866	3881	0	3897	3904	3912	3920	3920	0	0	0	0	0	0	0	0	0	12195	12195	12270	12347	12425	12503	12583	12583	12664	12745	12745	12664	12664	12503	12425	12270	12046	11901	11759	11759	11759	11690	11759	11759	11759	11759	11690	11690	11690	11621	11621	11553	11553	11553	11553	11486	11486	11419	11419	11354	11354	11225	11225	11161	11225	11161	11099	11037	11037	10915	10795	10737	10679	10621	10564	10398	10289	10131	9978	9878	9780	9684	9590	9498	9498	9498	9498	9544	9498	9498	9544	9590	9637	9732	9780	9878	9927	10028	10131	10183	10236	10236	10236	10289	10289	10343	10289	10343	10343	10343	10289	10289	10289	10289	10236	10236	10236	10183	10183	10183	10131	10079	10079	10028	10028	10028	10079	10131	10236	10343	10453	10564	10679	10855	10915	10975	11037	11037	11099	11099	11161	11225	11225	11289	11354	11354	11419	11486	11486	11553	11553	11553	11553	11553	11486	11419	11354	11354	11289	11225	11161	11099	11037	10915	10679	10564	10398	10236	10079	9732	9104	0	0	7106	7005	6956	6908	6836	6789	6742	6697	6629	6585	6520	6477	6435	6393	6373	6352	6272	6272	6252	6252	6252	6252	6252	6252	6252	6272	6272	6272	6272	6272	6252	6252	6252	6252	6252	6232	6212	6193	6193	6193	6193	6193	6193	6193	6193	6193	6193	6193	6212	6312	6414	6542	0	6932	0	7263	7628	8130	8443	8703	8899	9104	0	9407	9590	9780	9927	9978	10028	10028	9978	9978	9927	9927	9878	9780	9732	9732	9732	9732	9732	9684	9684	9684	9684	9684	9684	9637	9637	9590	9590	9544	9498	9452	9407	9363	9319	9275	9275	9232	9189	9189	9146	9146	9104	9062	9062	9021	8939	8859	8819	8780	8703	8703	8665	8665	8665	8665	8780	8819	8899	9021	9104	9146	9189	9232	9275	9319	9319	9363	9363	9363	9319	9363	9363	9363	9319	9363	9363	9363	9319	9319	9275	9232	9189	9104	9021	8939	8859	8780	8741	8665	8627	8479	8407	8371	8336	8336	8336	8336	8336	8371	8371	8407	8443	8479	8515	8552	8589	8665	8703	8780	8819	8899	8939	9021	9021	9104	9146	9146	9146	9189	9189	9189	9146	9189	9189	9232	9232	9232	9319	9319	9363	9407	9407	9407	9363	9363	9319	9275	9189	9104	9062	9021	9021	9021	8939	8899	8819	8819	8819	8819	8819	8780	8780	8780	8819	8859	8859	8899	8939	8939	9021	9062	9189	9275	9319	9363	9452	9498	9544	9498	9544	9544	9544	9544	9498	9407	9363	9319	9275	9189	9146	9021	8939	8819	8780	8665	8552	8443	8336	8231	8097	7902	7808	7747	7687	7628	7569	7512	7483	7483	7483	7455	7427	0	0	0	0	0	0	0	0	0	0	0	2047	2047	2047	2045	2043	2043	2043	2041	2039	2039	2037	2037	2035	2032	2032	2030	2026	2024	2020	2016	2014	2016	2016	2018	2020	2024	2030	2035	2039	2043	2043	2047	2047	2045	2043	2035	2032	2030	2026	2022	2018	2016	2012	2010	2006	2002	1998	1996	1991	1989	1989	1989	1987	1985	1985	1983	1981	1978	1974	1964	1960	1956	1954	1950	1946	1946	1944	1943	1944	1943	1941	1941	1941	1937	1937	1935	1933	1929	1927	1924	1924	1920	1918	1916	1914	1914	1914	1918	1922	1924	1927	1931	1937	1941	1944	1946	1946	1948	1946	1946	1946	1941	1941	1937	1935	1931	1931	1929	1927	1927	1927	1927	1927	1927	1929	1931	1931	1931	1929	1927	1925	1924	1922	1920	1918	1916	1912	1912	1911	1909	1907	1903	1901	1901	1901	1903	1905	1909	1912	1918	1924	1929	1931	1935	1937	1939	1941	1941	1943	1941	1941	1941	1941	1941	1941	1941	1941	1941	1941	1941	1943	1944	1943	1944	1944	1946	1943	1943	1943	1941	1935	0	0	0	0	0	0	0
3881	3881	3874	3866	3851	3821	3806	3792	3785	3777	3763	3756	3756	3749	3749	3749	3756	3763	3763	3777	3785	3785	3799	3799	3806	3806	3806	3799	3799	3799	3792	3785	3792	3792	3799	3806	3814	3829	3836	3851	3866	3881	0	3897	3904	3904	3912	3912	0	0	0	0	0	0	0	0	0	12270	12347	12425	12503	12503	12664	12745	12745	12828	12828	12828	12745	12664	12503	12347	12270	11973	11830	11759	11690	11690	11621	11690	11690	11621	11621	11553	11553	11553	11486	11486	11419	11419	11419	11419	11354	11354	11289	11289	11289	11225	11161	11161	11161	11225	11161	11161	11099	11037	10915	10855	10737	10621	10564	10453	10343	10183	10079	9927	9829	9780	9684	9590	9544	9498	9544	9544	9544	9544	9544	9544	9590	9637	9684	9732	9780	9829	9878	9978	10028	10079	10079	10131	10183	10183	10236	10289	10343	10343	10343	10398	10343	10398	10398	10398	10343	10343	10343	10289	10289	10236	10183	10183	10131	10131	10131	10183	10236	10453	10508	10564	10621	10737	10855	10915	10975	10975	11037	11037	11161	11225	11225	11289	11354	11419	11486	11486	11553	11553	11621	11621	11621	11553	11553	11486	11419	11354	11289	11225	11161	11099	10975	10915	10679	10508	10398	10183	10028	9878	9498	8859	0	7427	6981	6908	6883	6812	6766	6720	6674	6652	6607	6585	6520	6499	6456	6414	6393	6352	6312	6272	6272	6252	6272	6252	6252	6252	6252	6252	6252	6252	6252	6232	6232	6232	6232	6212	6212	6212	6193	6193	6174	6174	6174	6174	6174	6174	6154	6174	6174	6174	6193	6292	6414	6585	0	7030	0	7371	7778	8407	8780	9021	0	9275	9544	9732	9878	10028	10131	10183	10183	10079	10079	10028	9978	9927	9878	9829	9780	9732	9732	9732	9732	9732	9732	9732	9732	9732	9684	9684	9637	9590	9590	9544	9498	9452	9407	9363	9319	9319	9275	9232	9232	9232	9232	9189	9146	9146	9104	9062	9021	8899	8859	8819	8741	8703	8780	8780	8819	8859	8939	8980	9104	9232	9319	9363	9452	9498	9544	9544	9590	9590	9590	9590	9590	9590	9590	9544	9544	9498	9498	9452	9452	9363	9363	9275	9232	9189	9104	9021	8939	8859	8819	8703	8665	8589	8443	8407	8371	8371	8336	8371	8371	8371	8407	8443	8479	8515	8552	8589	8665	8741	8819	8859	8939	8980	9062	9104	9146	9189	9189	9189	9232	9189	9189	9189	9189	9146	9146	9146	9189	9232	9232	9275	9275	9319	9319	9319	9319	9319	9275	9232	9146	9104	9104	9062	9062	9021	8980	8939	8859	8859	8859	8859	8819	8819	8780	8819	8819	8859	8859	8859	8899	8939	9021	9062	9146	9232	9319	9363	9407	9452	9452	9452	9452	9452	9452	9407	9319	9275	9232	9189	9146	9104	9021	8939	8819	8741	8665	8552	8443	8336	8231	8130	7934	7839	7778	7687	7628	7598	7540	7512	7483	7455	7455	7427	7399	7399	0	0	0	0	0	0	0	0	0	2051	2051	2047	2047	2047	2045	2043	2041	2039	2037	2037	2035	2032	2032	2030	2028	2026	2024	2020	2018	2014	2014	2014	2016	2018	2022	2028	2032	2037	2041	2043	2045	2047	2047	2047	2043	2041	2035	2030	2026	2024	2020	2018	2016	2012	2010	2006	2002	2000	1996	1993	1991	1991	1991	1989	1987	1987	1985	1981	1978	1968	1964	1960	1956	1954	1950	1948	1946	1944	1944	1944	1943	1941	1939	1937	1935	1933	1929	1927	1925	1924	1920	1918	1916	1914	1914	1912	1912	1916	1920	1924	1929	1933	1939	1941	1944	1948	1946	1948	1948	1946	1944	1943	1941	1937	1937	1935	1933	1933	1933	1931	1931	1931	1931	1933	1935	1937	1939	1937	1937	1935	1933	1929	1927	1925	1922	1918	1918	1914	1914	1912	1911	1909	1905	1905	1907	1909	1911	1914	1918	1924	1929	1933	1937	1939	1941	1943	1944	1944	1944	1944	1943	1943	1941	1943	1941	1941	1941	1939	1941	1941	1941	1943	1943	1944	1944	1946	1946	1944	1943	1943	1941	0	0	0	0	0	0	0
3866	3851	3843	3829	3821	3806	3799	3785	3777	3770	3763	3756	3749	3749	3749	3749	3756	3763	3770	3777	3785	3792	3799	3806	3814	3814	3814	3814	3814	3806	3806	3799	3799	3799	3806	3806	3821	3829	3836	3851	3866	3874	0	3889	3889	3897	3897	3904	0	0	0	0	0	0	0	0	0	12425	12425	12583	12583	12664	12828	12828	12912	12912	12912	12828	12745	12664	12503	12347	12195	11901	11830	11690	11690	11621	11621	11621	11621	11553	11553	11486	11486	11419	11419	11354	11354	11354	11289	11289	11225	11225	11161	11225	11225	11225	11161	11161	11161	11225	11225	11161	11161	11037	10915	10855	10737	10621	10508	10398	10289	10131	9978	9878	9829	9780	9684	9637	9544	9544	9544	9590	9590	9544	9498	9544	9544	9590	9637	9637	9684	9732	9780	9829	9878	9978	9978	10028	10079	10183	10236	10289	10343	10398	10453	10453	10508	10508	10508	10508	10508	10453	10453	10398	10398	10398	10343	10289	10236	10398	10398	10453	10508	10564	10621	10621	10679	10737	10855	10915	10975	10915	10975	11099	11161	11225	11289	11354	11419	11486	11486	11553	11621	11621	11621	11621	11621	11621	11553	11419	11354	11289	11225	11099	11037	10975	10855	10564	10453	10289	10079	9878	9684	9407	8479	0	0	7081	6908	6860	6812	6766	6720	6652	6629	6585	6563	6520	6499	6456	6414	6393	6373	6352	6312	6272	6272	6272	6272	6252	6252	6252	6232	6232	6232	6232	6232	6232	6212	6212	6212	6193	6193	6174	6174	6174	6154	6154	6154	6174	6154	6154	6135	6154	6154	6154	6174	6272	6435	6629	0	7106	0	7455	7902	8552	8980	0	9275	9498	9732	9927	10079	10183	10236	10236	10236	10183	10079	10079	10028	9927	9878	9829	9780	9780	9780	9780	9780	9780	9780	9780	9780	9732	9732	9684	9637	9590	9590	9544	9498	9452	9407	9363	9319	9319	9275	9275	9275	9275	9232	9232	9232	9189	9146	9104	9104	9021	8980	9021	8899	8899	8859	8899	8939	8980	9062	9189	9275	0	9407	9590	9684	9732	9780	9829	9829	9878	9878	9829	9780	9732	9780	9732	9684	9684	9637	9590	9498	9452	9407	9319	9319	9232	9146	9104	8980	8899	8859	8780	8665	8627	8479	8407	8407	8407	8371	8371	8371	8407	8443	8479	8515	8552	8627	8665	8703	8780	8859	8939	9021	9062	9146	9189	9189	9232	9232	9275	9232	9232	9189	9189	9146	9146	9104	9104	9104	9146	9146	9189	9232	9232	9232	9232	9232	9232	9232	9189	9146	9104	9062	9104	9062	9062	9021	8980	8899	8899	8899	8859	8859	8819	8819	8819	8819	8819	8859	8859	8899	8939	8980	9062	9104	9189	9232	9275	9363	9363	9363	9363	9363	9363	9319	9275	9232	9189	9146	9062	9021	8939	8899	8819	8741	8627	8552	8443	8336	8231	8130	7934	7871	7808	7717	7657	7598	7569	7512	7483	7455	7427	7399	7399	7371	7371	0	0	0	0	0	0	0	0	0	2056	2051	2054	2051	2049	2045	2043	2039	2037	2035	2032	2030	2028	2026	2026	2024	2022	2018	2016	2014	2012	2012	2014	2016	2020	2024	2030	2035	2039	2043	2047	2047	2049	2049	2047	2047	2043	2035	2032	2028	2024	2022	2020	2018	2014	2012	2008	2006	2002	1998	1996	1996	1993	1991	1991	1989	1987	1987	1983	1980	1976	1966	1962	1958	1956	1952	1950	1948	1946	1946	1944	1943	1941	1939	1935	1933	1929	1927	1925	1922	1920	1918	1918	1916	1914	1914	1912	1916	1918	1924	1925	1931	1935	1939	1943	1944	1946	1948	1948	1948	1946	1946	1943	1941	1939	1939	1937	1937	1937	1937	1937	1937	1937	1937	1939	1943	1944	1944	1943	1941	1941	1937	1935	1931	1927	1925	1924	1920	1920	1918	1916	1914	1912	1911	1912	1912	1914	1916	1920	1924	1929	1935	1939	1943	1943	1944	1946	1948	1948	1946	1946	1944	1944	1943	1943	1943	1941	1941	1941	1941	1941	1941	1943	1944	1944	1946	1948	1946	1948	1946	1944	0	0	0	0	0	0	0	0
3836	3836	3829	3821	3806	3792	3785	3777	3770	3763	3756	3749	3749	3749	3749	3749	3756	3763	3770	3777	3785	3799	3806	3814	3814	3814	3814	3814	3814	3814	3814	3814	3806	3806	3814	3814	3821	3829	3836	3843	3858	3866	3874	3881	3881	3889	3889	3897	0	0	0	0	0	0	0	0	0	12583	12583	12664	12745	12828	12912	12912	12997	12997	12912	12912	12828	12664	12503	12347	12195	11901	11830	11690	11690	11621	11553	11621	11553	11553	11486	11486	11419	11419	11354	11354	11289	11289	11289	11225	11225	11161	11161	11161	11161	11161	11161	11161	11161	11225	11289	11225	11225	11161	10915	10855	10737	10564	10453	10343	10236	10079	9978	9878	9829	9732	9684	9637	9590	9544	9544	9590	9590	9544	9498	9498	9544	9544	9590	9590	9637	9684	9684	9732	9780	9829	9878	9978	10028	10131	10236	0	10343	10398	10508	10508	10564	10621	10621	10621	10621	10621	10564	10564	10508	10621	10564	10564	10508	10508	10508	10564	10564	10679	10621	10679	10737	10737	10795	10855	10915	10915	10975	11099	11225	11289	11354	11354	11419	11486	11553	11621	11621	11690	11690	11690	11621	11621	11486	11419	11289	11225	11099	10975	10855	10795	10564	10398	10183	9978	9732	9544	9232	8939	8097	0	7427	7005	6860	6812	6766	6720	6652	6607	6563	6542	6520	6477	6456	6414	6393	6373	6332	6332	6292	6272	6272	6272	6252	6252	6252	6232	6232	6232	6232	6232	6212	6212	6193	6193	6174	6174	6174	6154	6154	6154	6135	6135	6135	6135	6135	6135	6135	6135	6135	6135	6174	6272	6456	6652	0	7132	0	7483	7902	8515	8939	0	9275	9544	9780	9978	10131	10236	10289	10289	10236	10183	10131	10079	10028	9978	9878	9829	9829	9829	9829	9829	9829	9780	9780	9780	9829	9780	9780	9732	9684	9637	9590	9544	9498	9452	9407	9319	9319	9319	9275	9275	9275	9275	9275	9232	9232	9232	9232	9232	9189	9189	9146	9104	9062	8980	9021	9062	9104	9189	0	9275	9407	9498	9684	9829	9927	9978	10028	10079	10079	10131	10079	10079	10028	10028	9927	9878	9829	9780	9732	9637	9637	9498	9452	9407	9363	9275	9189	9146	9062	8980	8899	8819	8741	8665	8589	8443	8407	8407	8407	8407	8407	8443	8479	8515	8552	8627	8665	8741	8780	8859	8939	9021	9104	9146	9189	9232	9275	9275	9275	9275	9275	9232	9232	9189	9146	9146	9146	9104	9104	9104	9104	9146	9146	9189	9189	9189	9189	9189	9189	9189	9146	9146	9104	9104	9104	9104	9062	8980	8939	8939	8899	8899	8859	8859	8819	8859	8859	8859	8859	8859	8899	8939	8980	9021	9062	9146	9189	9275	9275	9319	9319	9319	9319	9319	9232	9189	9146	9104	9062	8980	8939	8859	8780	8703	8627	8515	8407	8336	8231	8130	8031	7839	7747	7717	7628	7598	7540	7512	7455	7455	7427	7399	7371	7290	7290	7263	7290	0	0	0	0	0	0	0	0	2062	2058	2056	2054	2051	2047	2043	2039	2035	2030	2028	2026	2024	2022	2020	2020	2018	2014	2012	2012	2010	2010	2014	2018	2022	2026	2030	2037	2041	2047	2049	2049	2051	2051	2049	2047	2043	2041	2032	2030	2026	2024	2022	2020	2018	2016	2012	2008	2004	2002	2000	1996	1996	1993	1991	1989	1989	1987	1985	1981	1978	1970	1964	1960	1958	1954	1952	1950	1948	1946	1944	1941	1939	1935	1933	1929	1925	1924	1922	1918	1916	1914	1912	1912	1914	1914	1914	1916	1920	1924	1929	1933	1937	1941	1944	1946	1948	1950	1948	1948	1946	1946	1943	1941	1939	1939	1939	1939	1939	1941	1941	1943	1943	1944	1946	1948	1950	1950	1950	1948	1944	1943	1939	1935	1933	1929	1925	1925	1922	1922	1920	1920	1918	1918	1918	1920	1922	1924	1927	1931	1937	1943	1946	1948	1950	1952	1952	1952	1952	1952	1950	1948	1946	1944	1944	1944	1943	1941	1941	1944	1943	1944	1946	0	0	0	1950	1950	0	1950	0	0	0	0	0	0	0	0	0
3821	3814	3814	3806	3792	3785	3777	3770	3763	3756	3749	3749	3749	3749	3749	3749	3756	3763	3770	3777	3792	3799	3806	3814	3821	3821	3821	3821	3821	3821	3821	3814	3814	3814	3814	3821	3821	3829	3829	3843	3851	3858	3858	3866	3874	3874	3874	3874	0	0	0	0	0	0	0	0	0	12745	12745	12828	12828	12997	12997	13083	13083	12997	12997	12912	12745	12664	12503	12347	12120	11901	11830	11690	11690	11621	11553	11553	11553	11553	11486	11419	11419	11354	11289	11289	11289	11225	11225	11161	11161	11161	11099	11099	11161	11161	11161	11161	11161	11289	11289	11289	11289	11225	10975	10855	10737	10564	10453	10343	10183	10028	9927	9829	9780	9732	9637	9590	9544	9544	9544	9544	9544	9544	9498	9544	9544	9544	9544	9590	9590	9637	9637	9684	9732	9780	9829	9927	10028	10131	0	10236	10343	10453	10564	10621	10679	10679	10679	10737	10737	10855	10855	10795	10795	10737	10679	10679	10621	10621	10621	10679	10679	10737	10679	10679	10679	10737	10795	10855	10915	10915	10975	11037	11225	11289	11354	11419	11486	11553	11553	11621	11621	11690	11690	11690	11621	11553	11486	11354	11225	11161	11037	10915	10737	10453	10343	10131	9927	9637	9363	9104	8479	8130	7839	7540	0	6956	6812	6789	6742	6674	6607	6563	6520	6499	6456	6435	6393	6373	6352	6332	6312	6292	6272	6272	6252	6272	6252	6252	6252	6232	6232	6232	6232	6232	6212	6212	6193	6174	6174	6154	6154	6154	6135	6135	6116	6116	6116	6116	6116	6116	6116	6116	6135	6135	6174	6272	6435	6652	6883	7106	0	7427	7839	8443	8859	0	9232	9544	9829	10028	10131	10236	10289	10289	10236	10183	10131	10079	10028	9927	9927	9829	9829	9829	9829	9829	9829	9829	9829	9829	9829	9829	9780	9732	9684	9637	9544	9544	9498	9452	9363	9319	9319	9275	9275	9319	9275	9275	9275	9275	9275	9275	9275	9275	9275	9232	9232	9232	9189	9146	9146	9146	9189	9275	9363	9452	9590	9780	9927	10131	10289	10289	10289	10343	10343	10343	10343	10289	10183	10131	10079	10028	9927	9927	9829	9780	9684	9544	9544	9452	9363	9319	9232	9146	9062	8980	8939	8859	8780	8703	8627	8479	8479	8443	8443	8443	8443	8479	8515	8589	8589	8665	8741	8780	8819	8899	9021	9104	9146	0	9232	9275	9319	9319	9319	9319	9275	9275	9232	9189	9189	9146	9104	9104	9104	9104	9104	9104	9146	9146	9146	9146	9189	9189	9189	9189	9146	9146	9104	9104	9104	9104	9062	9021	8980	8980	8980	8939	8899	8899	8859	8859	8859	8899	8899	8859	8899	8939	8980	9021	9062	9104	9189	9232	9275	9275	9275	9275	9275	9275	9232	9189	9104	9062	8980	8899	8859	8741	8665	8552	8443	8371	8266	8163	8063	7966	7808	7717	7657	7598	7540	7512	7455	7427	7427	7371	7290	7290	7263	7236	7263	7236	7236	0	0	0	0	0	0	0	0	2064	2060	2058	2056	2051	2047	2043	2037	2032	2028	2026	2022	2020	2018	2016	2014	2012	2010	2010	2008	2008	2010	2016	2018	2024	2028	2037	2041	2047	2049	2051	2054	2054	2051	2051	2051	2047	2043	2035	2032	2030	2028	2026	2022	2020	2018	2016	2012	2008	2004	2002	1998	1996	1993	1991	1989	1989	1987	1985	1981	1978	1974	1966	1962	1960	1956	1954	1952	1948	1944	1943	1939	1935	1931	1927	1924	1920	1918	1914	1911	1909	1909	1907	1909	1911	1912	1914	1918	1922	1925	1931	1935	1941	1943	1946	1946	1948	1950	1948	1948	1946	1944	1943	1941	1939	1939	1939	1939	1941	1941	1944	1944	0	1948	1950	1952	0	1954	1954	1950	1948	1946	1943	1939	1937	1933	1931	1927	1927	1925	1925	1925	1924	1924	1925	1927	1929	1933	1937	1941	1946	1950	1954	1956	1958	1958	1958	1958	1958	1956	1954	1952	1950	1948	1948	1946	1946	1946	1944	1946	1944	1946	0	0	0	0	0	0	0	0	0	0	0	0	0	0	0	0	0
3806	3799	3799	3792	3785	3777	3763	3756	3756	3756	3749	3749	3749	3749	3749	3756	3756	3763	3770	3785	3792	3799	3806	3814	3821	3821	3821	3821	3821	3821	3821	3821	3814	3814	3814	3814	3821	3821	3829	3836	3843	3851	3858	3858	3858	3858	3866	3866	0	0	0	0	0	0	0	0	0	12745	12828	12828	12912	12997	13083	13083	13083	12997	12997	12828	12745	12583	12425	12270	12120	11901	11759	11690	11690	11621	11553	11553	11553	11553	11486	11486	11419	11354	11289	11289	11225	11225	11161	11161	11099	11099	11099	11037	11099	11161	11161	11161	11289	11354	11419	11354	11354	11289	11161	10915	10737	10564	10453	10289	10183	10028	9927	9878	9780	9732	9684	9637	9590	9544	9544	9544	9544	9544	9544	9544	9544	9544	9590	9590	9590	9637	9637	9637	9684	9732	9780	9878	9978	10131	0	10236	10343	10508	10564	10679	10737	10795	10855	10915	10915	10915	10915	10915	10915	10855	10795	10795	10737	10737	10737	10737	10795	10795	10795	10737	10737	10795	10855	10855	10855	10915	10975	11037	11225	11354	11354	11419	11486	11553	11621	11621	11690	11690	11690	11690	11621	11553	11486	11289	11225	11099	10915	10795	10621	10236	10028	9829	9544	9275	8980	8336	8063	7808	7598	0	7056	6908	6789	6742	6697	6629	6563	6520	6477	6456	6414	6373	6352	6332	6312	6292	6272	6272	6272	6252	6252	6252	6252	6272	6252	6252	6232	6232	6232	6232	6212	6193	6174	6174	6154	6154	6135	6116	6116	6116	6116	6116	6116	6097	6116	6116	6116	6116	6135	6135	6174	6272	6414	6629	6860	0	0	7344	7747	8266	8741	0	9146	9498	9780	9978	10131	10236	10289	10289	10236	10183	10183	10131	10028	9978	9927	9878	9829	9829	9829	9878	9878	9878	9878	9829	9829	9829	9829	9780	9684	9637	9544	9498	9498	9407	9363	9319	9275	9275	9275	9275	9275	9275	9275	9275	9319	9319	9319	9319	9319	9319	9319	9319	9319	9275	9319	9363	9452	9498	9637	9829	9927	10079	10289	10508	10508	10564	10621	10621	10564	10564	10508	10398	10398	10289	10236	10183	10079	9978	9878	9829	9732	9637	9544	9452	9407	9319	9275	9189	9104	9021	8980	8899	8819	8741	8665	8515	8479	8479	8479	8479	8479	8515	8589	8627	8665	8703	8780	8859	8899	8980	0	9062	9146	9189	9275	9319	9363	9363	9363	9363	9319	9319	9275	9232	9189	9146	9146	9104	9104	9062	9104	9104	9104	9146	9146	9146	9146	9146	9146	9146	9146	9104	9104	9146	9146	9104	9062	9062	8980	8980	8980	8980	8939	8899	8899	8899	8859	8899	8899	8899	8899	8939	8980	9021	9062	9104	9146	9232	9232	9275	9275	9275	9275	9232	9189	9146	9104	9021	8939	8859	8741	8665	8552	8479	8336	8231	8130	8031	7934	7747	7687	7598	7540	7512	7455	7427	7317	7290	7263	7263	7263	7236	7236	7210	7236	7236	0	0	0	0	0	0	0	0	2073	2069	2066	2062	2058	2054	2049	2043	2037	2030	2026	2022	2020	2016	2014	2012	2010	2008	2006	2006	2006	2008	2010	2016	2020	2026	2032	2039	2045	2049	2051	2056	2056	2056	2054	2054	2051	2049	2045	2041	2035	2030	2028	2026	2024	2022	2020	2016	2014	2010	2006	2002	1998	1996	1996	1993	1989	1987	1987	1983	1981	1978	1974	1966	1964	1960	1958	1956	1952	1948	1944	1941	1937	1931	1927	1924	1918	1914	1911	1909	1905	1905	1905	1907	1909	1912	1914	1918	1922	1927	1933	1935	1939	1943	1944	1946	1948	1950	1948	1948	1946	1946	1944	1943	1941	1939	1939	1939	1939	0	1941	1943	1944	1946	1948	1950	1952	1954	1956	1956	1954	1950	1948	1944	1943	1941	1937	1933	1933	1931	1931	1931	1931	1931	1931	1933	1935	1939	1943	1946	1950	1954	1958	1960	1964	1964	1964	1964	1964	1962	1960	1958	1956	1958	1956	1952	1950	1950	1948	1948	1948	1948	1950	1950	1952	0	0	0	0	0	0	1958	0	0	0	0	0	0	0	0
