1466	1466	1471	1471	0	0	0	0	0	0	0	0	0	0	0	0	0	0	0	0	2077	2077	2074	2071	2071	2071	2071	2064	2064	2061	2061	2061	2051	2048	2048	2039	2032	2023	2023	2017	2014	2014	2007	2007	2007	2004	2004	2004	2001	2001	2001	2001	2001	2001	2001	2001	1998	1998	1998	2001	2001	2001	2001	2001	2001	2004	2004	2004	2007	2010	2010	2014	2017	2017	2020	2023	2023	2023	2029	2029	2032	2032	2032	2032	2032	2032	2039	2039	2039	2039	2042	2039	2039	2039	2039	2032	2032	2032	2032	2039	2039	2032	2032	2032	2032	2032	2032	2032	2032	2032	2029	2029	2029	2029	2023	2023	2023	2023	2023	2023	2023	2023	2020	2020	2020	2020	2020	2017	2017	2017	2017	2017	2017	2017	2017	2017	2017	2020	2020	2017	2017	2017	2017	2017	2017	2014	2014	2010	2010	2010	2010	2007	2007	2007	2007	2007	2007	2007	2007	2007	2007	2007	2007	2007	2007	2007	2007	2007	2007	2004	2004	2004	2004	2004	2004	2004	2004	2004	2004	2004	2004	2004	2004	2004	2007	2007	2007	2007	2007	2010	2010	2010	2014	2014	2014	2014	2014	2014	2014	2017	2017	2017	2017	2017	2017	2017	2014	2014	2014	2014	2010	2010	2010	2010	2007	2007	2007	2004	2004	2004	2007	2007	2007	2007	2007	2007	2010	2010	2010	2010	2010	2010	2010	2010	2010	2010	2010	2010	2014	2014	2014	2014	2014	2014	2014	2014	2014	2014	2010	2010	2010	2010	2010	2007	2007	2007	2007	2007	2007	2007	2007	2007	2004	2004	2004	2004	2004	2004	2004	2004	2004	2004	2004	2004	2004	2004	2004	2004	2004	2004	2004	2004	2004	2004	2004	2004	2004	2004	2004	2004	2004	2004	2004	2004	2004	2004	2004	2004	2007	2007	2010	2014	2014	2017	2020	2020	2023	2023	2023	2029	2032	2032	2032	0	0	0	0	0	0	0	0	0	0	0	0	2815	2815	2815	2815	2815	2815	2809	2809	2809	2809	2809	2809	2809	2809	2803	2803	2803	2797	2797	2797	2791	2791	2791	2785	2785	2779	2779	2779	2773	2773	2773	2761	2761	2761	2755	2744	2744	2744	2744	2755	2761	2761	2761	2773	2773	2779	2791	2791	2797	2797	2809	2809	2809	2815	2821	2821	2821	2833	2833	2833	2833	2833	2839	2839	2839	2839	2839	2845	2845	2839	2839	2839	2839	2839	2839	2833	2833	2833	2833	2833	2833	2827	2827	2827	2821	2821	2821	2821	2821	2821	2821	2821	2815	2815	2815	2815	2815	2821	2821	2821	2821	2821	2821	2821	2827	2827	2827	2827	2827	2827	2827	2821	2821	2821	2815	2815	2815	2815	2815	2815	2815	2815	2815	2815	2815	2815	2815	2815	2815	2815	2815	2815	2815	2815	2815	2815	2815	2815	2815	2815	2815	2815	2815	2815	2815	2809	2809	2815	2815	2815	2815	2809	2809	2809	2809	2809	2815	2815	2815	2815	2815	2815	2815	2815	2809	2809	2809	2809	2809	2809	2809	2809	2809	2809	2809	2809	2815	2809	2809	2809	2809	2809	2809	2809	2809	2809	2815	2815	2815	2815	2815	2815	2821	2827	2827	2827	2833	2833	2839	2839	2839	2839	2839	2839	2839	2839	2839	2839	2839	2833	2833	2833	2827	2827	2827	2821	2821	2821	2815	2809	2809	2809	2797	2785	2785	2773	2755	2755	2738	2721	2715	2715	2704	2704	2704	2704	2704	2704	2704	2704	2704	2704	2704	2704	2704	2715	2715	2715	2721	2732	2732	2738	2744	2744	2755	2773	2773	2785	2791	2791	2803	2803	2809	2815	2815	2821	2827	2827	2833	2839	2839	2851	2864	2864	2864	2864	2864	2870	2870	2870	2870	2870	2870	2864	2864	2864	2864	2864	2864	2864	2858	2858	2858	2858	2858	2858	2858	2858	2858	2858	2858	2858	2864	2864	2864	2870	2876	2876	2889	2889	2889	2889	2889	2876	2870	2870	2870	2864	2864	2851	2845	2845	2839	2839	2833	2833	2833	2821	2821	2815	2815	2815	2809	2797	2797	2791	2791	2791	2791	2791	2791	2791	2797	2803	2803	2803	2809	2809	2809	2815	2815	2815	2821	2821	2827	2833	2833	2839	2851	2851	2858	2870	2870	2889	2896	2896	2908	2915	2915	2928	2928	2935	2935	2935	2935	2928	2928	2915	2908	2908	2896	2889	2889	2870	2851	2845	2845	2839	2839	2839	2833	2833	2833	2833	2833	2833	2833
1469	1469	1474	1474	0	0	0	0	0	0	0	0	0	0	0	0	0	0	0	0	2077	2077	2074	2074	2074	2071	2071	2064	2064	2064	2061	2061	2055	2051	2051	2048	2039	2039	2032	2023	2020	2020	2014	2010	2010	2007	2004	2004	2004	2004	2004	2001	2001	2001	2001	2001	2001	2001	2001	2001	2001	2001	2001	2001	2001	2004	2004	2004	2007	2010	2010	2014	2017	2017	2020	2023	2023	2029	2029	2029	2032	2032	2032	2032	2032	2032	2039	2039	2039	2039	2042	2039	2039	2039	2039	2032	2032	2032	2032	2039	2039	2032	2032	2032	2032	2032	2032	2032	2032	2032	2029	2029	2029	2029	2023	2023	2023	2023	2023	2023	2023	2023	2020	2020	2020	2020	2020	2017	2017	2017	2017	2017	2017	2017	2017	2017	2017	2020	2020	2017	2017	2017	2017	2017	2017	2014	2014	2010	2010	2010	2010	2007	2007	2007	2007	2007	2007	2007	2007	2007	2007	2007	2007	2007	2007	2007	2007	2007	2007	2004	2004	2004	2004	2004	2004	2004	2004	2004	2004	2004	2004	2004	2004	2007	2007	2007	2007	2010	2010	2010	2010	2010	2014	2014	2014	2014	2014	2014	2017	2017	2017	2017	2017	2017	2017	2017	2017	2014	2014	2014	2010	2010	2010	2010	2007	2007	2007	2004	2004	2004	2007	2007	2007	2007	2007	2007	2010	2010	2010	2010	2010	2010	2010	2010	2010	2010	2014	2014	2014	2014	2014	2014	2017	2017	2017	2017	2017	2017	2014	2014	2014	2014	2014	2010	2007	2007	2007	2007	2007	2007	2007	2007	2004	2004	2004	2004	2004	2004	2004	2004	2004	2004	2004	2004	2004	2004	2004	2004	2004	2004	2004	2004	2004	2004	2004	2004	2004	2004	2004	2004	2004	2004	2004	2004	2004	2004	2004	2004	2007	2007	2010	2014	2014	2017	2020	2020	2023	2023	2023	2029	2032	2032	2032	0	0	0	0	0	0	0	0	0	0	0	0	0	2809	2809	2809	2809	2809	2809	2809	2809	2809	2809	2809	2803	2797	2791	2791	2791	2785	2785	2785	2773	2773	2773	2761	2761	2755	2744	2744	2744	2744	2738	2738	2732	2732	2732	2721	2721	2732	2732	2732	2738	2738	2744	2755	2755	2761	2773	2773	2785	2791	2791	2803	2803	2809	2815	2815	2821	2821	2821	2827	2833	2833	2833	2833	2833	2839	2839	2839	2839	2839	2839	2833	2833	2833	2833	2833	2833	2827	2827	2827	2827	2827	2827	2821	2821	2821	2821	2821	2821	2821	2815	2815	2815	2815	2815	2815	2815	2815	2815	2815	2815	2815	2815	2821	2821	2821	2821	2821	2821	2821	2821	2821	2821	2821	2815	2815	2815	2815	2815	2815	2815	2815	2815	2815	2815	2815	2815	2815	2815	2815	2815	2815	2815	2815	2815	2815	2815	2815	2815	2815	2815	2815	2815	2815	2815	2809	2809	2815	2815	2815	2815	2809	2809	2809	2809	2809	2815	2815	2815	2815	2815	2815	2815	2815	2809	2809	2809	2809	2809	2809	2809	2809	2809	2809	2809	2809	2815	2809	2809	2809	2809	2809	2809	2809	2809	2809	2815	2815	2815	2815	2815	2815	2821	2827	2827	2827	2833	2833	2821	2821	2821	2827	2827	2827	2827	2833	2833	2833	2833	2827	2827	2827	2821	2821	2821	2821	2815	2815	2815	2809	2803	2803	2791	2779	2779	2761	2744	2744	2732	2721	2715	2715	2704	2704	2704	2704	2699	2699	2699	2699	2699	2699	2704	2704	2704	2704	2715	2715	2715	2721	2721	2732	2738	2738	2744	2755	2755	2773	2785	2785	2797	2797	2809	2815	2815	2821	2821	2821	2833	2833	2833	2839	2851	2851	2851	2851	2851	2858	2858	2858	2864	2864	2864	2858	2858	2858	2858	2864	2864	2864	2864	2864	2858	2858	2858	2858	2858	2858	2851	2851	2851	2851	2851	2858	2858	2858	2864	2864	2864	2864	2864	2864	2864	2864	2858	2858	2858	2851	2851	2845	2839	2839	2839	2839	2833	2833	2827	2821	2821	2815	2809	2809	2803	2797	2797	2791	2785	2785	2785	2785	2785	2785	2791	2797	2797	2803	2809	2809	2809	2815	2815	2815	2821	2821	2827	2833	2833	2839	2845	2845	2858	2870	2870	2889	2896	2896	2908	2908	2908	2915	2915	2915	2915	2928	2915	2915	2915	2908	2896	2896	2889	2876	2876	2864	2851	2845	2845	2839	2839	2839	2833	2833	2833	2833	2833	2833	2833
1471	1474	1477	1477	0	0	0	0	0	0	0	0	0	0	0	0	0	0	0	0	2077	2077	2077	2074	2074	2074	2074	2074	2071	2071	2064	2064	2064	2055	2055	2051	2048	2048	2042	2032	2029	2029	2020	2017	2017	2014	2010	2010	2007	2004	2004	2004	2001	2001	2001	2001	2001	2001	2001	2001	2001	2001	2001	2001	2001	2004	2004	2004	2007	2010	2010	2014	2020	2020	2023	2029	2029	2029	2032	2032	2039	2039	2039	2042	2042	2042	2042	2042	2042	2042	2042	2042	2042	2042	2042	2042	2042	2042	2042	2042	2042	2042	2042	2042	2042	2042	2042	2039	2039	2039	2039	2032	2032	2032	2032	2032	2032	2029	2029	2029	2029	2029	2029	2023	2023	2023	2023	2023	2023	2020	2020	2020	2020	2020	2023	2023	2023	2023	2023	2023	2023	2023	2023	2023	2020	2017	2017	2017	2017	2014	2014	2010	2010	2010	2010	2010	2010	2010	2010	2010	2010	2010	2010	2007	2007	2007	2007	2007	2007	2004	2004	2004	2004	2004	2004	2004	2004	2004	2004	2004	2004	2004	2004	2007	2007	2007	2007	2010	2010	2010	2010	2010	2014	2014	2014	2014	2014	2014	2017	2017	2017	2017	2017	2017	2017	2017	2017	2014	2014	2014	2010	2010	2010	2010	2007	2007	2004	2004	2004	2004	2007	2007	2007	2007	2007	2007	2007	2010	2010	2010	2010	2010	2010	2010	2010	2010	2014	2014	2014	2014	2014	2014	2017	2017	2017	2017	2017	2017	2014	2014	2014	2014	2017	2014	2010	2010	2010	2010	2010	2007	2007	2007	2007	2004	2004	2004	2004	2004	2004	2004	2004	2004	2004	2004	2004	2004	2004	2004	2004	2004	2004	2004	2004	2004	2004	2004	2004	2004	2004	2004	2004	2004	2004	2004	2004	2004	2004	2007	2007	2007	2010	2014	2014	2017	2020	2020	2023	2032	2032	2032	2039	2039	2039	0	0	0	0	0	0	0	0	0	0	0	0	0	2809	2809	2809	2809	2809	2809	2809	2809	2809	2809	2809	2803	2791	2785	2785	2773	2773	2773	2761	2755	2755	2744	2738	2738	2732	2721	2715	2715	2704	2704	2704	2699	2699	2699	2699	2699	2699	2699	2699	2715	2715	2715	2721	2721	2738	2755	2755	2773	2779	2779	2791	2803	2803	2809	2809	2815	2821	2821	2821	2827	2827	2827	2833	2833	2833	2833	2833	2833	2833	2833	2833	2827	2827	2827	2827	2827	2827	2821	2821	2821	2821	2821	2821	2821	2821	2821	2821	2821	2821	2815	2815	2815	2815	2815	2815	2815	2815	2815	2815	2815	2815	2815	2815	2815	2815	2815	2815	2815	2815	2815	2815	2815	2815	2815	2815	2815	2809	2809	2809	2809	2809	2809	2809	2815	2815	2815	2815	2815	2815	2815	2815	2815	2809	2809	2809	2809	2809	2809	2809	2809	2809	2809	2809	2809	2803	2803	2809	2809	2809	2809	2803	2803	2803	2803	2803	2803	2803	2803	2803	2803	2803	2803	2803	2803	2803	2803	2803	2803	2803	2803	2803	2803	2803	2803	2803	2803	2803	2803	2797	2797	2797	2797	2797	2803	2803	2809	2809	2809	2809	2809	2809	2809	2815	2815	2815	2821	2821	2821	2821	2821	2827	2827	2827	2827	2833	2833	2833	2833	2827	2827	2827	2821	2821	2821	2821	2815	2815	2815	2809	2803	2803	2791	2779	2779	2761	2744	2744	2732	2721	2715	2715	2704	2704	2704	2704	2699	2699	2699	2699	2699	2699	2704	2704	2704	2704	2715	2715	2715	2721	2721	2732	2738	2738	2744	2755	2755	2773	2785	2785	2797	2797	2809	2815	2815	2821	2821	2821	2833	2833	2833	2839	2851	2851	2851	2851	2851	2858	2858	2858	2864	2864	2864	2858	2858	2858	2858	2864	2864	2864	2864	2864	2864	2858	2858	2858	2851	2851	2845	2845	2845	2839	2839	2845	2845	2845	2851	2851	2851	2851	2851	2851	2851	2851	2851	2851	2851	2845	2845	2839	2839	2839	2839	2833	2833	2833	2821	2821	2821	2815	2809	2809	2803	2791	2791	2785	2785	2785	2785	2785	2785	2785	2791	2797	2797	2803	2809	2809	2809	2815	2815	2815	2821	2821	2827	2833	2833	2839	2845	2845	2858	2864	2864	2876	2889	2889	2896	2908	2908	2908	2908	2908	2908	2908	2908	2896	2896	2896	2889	2889	2876	2870	2870	2858	2851	2845	2845	2839	2833	2833	2833	2833	2833	2827	2827	2827	2827
1471	1474	1477	1477	0	0	0	0	0	0	0	0	0	0	0	0	0	0	0	0	2077	2077	2077	2074	2074	2074	2074	2074	2071	2071	2064	2064	2064	2055	2055	2051	2048	2048	2042	2032	2029	2029	2020	2017	2017	2014	2010	2010	2007	2004	2004	2004	2001	2001	2001	2001	2001	2001	2001	2001	2001	2001	2001	2001	2001	2004	2004	2004	2007	2014	2014	2017	2023	2023	2029	2032	2032	2039	2039	2039	2042	2048	2048	2048	2048	2048	2048	2051	2051	2051	2051	2051	2051	2051	2051	2051	2051	2051	2051	2051	2051	2051	2051	2048	2048	2048	2048	2048	2048	2048	2042	2042	2042	2042	2039	2039	2039	2039	2039	2032	2029	2029	2029	2029	2029	2029	2029	2029	2029	2029	2023	2023	2023	2023	2029	2029	2029	2029	2029	2029	2029	2029	2029	2029	2023	2023	2023	2023	2020	2020	2017	2017	2014	2014	2014	2010	2010	2010	2010	2010	2010	2010	2010	2007	2007	2007	2007	2004	2004	2004	2004	2004	2004	2004	2004	2004	2004	2004	2004	2004	2004	2007	2007	2007	2010	2010	2010	2010	2010	2010	2014	2014	2014	2014	2014	2017	2017	2017	2017	2017	2017	2017	2017	2017	2017	2017	2017	2017	2017	2014	2010	2010	2010	2010	2007	2007	2004	2004	2004	2004	2007	2007	2007	2007	2007	2007	2007	2010	2010	2010	2010	2010	2010	2010	2010	2014	2017	2017	2017	2017	2017	2020	2020	2020	2020	2020	2020	2020	2020	2017	2017	2017	2017	2014	2010	2010	2010	2010	2010	2007	2007	2007	2007	2004	2004	2004	2004	2004	2004	2004	2004	2004	2004	2004	2004	2004	2004	2004	2004	2004	2004	2004	2004	2004	2004	2004	2004	2004	2004	2004	2004	2004	2004	2004	2004	2004	2004	2007	2007	2007	2010	2014	2014	2017	2020	2020	2023	2032	2032	2032	2039	2039	2039	0	0	0	0	0	0	0	0	0	0	0	0	2803	2803	2809	2803	2803	2803	2803	2803	2803	2803	2797	2797	2797	2791	2785	2785	2773	2773	2773	2761	2755	2755	2744	2738	2738	2732	2721	2715	2715	2704	2704	2704	2699	2699	2699	2699	2699	2699	2699	2699	2715	2715	2715	2721	2721	2738	2755	2755	2773	2779	2779	2791	2803	2803	2809	2809	2815	2821	2821	2821	2827	2827	2827	2833	2833	2833	2833	2833	2833	2833	2833	2833	2827	2827	2827	2827	2827	2827	2821	2821	2821	2821	2821	2821	2821	2821	2821	2821	2821	2821	2815	2815	2815	2815	2815	2815	2815	2815	2815	2815	2815	2815	2815	2815	2815	2815	2815	2815	2815	2815	2815	2815	2815	2815	2815	2815	2815	2809	2809	2809	2809	2809	2809	2809	2815	2815	2815	2815	2815	2815	2815	2815	2815	2809	2809	2809	2809	2809	2809	2809	2809	2809	2803	2803	2803	2797	2797	2803	2803	2797	2797	2797	2797	2797	2797	2797	2797	2797	2797	2797	2797	2791	2791	2791	2791	2791	2791	2791	2791	2791	2791	2791	2791	2791	2791	2791	2785	2785	2791	2785	2785	2785	2785	2785	2791	2791	2791	2797	2797	2797	2803	2803	2809	2809	2809	2815	2815	2815	2815	2821	2821	2821	2821	2821	2821	2821	2821	2821	2821	2821	2821	2821	2821	2821	2821	2815	2815	2815	2815	2809	2803	2803	2791	2779	2779	2761	2744	2744	2732	2721	2715	2715	2704	2704	2704	2704	2699	2699	2699	2699	2699	2699	2699	2704	2704	2704	2704	2704	2715	2721	2721	2721	2732	2732	2738	2755	2755	2773	2779	2779	2791	2797	2809	2809	2809	2815	2821	2821	2827	2833	2833	2839	2839	2839	2839	2845	2845	2845	2845	2845	2851	2858	2858	2851	2851	2851	2858	2864	2864	2864	2870	2870	2864	2858	2858	2858	2851	2851	2845	2845	2845	2839	2839	2845	2845	2845	2851	2851	2851	2851	2851	2851	2851	2851	2851	2851	2851	2845	2845	2839	2839	2839	2839	2833	2833	2833	2821	2821	2821	2815	2809	2809	2803	2791	2791	2785	2785	2785	2785	2785	2791	2791	2797	2797	2797	2803	2809	2809	2809	2815	2815	2821	2821	2821	2827	2833	2833	2839	2851	2851	2858	2864	2864	2876	2889	2889	2896	2908	2908	2908	2908	2908	2908	2908	2908	2889	2889	2889	2876	2876	2870	2858	2858	2851	2845	2839	2839	2833	2833	2833	2827	2827	2827	2821	2821	2821	2821
1474	1476	1479	1479	0	0	0	0	0	0	0	0	0	0	0	0	0	0	0	0	2081	2081	2077	2077	2077	2077	2077	2077	2077	2074	2074	2074	2071	2064	2064	2061	2055	2055	2051	2048	2048	2039	2032	2029	2029	2020	2017	2017	2014	2010	2010	2007	2004	2001	2001	2001	2001	2001	2001	2001	2001	2001	2001	2001	2001	2004	2004	2004	2007	2014	2014	2017	2023	2023	2029	2032	2032	2039	2039	2039	2042	2048	2048	2048	2048	2048	2048	2051	2051	2051	2051	2051	2051	2051	2051	2051	2051	2051	2051	2051	2051	2051	2051	2048	2048	2048	2048	2048	2048	2048	2042	2042	2042	2042	2039	2039	2039	2039	2039	2032	2029	2029	2029	2029	2029	2029	2029	2029	2029	2029	2023	2023	2023	2023	2029	2029	2029	2029	2029	2029	2029	2029	2029	2029	2023	2023	2023	2023	2020	2020	2017	2017	2014	2014	2014	2014	2014	2014	2014	2014	2014	2010	2010	2010	2007	2007	2007	2004	2004	2004	2004	2004	2004	2004	2004	2004	2004	2004	2004	2004	2004	2007	2007	2010	2010	2010	2010	2010	2010	2014	2014	2014	2014	2017	2017	2017	2017	2017	2017	2017	2017	2017	2017	2017	2017	2017	2017	2017	2017	2017	2014	2014	2010	2010	2010	2010	2007	2007	2007	2007	2007	2007	2007	2007	2007	2007	2007	2010	2010	2010	2014	2014	2014	2017	2017	2017	2017	2017	2017	2020	2020	2023	2023	2023	2023	2023	2023	2023	2023	2020	2020	2017	2017	2017	2014	2014	2014	2010	2010	2010	2010	2010	2007	2007	2007	2004	2004	2004	2004	2004	2004	2004	2004	2004	2004	2004	2004	2004	2004	2004	2004	2004	2004	2004	2004	2004	2004	2004	2004	2004	2004	2004	2004	2004	2004	2004	2004	2007	2010	2010	2010	2017	2017	2020	2023	2023	2029	2032	2032	2039	2039	2039	2042	0	0	0	0	0	0	0	0	0	0	0	0	2797	2797	2797	2797	2797	2797	2791	2791	2797	2797	2791	2791	2791	2779	2773	2773	2761	2755	2755	2744	2738	2738	2732	2715	2704	2704	2699	2687	2687	2682	2676	2676	2676	2671	2671	2671	2671	2671	2671	2676	2682	2682	2687	2704	2704	2715	2732	2732	2744	2761	2761	2785	2791	2791	2803	2809	2809	2815	2815	2815	2821	2821	2821	2821	2827	2821	2821	2821	2821	2821	2827	2827	2821	2821	2821	2821	2821	2821	2821	2821	2821	2821	2821	2821	2821	2821	2821	2821	2821	2821	2815	2815	2815	2815	2815	2815	2815	2815	2815	2815	2815	2821	2821	2821	2821	2821	2815	2815	2815	2815	2821	2821	2821	2821	2815	2815	2815	2815	2815	2815	2815	2815	2815	2815	2815	2815	2815	2815	2815	2815	2815	2815	2815	2809	2809	2809	2809	2809	2809	2809	2809	2809	2803	2803	2803	2797	2797	2803	2803	2797	2797	2797	2797	2797	2797	2797	2797	2797	2797	2797	2797	2791	2791	2791	2791	2791	2791	2791	2791	2791	2791	2791	2791	2791	2791	2791	2785	2785	2791	2785	2785	2785	2785	2785	2791	2791	2791	2797	2797	2785	2785	2785	2791	2797	2797	2809	2815	2815	2815	2815	2815	2821	2821	2821	2821	2821	2821	2821	2821	2821	2815	2815	2815	2815	2815	2815	2815	2815	2809	2809	2803	2803	2791	2779	2779	2761	2744	2744	2738	2721	2715	2715	2704	2704	2704	2704	2699	2699	2699	2699	2699	2699	2699	2704	2704	2704	2704	2704	2704	2721	2721	2721	2732	2732	2738	2755	2755	2761	2779	2779	2785	2803	2803	2809	2809	2815	2815	2815	2821	2821	2821	2833	2833	2833	2833	2839	2839	2839	2839	2839	2845	2845	2845	2845	2845	2851	2851	2858	2858	2864	2864	2864	2864	2858	2858	2851	2839	2839	2839	2839	2839	2833	2833	2833	2833	2833	2833	2833	2839	2839	2839	2839	2839	2839	2839	2839	2839	2839	2839	2839	2839	2839	2839	2833	2827	2827	2821	2821	2821	2815	2809	2809	2797	2791	2791	2785	2785	2785	2785	2785	2791	2791	2797	2797	2797	2803	2809	2809	2809	2815	2815	2821	2821	2821	2827	2833	2833	2839	2845	2845	2851	2864	2864	2870	2876	2876	2889	2896	2896	2896	2896	2896	2896	2896	2896	2889	2889	2889	2876	2876	2870	2858	2858	2851	2845	2839	2839	2833	2833	2833	2827	2827	2827	2821	2821	2821	2821
1477	1477	1481	1481	0	0	0	0	0	0	0	0	0	0	0	0	0	0	0	0	0	0	2081	2081	2081	2081	2081	2081	2081	2081	2081	2077	2074	2074	2074	2071	2064	2064	2061	2055	2055	2051	2048	2048	2039	2032	2023	2023	2020	2014	2014	2010	2007	2007	2004	2004	2001	2001	2001	2001	2001	2001	2004	2004	2004	2004	2007	2007	2010	2017	2017	2020	2023	2023	2029	2032	2032	2039	2042	2042	2048	2048	2048	2051	2051	2051	2055	2055	2055	2055	2055	2055	2055	2055	2055	2055	2055	2055	2055	2055	2055	2055	2055	2051	2051	2051	2051	2051	2048	2048	2048	2042	2042	2042	2039	2039	2039	2039	2039	2032	2032	2032	2032	2029	2029	2029	2029	2029	2029	2029	2029	2029	2029	2032	2032	2032	2032	2039	2039	2039	2039	2039	2039	2039	2032	2032	2032	2029	2023	2023	2020	2017	2017	2017	2017	2014	2014	2014	2014	2014	2014	2010	2010	2010	2007	2007	2007	2004	2004	2004	2004	2004	2004	2004	2004	2004	2004	2004	2004	2004	2004	2007	2007	2010	2010	2010	2010	2010	2010	2014	2014	2014	2014	2017	2017	2017	2017	2017	2017	2017	2017	2017	2017	2017	2017	2017	2017	2017	2017	2017	2014	2014	2010	2010	2010	2010	2007	2007	2007	2007	2007	2007	2007	2007	2007	2007	2007	2010	2010	2010	2014	2014	2014	2017	2017	2017	2017	2017	2017	2020	2020	2023	2023	2023	2023	2023	2023	2023	2023	2023	2023	2023	2020	2020	2017	2017	2014	2014	2014	2010	2010	2010	2010	2007	2007	2004	2004	2004	2004	2004	2004	2004	2004	2004	2004	2004	2004	2004	2004	2004	2004	2004	2004	2004	2004	2004	2004	2004	2004	2004	2004	2004	2004	2004	2004	2004	2004	2007	2010	2010	2014	2017	2017	2020	2029	2029	2032	2039	2039	2042	2042	2042	2051	0	0	0	0	0	0	0	0	0	0	0	0	2797	2797	2797	2797	2791	2791	2785	2785	2785	2785	2785	2779	2779	2773	2761	2761	2744	2738	2738	2732	2721	2704	2704	2699	2687	2687	2676	2671	2671	2671	2660	2660	2660	2655	2655	2655	2655	2655	2655	2655	2666	2671	2671	2682	2682	2699	2715	2715	2732	2744	2744	2773	2785	2785	2797	2803	2803	2809	2809	2809	2815	2815	2815	2815	2815	2815	2821	2821	2821	2815	2815	2815	2815	2815	2815	2815	2815	2815	2815	2821	2821	2821	2821	2821	2821	2821	2821	2821	2821	2821	2821	2821	2821	2821	2821	2821	2821	2821	2821	2821	2821	2821	2821	2821	2821	2821	2815	2815	2815	2815	2821	2821	2821	2821	2815	2815	2815	2815	2815	2815	2815	2815	2815	2815	2815	2815	2815	2815	2815	2815	2815	2815	2815	2809	2809	2809	2809	2809	2809	2809	2803	2803	2803	2803	2803	2797	2797	2797	2797	2797	2797	2791	2791	2791	2791	2791	2791	2791	2791	2791	2791	2791	2791	2791	2785	2785	2785	2785	2779	2779	2779	2779	2779	2779	2779	2779	2779	2773	2773	2773	2773	2773	2773	2773	2779	2779	2779	2785	2785	2785	2785	2785	2791	2797	2797	2809	2815	2815	2815	2815	2815	2821	2821	2821	2821	2821	2821	2821	2821	2821	2815	2815	2815	2815	2815	2815	2815	2815	2809	2809	2803	2803	2791	2785	2785	2773	2755	2755	2738	2732	2721	2721	2715	2715	2715	2704	2704	2704	2704	2699	2699	2699	2704	2704	2704	2704	2704	2704	2704	2721	2721	2721	2732	2732	2738	2755	2755	2761	2779	2779	2785	2803	2803	2809	2809	2815	2815	2815	2821	2821	2821	2833	2833	2833	2833	2839	2839	2839	2839	2839	2839	2839	2839	2839	2839	2845	2845	2851	2851	2858	2851	2851	2851	2845	2845	2845	2839	2839	2833	2833	2833	2827	2821	2821	2821	2821	2827	2827	2827	2833	2833	2833	2833	2833	2833	2839	2839	2839	2839	2839	2833	2833	2833	2833	2827	2827	2821	2815	2815	2809	2809	2809	2797	2791	2791	2785	2785	2785	2785	2791	2791	2791	2797	2803	2803	2809	2815	2815	2815	2815	2815	2821	2821	2821	2827	2833	2833	2839	2845	2845	2845	2858	2858	2864	2870	2870	2870	2876	2876	2876	2876	2876	2876	2876	2876	2876	2876	2870	2864	2864	2858	2851	2851	2845	2839	2833	2833	2833	2827	2827	2821	2821	2821	2821	2815	2815	2815
1477	1477	1481	1481	1484	0	0	0	0	0	0	0	0	0	0	0	0	0	0	0	0	0	2081	2081	2081	2081	2081	2081	2081	2081	2081	2077	2074	2074	2074	2071	2064	2064	2061	2055	2055	2051	2048	2048	2039	2032	2023	2023	2020	2014	2014	2010	2007	2007	2004	2004	2004	2004	2004	2004	2004	2004	2004	2004	2004	2007	2010	2010	2014	2017	2017	2020	2029	2029	2039	2042	2042	2048	2048	2051	2051	2055	2055	2055	2055	2055	2061	2061	2061	2061	2061	2061	2061	2061	2061	2061	2061	2061	2061	2061	2061	2061	2061	2055	2051	2051	2051	2051	2051	2051	2048	2042	2042	2042	2039	2039	2039	2039	2039	2032	2032	2032	2032	2032	2032	2032	2032	2032	2032	2032	2032	2039	2039	2039	2039	2039	2042	2042	2042	2048	2048	2048	2048	2048	2042	2039	2039	2032	2032	2032	2029	2023	2023	2020	2020	2017	2017	2017	2014	2014	2014	2014	2014	2010	2007	2007	2007	2004	2004	2004	2004	2004	2004	2004	2004	2004	2004	2004	2004	2004	2007	2007	2007	2010	2010	2010	2010	2014	2014	2014	2014	2014	2017	2017	2017	2017	2017	2017	2017	2017	2017	2017	2017	2017	2020	2020	2017	2017	2017	2017	2017	2017	2017	2014	2014	2014	2014	2010	2010	2010	2010	2010	2010	2010	2010	2010	2010	2014	2014	2014	2017	2017	2017	2020	2020	2020	2020	2020	2023	2023	2023	2023	2023	2023	2023	2023	2023	2023	2023	2023	2023	2023	2020	2020	2017	2017	2014	2014	2014	2010	2010	2010	2010	2007	2007	2004	2004	2004	2004	2004	2004	2004	2004	2004	2004	2004	2004	2004	2004	2004	2004	2004	2004	2004	2004	2004	2004	2004	2004	2004	2004	2004	2004	2004	2004	2004	2004	2007	2010	2010	2014	2017	2017	2020	2029	2029	2032	2039	2039	2042	2042	2042	2051	0	0	0	0	0	0	0	0	0	0	0	0	2785	2785	2791	2791	2791	2791	2785	2785	2785	2785	2785	2779	2779	2773	2761	2761	2744	2738	2738	2732	2721	2704	2704	2699	2687	2687	2676	2671	2671	2671	2660	2660	2660	2655	2655	2655	2655	2655	2655	2655	2666	2671	2671	2682	2682	2699	2715	2715	2732	2744	2744	2773	2785	2785	2797	2803	2803	2809	2809	2809	2815	2815	2815	2815	2815	2815	2821	2821	2821	2815	2815	2815	2815	2815	2815	2815	2815	2815	2815	2821	2821	2821	2821	2821	2821	2821	2821	2821	2821	2821	2821	2821	2821	2821	2821	2821	2821	2821	2821	2821	2821	2821	2821	2821	2821	2821	2821	2821	2821	2821	2821	2821	2821	2821	2821	2815	2815	2815	2815	2815	2815	2815	2821	2821	2821	2821	2821	2821	2821	2821	2815	2815	2815	2809	2809	2809	2809	2809	2809	2809	2803	2803	2803	2803	2803	2797	2797	2797	2797	2791	2791	2791	2785	2785	2785	2791	2791	2785	2785	2785	2779	2779	2779	2779	2773	2773	2773	2773	2773	2773	2755	2755	2755	2755	2755	2761	2761	2755	2755	2755	2744	2744	2744	2744	2755	2755	2761	2761	2761	2773	2779	2779	2779	2797	2797	2803	2809	2809	2809	2815	2815	2815	2821	2821	2821	2821	2815	2815	2815	2815	2815	2815	2815	2815	2815	2809	2809	2809	2809	2803	2797	2797	2791	2785	2785	2773	2755	2755	2738	2732	2721	2721	2715	2715	2715	2704	2704	2704	2704	2699	2699	2699	2704	2704	2704	2704	2704	2704	2704	2721	2721	2721	2732	2732	2738	2755	2755	2761	2779	2779	2785	2803	2803	2809	2809	2809	2815	2815	2815	2821	2821	2821	2833	2833	2833	2833	2833	2833	2833	2833	2839	2839	2839	2839	2839	2845	2845	2851	2851	2858	2851	2851	2851	2845	2845	2845	2839	2839	2833	2833	2833	2827	2821	2821	2821	2821	2827	2827	2827	2833	2833	2833	2833	2833	2833	2839	2839	2839	2839	2839	2833	2833	2833	2833	2833	2827	2821	2815	2815	2809	2809	2809	2797	2791	2791	2785	2785	2785	2785	2791	2797	2797	2803	2803	2803	2809	2815	2815	2815	2815	2815	2821	2821	2821	2827	2833	2833	2839	2845	2845	2845	2858	2858	2864	2870	2870	2870	2876	2870	2870	2870	2870	2870	2870	2870	2870	2870	2864	2858	2858	2851	2845	2845	2839	2833	2833	2833	2821	2821	2821	2821	2815	2815	2815	2809	2809	2809
1479	1481	1482	1482	1484	0	0	0	0	0	0	0	0	0	0	0	0	0	0	0	0	0	0	2081	2081	2081	2081	2081	2081	2081	2081	2081	2081	2081	2077	2074	2074	2074	2071	2064	2064	2061	2055	2055	2051	2042	2039	2039	2029	2023	2023	2017	2014	2014	2010	2007	2004	2004	2004	2004	2004	2004	2004	2004	2004	2007	2010	2010	2014	2017	2017	2020	2029	2029	2039	2042	2042	2048	2048	2051	2051	2055	2055	2055	2055	2055	2061	2061	2061	2061	2061	2061	2061	2061	2061	2061	2061	2061	2061	2061	2061	2061	2061	2055	2051	2051	2051	2051	2048	2048	2042	2042	2042	2042	2039	2039	2039	2039	2039	2032	2032	2032	2032	2032	2032	2032	2032	2032	2032	2032	2032	2039	2039	2039	2039	2039	2042	2042	2042	2048	2048	2048	2048	2048	2048	2048	2048	2042	2039	2039	2032	2029	2029	2023	2020	2020	2020	2017	2017	2017	2017	2014	2014	2010	2010	2010	2007	2007	2007	2004	2004	2004	2004	2004	2004	2004	2004	2004	2007	2007	2007	2010	2010	2010	2010	2010	2014	2014	2014	2014	2014	2014	2017	2017	2017	2017	2020	2020	2020	2020	2020	2020	2020	2020	2023	2023	2023	2023	2023	2023	2023	2023	2020	2020	2020	2020	2020	2020	2020	2017	2017	2017	2017	2017	2017	2017	2020	2020	2020	2023	2029	2029	2029	2029	2029	2029	2029	2029	2029	2032	2029	2029	2029	2029	2029	2029	2029	2029	2029	2029	2023	2023	2020	2020	2017	2017	2017	2014	2014	2014	2010	2010	2010	2007	2007	2007	2004	2004	2004	2004	2004	2004	2004	2004	2004	2004	2004	2004	2004	2004	2004	2004	2004	2004	2004	2004	2004	2004	2004	2004	2004	2004	2004	2004	2004	2007	2007	2007	2010	2010	2014	2020	2020	2023	2032	2032	2039	2042	2042	2051	2051	2051	2055	2061	0	0	0	0	0	0	0	0	0	0	0	2773	2773	2773	2773	2773	2773	2773	2773	2773	2773	2773	2761	2761	2755	2744	2744	2732	2721	2721	2715	2704	2687	2687	2682	2671	2671	2666	2660	2660	2655	2655	2655	2649	2649	2649	2649	2649	2649	2649	2649	2655	2660	2660	2671	2682	2682	2704	2704	2721	2744	2744	2755	2779	2779	2785	2791	2791	2803	2803	2803	2809	2809	2809	2809	2815	2809	2809	2809	2809	2809	2809	2809	2809	2809	2809	2809	2809	2809	2809	2815	2815	2815	2815	2815	2815	2821	2821	2821	2821	2821	2821	2821	2821	2821	2821	2821	2821	2821	2821	2821	2821	2821	2821	2821	2821	2821	2821	2821	2821	2821	2821	2821	2821	2821	2821	2821	2821	2821	2821	2821	2821	2821	2821	2821	2821	2821	2821	2821	2821	2821	2821	2821	2815	2815	2815	2809	2809	2809	2809	2809	2809	2809	2803	2803	2803	2797	2797	2797	2797	2791	2791	2791	2785	2785	2785	2791	2791	2785	2785	2785	2779	2779	2779	2779	2773	2773	2773	2773	2773	2773	2755	2755	2755	2755	2755	2761	2761	2755	2755	2755	2744	2744	2732	2732	2738	2738	2744	2744	2744	2755	2755	2755	2773	2779	2779	2791	2803	2803	2809	2809	2809	2815	2815	2815	2815	2815	2815	2815	2815	2809	2809	2809	2809	2809	2809	2809	2803	2803	2803	2797	2791	2791	2785	2779	2779	2773	2755	2755	2744	2738	2738	2732	2721	2715	2715	2715	2715	2715	2704	2704	2704	2704	2704	2704	2704	2704	2715	2715	2715	2721	2721	2721	2732	2732	2744	2755	2755	2761	2779	2779	2785	2791	2797	2803	2803	2809	2809	2809	2815	2815	2815	2821	2827	2827	2827	2833	2833	2833	2833	2833	2839	2839	2839	2839	2839	2839	2839	2839	2845	2845	2845	2845	2839	2839	2839	2839	2833	2833	2827	2821	2821	2815	2815	2815	2815	2815	2815	2815	2815	2821	2821	2821	2821	2821	2827	2827	2827	2833	2833	2833	2833	2833	2827	2827	2821	2821	2815	2815	2815	2809	2803	2803	2797	2791	2791	2785	2785	2785	2785	2791	2797	2797	2803	2803	2803	2809	2815	2815	2815	2815	2815	2821	2821	2821	2827	2833	2833	2833	2839	2839	2845	2851	2851	2858	2864	2864	2864	2870	2870	2870	2870	2870	2870	2870	2870	2870	2870	2864	2858	2858	2851	2845	2845	2839	2833	2833	2833	2821	2821	2821	2821	2815	2815	2815	2809	2809	2809
1482	1482	1484	1484	1486	0	0	0	0	0	0	0	0	0	0	0	0	0	0	0	0	0	0	2081	2081	2081	2081	2084	2081	2081	2081	2081	2081	2081	2081	2081	2077	2077	2077	2074	2074	2071	2064	2064	2061	2055	2055	2048	2039	2032	2032	2029	2020	2020	2017	2010	2010	2010	2007	2007	2007	2007	2007	2007	2007	2010	2014	2014	2020	2023	2023	2029	2039	2039	2042	2042	2048	2051	2051	2055	2055	2055	2061	2064	2064	2064	2064	2064	2064	2064	2064	2064	2064	2064	2064	2064	2064	2061	2061	2061	2061	2055	2055	2051	2051	2051	2051	2048	2042	2042	2042	2042	2042	2039	2039	2039	2039	2039	2039	2032	2032	2032	2032	2032	2032	2032	2032	2032	2032	2039	2039	2039	2039	2042	2042	2042	2048	2048	2051	2051	2051	2051	2051	2051	2048	2048	2048	2042	2039	2039	2032	2029	2029	2023	2020	2020	2020	2017	2017	2017	2017	2014	2014	2010	2010	2010	2007	2007	2007	2004	2004	2004	2004	2004	2004	2004	2004	2004	2007	2007	2007	2010	2010	2010	2010	2010	2014	2014	2014	2014	2014	2014	2017	2017	2017	2017	2020	2020	2020	2020	2020	2020	2020	2020	2023	2023	2023	2023	2023	2023	2023	2023	2020	2020	2020	2020	2020	2020	2020	2017	2017	2017	2017	2017	2017	2017	2020	2020	2020	2023	2029	2029	2029	2039	2032	2032	2032	2032	2039	2039	2032	2032	2032	2032	2029	2029	2029	2029	2029	2029	2023	2023	2020	2020	2020	2020	2017	2017	2017	2014	2014	2014	2010	2010	2010	2010	2007	2007	2007	2007	2007	2007	2007	2007	2007	2007	2007	2007	2007	2007	2007	2004	2004	2004	2004	2004	2004	2004	2004	2004	2004	2004	2004	2004	2004	2007	2007	2010	2014	2014	2017	2020	2020	2029	2039	2039	2042	2048	2048	2055	2055	2055	2061	2061	0	0	0	0	0	0	0	0	0	0	2744	2744	2744	2744	2755	2744	2744	2755	2755	2755	2755	2755	2755	2755	2744	2732	2732	2721	2715	2704	2704	2687	2682	2682	2671	2660	2660	2655	2655	2655	2649	2649	2644	2644	2644	2644	2644	2644	2644	2649	2649	2649	2655	2655	2666	2682	2682	2699	2699	2721	2738	2738	2755	2773	2773	2779	2785	2785	2797	2797	2797	2797	2803	2803	2803	2803	2803	2797	2797	2797	2797	2797	2797	2797	2797	2797	2797	2803	2803	2803	2809	2809	2809	2809	2809	2815	2815	2815	2815	2821	2821	2821	2821	2821	2821	2821	2821	2821	2821	2821	2821	2821	2821	2821	2821	2821	2821	2821	2821	2821	2821	2821	2821	2821	2821	2821	2821	2821	2821	2821	2821	2821	2821	2821	2821	2821	2821	2821	2821	2821	2821	2815	2815	2815	2815	2815	2809	2809	2809	2809	2809	2809	2809	2803	2803	2803	2797	2797	2797	2797	2791	2791	2791	2785	2785	2785	2785	2785	2779	2779	2779	2773	2761	2761	2761	2761	2755	2755	2755	2744	2744	2738	2738	2738	2738	2738	2738	2738	2738	2738	2738	2732	2732	2732	2732	2738	2738	2744	2744	2744	2755	2755	2755	2773	2779	2779	2791	2803	2803	2809	2809	2809	2815	2815	2815	2815	2815	2815	2815	2815	2809	2809	2809	2809	2809	2809	2809	2803	2803	2803	2797	2791	2791	2785	2779	2779	2773	2755	2755	2744	2738	2738	2732	2721	2721	2721	2715	2715	2715	2715	2715	2715	2715	2715	2715	2715	2715	2715	2715	2715	2732	2732	2732	2738	2738	2744	2755	2755	2773	2779	2779	2791	2791	2797	2803	2803	2809	2809	2809	2815	2815	2815	2821	2821	2821	2827	2827	2827	2833	2833	2833	2833	2839	2839	2839	2839	2839	2839	2839	2845	2845	2839	2839	2839	2839	2839	2833	2827	2827	2821	2821	2821	2815	2815	2815	2809	2809	2809	2809	2809	2815	2815	2815	2815	2815	2815	2821	2821	2821	2821	2821	2821	2821	2821	2821	2815	2815	2815	2809	2809	2809	2803	2803	2797	2791	2791	2785	2785	2785	2785	2791	2797	2797	2803	2809	2809	2809	2815	2815	2815	2821	2821	2821	2821	2821	2827	2833	2833	2833	2839	2839	2839	2845	2845	2851	2851	2851	2858	2864	2864	2864	2864	2864	2864	2864	2864	2858	2858	2858	2845	2845	2845	2839	2839	2833	2833	2821	2821	2821	2815	2815	2815	2815	2815	2809	2809	2809	2803
1482	1482	1484	1484	1486	0	0	0	0	0	0	0	0	0	0	0	0	0	0	0	0	0	0	2081	2081	2081	2081	2084	2081	2081	2081	2081	2081	2081	2081	2081	2077	2077	2077	2074	2074	2071	2064	2064	2061	2055	2055	2055	2051	2048	2048	2039	2032	2032	2029	2020	2020	2017	2014	2014	2014	2014	2014	2017	2017	2017	2020	2020	2023	2032	2032	2039	2039	2042	2048	2048	2051	2055	2055	2061	2064	2064	2064	2071	2071	2071	2071	2071	2071	2071	2071	2071	2064	2064	2064	2064	2064	2064	2061	2061	2061	2055	2055	2051	2051	2051	2051	2048	2042	2042	2042	2042	2042	2039	2039	2039	2039	2039	2039	2032	2032	2032	2032	2032	2032	2032	2039	2039	2039	2042	2042	2042	2048	2048	2048	2048	2051	2051	2055	2055	2055	2061	2061	2055	2055	2051	2051	2048	2042	2042	2039	2032	2032	2029	2023	2023	2023	2020	2017	2017	2017	2014	2014	2014	2010	2010	2010	2007	2007	2007	2007	2007	2007	2007	2007	2007	2007	2007	2007	2010	2010	2010	2014	2014	2014	2014	2014	2014	2014	2014	2017	2017	2017	2017	2017	2017	2020	2020	2020	2020	2020	2020	2023	2023	2023	2023	2023	2029	2029	2029	2029	2032	2032	2029	2029	2029	2032	2032	2029	2029	2029	2029	2029	2029	2029	2029	2029	2029	2029	2032	2039	2039	2039	2039	2032	2032	2032	2032	2039	2039	2032	2032	2032	2032	2029	2029	2029	2029	2029	2029	2023	2023	2020	2020	2020	2020	2017	2017	2017	2014	2014	2014	2010	2010	2010	2010	2007	2007	2007	2007	2007	2007	2007	2007	2007	2007	2007	2007	2007	2007	2007	2004	2004	2004	2004	2004	2004	2004	2004	2004	2004	2004	2004	2004	2004	2007	2007	2010	2014	2014	2017	2020	2020	2029	2039	2039	2042	2048	2048	2055	2055	2055	2061	2061	0	0	0	0	0	0	0	0	0	0	2744	2744	2744	2744	2755	2744	2744	2755	2755	2755	2755	2755	2755	2755	2744	2732	2732	2721	2715	2704	2704	2687	2682	2682	2671	2660	2660	2655	2655	2655	2649	2649	2644	2644	2644	2644	2644	2644	2644	2649	2649	2649	2655	2655	2666	2682	2682	2699	2699	2721	2738	2738	2755	2773	2773	2779	2785	2785	2797	2797	2797	2797	2803	2803	2803	2803	2803	2797	2797	2797	2797	2797	2797	2797	2797	2797	2797	2803	2803	2803	2809	2809	2809	2809	2809	2809	2809	2809	2809	2815	2815	2821	2821	2821	2821	2821	2821	2821	2821	2821	2821	2821	2821	2821	2821	2821	2821	2821	2821	2821	2821	2821	2821	2821	2821	2821	2821	2821	2821	2821	2821	2821	2821	2821	2821	2821	2821	2821	2821	2821	2821	2815	2815	2815	2815	2815	2809	2809	2809	2809	2809	2809	2809	2803	2803	2803	2797	2797	2797	2797	2797	2797	2791	2785	2785	2785	2785	2785	2779	2773	2773	2773	2761	2755	2755	2744	2744	2744	2738	2732	2732	2721	2721	2721	2721	2721	2721	2721	2721	2721	2721	2721	2721	2721	2721	2721	2721	2732	2738	2738	2738	2744	2744	2761	2773	2773	2779	2791	2791	2797	2803	2803	2803	2803	2803	2809	2809	2809	2803	2803	2803	2797	2797	2797	2803	2803	2803	2797	2797	2797	2797	2791	2791	2785	2779	2779	2761	2755	2755	2744	2738	2738	2732	2721	2721	2721	2715	2715	2715	2715	2715	2715	2715	2715	2715	2715	2715	2715	2715	2715	2732	2732	2732	2738	2738	2744	2755	2755	2773	2779	2779	2785	2791	2791	2803	2803	2803	2809	2809	2809	2815	2815	2821	2821	2821	2827	2827	2827	2833	2833	2833	2833	2839	2839	2839	2839	2839	2839	2839	2845	2845	2839	2839	2839	2839	2839	2833	2827	2827	2821	2821	2821	2815	2815	2815	2809	2809	2809	2809	2809	2815	2815	2815	2815	2815	2815	2821	2821	2821	2821	2821	2821	2821	2821	2821	2815	2815	2815	2809	2809	2809	2803	2803	2797	2797	2797	2791	2791	2791	2791	2797	2797	2797	2809	2809	2809	2815	2815	2815	2815	2821	2821	2821	2821	2821	2827	2833	2833	2833	2839	2839	2839	2839	2839	2839	2845	2845	2851	2851	2851	2851	2851	2851	2851	2851	2851	2845	2845	2839	2839	2839	2833	2833	2827	2827	2821	2821	2821	2815	2809	2809	2809	2809	2809	2803	2797	2797	2797
1484	1484	1484	1484	1486	0	0	0	0	0	0	0	0	0	0	0	0	0	0	0	0	0	0	2081	2081	2081	2084	2084	2084	2084	2084	2084	2087	2087	2087	2084	2084	2084	2084	2081	2081	2077	2074	2074	2071	2064	2064	2061	2051	2048	2048	2039	2032	2032	2029	2020	2020	2017	2014	2014	2014	2014	2014	2017	2017	2017	2020	2020	2023	2032	2032	2039	2039	2042	2048	2048	2051	2055	2055	2061	2064	2064	2064	2071	2071	2071	2071	2071	2071	2071	2071	2071	2064	2064	2064	2064	2064	2064	2061	2061	2061	2055	2055	2051	2051	2051	2048	2042	2042	2042	2042	2039	2039	2039	2032	2032	2032	2032	2032	2032	2032	2032	2032	2032	2032	2032	2039	2039	2039	2042	2042	2042	2048	2048	2048	2048	2055	2055	2061	2061	2061	2061	2061	2061	2061	2055	2055	2051	2048	2048	2042	2032	2032	2032	2029	2029	2023	2020	2017	2017	2017	2017	2017	2014	2014	2014	2010	2010	2010	2010	2010	2010	2010	2010	2010	2010	2010	2010	2010	2014	2014	2014	2014	2014	2014	2014	2014	2017	2017	2017	2017	2017	2020	2020	2020	2020	2020	2020	2023	2023	2023	2023	2029	2029	2029	2032	2032	2032	2032	2032	2039	2039	2039	2042	2042	2042	2039	2039	2039	2039	2039	2039	2039	2039	2039	2039	2039	2039	2039	2042	2042	2042	2042	2042	2042	2042	2042	2042	2042	2042	2039	2039	2039	2039	2032	2032	2032	2032	2032	2029	2029	2029	2023	2020	2020	2020	2020	2017	2017	2017	2014	2014	2014	2014	2014	2014	2010	2010	2010	2010	2010	2010	2010	2010	2010	2010	2010	2010	2010	2010	2010	2007	2007	2007	2007	2007	2007	2007	2007	2007	2004	2004	2007	2007	2007	2007	2007	2014	2017	2017	2020	2023	2023	2032	2042	2042	2048	2051	2061	2061	2061	2061	2071	2071	2087	0	0	0	0	0	0	0	0	0	2715	2715	2715	2721	2732	2732	2732	2738	2738	2738	2738	2738	2738	2738	2732	2721	2721	2704	2699	2687	2687	2676	2671	2671	2660	2655	2655	2649	2649	2649	2644	2639	2639	2639	2639	2639	2639	2639	2639	2644	2644	2649	2655	2655	2666	2676	2676	2699	2699	2715	2732	2732	2744	2761	2761	2779	2779	2779	2785	2785	2785	2791	2791	2785	2785	2791	2785	2785	2785	2779	2779	2779	2779	2779	2779	2779	2779	2785	2785	2791	2797	2797	2797	2809	2809	2809	2809	2809	2809	2815	2815	2821	2821	2821	2821	2821	2821	2821	2821	2821	2821	2821	2821	2821	2821	2821	2821	2821	2821	2821	2821	2821	2821	2821	2821	2821	2821	2821	2821	2821	2821	2821	2821	2821	2821	2821	2821	2821	2821	2821	2821	2821	2821	2815	2815	2815	2815	2815	2815	2815	2815	2809	2809	2809	2803	2803	2803	2803	2803	2803	2797	2797	2797	2785	2785	2785	2785	2785	2779	2773	2773	2773	2761	2755	2755	2744	2744	2744	2738	2732	2732	2721	2721	2721	2704	2704	2704	2704	2704	2704	2704	2704	2704	2704	2704	2704	2715	2715	2721	2721	2721	2732	2732	2738	2755	2755	2761	2779	2779	2779	2785	2785	2785	2785	2785	2785	2785	2785	2779	2779	2779	2779	2779	2779	2785	2791	2791	2791	2791	2791	2791	2785	2785	2779	2773	2773	2761	2744	2744	2744	2738	2738	2732	2732	2721	2721	2715	2715	2715	2715	2715	2715	2715	2715	2715	2715	2721	2721	2721	2721	2738	2738	2738	2744	2744	2755	2761	2761	2773	2779	2779	2785	2785	2791	2797	2797	2803	2809	2809	2809	2815	2815	2821	2821	2821	2821	2827	2827	2833	2833	2833	2833	2839	2839	2839	2839	2839	2839	2839	2839	2839	2839	2839	2839	2833	2833	2833	2821	2821	2821	2815	2815	2809	2809	2809	2809	2809	2809	2809	2809	2809	2809	2809	2809	2809	2809	2815	2815	2815	2815	2815	2815	2815	2815	2815	2815	2815	2809	2809	2809	2803	2803	2803	2797	2791	2791	2791	2791	2791	2791	2797	2797	2797	2809	2809	2809	2815	2815	2815	2815	2821	2821	2821	2821	2821	2821	2827	2827	2833	2833	2833	2839	2839	2839	2839	2845	2845	2851	2851	2851	2851	2851	2851	2851	2851	2851	2845	2845	2839	2839	2839	2833	2833	2827	2827	2821	2821	2821	2815	2809	2809	2809	2809	2809	2803	2797	2797	2797
1484	1486	1486	1486	1487	0	0	0	0	0	0	0	0	0	0	0	0	0	0	0	0	0	0	2084	2084	2084	2087	2087	2087	2087	2087	2087	2091	2091	2091	2091	2091	2091	2087	2087	2087	2084	2084	2084	2081	2074	2074	2071	2064	2064	2055	2051	2042	2042	2039	2032	2032	2029	2023	2023	2023	2020	2020	2020	2023	2023	2023	2029	2032	2032	2039	2042	2042	2051	2055	2055	2061	2064	2064	2064	2071	2071	2071	2074	2074	2074	2074	2074	2074	2074	2074	2074	2071	2071	2071	2064	2064	2064	2061	2061	2061	2055	2055	2051	2051	2051	2048	2042	2042	2042	2039	2039	2039	2032	2032	2032	2032	2032	2032	2032	2032	2032	2032	2032	2039	2039	2042	2042	2042	2042	2048	2048	2048	2051	2051	2055	2055	2055	2061	2061	2061	2061	2061	2061	2061	2055	2055	2051	2048	2048	2042	2032	2032	2032	2029	2029	2023	2020	2017	2017	2017	2017	2017	2014	2014	2014	2010	2010	2010	2010	2010	2010	2010	2010	2010	2010	2010	2010	2010	2014	2014	2014	2014	2014	2014	2014	2014	2017	2017	2017	2017	2017	2020	2020	2020	2020	2020	2020	2023	2023	2023	2023	2029	2029	2029	2032	2032	2032	2032	2032	2039	2039	2039	2042	2042	2042	2039	2039	2039	2039	2039	2039	2039	2048	2048	2051	2051	2051	2051	2051	2051	2051	2051	2051	2051	2051	2051	2048	2048	2048	2048	2042	2042	2042	2039	2039	2032	2032	2032	2032	2029	2029	2023	2023	2023	2023	2020	2020	2020	2017	2017	2017	2017	2017	2017	2014	2014	2014	2014	2014	2014	2014	2017	2017	2017	2017	2017	2017	2017	2017	2014	2014	2010	2010	2010	2007	2007	2007	2007	2007	2007	2007	2007	2007	2007	2010	2010	2017	2020	2020	2023	2029	2029	2039	2048	2048	2051	2051	2061	2061	2061	2071	2074	2074	2087	0	0	0	0	0	0	0	0	0	2687	2687	2687	2687	2699	2699	2699	2715	2715	2715	2721	2721	2715	2715	2715	2704	2704	2699	2687	2676	2676	2671	2660	2660	2655	2649	2649	2649	2644	2644	2644	2639	2639	2639	2639	2639	2639	2639	2639	2639	2639	2644	2655	2655	2660	2676	2676	2687	2687	2715	2732	2732	2744	2755	2755	2773	2773	2773	2773	2779	2779	2779	2779	2779	2779	2779	2773	2761	2761	2761	2761	2761	2755	2755	2761	2761	2761	2761	2761	2773	2779	2779	2785	2797	2797	2797	2803	2803	2809	2809	2809	2815	2815	2815	2815	2815	2815	2821	2821	2821	2821	2821	2821	2821	2821	2821	2815	2815	2815	2815	2815	2815	2815	2815	2815	2815	2815	2815	2815	2815	2815	2815	2821	2821	2821	2821	2821	2821	2821	2821	2821	2821	2821	2815	2815	2815	2815	2815	2815	2815	2815	2809	2809	2809	2803	2803	2803	2803	2803	2803	2797	2797	2797	2785	2785	2785	2785	2785	2779	2773	2773	2761	2755	2744	2744	2738	2732	2732	2721	2715	2715	2715	2715	2715	2704	2704	2704	2704	2704	2704	2704	2704	2704	2704	2704	2704	2715	2715	2721	2721	2721	2732	2732	2738	2755	2755	2761	2779	2779	2779	2785	2785	2785	2785	2785	2785	2785	2785	2779	2779	2779	2779	2779	2779	2785	2791	2791	2791	2791	2791	2791	2785	2785	2779	2773	2773	2761	2744	2744	2744	2738	2738	2732	2732	2721	2721	2715	2715	2715	2715	2715	2715	2715	2715	2721	2721	2721	2721	2721	2721	2738	2738	2744	2744	2744	2755	2761	2761	2773	2779	2779	2785	2785	2791	2797	2797	2803	2803	2803	2809	2815	2815	2821	2821	2821	2821	2827	2827	2833	2833	2833	2833	2839	2839	2839	2839	2839	2839	2839	2839	2839	2833	2833	2833	2833	2833	2827	2821	2821	2821	2815	2815	2809	2809	2809	2803	2803	2803	2797	2797	2797	2797	2803	2803	2803	2803	2809	2809	2809	2809	2809	2809	2809	2809	2809	2809	2809	2809	2809	2809	2803	2803	2803	2797	2791	2791	2791	2791	2797	2797	2797	2803	2803	2809	2809	2809	2815	2815	2815	2821	2821	2821	2821	2821	2821	2821	2827	2827	2833	2833	2833	2833	2833	2833	2839	2839	2839	2839	2839	2839	2845	2845	2845	2845	2845	2839	2839	2839	2833	2833	2833	2827	2821	2821	2821	2815	2809	2809	2809	2803	2803	2797	2797	2797	2791	2791	2791	2785
1484	1486	1486	1486	1487	1491	1491	0	0	0	0	0	0	0	0	0	0	0	0	0	0	0	2084	2084	2084	2084	2087	2087	2087	2087	2087	2087	2091	2091	2091	2091	2091	2091	2091	2091	2091	2091	2087	2087	2087	2084	2084	2077	2074	2074	2071	2064	2064	2055	2051	2042	2042	2039	2032	2032	2032	2032	2032	2032	2032	2032	2032	2039	2042	2042	2048	2051	2051	2055	2061	2061	2064	2064	2064	2071	2074	2074	2074	2077	2077	2077	2077	2077	2077	2077	2077	2074	2074	2074	2074	2071	2071	2064	2064	2064	2061	2055	2055	2051	2051	2051	2048	2042	2042	2042	2039	2039	2039	2032	2032	2032	2032	2032	2032	2032	2032	2032	2032	2032	2039	2039	2042	2042	2042	2048	2048	2048	2051	2055	2055	2055	2061	2061	2061	2061	2061	2064	2064	2061	2061	2055	2055	2051	2051	2051	2042	2039	2039	2032	2029	2029	2023	2020	2020	2020	2017	2017	2017	2017	2014	2014	2014	2014	2014	2014	2014	2014	2014	2014	2014	2014	2014	2017	2017	2017	2020	2020	2020	2020	2020	2020	2020	2020	2020	2020	2020	2020	2020	2020	2020	2020	2023	2023	2029	2029	2029	2029	2032	2032	2032	2039	2039	2039	2042	2042	2042	2048	2048	2051	2051	2051	2051	2051	2051	2048	2048	2048	2048	2048	2048	2051	2051	2051	2051	2051	2051	2051	2051	2051	2051	2051	2051	2048	2048	2048	2048	2042	2042	2042	2039	2039	2032	2032	2032	2029	2029	2029	2023	2023	2023	2023	2020	2020	2020	2017	2017	2017	2017	2017	2017	2014	2014	2014	2014	2014	2014	2014	2017	2017	2017	2017	2017	2017	2017	2017	2014	2014	2010	2010	2010	2007	2007	2007	2007	2007	2007	2007	2007	2007	2007	2010	2010	2017	2020	2020	2023	2029	2029	2039	2048	2048	2051	2051	2061	2061	2061	2071	2074	2074	2094	0	0	0	0	0	0	0	0	0	2687	2687	2687	2687	2699	2699	2699	2715	2715	2715	2721	2721	2715	2715	2715	2704	2704	2699	2687	2676	2676	2671	2660	2660	2655	2649	2649	2649	2644	2644	2644	2639	2639	2639	2639	2639	2639	2639	2639	2639	2639	2644	2655	2655	2660	2676	2676	2687	2687	2715	2732	2732	2744	2755	2755	2773	2773	2773	2773	2779	2779	2779	2779	2779	2779	2779	2773	2761	2761	2761	2761	2761	2755	2755	2761	2761	2744	2744	2755	2755	2761	2761	2779	2779	2779	2785	2797	2797	2797	2809	2809	2809	2809	2809	2809	2815	2815	2815	2815	2815	2815	2815	2815	2815	2815	2815	2815	2809	2809	2809	2809	2809	2809	2809	2809	2809	2809	2809	2809	2809	2815	2815	2815	2815	2815	2815	2815	2815	2821	2821	2821	2821	2821	2821	2821	2821	2815	2815	2815	2815	2815	2815	2815	2809	2809	2809	2809	2809	2809	2809	2803	2803	2797	2791	2791	2791	2785	2785	2785	2773	2773	2761	2755	2738	2738	2732	2721	2721	2715	2704	2704	2699	2699	2699	2699	2699	2699	2699	2687	2687	2687	2687	2687	2687	2687	2699	2704	2704	2704	2704	2704	2715	2721	2721	2732	2738	2738	2744	2744	2755	2761	2761	2761	2761	2761	2761	2761	2761	2755	2755	2755	2755	2761	2773	2773	2779	2785	2785	2785	2785	2785	2785	2785	2779	2761	2761	2755	2744	2744	2738	2738	2738	2732	2732	2721	2721	2715	2715	2715	2715	2715	2715	2715	2715	2721	2721	2721	2721	2721	2721	2738	2738	2744	2744	2744	2755	2761	2761	2773	2779	2779	2785	2785	2791	2797	2797	2803	2803	2803	2809	2815	2815	2821	2821	2821	2821	2827	2827	2833	2833	2833	2833	2839	2839	2839	2839	2839	2839	2839	2839	2839	2833	2833	2833	2833	2833	2827	2821	2821	2821	2815	2815	2809	2809	2809	2803	2803	2803	2797	2797	2797	2797	2803	2803	2803	2803	2809	2809	2809	2809	2809	2809	2809	2809	2809	2809	2809	2809	2809	2809	2803	2803	2803	2797	2797	2797	2797	2797	2803	2803	2809	2809	2809	2809	2815	2815	2815	2821	2821	2821	2821	2821	2821	2821	2821	2821	2821	2821	2827	2827	2827	2833	2833	2833	2833	2833	2833	2833	2833	2833	2839	2839	2839	2839	2839	2833	2833	2833	2827	2821	2821	2821	2815	2809	2809	2809	2803	2803	2797	2791	2791	2785	2785	2785	2779	2773	2773	2773
1486	1487	1487	1487	1489	1491	1491	0	0	0	0	0	0	0	0	0	0	0	0	0	0	0	2084	2084	2087	2087	2091	2091	2091	2091	2091	2091	2094	2094	2094	2094	2094	2094	2091	2091	2091	2091	2087	2087	2087	2084	2084	2077	2074	2074	2071	2064	2064	2055	2051	2042	2042	2039	2032	2032	2032	2032	2032	2032	2032	2032	2032	2039	2042	2042	2048	2051	2051	2055	2061	2061	2064	2064	2064	2071	2074	2074	2074	2077	2077	2077	2077	2077	2077	2077	2077	2074	2074	2074	2074	2071	2071	2064	2064	2064	2061	2055	2055	2051	2051	2051	2048	2042	2039	2039	2039	2032	2032	2032	2029	2029	2029	2032	2032	2032	2032	2032	2032	2032	2039	2039	2042	2048	2048	2048	2051	2051	2055	2055	2055	2061	2061	2061	2064	2064	2064	2064	2064	2064	2061	2061	2061	2055	2051	2051	2042	2039	2039	2032	2029	2029	2023	2020	2020	2020	2020	2017	2017	2017	2017	2017	2017	2017	2017	2017	2017	2017	2017	2020	2020	2020	2020	2020	2020	2020	2023	2023	2023	2023	2023	2023	2023	2023	2023	2023	2023	2023	2023	2023	2023	2029	2029	2029	2029	2032	2032	2032	2039	2039	2039	2042	2042	2048	2048	2048	2051	2051	2051	2055	2061	2061	2061	2061	2061	2061	2061	2061	2061	2061	2061	2061	2061	2061	2061	2061	2061	2061	2061	2055	2055	2055	2051	2051	2051	2051	2048	2048	2048	2042	2042	2042	2039	2032	2032	2029	2029	2029	2023	2023	2020	2020	2020	2020	2020	2020	2020	2020	2020	2020	2020	2020	2020	2020	2020	2023	2023	2023	2023	2023	2023	2023	2023	2023	2020	2020	2020	2017	2017	2017	2014	2014	2014	2010	2010	2010	2010	2010	2010	2010	2010	2014	2014	2017	2020	2020	2023	2032	2032	2039	2042	2048	2055	2055	2064	2064	2064	2071	2074	2074	2094	0	0	0	0	0	0	0	0	2660	2660	2660	2660	2666	2671	2671	2671	2682	2682	2687	2687	2687	2687	2699	2699	2687	2682	2682	2676	2671	2671	2666	2655	2655	2655	2649	2649	2649	2639	2639	2639	2639	2639	2639	2639	2639	2639	2639	2639	2639	2639	2644	2655	2655	2660	2676	2676	2687	2687	2715	2732	2732	2738	2755	2755	2761	2761	2761	2773	2773	2773	2773	2773	2761	2761	2761	2755	2744	2744	2744	2738	2738	2738	2738	2738	2738	2738	2744	2755	2755	2761	2761	2779	2779	2779	2785	2797	2797	2797	2809	2809	2809	2809	2809	2809	2815	2815	2815	2815	2815	2815	2815	2815	2815	2815	2815	2815	2809	2809	2809	2809	2809	2809	2809	2809	2809	2809	2809	2809	2809	2815	2815	2815	2815	2815	2815	2815	2815	2821	2821	2821	2821	2821	2821	2821	2821	2821	2821	2821	2821	2821	2821	2821	2815	2815	2815	2815	2815	2815	2809	2809	2809	2803	2803	2803	2791	2791	2791	2785	2773	2773	2761	2755	2738	2738	2732	2715	2715	2704	2699	2699	2687	2687	2687	2687	2682	2682	2682	2682	2682	2682	2682	2682	2682	2682	2687	2687	2687	2699	2699	2699	2699	2699	2699	2715	2721	2721	2732	2732	2732	2732	2732	2732	2738	2744	2744	2744	2744	2738	2738	2744	2744	2744	2761	2761	2761	2773	2773	2773	2779	2779	2779	2779	2779	2761	2761	2755	2744	2744	2738	2738	2738	2732	2732	2721	2721	2715	2715	2715	2715	2715	2715	2715	2715	2721	2721	2721	2721	2721	2732	2738	2738	2744	2755	2755	2755	2761	2761	2773	2779	2779	2785	2785	2791	2797	2797	2797	2803	2803	2809	2815	2815	2815	2821	2821	2821	2827	2827	2833	2833	2833	2833	2839	2839	2839	2839	2839	2839	2839	2839	2839	2833	2833	2833	2833	2833	2821	2821	2821	2821	2815	2815	2809	2809	2809	2803	2797	2797	2797	2791	2791	2791	2791	2791	2791	2791	2797	2797	2797	2797	2797	2797	2797	2803	2803	2803	2803	2803	2803	2803	2803	2803	2803	2797	2797	2797	2797	2797	2803	2803	2809	2809	2809	2809	2815	2815	2815	2821	2821	2821	2821	2821	2821	2821	2821	2821	2821	2821	2827	2827	2827	2833	2833	2833	2833	2833	2833	2833	2833	2833	2839	2839	2839	2839	2839	2833	2833	2833	2827	2821	2821	2821	2815	2809	2809	2809	2803	2803	2797	2791	2791	2785	2785	2785	2779	2773	2773	2773
1487	1487	1489	1489	1491	1492	1492	0	0	0	0	0	0	0	0	0	0	0	0	0	0	0	2087	2087	2091	2091	2091	2091	2091	2091	2094	2094	2094	2094	2094	2094	2094	2094	2094	2094	2094	2094	2094	2091	2091	2087	2087	2087	2081	2081	2077	2074	2074	2064	2061	2055	2055	2051	2048	2048	2048	2042	2042	2042	2042	2042	2042	2048	2048	2048	2051	2055	2055	2061	2064	2064	2071	2074	2074	2074	2077	2077	2077	2077	2077	2077	2077	2077	2077	2077	2077	2077	2077	2074	2074	2074	2074	2071	2064	2064	2061	2061	2061	2055	2051	2051	2048	2042	2039	2039	2039	2032	2032	2032	2029	2029	2029	2032	2032	2032	2032	2032	2032	2039	2042	2042	2042	2048	2048	2048	2051	2051	2055	2055	2055	2061	2061	2061	2064	2064	2064	2064	2064	2064	2061	2061	2061	2055	2051	2051	2042	2039	2039	2032	2029	2029	2023	2020	2020	2020	2020	2017	2017	2017	2017	2017	2017	2017	2017	2017	2017	2017	2017	2020	2020	2020	2020	2020	2020	2020	2023	2023	2023	2023	2023	2023	2023	2023	2023	2023	2023	2023	2023	2023	2023	2029	2029	2029	2029	2032	2032	2032	2039	2039	2039	2042	2042	2048	2048	2048	2051	2051	2051	2055	2071	2071	2071	2071	2071	2071	2071	2071	2071	2071	2071	2064	2064	2064	2064	2064	2064	2064	2064	2064	2061	2061	2061	2061	2061	2055	2055	2048	2048	2048	2042	2042	2039	2032	2032	2029	2029	2029	2023	2023	2020	2020	2020	2020	2020	2020	2023	2023	2023	2023	2023	2023	2029	2029	2029	2029	2032	2032	2032	2032	2032	2032	2032	2032	2029	2029	2029	2023	2023	2020	2017	2017	2017	2017	2014	2014	2014	2014	2014	2014	2014	2017	2017	2020	2023	2023	2029	2032	2032	2042	2042	2051	2061	2061	2064	2071	2071	2074	2077	2077	2097	0	0	0	0	0	0	0	2607	2607	2607	2633	2649	2649	2655	2655	2655	2660	2666	2666	2671	2671	2671	2671	2676	2676	2671	2671	2666	2666	2666	2655	2655	2655	2649	2649	2649	2644	2639	2639	2639	2639	2639	2639	2639	2639	2639	2639	2639	2644	2644	2649	2655	2655	2666	2671	2682	2687	2687	2715	2732	2732	2738	2755	2755	2761	2761	2761	2761	2761	2761	2755	2755	2755	2744	2744	2738	2738	2738	2732	2721	2721	2721	2721	2721	2721	2721	2721	2738	2738	2744	2755	2755	2761	2773	2773	2779	2779	2785	2791	2791	2797	2797	2797	2803	2809	2809	2809	2809	2809	2809	2809	2809	2809	2809	2809	2803	2797	2797	2797	2797	2797	2797	2797	2797	2797	2797	2797	2797	2803	2803	2803	2809	2809	2809	2809	2809	2809	2815	2815	2815	2821	2821	2821	2821	2821	2821	2821	2821	2821	2821	2821	2821	2815	2815	2815	2815	2815	2815	2809	2809	2809	2803	2803	2803	2791	2791	2791	2785	2773	2773	2761	2755	2738	2738	2732	2715	2715	2704	2699	2699	2687	2687	2687	2687	2682	2682	2682	2682	2682	2682	2682	2682	2682	2682	2687	2687	2687	2699	2699	2699	2699	2699	2699	2715	2721	2721	2732	2732	2732	2732	2732	2732	2738	2744	2744	2744	2744	2738	2738	2744	2744	2744	2761	2761	2761	2773	2773	2773	2779	2779	2779	2779	2779	2761	2761	2755	2744	2744	2738	2738	2738	2732	2732	2721	2721	2721	2721	2721	2721	2721	2721	2721	2721	2721	2721	2732	2732	2732	2738	2744	2744	2744	2755	2755	2761	2773	2773	2773	2779	2779	2785	2785	2791	2797	2797	2797	2803	2803	2809	2815	2815	2815	2821	2821	2827	2827	2827	2833	2833	2833	2839	2839	2839	2839	2839	2839	2839	2839	2839	2839	2833	2833	2833	2827	2827	2821	2821	2821	2821	2815	2815	2809	2809	2809	2803	2797	2797	2797	2785	2785	2785	2779	2779	2779	2779	2779	2785	2785	2785	2785	2785	2785	2785	2785	2791	2791	2791	2791	2791	2791	2797	2797	2797	2803	2803	2803	2803	2809	2809	2809	2809	2809	2815	2815	2815	2821	2821	2821	2821	2821	2821	2821	2821	2821	2821	2821	2821	2821	2821	2821	2821	2821	2821	2827	2827	2827	2833	2833	2833	2833	2833	2833	2833	2833	2827	2821	2821	2821	2815	2809	2809	2809	2803	2803	2797	2785	2785	2779	2779	2779	2773	2773	2773	2773	2761	2761	2755
1487	1487	1489	1489	1491	1492	1492	0	0	0	0	0	0	0	0	0	0	0	0	0	0	0	2081	2081	2091	2091	2091	2091	2091	2094	2094	2094	2094	2094	2094	2097	2097	2097	2097	2097	2094	2094	2094	2094	2094	2091	2091	2091	2087	2087	2084	2081	2081	2077	2071	2071	2064	2061	2055	2055	2055	2051	2051	2051	2055	2055	2051	2051	2055	2055	2061	2061	2061	2064	2071	2071	2071	2074	2074	2077	2077	2077	2081	2081	2081	2081	2081	2081	2081	2081	2077	2077	2077	2077	2074	2074	2074	2071	2064	2064	2064	2061	2061	2055	2051	2051	2048	2042	2039	2039	2039	2032	2032	2032	2032	2032	2032	2032	2032	2032	2032	2032	2032	2039	2042	2042	2042	2042	2042	2048	2051	2051	2055	2055	2055	2061	2064	2064	2064	2071	2071	2071	2071	2071	2064	2064	2061	2061	2051	2051	2048	2042	2042	2039	2032	2032	2029	2023	2020	2020	2020	2020	2020	2020	2020	2020	2020	2020	2020	2020	2020	2020	2020	2020	2023	2023	2023	2023	2023	2029	2029	2029	2029	2032	2032	2029	2029	2029	2029	2029	2029	2029	2029	2029	2029	2032	2032	2032	2039	2039	2039	2039	2042	2042	2048	2048	2048	2051	2051	2051	2055	2061	2061	2061	2071	2071	2071	2071	2071	2071	2071	2071	2071	2071	2071	2064	2064	2064	2064	2064	2064	2064	2064	2064	2061	2061	2061	2061	2061	2055	2055	2048	2048	2048	2042	2042	2039	2032	2032	2029	2029	2029	2023	2023	2020	2020	2020	2020	2020	2020	2023	2023	2023	2023	2023	2023	2029	2029	2029	2029	2032	2032	2032	2032	2032	2032	2032	2032	2029	2029	2029	2023	2023	2020	2017	2017	2017	2017	2014	2014	2014	2014	2014	2014	2014	2017	2017	2020	2023	2023	2029	2032	2032	2042	2042	2051	2061	2061	2071	2074	2074	2077	2081	2081	2104	0	0	0	0	0	0	0	2607	2607	2607	2633	2649	2649	2655	2655	2655	2660	2666	2666	2671	2671	2671	2671	2676	2676	2671	2671	2666	2666	2666	2655	2655	2655	2649	2649	2649	2644	2644	2644	2639	2639	2639	2639	2639	2639	2639	2639	2639	2644	2644	2649	2655	2655	2671	2671	2682	2699	2699	2721	2732	2732	2744	2755	2755	2761	2761	2761	2761	2761	2761	2755	2755	2755	2744	2744	2738	2721	2715	2715	2715	2704	2704	2704	2704	2704	2704	2704	2715	2715	2721	2738	2738	2738	2744	2744	2755	2773	2773	2773	2779	2779	2785	2785	2785	2797	2797	2803	2797	2797	2797	2803	2803	2803	2803	2803	2791	2785	2785	2779	2779	2779	2779	2779	2779	2779	2785	2785	2785	2785	2785	2785	2791	2797	2797	2797	2803	2803	2809	2809	2809	2815	2815	2815	2821	2821	2821	2821	2821	2821	2821	2821	2821	2821	2821	2821	2821	2815	2815	2815	2815	2815	2809	2809	2809	2797	2791	2791	2785	2779	2779	2761	2755	2738	2738	2721	2715	2715	2704	2699	2699	2682	2682	2676	2676	2676	2676	2676	2676	2676	2676	2676	2676	2676	2676	2676	2682	2682	2687	2687	2687	2687	2699	2699	2699	2704	2704	2715	2721	2721	2721	2721	2721	2721	2732	2732	2721	2721	2721	2721	2721	2721	2732	2744	2744	2744	2755	2755	2761	2773	2773	2773	2773	2773	2755	2755	2744	2732	2732	2721	2721	2721	2721	2721	2721	2721	2721	2721	2721	2721	2721	2721	2721	2721	2721	2721	2732	2732	2732	2738	2744	2744	2744	2755	2755	2773	2773	2773	2779	2779	2785	2785	2785	2791	2797	2797	2803	2809	2809	2809	2815	2815	2821	2827	2827	2833	2833	2833	2839	2839	2839	2839	2845	2845	2845	2845	2839	2839	2839	2839	2839	2833	2833	2833	2827	2827	2821	2821	2821	2821	2815	2815	2809	2809	2809	2803	2797	2797	2797	2785	2785	2785	2779	2779	2779	2779	2779	2785	2785	2785	2785	2785	2785	2785	2785	2791	2791	2791	2791	2791	2791	2797	2797	2797	2803	2809	2809	2809	2809	2809	2815	2815	2815	2815	2815	2815	2821	2821	2821	2821	2821	2821	2821	2821	2821	2821	2821	2821	2821	2821	2821	2821	2821	2821	2821	2821	2821	2821	2821	2821	2821	2821	2821	2821	2821	2821	2815	2815	2815	2809	2803	2803	2797	2785	2785	2779	2761	2761	2755	2755	2755	2755	2755	2755	2744	2744	2755	2744
1487	1489	1491	1491	1491	1492	1492	1496	0	0	0	0	0	0	0	0	0	0	0	0	0	0	2081	2081	2091	2091	2091	2091	2091	2094	2094	2094	2094	2094	2094	2097	2097	2097	2097	2097	2094	2094	2094	2094	2094	2091	2091	2091	2087	2087	2084	2081	2081	2077	2071	2071	2064	2061	2055	2055	2055	2051	2051	2051	2055	2055	2051	2051	2055	2055	2061	2061	2061	2064	2071	2071	2071	2074	2074	2077	2077	2077	2081	2081	2081	2081	2081	2081	2081	2081	2077	2077	2077	2077	2074	2074	2074	2071	2064	2064	2064	2061	2061	2055	2051	2051	2048	2042	2039	2039	2039	2032	2032	2032	2032	2032	2032	2032	2032	2032	2032	2032	2032	2039	2042	2042	2042	2042	2042	2048	2051	2051	2055	2055	2055	2061	2064	2064	2071	2071	2071	2071	2071	2071	2071	2071	2064	2061	2061	2061	2051	2048	2048	2042	2039	2039	2029	2029	2023	2023	2020	2020	2020	2020	2020	2020	2020	2020	2020	2020	2023	2023	2023	2029	2029	2029	2029	2029	2029	2032	2032	2032	2039	2039	2039	2039	2039	2039	2039	2039	2039	2039	2039	2039	2039	2039	2039	2039	2042	2042	2042	2048	2048	2048	2051	2051	2051	2055	2055	2061	2061	2061	2064	2071	2071	2074	2077	2077	2077	2077	2077	2077	2074	2074	2074	2074	2074	2074	2074	2074	2074	2074	2074	2071	2064	2064	2064	2061	2061	2061	2055	2051	2051	2048	2042	2042	2039	2032	2032	2029	2029	2029	2023	2023	2023	2023	2023	2023	2023	2023	2023	2029	2029	2029	2032	2032	2032	2039	2039	2039	2042	2042	2042	2042	2042	2042	2042	2039	2039	2039	2032	2029	2029	2023	2023	2023	2020	2020	2017	2017	2017	2014	2014	2014	2014	2017	2017	2020	2023	2023	2029	2032	2032	2042	2042	2051	2061	2061	2071	2074	2074	2077	2081	2081	2104	2196	2196	2196	0	0	0	0	2483	2483	2602	2602	2639	2639	2639	2644	2644	2649	2649	2649	2655	2655	2655	2655	2655	2655	2655	2655	2655	2655	2655	2655	2655	2655	2649	2649	2649	2644	2644	2644	2639	2639	2639	2639	2639	2639	2639	2639	2639	2644	2644	2649	2655	2655	2671	2671	2682	2699	2699	2721	2732	2732	2744	2755	2755	2761	2761	2761	2755	2755	2755	2744	2744	2744	2738	2738	2732	2721	2715	2715	2715	2704	2704	2704	2704	2704	2704	2704	2715	2715	2721	2738	2738	2738	2744	2744	2755	2773	2773	2773	2779	2779	2785	2785	2785	2797	2797	2803	2797	2797	2797	2803	2803	2803	2803	2803	2791	2785	2785	2779	2779	2779	2779	2779	2779	2779	2785	2785	2785	2785	2785	2785	2791	2797	2797	2797	2803	2803	2809	2809	2809	2815	2815	2815	2821	2821	2821	2821	2821	2821	2821	2821	2821	2821	2821	2821	2821	2821	2821	2815	2815	2815	2815	2809	2809	2803	2797	2797	2791	2779	2779	2761	2744	2738	2738	2721	2715	2715	2699	2699	2699	2682	2682	2676	2676	2671	2671	2671	2671	2671	2671	2671	2671	2671	2671	2676	2676	2676	2682	2682	2682	2682	2682	2682	2699	2699	2699	2704	2704	2704	2704	2704	2704	2704	2715	2715	2704	2704	2704	2704	2715	2715	2715	2721	2721	2732	2744	2744	2744	2755	2755	2755	2755	2755	2744	2744	2732	2721	2721	2721	2715	2715	2715	2715	2715	2715	2715	2721	2721	2721	2721	2721	2721	2732	2732	2732	2738	2738	2738	2744	2755	2755	2761	2761	2761	2773	2773	2773	2779	2779	2785	2785	2785	2791	2797	2797	2803	2809	2809	2809	2815	2815	2821	2827	2827	2833	2833	2833	2839	2839	2839	2839	2845	2845	2845	2845	2839	2839	2839	2839	2833	2833	2833	2827	2821	2821	2821	2815	2815	2815	2815	2815	2809	2809	2809	2803	2797	2797	2791	2785	2785	2779	2773	2773	2773	2761	2761	2761	2761	2773	2773	2773	2773	2779	2773	2773	2779	2779	2779	2785	2785	2791	2797	2797	2797	2803	2803	2809	2809	2809	2815	2815	2815	2815	2821	2821	2821	2821	2821	2821	2821	2821	2821	2821	2821	2821	2821	2821	2821	2821	2821	2821	2821	2821	2821	2821	2821	2821	2821	2821	2821	2821	2821	2821	2821	2821	2815	2815	2815	2809	2803	2803	2797	2785	2785	2779	2761	2761	2755	2755	2755	2755	2755	2755	2744	2744	2755	2744
1489	1491	1491	1491	1492	1492	1492	1496	0	0	0	0	0	0	0	0	0	0	0	0	0	0	0	2091	2091	2091	2094	2094	2094	2094	2094	2094	2097	2097	2097	2097	2097	2097	2097	2097	2097	2097	2097	2094	2094	2094	2094	2091	2091	2091	2091	2087	2087	2084	2081	2081	2074	2071	2071	2064	2064	2064	2064	2061	2061	2061	2061	2061	2061	2061	2064	2064	2064	2071	2071	2071	2074	2074	2074	2077	2081	2081	2081	2081	2081	2084	2084	2084	2081	2081	2081	2077	2077	2077	2077	2074	2074	2074	2071	2071	2064	2061	2061	2055	2051	2051	2048	2042	2039	2039	2039	2032	2032	2032	2032	2032	2032	2032	2032	2032	2032	2032	2032	2039	2042	2042	2042	2042	2042	2048	2048	2048	2051	2055	2055	2061	2064	2064	2071	2071	2071	2071	2071	2071	2071	2071	2064	2061	2061	2061	2051	2048	2048	2042	2039	2039	2029	2029	2023	2023	2020	2020	2020	2020	2020	2020	2020	2020	2020	2020	2023	2023	2023	2029	2029	2029	2029	2029	2029	2032	2032	2032	2039	2039	2039	2039	2039	2039	2039	2039	2039	2039	2039	2039	2039	2039	2039	2039	2042	2042	2042	2048	2048	2048	2055	2055	2055	2061	2061	2061	2071	2071	2071	2074	2074	2077	2081	2081	2081	2081	2081	2081	2081	2081	2081	2081	2081	2077	2077	2077	2074	2074	2074	2074	2071	2071	2064	2064	2064	2061	2055	2051	2051	2048	2042	2042	2039	2032	2032	2032	2029	2029	2029	2029	2029	2029	2029	2029	2029	2032	2032	2032	2039	2039	2039	2042	2042	2042	2048	2048	2048	2051	2051	2051	2051	2051	2051	2048	2042	2042	2042	2039	2039	2032	2029	2029	2023	2020	2020	2020	2017	2017	2017	2017	2017	2017	2017	2020	2023	2023	2029	2032	2032	2042	2042	2051	2064	2064	2071	2074	2074	2081	2087	2087	2111	2149	2196	2196	0	0	0	0	2483	2483	2587	2587	2628	2628	2628	2633	2633	2639	2639	2639	2644	2644	2644	2649	2649	2649	2649	2649	2649	2655	2655	2649	2649	2649	2649	2649	2649	2649	2644	2644	2644	2639	2639	2639	2639	2639	2644	2644	2649	2649	2649	2655	2660	2660	2671	2671	2682	2699	2699	2721	2732	2732	2744	2755	2755	2761	2761	2755	2755	2755	2744	2744	2744	2732	2732	2732	2721	2715	2704	2704	2704	2699	2699	2699	2687	2687	2687	2699	2704	2704	2715	2721	2721	2721	2732	2732	2744	2744	2744	2755	2773	2773	2773	2773	2773	2779	2785	2785	2785	2785	2785	2785	2785	2785	2779	2779	2779	2761	2761	2755	2755	2755	2755	2755	2755	2755	2755	2761	2761	2761	2761	2761	2773	2779	2779	2785	2791	2791	2791	2797	2797	2803	2809	2809	2815	2815	2815	2815	2821	2821	2821	2821	2821	2821	2821	2821	2821	2821	2821	2815	2815	2815	2815	2809	2809	2809	2803	2803	2791	2779	2779	2773	2744	2738	2738	2721	2715	2715	2699	2699	2699	2682	2682	2676	2676	2671	2671	2671	2671	2671	2671	2671	2671	2671	2671	2676	2676	2676	2682	2682	2682	2682	2682	2682	2699	2699	2699	2704	2704	2704	2704	2704	2704	2704	2715	2715	2704	2704	2704	2704	2715	2715	2715	2721	2721	2732	2744	2744	2744	2755	2755	2755	2755	2755	2744	2744	2732	2721	2721	2721	2715	2715	2715	2715	2715	2715	2715	2721	2721	2721	2721	2721	2721	2732	2738	2738	2744	2744	2744	2755	2755	2761	2773	2773	2773	2779	2779	2779	2785	2785	2785	2785	2785	2791	2797	2797	2797	2809	2809	2809	2815	2815	2821	2827	2827	2833	2839	2839	2839	2845	2845	2845	2851	2851	2845	2845	2839	2839	2839	2839	2833	2833	2833	2821	2821	2821	2821	2815	2815	2815	2815	2815	2815	2809	2809	2809	2797	2797	2791	2785	2773	2773	2773	2755	2755	2755	2755	2755	2755	2755	2755	2755	2755	2755	2755	2761	2761	2761	2773	2779	2779	2779	2785	2785	2791	2797	2797	2803	2809	2809	2809	2815	2815	2815	2815	2815	2821	2821	2821	2821	2821	2821	2815	2815	2815	2815	2821	2821	2815	2815	2815	2815	2815	2815	2815	2821	2821	2815	2815	2815	2815	2815	2815	2815	2815	2809	2809	2797	2797	2791	2785	2785	2773	2761	2761	2755	2738	2738	2732	2732	2732	2732	2721	2721	2721	2721	2721	2721
1489	1491	1491	1491	1492	1492	1492	1496	0	0	0	0	0	0	0	0	0	0	0	0	0	0	0	0	0	0	2104	2104	2104	2104	2104	2104	2104	2104	2104	2101	2101	2101	2097	2097	2097	2097	2097	2097	2094	2094	2094	2094	2091	2091	2091	2091	2091	2087	2084	2084	2081	2077	2077	2074	2071	2071	2071	2071	2064	2064	2064	2064	2071	2071	2071	2071	2071	2074	2074	2074	2077	2077	2077	2081	2081	2081	2081	2084	2084	2084	2084	2084	2084	2084	2081	2081	2081	2081	2077	2074	2074	2074	2074	2074	2064	2064	2064	2061	2055	2055	2051	2048	2048	2048	2042	2039	2039	2039	2039	2039	2039	2039	2039	2039	2039	2039	2039	2039	2042	2042	2042	2042	2042	2048	2048	2048	2051	2055	2055	2061	2064	2064	2071	2071	2071	2074	2074	2074	2074	2074	2071	2064	2064	2064	2055	2051	2051	2042	2042	2042	2032	2032	2032	2029	2023	2020	2020	2020	2020	2023	2023	2023	2023	2023	2029	2029	2029	2029	2032	2032	2032	2039	2039	2039	2039	2039	2042	2042	2042	2042	2042	2042	2042	2042	2042	2048	2048	2048	2048	2048	2048	2048	2048	2048	2051	2051	2051	2051	2055	2055	2055	2061	2061	2061	2071	2071	2071	2074	2074	2077	2081	2081	2081	2081	2081	2081	2081	2081	2081	2081	2081	2077	2077	2077	2074	2074	2074	2074	2071	2071	2064	2064	2064	2061	2055	2051	2051	2048	2042	2042	2039	2032	2032	2032	2029	2029	2029	2029	2029	2029	2029	2029	2029	2032	2032	2032	2039	2039	2039	2042	2042	2042	2048	2048	2048	2051	2051	2051	2051	2051	2051	2048	2042	2042	2042	2039	2039	2032	2029	2029	2023	2020	2020	2020	2017	2017	2017	2017	2020	2020	2020	2023	2029	2029	2032	2039	2039	2048	2048	2055	2064	2064	2071	2081	2081	2091	2101	2101	2149	2149	2211	2211	0	0	0	0	2488	2488	2587	2587	2628	2628	2628	2633	2633	2639	2639	2639	2644	2644	2644	2649	2649	2649	2649	2649	2649	2655	2655	2649	2649	2649	2649	2649	2649	2649	2644	2644	2644	2644	2644	2644	2644	2649	2649	2649	2649	2655	2655	2660	2660	2671	2682	2682	2699	2704	2704	2721	2738	2738	2744	2755	2755	2761	2761	2755	2744	2744	2744	2738	2738	2732	2721	2721	2721	2715	2704	2704	2704	2699	2699	2687	2687	2687	2687	2687	2699	2699	2699	2715	2715	2721	2721	2721	2732	2738	2738	2738	2744	2744	2744	2755	2755	2761	2761	2761	2761	2773	2773	2773	2773	2773	2761	2761	2755	2744	2744	2738	2732	2732	2732	2732	2732	2738	2738	2738	2738	2738	2738	2744	2744	2755	2755	2755	2773	2773	2773	2779	2779	2791	2791	2791	2803	2809	2809	2809	2815	2815	2815	2815	2815	2815	2815	2815	2815	2815	2815	2815	2815	2815	2815	2809	2809	2809	2803	2803	2791	2779	2779	2761	2744	2738	2738	2721	2715	2715	2699	2682	2676	2676	2676	2671	2671	2671	2666	2666	2666	2666	2666	2666	2666	2671	2671	2671	2671	2671	2676	2676	2676	2676	2682	2682	2682	2687	2687	2699	2699	2687	2687	2687	2687	2687	2699	2699	2699	2699	2687	2687	2699	2699	2699	2704	2704	2715	2732	2732	2732	2738	2738	2744	2744	2738	2732	2732	2721	2715	2704	2704	2704	2704	2704	2704	2704	2715	2715	2715	2721	2721	2721	2721	2721	2732	2738	2738	2755	2755	2755	2761	2761	2773	2779	2779	2779	2785	2785	2785	2785	2785	2785	2791	2791	2791	2797	2797	2797	2809	2809	2809	2815	2815	2821	2827	2827	2833	2839	2839	2839	2845	2845	2845	2851	2851	2845	2845	2839	2839	2839	2839	2833	2833	2833	2821	2821	2821	2821	2815	2815	2815	2815	2815	2815	2815	2815	2809	2803	2803	2791	2785	2773	2773	2773	2755	2755	2755	2755	2755	2755	2755	2755	2755	2755	2755	2755	2761	2761	2761	2773	2779	2779	2779	2785	2785	2791	2797	2791	2791	2803	2803	2809	2815	2815	2815	2815	2815	2815	2815	2815	2821	2821	2815	2815	2815	2815	2815	2815	2815	2815	2815	2815	2815	2815	2815	2815	2815	2815	2809	2809	2809	2809	2809	2803	2803	2803	2797	2785	2779	2779	2773	2755	2755	2744	2738	2738	2721	2715	2704	2704	2704	2704	2704	2704	2699	2699	2699	2699	2699
1491	1491	1492	1492	1492	1494	1494	1497	0	0	0	0	0	0	0	0	0	0	0	0	0	0	0	0	0	0	2104	2104	2104	2104	2104	2104	2104	2104	2104	2101	2101	2101	2097	2097	2097	2097	2097	2097	2094	2094	2094	2094	2091	2091	2091	2091	2091	2087	2084	2084	2081	2077	2077	2074	2071	2071	2071	2071	2064	2064	2064	2064	2071	2071	2071	2071	2071	2074	2074	2074	2077	2077	2077	2081	2081	2081	2081	2084	2084	2084	2084	2084	2084	2084	2081	2081	2081	2081	2077	2074	2074	2074	2074	2074	2064	2064	2064	2061	2061	2061	2055	2055	2055	2051	2048	2048	2048	2042	2042	2048	2042	2042	2042	2042	2039	2039	2039	2039	2042	2042	2042	2048	2048	2048	2048	2048	2051	2055	2055	2061	2064	2064	2071	2074	2074	2074	2077	2077	2074	2074	2074	2074	2074	2071	2064	2055	2055	2051	2048	2048	2042	2039	2039	2032	2029	2029	2029	2023	2023	2029	2029	2029	2029	2029	2029	2032	2032	2032	2039	2039	2039	2039	2039	2042	2048	2048	2048	2048	2048	2048	2051	2051	2051	2051	2051	2051	2051	2051	2051	2051	2051	2051	2055	2055	2055	2055	2055	2055	2061	2061	2061	2061	2061	2071	2071	2071	2074	2077	2077	2077	2081	2081	2081	2081	2081	2081	2081	2081	2081	2081	2081	2081	2077	2077	2074	2074	2074	2074	2071	2071	2064	2064	2064	2061	2055	2055	2055	2048	2042	2042	2042	2032	2032	2032	2032	2032	2029	2029	2029	2029	2032	2032	2032	2039	2042	2042	2048	2048	2048	2051	2055	2055	2055	2061	2061	2061	2061	2061	2061	2061	2061	2061	2055	2055	2051	2048	2048	2039	2032	2032	2029	2023	2023	2023	2020	2020	2020	2020	2020	2020	2020	2023	2029	2029	2032	2039	2039	2048	2048	2055	2064	2064	2071	2081	2081	2091	2101	2101	2149	2149	2211	2211	0	0	0	0	2488	2488	2566	2566	2618	2618	2623	2628	2628	2628	2633	2633	2633	2633	2633	2639	2639	2639	2639	2639	2639	2649	2649	2649	2649	2649	2649	2649	2649	2649	2644	2644	2644	2644	2644	2644	2644	2649	2649	2649	2649	2655	2655	2660	2660	2671	2682	2682	2699	2704	2704	2721	2738	2738	2744	2744	2744	2755	2755	2744	2744	2744	2744	2738	2738	2732	2721	2721	2721	2715	2704	2704	2704	2699	2699	2687	2687	2687	2687	2687	2699	2699	2699	2715	2715	2721	2721	2721	2732	2738	2738	2738	2744	2744	2744	2755	2755	2761	2761	2761	2761	2773	2773	2773	2773	2773	2761	2761	2755	2744	2744	2738	2732	2732	2732	2732	2732	2738	2738	2738	2738	2738	2738	2744	2744	2755	2755	2755	2773	2773	2773	2779	2779	2791	2791	2791	2803	2809	2809	2809	2815	2815	2815	2815	2815	2815	2815	2815	2815	2809	2809	2809	2809	2809	2809	2809	2809	2809	2797	2797	2791	2779	2779	2761	2744	2738	2738	2721	2704	2704	2687	2682	2676	2676	2676	2671	2671	2666	2666	2666	2666	2660	2660	2660	2666	2666	2666	2671	2671	2671	2671	2676	2671	2671	2676	2676	2676	2682	2682	2682	2682	2682	2682	2682	2682	2682	2682	2682	2682	2682	2682	2682	2682	2682	2687	2704	2704	2704	2721	2721	2721	2738	2738	2738	2738	2732	2721	2721	2715	2704	2699	2699	2699	2699	2699	2699	2699	2704	2704	2715	2721	2721	2721	2732	2732	2738	2738	2744	2755	2755	2755	2761	2761	2773	2779	2779	2779	2785	2785	2785	2785	2785	2785	2791	2791	2791	2791	2791	2797	2803	2803	2809	2815	2815	2821	2821	2821	2833	2833	2833	2839	2839	2839	2845	2845	2845	2845	2845	2839	2839	2839	2833	2827	2827	2827	2821	2821	2821	2815	2815	2815	2815	2815	2815	2815	2815	2815	2809	2803	2803	2791	2785	2773	2773	2761	2744	2744	2744	2738	2738	2738	2738	2738	2738	2738	2738	2738	2744	2744	2744	2755	2761	2761	2773	2773	2773	2779	2785	2785	2791	2803	2803	2809	2815	2815	2815	2815	2815	2815	2815	2815	2821	2821	2815	2815	2815	2815	2815	2815	2815	2815	2815	2815	2815	2815	2815	2815	2815	2815	2809	2809	2809	2809	2809	2803	2803	2803	2797	2785	2779	2779	2773	2755	2755	2744	2738	2738	2721	2715	2704	2704	2704	2704	2704	2704	2699	2699	2699	2699	2699
1491	1492	1492	1492	1494	1496	1496	1499	0	0	0	0	0	0	0	0	0	0	0	0	0	0	0	0	0	0	0	0	2135	2118	2118	2111	2108	2108	2108	2108	2108	2104	2104	2104	2101	2097	2097	2097	2097	2094	2094	2094	2094	2094	2091	2091	2091	2087	2087	2087	2084	2081	2081	2077	2074	2074	2074	2074	2074	2074	2071	2071	2074	2074	2074	2074	2074	2074	2077	2077	2077	2081	2081	2081	2084	2084	2084	2084	2084	2087	2087	2087	2087	2087	2084	2084	2084	2084	2081	2081	2077	2077	2074	2074	2074	2071	2071	2064	2061	2061	2055	2055	2055	2051	2048	2048	2048	2042	2042	2048	2042	2042	2042	2042	2039	2039	2039	2039	2042	2042	2042	2042	2042	2048	2048	2048	2051	2055	2055	2061	2064	2064	2071	2074	2074	2074	2077	2077	2074	2074	2074	2074	2074	2071	2064	2055	2055	2051	2048	2048	2042	2039	2039	2032	2029	2029	2029	2023	2023	2029	2029	2029	2029	2029	2029	2032	2032	2032	2039	2039	2039	2039	2039	2042	2048	2048	2048	2048	2048	2048	2051	2051	2051	2051	2051	2051	2051	2051	2051	2061	2061	2061	2061	2061	2061	2061	2061	2061	2061	2061	2064	2064	2064	2071	2071	2071	2074	2077	2077	2081	2081	2081	2081	2081	2081	2081	2081	2081	2081	2081	2081	2081	2077	2077	2074	2074	2074	2074	2071	2071	2071	2064	2064	2061	2055	2055	2055	2048	2048	2048	2042	2039	2039	2032	2032	2032	2032	2032	2032	2032	2039	2042	2042	2042	2051	2051	2051	2055	2055	2055	2064	2064	2064	2071	2071	2071	2074	2074	2074	2074	2071	2071	2071	2064	2061	2055	2055	2048	2042	2042	2039	2032	2032	2029	2023	2023	2023	2023	2023	2023	2023	2029	2032	2032	2039	2039	2042	2051	2051	2061	2071	2071	2077	2091	2091	2097	2111	2118	2192	2192	2237	2237	0	0	0	0	2488	2488	2551	2551	2602	2602	2612	2612	2612	2618	2623	2623	2623	2628	2628	2628	2633	2633	2633	2639	2639	2639	2639	2639	2644	2644	2644	2649	2649	2649	2649	2649	2649	2649	2649	2649	2649	2649	2649	2655	2655	2655	2660	2671	2671	2676	2682	2682	2699	2715	2715	2721	2732	2732	2738	2744	2744	2744	2744	2744	2744	2744	2738	2738	2738	2732	2721	2721	2721	2715	2704	2704	2704	2699	2699	2687	2687	2687	2687	2687	2699	2699	2699	2715	2715	2715	2715	2715	2721	2721	2721	2732	2732	2732	2732	2732	2732	2738	2738	2738	2744	2744	2744	2744	2744	2744	2738	2738	2732	2721	2715	2715	2715	2715	2715	2704	2704	2704	2704	2704	2704	2704	2721	2721	2721	2732	2738	2738	2738	2744	2744	2755	2773	2773	2773	2785	2785	2791	2791	2797	2803	2803	2803	2809	2809	2809	2809	2809	2809	2809	2809	2809	2809	2809	2809	2809	2809	2809	2797	2797	2791	2779	2779	2761	2744	2738	2738	2721	2704	2704	2687	2687	2687	2676	2676	2671	2671	2666	2666	2666	2666	2660	2660	2660	2666	2666	2666	2671	2671	2671	2671	2676	2671	2671	2676	2676	2676	2682	2682	2682	2682	2682	2682	2682	2682	2682	2682	2682	2682	2682	2682	2682	2682	2682	2687	2704	2704	2704	2721	2721	2721	2738	2738	2738	2738	2732	2721	2721	2715	2704	2699	2699	2699	2699	2699	2699	2699	2704	2704	2715	2721	2721	2732	2732	2738	2744	2744	2755	2761	2761	2773	2773	2773	2779	2785	2785	2785	2791	2791	2791	2791	2785	2785	2791	2791	2791	2791	2791	2797	2803	2803	2809	2809	2809	2815	2821	2821	2821	2827	2827	2833	2833	2833	2839	2839	2839	2839	2839	2833	2833	2827	2827	2827	2821	2821	2821	2815	2815	2815	2815	2815	2815	2815	2815	2815	2809	2809	2809	2803	2803	2797	2785	2773	2773	2755	2744	2744	2738	2732	2732	2732	2721	2721	2721	2721	2721	2721	2732	2732	2732	2738	2744	2744	2755	2761	2761	2761	2773	2773	2785	2797	2797	2803	2809	2809	2809	2809	2809	2815	2815	2815	2815	2815	2815	2815	2815	2815	2815	2815	2815	2809	2809	2809	2809	2809	2809	2809	2809	2803	2803	2803	2797	2791	2785	2785	2785	2773	2773	2761	2755	2755	2744	2732	2732	2721	2715	2699	2699	2687	2687	2687	2682	2682	2682	2682	2682	2682	2682	2682	2682
1491	1492	1492	1492	1494	1496	1496	1499	0	0	0	0	0	0	0	0	0	0	0	0	0	0	0	0	0	0	0	0	0	0	2139	2128	2121	2121	2114	2111	2111	2108	2104	2104	2104	2101	2101	2097	2097	2097	2097	2094	2094	2094	2091	2091	2091	2091	2087	2087	2084	2081	2081	2077	2077	2077	2077	2074	2074	2074	2074	2074	2074	2074	2077	2077	2077	2081	2081	2081	2081	2084	2084	2084	2087	2087	2087	2087	2087	2087	2087	2087	2087	2087	2087	2087	2087	2084	2084	2084	2081	2081	2077	2077	2077	2074	2074	2074	2071	2071	2064	2061	2061	2061	2055	2055	2051	2051	2051	2051	2048	2048	2048	2042	2042	2042	2042	2039	2039	2039	2039	2042	2042	2042	2048	2048	2048	2051	2051	2061	2064	2064	2071	2074	2074	2074	2077	2077	2077	2077	2077	2074	2074	2074	2071	2064	2064	2055	2051	2051	2048	2042	2042	2042	2039	2039	2032	2029	2029	2029	2029	2029	2032	2032	2039	2039	2039	2039	2039	2039	2048	2048	2048	2048	2048	2048	2051	2055	2055	2055	2055	2055	2055	2055	2055	2055	2055	2055	2055	2061	2061	2061	2061	2061	2061	2061	2061	2061	2061	2061	2064	2064	2064	2071	2071	2071	2074	2077	2077	2081	2081	2081	2081	2081	2081	2081	2081	2081	2081	2081	2081	2077	2077	2077	2074	2074	2074	2071	2071	2071	2064	2064	2064	2061	2055	2055	2055	2048	2048	2048	2042	2039	2039	2032	2032	2032	2032	2032	2032	2032	2039	2042	2042	2042	2051	2051	2051	2055	2055	2055	2064	2064	2064	2071	2071	2071	2074	2074	2074	2074	2071	2071	2071	2064	2061	2055	2055	2055	2051	2051	2042	2039	2039	2039	2032	2032	2032	2029	2029	2029	2032	2032	2032	2039	2048	2048	2051	2061	2061	2071	2077	2077	2084	2097	2097	2111	2111	2149	2211	2211	2292	2292	0	0	0	0	2488	2488	2551	2551	2602	2602	2612	2612	2612	2618	2623	2623	2623	2628	2628	2628	2633	2633	2633	2639	2639	2639	2639	2639	2644	2644	2644	2649	2649	2649	2649	2649	2649	2649	2649	2649	2649	2655	2655	2655	2660	2660	2666	2671	2671	2676	2687	2687	2699	2715	2715	2721	2721	2721	2732	2738	2738	2738	2738	2738	2738	2738	2738	2732	2732	2732	2721	2721	2721	2715	2715	2715	2704	2704	2704	2704	2699	2699	2699	2699	2704	2704	2715	2715	2715	2715	2715	2715	2715	2715	2715	2715	2715	2704	2704	2704	2704	2704	2715	2715	2715	2715	2715	2715	2721	2715	2715	2704	2704	2699	2687	2687	2687	2687	2687	2687	2687	2687	2687	2687	2687	2687	2699	2699	2699	2704	2704	2704	2715	2721	2721	2732	2738	2738	2744	2761	2761	2761	2773	2773	2785	2791	2791	2791	2791	2791	2797	2797	2797	2797	2803	2803	2803	2803	2803	2803	2803	2803	2797	2797	2785	2779	2779	2761	2744	2738	2738	2721	2704	2704	2687	2687	2687	2676	2676	2671	2671	2666	2666	2666	2666	2660	2660	2660	2666	2666	2666	2666	2671	2671	2671	2671	2671	2671	2676	2676	2676	2682	2682	2682	2682	2676	2676	2676	2676	2676	2676	2676	2682	2682	2682	2682	2682	2682	2682	2687	2687	2704	2715	2715	2721	2721	2721	2732	2732	2721	2715	2715	2704	2699	2699	2699	2699	2699	2699	2699	2699	2704	2704	2721	2721	2732	2738	2738	2755	2755	2755	2761	2779	2779	2779	2785	2785	2785	2791	2791	2797	2797	2791	2791	2791	2791	2791	2791	2791	2791	2791	2791	2797	2803	2803	2809	2809	2809	2815	2821	2821	2821	2827	2827	2833	2833	2833	2839	2839	2839	2839	2839	2833	2833	2827	2827	2827	2821	2821	2821	2815	2815	2815	2815	2815	2815	2815	2815	2815	2809	2809	2809	2803	2803	2797	2785	2785	2773	2755	2744	2744	2738	2732	2732	2732	2721	2721	2721	2721	2721	2721	2732	2732	2732	2732	2732	2732	2738	2744	2744	2744	2761	2761	2773	2785	2785	2791	2797	2797	2803	2809	2809	2809	2809	2809	2809	2809	2809	2809	2809	2809	2809	2809	2809	2809	2809	2809	2803	2803	2803	2797	2797	2797	2785	2779	2779	2779	2773	2773	2761	2755	2755	2744	2732	2732	2721	2704	2699	2699	2687	2682	2682	2671	2671	2671	2671	2671	2671	2671	2666	2666	2666	2671	2671
1491	1492	1494	1494	1496	1497	1497	1501	1503	1508	0	0	0	0	0	0	0	0	0	0	0	0	0	0	0	0	0	0	0	0	2139	2128	2121	2121	2114	2111	2111	2108	2104	2104	2104	2101	2101	2097	2097	2097	2097	2094	2094	2094	2091	2091	2091	2087	2084	2084	2084	2081	2081	2077	2074	2074	2074	2074	2074	2074	2074	2074	2074	2074	2077	2077	2077	2081	2081	2081	2081	2084	2084	2084	2087	2087	2087	2087	2087	2087	2087	2087	2087	2087	2087	2087	2087	2084	2084	2087	2087	2084	2084	2081	2081	2081	2081	2077	2077	2077	2074	2074	2074	2071	2064	2064	2061	2055	2055	2055	2051	2051	2051	2048	2042	2042	2042	2039	2039	2039	2039	2042	2042	2042	2048	2048	2048	2051	2051	2061	2064	2064	2071	2074	2074	2074	2081	2081	2081	2081	2081	2077	2077	2077	2074	2074	2071	2064	2061	2061	2055	2051	2051	2048	2042	2042	2039	2032	2032	2032	2032	2032	2032	2032	2039	2039	2039	2039	2042	2042	2048	2048	2048	2048	2051	2051	2055	2055	2055	2061	2064	2064	2064	2064	2064	2064	2064	2064	2064	2064	2064	2064	2071	2071	2071	2071	2071	2071	2071	2071	2071	2071	2071	2071	2074	2074	2074	2077	2077	2081	2081	2081	2081	2081	2081	2081	2081	2081	2081	2081	2081	2077	2077	2077	2077	2074	2074	2071	2071	2071	2064	2064	2064	2061	2061	2061	2055	2051	2048	2048	2042	2042	2042	2039	2039	2039	2039	2039	2042	2042	2048	2048	2048	2051	2055	2055	2061	2064	2064	2064	2074	2074	2074	2077	2077	2081	2081	2081	2081	2081	2077	2074	2074	2074	2064	2064	2064	2055	2051	2051	2042	2039	2039	2039	2032	2032	2032	2029	2029	2029	2032	2032	2032	2039	2048	2048	2051	2061	2061	2071	2077	2077	2084	2097	2097	2111	2111	2149	2189	2211	2292	2292	0	0	2456	2456	2488	2488	2536	2536	2587	2587	2587	2597	2597	2602	2607	2607	2612	2618	2618	2618	2628	2628	2628	2633	2633	2633	2639	2639	2639	2639	2639	2649	2649	2649	2649	2649	2649	2649	2649	2649	2649	2655	2655	2655	2660	2660	2666	2671	2671	2676	2682	2682	2699	2704	2704	2715	2721	2721	2732	2738	2738	2738	2738	2738	2738	2738	2738	2732	2732	2732	2732	2732	2721	2721	2721	2721	2715	2715	2715	2715	2715	2715	2704	2704	2715	2715	2721	2721	2721	2721	2721	2715	2715	2715	2715	2715	2715	2704	2704	2704	2704	2704	2715	2715	2715	2715	2715	2715	2721	2715	2715	2704	2704	2699	2687	2687	2687	2687	2687	2687	2687	2687	2687	2687	2687	2687	2699	2699	2699	2704	2704	2704	2715	2721	2721	2732	2738	2738	2744	2761	2761	2761	2773	2773	2761	2761	2761	2773	2779	2779	2779	2779	2779	2785	2785	2785	2791	2791	2791	2791	2791	2791	2785	2785	2785	2779	2779	2761	2744	2738	2738	2721	2715	2715	2699	2687	2687	2682	2676	2671	2671	2666	2666	2666	2666	2666	2666	2666	2666	2666	2666	2666	2666	2666	2671	2671	2671	2671	2676	2676	2676	2682	2682	2682	2682	2676	2671	2671	2671	2671	2676	2676	2676	2676	2676	2671	2671	2671	2676	2682	2682	2687	2699	2699	2704	2704	2704	2715	2715	2715	2715	2715	2704	2699	2699	2699	2699	2699	2699	2699	2704	2715	2715	2721	2721	2732	2738	2738	2755	2755	2755	2761	2779	2779	2779	2785	2785	2785	2791	2791	2797	2797	2791	2791	2791	2785	2785	2785	2785	2785	2785	2785	2791	2797	2797	2797	2803	2803	2809	2815	2815	2815	2821	2821	2821	2827	2827	2833	2833	2833	2827	2827	2827	2821	2821	2821	2815	2815	2815	2809	2809	2809	2809	2809	2809	2809	2809	2809	2809	2809	2809	2809	2803	2803	2797	2785	2785	2773	2755	2744	2744	2732	2732	2732	2721	2721	2721	2715	2715	2715	2715	2715	2721	2721	2721	2732	2732	2738	2744	2744	2744	2761	2761	2773	2785	2785	2791	2797	2797	2803	2809	2809	2809	2809	2809	2809	2809	2809	2809	2809	2809	2809	2809	2809	2809	2809	2809	2803	2803	2803	2797	2797	2797	2785	2779	2779	2779	2773	2773	2761	2755	2755	2744	2732	2732	2721	2704	2699	2699	2687	2682	2682	2671	2671	2671	2671	2671	2671	2671	2666	2666	2666	2671	2671
1492	1494	1496	1496	1497	1501	1501	1503	1503	1508	0	0	0	0	0	0	0	0	0	0	0	0	0	0	0	2325	2325	2226	2226	2207	2170	2156	2156	2139	2125	2118	2118	2111	2108	2108	2104	2104	2104	2101	2097	2097	2097	2094	2094	2094	2091	2091	2091	2087	2084	2084	2081	2077	2077	2074	2074	2074	2074	2074	2074	2074	2077	2077	2077	2077	2081	2081	2081	2084	2084	2084	2084	2087	2087	2087	2091	2091	2091	2091	2091	2091	2091	2091	2091	2091	2091	2091	2091	2087	2087	2087	2087	2084	2084	2081	2081	2081	2081	2077	2077	2077	2074	2074	2074	2071	2064	2064	2061	2055	2055	2055	2051	2051	2051	2048	2042	2042	2042	2039	2039	2039	2039	2039	2039	2042	2042	2042	2048	2051	2051	2055	2064	2064	2071	2074	2074	2074	2081	2081	2081	2081	2081	2077	2077	2077	2074	2074	2071	2064	2061	2061	2055	2051	2051	2048	2042	2042	2039	2032	2032	2032	2032	2032	2032	2032	2039	2039	2039	2039	2042	2042	2048	2048	2048	2048	2051	2051	2055	2055	2055	2064	2064	2064	2071	2071	2071	2071	2071	2071	2071	2071	2071	2071	2074	2074	2071	2071	2071	2071	2071	2071	2071	2071	2071	2074	2074	2074	2077	2077	2077	2081	2081	2081	2081	2081	2081	2081	2081	2081	2081	2081	2081	2081	2077	2077	2077	2077	2077	2074	2071	2071	2071	2064	2064	2061	2061	2061	2055	2055	2051	2051	2048	2048	2048	2042	2042	2042	2042	2042	2048	2048	2051	2051	2051	2061	2061	2061	2071	2074	2074	2077	2081	2081	2081	2084	2084	2087	2087	2087	2084	2084	2084	2081	2081	2077	2077	2077	2071	2064	2055	2055	2051	2048	2048	2042	2042	2042	2042	2039	2039	2039	2039	2042	2042	2048	2051	2051	2055	2064	2064	2074	2084	2084	2091	2108	2108	2135	2135	2189	2189	2230	2333	2333	2333	2388	2388	2456	2469	2488	2536	2536	2571	2571	2581	2581	2581	2587	2597	2597	2597	2602	2602	2607	2612	2612	2623	2628	2628	2633	2633	2633	2639	2639	2639	2649	2649	2649	2649	2649	2649	2649	2649	2649	2655	2655	2655	2660	2666	2666	2666	2671	2671	2676	2682	2682	2687	2699	2699	2704	2715	2715	2715	2721	2721	2721	2732	2732	2732	2732	2732	2732	2732	2732	2732	2732	2721	2721	2721	2721	2715	2715	2715	2715	2715	2715	2704	2704	2715	2715	2721	2721	2721	2721	2721	2715	2715	2715	2704	2704	2704	2699	2687	2687	2687	2687	2687	2687	2687	2682	2682	2682	2687	2687	2687	2682	2682	2676	2676	2676	2676	2676	2676	2676	2676	2676	2676	2676	2676	2676	2676	2682	2682	2687	2687	2687	2687	2699	2699	2699	2715	2715	2721	2732	2732	2738	2744	2744	2755	2761	2761	2773	2779	2779	2779	2779	2779	2785	2785	2785	2791	2791	2791	2791	2791	2791	2785	2785	2785	2779	2779	2761	2744	2738	2738	2721	2715	2715	2699	2687	2687	2682	2676	2671	2671	2671	2671	2671	2666	2666	2666	2666	2666	2666	2666	2666	2666	2666	2671	2676	2671	2671	2676	2676	2676	2682	2682	2682	2682	2676	2671	2671	2671	2671	2676	2676	2676	2676	2676	2671	2671	2671	2676	2682	2682	2687	2699	2699	2704	2704	2704	2715	2715	2715	2715	2715	2704	2704	2699	2699	2699	2704	2704	2704	2715	2715	2721	2732	2732	2738	2744	2744	2761	2773	2773	2779	2785	2785	2785	2791	2791	2797	2797	2797	2797	2797	2797	2791	2791	2785	2785	2785	2779	2779	2779	2779	2779	2785	2785	2791	2797	2797	2803	2809	2809	2809	2815	2815	2815	2815	2815	2821	2821	2821	2821	2815	2815	2815	2815	2815	2809	2803	2803	2803	2797	2797	2797	2797	2797	2797	2803	2803	2803	2803	2803	2803	2797	2797	2797	2779	2779	2773	2755	2738	2738	2732	2721	2721	2715	2704	2704	2704	2704	2704	2704	2704	2704	2704	2715	2715	2715	2715	2721	2721	2732	2738	2738	2755	2761	2761	2779	2785	2785	2791	2791	2791	2803	2803	2803	2803	2803	2803	2803	2803	2803	2803	2803	2803	2797	2797	2797	2797	2797	2791	2785	2785	2785	2773	2761	2761	2755	2744	2744	2738	2732	2732	2721	2715	2715	2699	2687	2682	2682	2671	2671	2671	2666	2660	2660	2660	2660	2660	2660	2660	2660	2660	2660	2660
1492	1494	1497	1497	1501	1501	1503	1503	1503	1511	0	0	0	0	0	0	0	0	0	0	0	0	0	0	0	2325	2325	2226	2226	2207	2192	2174	2174	2160	2146	2125	2125	2118	2111	2111	2108	2104	2104	2101	2097	2097	2097	2097	2094	2094	2091	2091	2091	2087	2084	2084	2081	2077	2077	2074	2074	2074	2074	2074	2074	2074	2077	2077	2081	2081	2084	2084	2084	2087	2091	2091	2091	2091	2091	2091	2091	2091	2091	2094	2094	2094	2094	2094	2094	2094	2091	2091	2091	2091	2091	2091	2091	2087	2087	2087	2084	2084	2084	2081	2081	2081	2077	2077	2077	2074	2071	2071	2064	2061	2061	2055	2055	2051	2051	2048	2042	2042	2042	2039	2039	2032	2032	2039	2039	2039	2039	2039	2048	2051	2051	2055	2064	2064	2071	2074	2074	2077	2081	2081	2081	2081	2081	2081	2084	2081	2077	2077	2077	2074	2074	2071	2064	2055	2055	2051	2051	2051	2042	2039	2039	2039	2039	2039	2039	2039	2042	2042	2039	2039	2042	2042	2048	2048	2048	2051	2055	2055	2061	2061	2061	2064	2064	2064	2071	2071	2071	2071	2071	2071	2071	2071	2071	2071	2074	2074	2071	2071	2071	2071	2071	2071	2071	2071	2071	2074	2074	2074	2077	2077	2077	2081	2081	2081	2081	2081	2081	2081	2081	2081	2081	2081	2081	2081	2077	2077	2077	2077	2077	2074	2071	2071	2071	2064	2064	2061	2061	2061	2055	2055	2051	2051	2048	2048	2048	2042	2042	2042	2042	2042	2048	2048	2051	2051	2051	2061	2061	2061	2071	2074	2074	2077	2081	2081	2081	2084	2084	2087	2087	2087	2087	2091	2087	2084	2084	2081	2081	2081	2077	2074	2074	2064	2061	2055	2055	2051	2051	2051	2048	2048	2048	2048	2048	2051	2051	2055	2064	2064	2071	2077	2077	2084	2087	2087	2097	2121	2121	2163	2163	0	0	0	2333	2333	2333	2388	2388	2469	2469	2493	2536	2536	2571	2571	2581	2581	2581	2587	2597	2597	2597	2602	2602	2607	2612	2612	2623	2628	2628	2633	2633	2633	2639	2639	2639	2649	2649	2649	2649	2655	2655	2655	2655	2655	2655	2660	2660	2666	2666	2666	2671	2676	2676	2682	2687	2687	2687	2699	2699	2704	2715	2715	2715	2721	2721	2721	2721	2721	2721	2721	2721	2732	2732	2732	2732	2732	2732	2732	2732	2732	2732	2721	2721	2721	2721	2721	2721	2721	2721	2721	2732	2732	2721	2721	2721	2715	2704	2704	2699	2687	2676	2676	2671	2666	2666	2666	2671	2671	2666	2666	2666	2666	2666	2671	2671	2666	2666	2666	2666	2666	2666	2666	2666	2666	2666	2666	2666	2666	2666	2666	2666	2666	2666	2671	2671	2671	2676	2676	2676	2676	2687	2687	2699	2704	2704	2715	2721	2721	2732	2738	2738	2744	2755	2755	2755	2761	2761	2773	2773	2773	2773	2779	2779	2779	2785	2785	2785	2785	2779	2773	2773	2761	2744	2738	2738	2721	2715	2715	2699	2687	2687	2682	2676	2671	2671	2671	2671	2671	2666	2666	2666	2666	2666	2666	2666	2666	2666	2666	2671	2671	2671	2671	2676	2676	2676	2676	2676	2682	2682	2676	2671	2671	2671	2671	2671	2671	2671	2671	2666	2666	2671	2671	2671	2671	2671	2676	2682	2682	2682	2699	2699	2699	2704	2704	2704	2704	2699	2687	2687	2699	2699	2704	2704	2704	2721	2721	2732	2738	2738	2744	2761	2761	2773	2779	2779	2785	2791	2791	2797	2797	2797	2803	2803	2797	2797	2803	2797	2791	2791	2785	2785	2785	2779	2779	2779	2779	2779	2785	2785	2791	2797	2797	2803	2809	2809	2809	2815	2815	2815	2815	2815	2821	2821	2821	2821	2815	2815	2815	2815	2815	2809	2803	2803	2803	2797	2797	2797	2797	2797	2797	2803	2803	2803	2803	2803	2803	2797	2797	2797	2779	2779	2773	2755	2738	2738	2732	2721	2721	2715	2704	2704	2699	2687	2687	2699	2687	2687	2699	2699	2699	2704	2704	2704	2704	2704	2721	2721	2732	2738	2738	2755	2773	2773	2773	2785	2785	2785	2785	2785	2791	2791	2785	2785	2791	2791	2791	2791	2791	2785	2785	2785	2785	2785	2779	2779	2761	2761	2755	2744	2744	2732	2732	2732	2721	2715	2715	2704	2699	2682	2682	2676	2671	2671	2666	2660	2660	2655	2655	2655	2655	2655	2655	2655	2655	2655	2655	2655	2655
1492	1494	1496	1497	1501	1501	1503	1503	1503	1511	0	0	0	0	0	0	0	0	0	0	0	0	0	0	0	2325	2296	2226	2226	2207	2192	2174	2174	2160	2146	2125	2125	2118	2111	2111	2108	2104	2104	2101	2097	2097	2097	2097	2094	2094	2091	2091	2091	2087	2084	2084	2081	2077	2077	2074	2074	2074	2074	2074	2074	2074	2077	2077	2081	2081	2084	2084	2084	2087	2091	2091	2091	2091	2091	2091	2091	2091	2091	2094	2094	2094	2094	2094	2094	2094	2094	2094	2094	2094	2091	2091	2091	2091	2091	2091	2087	2087	2087	2087	2084	2084	2081	2081	2081	2077	2074	2074	2071	2064	2064	2061	2055	2051	2051	2051	2048	2048	2042	2039	2039	2032	2032	2039	2039	2039	2039	2039	2048	2051	2051	2055	2064	2064	2074	2077	2077	2081	2081	2081	2084	2087	2087	2087	2087	2084	2081	2081	2081	2074	2074	2074	2071	2064	2064	2061	2051	2051	2048	2048	2048	2042	2042	2042	2042	2042	2042	2042	2039	2039	2048	2048	2048	2048	2048	2055	2055	2055	2061	2061	2064	2071	2071	2071	2071	2071	2071	2074	2074	2074	2074	2074	2074	2074	2074	2074	2074	2074	2074	2074	2074	2074	2074	2074	2074	2077	2077	2077	2077	2077	2077	2081	2081	2081	2081	2081	2081	2081	2081	2081	2081	2081	2081	2081	2077	2077	2077	2077	2077	2074	2071	2071	2071	2064	2064	2064	2061	2061	2061	2055	2055	2055	2051	2051	2051	2051	2051	2051	2051	2051	2055	2055	2061	2061	2061	2064	2071	2071	2077	2077	2077	2081	2084	2084	2087	2091	2091	2091	2091	2091	2091	2091	2087	2084	2084	2081	2081	2081	2077	2074	2074	2064	2061	2055	2055	2051	2051	2051	2048	2048	2048	2048	2048	2051	2051	2055	2064	2064	2071	2077	2077	2084	2087	2087	2097	2104	2121	2163	2163	2218	2218	2292	2292	2333	2333	2388	2388	2469	2469	2493	2532	2532	2561	2561	2561	2566	2566	2571	2571	2581	2581	2587	2587	2597	2607	2607	2612	2623	2623	2628	2633	2633	2639	2639	2639	2649	2649	2649	2649	2655	2655	2655	2655	2655	2655	2660	2660	2666	2666	2666	2676	2682	2682	2682	2687	2687	2687	2699	2699	2704	2715	2715	2715	2721	2721	2721	2721	2721	2721	2721	2721	2732	2732	2732	2732	2732	2732	2738	2738	2738	2738	2738	2738	2738	2738	2738	2732	2732	2732	2732	2738	2738	2732	2721	2721	2715	2704	2704	2699	2687	2676	2676	2671	2666	2666	2666	2671	2671	2666	2666	2666	2666	2666	2671	2671	2666	2666	2666	2666	2666	2666	2666	2666	2666	2666	2666	2666	2666	2666	2666	2666	2666	2666	2671	2671	2671	2676	2676	2676	2676	2687	2676	2676	2682	2682	2687	2699	2699	2699	2704	2704	2715	2721	2721	2732	2738	2738	2738	2755	2755	2755	2761	2761	2773	2773	2773	2773	2773	2773	2773	2773	2755	2744	2738	2738	2721	2715	2715	2699	2699	2699	2682	2682	2676	2676	2671	2671	2671	2666	2666	2666	2666	2666	2666	2666	2666	2666	2666	2671	2671	2671	2671	2676	2676	2671	2671	2671	2671	2671	2666	2666	2666	2660	2660	2660	2660	2655	2655	2655	2655	2655	2660	2660	2660	2660	2660	2671	2671	2671	2676	2682	2682	2682	2687	2687	2687	2687	2687	2687	2699	2699	2704	2704	2704	2721	2721	2732	2738	2738	2744	2761	2761	2773	2779	2779	2785	2791	2791	2797	2797	2797	2803	2803	2797	2797	2797	2791	2785	2785	2779	2773	2761	2761	2761	2761	2761	2761	2773	2773	2773	2779	2785	2785	2791	2791	2797	2797	2797	2803	2809	2809	2809	2809	2809	2809	2809	2809	2803	2797	2797	2791	2785	2785	2779	2779	2779	2779	2779	2779	2779	2785	2791	2791	2791	2797	2791	2791	2791	2791	2779	2761	2761	2755	2738	2738	2732	2715	2715	2715	2699	2699	2699	2687	2687	2699	2687	2687	2699	2699	2699	2704	2704	2704	2704	2704	2721	2721	2732	2738	2738	2755	2773	2773	2773	2785	2785	2785	2785	2785	2791	2791	2785	2785	2791	2791	2791	2791	2791	2785	2785	2785	2785	2785	2779	2779	2761	2761	2755	2744	2744	2732	2732	2732	2721	2715	2715	2704	2699	2682	2682	2676	2671	2671	2666	2660	2660	2655	2655	2655	2655	2655	2655	2655	2655	2655	2655	2655	2655
1492	1496	1496	1499	1503	1503	1506	1508	1508	1513	1520	1520	0	0	0	0	0	0	0	0	0	0	0	0	0	0	2296	2296	2241	2218	2203	2203	2192	2174	2160	2160	2139	2125	2118	2118	2108	2108	2108	2104	2101	2101	2097	2097	2094	2094	2094	2091	2091	2087	2084	2084	2077	2074	2074	2071	2071	2074	2074	2074	2074	2074	2077	2081	2081	2084	2084	2084	2087	2091	2091	2091	2094	2094	2094	2094	2094	2094	2094	2094	2094	2094	2094	2094	2094	2094	2094	2094	2094	2094	2091	2091	2091	2091	2091	2091	2087	2087	2087	2087	2084	2084	2081	2081	2081	2077	2074	2074	2071	2064	2064	2061	2055	2051	2051	2051	2048	2048	2039	2039	2039	2032	2032	2032	2032	2039	2039	2039	2042	2048	2048	2051	2061	2061	2071	2077	2077	2081	2081	2081	2084	2087	2087	2087	2087	2084	2081	2081	2081	2074	2074	2074	2071	2064	2064	2061	2051	2051	2048	2048	2048	2042	2042	2042	2042	2042	2042	2042	2039	2039	2048	2048	2048	2051	2051	2055	2061	2061	2061	2061	2064	2071	2071	2074	2074	2074	2074	2074	2077	2077	2077	2077	2077	2077	2077	2077	2077	2077	2077	2077	2077	2077	2077	2077	2077	2077	2077	2077	2077	2081	2081	2081	2084	2084	2084	2084	2084	2084	2084	2084	2084	2084	2084	2084	2081	2081	2081	2077	2077	2077	2074	2074	2074	2071	2071	2064	2064	2064	2064	2061	2061	2061	2061	2061	2061	2061	2061	2061	2061	2061	2064	2064	2071	2071	2071	2074	2081	2081	2081	2084	2084	2087	2091	2091	2091	2091	2091	2091	2091	2091	2091	2091	2091	2091	2091	2087	2084	2084	2084	2077	2077	2074	2071	2064	2064	2061	2061	2061	2061	2061	2061	2061	2061	2061	2061	2071	2074	2074	2077	2084	2084	2091	2094	2094	2104	2104	2135	2185	2185	2218	2218	2292	2292	2341	2341	2410	2410	2474	2474	2498	2532	2532	2546	2546	2546	2551	2561	2561	2561	2571	2571	2581	2581	2587	2602	2602	2607	2618	2618	2628	2633	2633	2639	2639	2639	2649	2649	2649	2655	2655	2655	2655	2660	2660	2660	2666	2666	2671	2671	2671	2676	2682	2682	2682	2687	2687	2687	2699	2699	2699	2704	2704	2704	2715	2715	2715	2721	2721	2721	2721	2721	2721	2732	2732	2732	2732	2732	2738	2738	2738	2738	2738	2738	2738	2738	2738	2732	2732	2732	2732	2732	2732	2721	2715	2715	2704	2699	2699	2682	2671	2666	2666	2655	2655	2655	2655	2655	2655	2655	2649	2649	2649	2655	2655	2655	2655	2655	2655	2655	2655	2655	2655	2655	2655	2655	2655	2655	2655	2655	2655	2660	2660	2660	2666	2666	2666	2666	2666	2666	2671	2671	2676	2676	2682	2682	2687	2699	2699	2699	2704	2704	2715	2721	2721	2732	2738	2738	2738	2755	2755	2755	2761	2761	2773	2773	2773	2773	2773	2773	2773	2773	2755	2744	2738	2738	2721	2715	2715	2704	2699	2699	2687	2682	2682	2676	2676	2671	2671	2671	2666	2666	2666	2666	2671	2666	2666	2666	2666	2671	2671	2671	2671	2676	2676	2671	2671	2671	2671	2671	2666	2666	2666	2660	2660	2660	2660	2655	2655	2655	2655	2655	2660	2660	2660	2660	2660	2671	2671	2671	2676	2682	2671	2671	2682	2682	2682	2687	2687	2699	2699	2699	2704	2704	2715	2732	2732	2738	2744	2744	2761	2773	2773	2779	2785	2785	2791	2791	2791	2797	2797	2797	2797	2797	2797	2791	2791	2785	2779	2779	2773	2761	2755	2755	2744	2738	2738	2738	2744	2744	2744	2755	2755	2755	2761	2773	2773	2773	2779	2779	2779	2779	2779	2779	2785	2785	2779	2779	2779	2773	2773	2773	2761	2761	2755	2744	2744	2744	2744	2755	2755	2761	2761	2761	2773	2779	2779	2779	2779	2779	2773	2761	2761	2744	2738	2738	2732	2715	2715	2704	2699	2699	2699	2687	2687	2687	2687	2687	2687	2687	2687	2687	2687	2687	2687	2687	2699	2704	2704	2721	2721	2732	2738	2738	2744	2755	2755	2761	2761	2761	2761	2761	2761	2761	2773	2773	2773	2773	2773	2773	2773	2773	2761	2755	2755	2755	2744	2744	2738	2721	2721	2715	2704	2704	2704	2699	2687	2687	2676	2676	2676	2671	2666	2666	2660	2655	2655	2655	2655	2655	2655	2655	2655	2655	2655	2655	2655	2655	2655
