1345	1345	1344	1342	1342	1342	1341	1341	1341	1341	1341	1341	1341	1341	1341	1341	1341	1341	1340	1338	1338	1337	1333	1330	1330	1323	1318	1318	1317	1314	1313	1313	1310	1310	1313	1305	1305	1307	1307	1310	1314	1314	1317	1318	1318	1322	1323	1323	1327	1327	1327	1326	1326	1326	1322	1322	1321	1318	1318	1314	1313	1310	1310	1310	1309	1309	1307	1307	1307	1307	1307	1307	1307	1307	1309	1309	1309	1309	1309	1309	1310	1310	1310	1310	1310	1313	1313	1313	1314	1314	1317	1317	1317	1317	1317	1317	1318	1318	1321	1321	1322	1323	1326	1326	1330	1330	1333	1336	1336	1338	1338	1338	1340	1341	1341	1342	1344	1344	1345	1347	1347	1349	1351	1351	1353	1353	1351	1348	1348	1345	1341	1338	1338	1331	1321	1307	1301	1301	1296	1291	1282	1282	1273	1266	1262	1262	1260	1257	1257	1257	1257	1257	1257	1260	1262	1262	1267	1279	1279	1293	1293	1300	1300	1309	1322	1322	1334	1334	1340	1344	1344	1345	1345	1345	1345	1347	1345	1345	1345	1345	1345	1347	1347	1351	1353	1353	1356	1358	1358	1356	1356	1356	1356	1356	1356	1356	1358	1358	1362	1365	1365	0	0	0	0	0	0	0	0	1634	1634	1642	1642	1655	1655	1665	1669	1669	1669	1669	1669	1669	1669	1669	1669	1669	1669	1669	1669	1669	1669	1669	1669	1669	1669	1669	1669	1669	1669	1669	1672	1674	1674	1676	1678	1678	1682	1682	1682	1689	0	0	0	0	0	0	0	0	0	0	0	0	2350	2350	2350	2350	2350	2350	2350	2346	2346	2346	2341	2341	2346	2341	2337	2337	2337	2333	2333	2333	2329	2329	2325	2321	2321	2316	2312	2304	2304	2296	2292	2292	2284	2284	2284	2284	2284	2284	2284	2292	2292	2292	2296	2296	2296	2304	2304	2304	2304	2304	2304	2304	2304	2304	2304	2304	2304	2296	2296	2296	2296	2296	2296	2292	2284	2284	2284	2284	2284	2280	2276	2276	2276	2276	2276	2276	2268	2268	2268	2264	2264	2264	2264	2264	2264	2264	2264	2264	2257	2257	2257	2257	2257	2257	2257	2253	2253	2253	2253	2253	2253	2245	2245	2245	2245	2245	2245	2241	2241	2241	2237	2237	2237	2233	2233	2233	2230	2230	2230	2226	2222	2222	2222	2222	2218	2218	2218	2215	2215	2215	2215	2215	2215	2211	2211	2211	2211	2211	2211	2211	2211	2211	2211	2211	2207	2207	2207	2207	2207	2203	2203	2203	2203	2203	2200	2200	2200	2196	2196	2196	2196	2196	2196	2196	2196	2196	2196	2196	2196	2196	2196	2196	2196	2196	2196	2196	2196	2196	2192	2192	2192	2192	2192	2192	2192	2192	2192	2192	2192	2196	2196	2196	2196	2196	2196	2196	2196	2196	2196	2196	2192	2192	2192	2189	2185	2185	2181	2181	2181	2174	2170	2163	2163	2163	2163	2163	2163	2163	2163	2163	2163	2163	2163	2163	2163	2163	2170	2170	2170	2170	2170	2170	2174	2174	2174	2181	2181	2181	2185	2189	2189	2192	2196	2196	2196	2200	2200	2200	2203	2203	2203	2203	2203	2203	2203	2203	2203	2203	2203	2203	2207	2207	2211	2237	2237	2268	2268	2329	2329	0	2512	2512	2512	2655	2655	2755	2755	2815	2815	2821	2833	2833	2839	2845	2845	2851	2858	2858	2864	2870	2870	2870	2870	2870	2876	2889	2889	2896	2896	2896	2896	2896	2896	2896	2896	2896	2908	2915	2915	2915	2928	2928	2935	2941	2941	2941	2954	2954	2954	2961	2954	2954	2954	2941	2941	2941	2941	2935	2935	2935	2928	2928	2928	2915	2915	2915	2908	2908	2908	2896	2889	2889	2889	2876	2876	2876	2876	2876	2870	2870	2870	2864	2864	2864	2864	2858	2858	2858	2851	2851	2851	2858	2858	2858	2858	2864	2864	2864	2870	2870	2876	2889	2889	2908	2928	2928	2935	2935	2935	2941	2954	2954	2954	2954	2941	2941	2941	2935	2928	2928	2915	2908	2896	2896	2876	2876	2876	2864	2864	2864	2858	2851	2851	2845	2839	2839	2839	2839	2839	2839	2839	2839	2839	2839	2839	2839	2839	2839	2839	2839	2839	2839	2839
1344	1344	1342	1341	1341	1341	1340	1340	1340	1340	1340	1340	1340	1340	1340	1338	1338	1338	1337	1334	1334	1331	1326	1321	1321	1314	1309	1306	1306	1304	1304	1304	1304	1304	1305	1305	1305	1307	1307	1310	1314	1314	1317	1318	1318	1322	1323	1323	1327	1327	1327	1326	1326	1326	1326	1326	1323	1321	1321	1318	1314	1313	1313	1310	1309	1309	1309	1309	1309	1309	1309	1309	1309	1309	1310	1310	1310	1313	1313	1313	1313	1313	1314	1314	1314	1317	1317	1317	1314	1314	1318	1318	1318	1317	1317	1318	1321	1321	1321	1321	1322	1323	1326	1326	1330	1330	1333	1336	1336	1338	1338	1338	1340	1341	1341	1342	1344	1344	1345	1347	1347	1349	1351	1351	1353	1353	1351	1348	1348	1345	1341	1338	1338	1331	1321	1307	1301	1301	1296	1291	1282	1282	1273	1266	1262	1262	1260	1257	1257	1257	1257	1257	1256	1256	1258	1258	1262	1269	1269	1282	1282	1295	1300	1301	1313	1313	1327	1327	1337	1341	1341	1341	1341	1341	1341	1341	1341	1341	1341	1340	1340	1341	1341	1342	1345	1345	1345	1347	1347	1347	1348	1348	1348	1348	1348	1348	1351	1351	1362	0	0	0	0	0	0	0	0	0	0	1646	1646	1655	1655	1661	1661	1667	1674	1674	1674	1674	1674	1674	1674	1674	1674	1674	1674	1674	1674	1672	1672	1672	1672	1669	1669	1669	1669	1672	1672	1672	1674	1676	1676	1678	1678	1678	1682	1684	1684	1693	1695	0	0	0	0	0	0	0	0	0	2367	2367	2358	2358	2358	2354	2354	2354	2350	2350	2350	2350	2346	2346	2346	2341	2337	2337	2337	2333	2333	2333	2329	2329	2325	2321	2321	2316	2308	2304	2304	2296	2284	2284	2284	2284	2284	2284	2284	2284	2284	2292	2292	2292	2296	2296	2296	2304	2304	2304	2304	2304	2304	2304	2304	2304	2304	2304	2304	2296	2296	2296	2296	2296	2296	2292	2284	2284	2284	2284	2284	2280	2276	2276	2276	2276	2276	2276	2268	2268	2268	2264	2264	2264	2264	2264	2264	2264	2264	2264	2257	2257	2257	2257	2257	2257	2257	2253	2253	2253	2253	2253	2253	2245	2245	2245	2245	2245	2245	2241	2241	2241	2237	2237	2237	2233	2233	2233	2230	2230	2230	2226	2222	2222	2222	2222	2218	2218	2218	2215	2215	2215	2218	2218	2218	2218	2218	2215	2215	2215	2215	2215	2215	2215	2211	2211	2211	2211	2211	2211	2211	2211	2207	2207	2207	2207	2203	2203	2203	2203	2203	2203	2203	2203	2203	2203	2203	2203	2200	2200	2200	2200	2200	2200	2200	2196	2196	2196	2196	2196	2196	2196	2196	2196	2196	2196	2196	2196	2196	2196	2196	2196	2196	2196	2200	2200	2200	2200	2200	2196	2196	2196	2196	2192	2192	2192	2189	2189	2185	2185	2185	2181	2174	2170	2170	2170	2170	2170	2163	2163	2163	2163	2170	2170	2170	2170	2170	2170	2174	2174	2174	2174	2181	2181	2181	2185	2185	2185	2185	2185	2192	2192	2192	2196	2200	2200	2200	2203	2203	2203	2203	2203	2203	2203	2203	2203	2203	2203	2203	2207	2207	2207	2207	2207	2215	2257	2257	2296	2296	2346	2346	0	2512	2512	2512	2666	2666	2779	2779	2815	2815	2821	2833	2833	2839	2845	2845	2851	2858	2858	2864	2870	2870	2870	2870	2870	2876	2889	2889	2889	2889	2889	2889	2889	2889	2889	2889	2889	2889	2896	2896	2896	2908	2908	2908	2928	2928	2928	2935	2935	2935	2935	2935	2935	2935	2928	2928	2928	2915	2915	2915	2915	2908	2908	2908	2896	2896	2889	2889	2876	2876	2876	2870	2870	2870	2870	2870	2864	2864	2864	2864	2858	2858	2858	2858	2858	2851	2845	2845	2845	2839	2839	2839	2845	2845	2845	2845	2845	2845	2845	2851	2851	2858	2870	2870	2876	2896	2896	2908	2915	2915	2928	2928	2928	2935	2935	2928	2928	2928	2915	2908	2889	2889	2889	2876	2876	2870	2864	2864	2858	2851	2851	2845	2845	2845	2839	2839	2839	2833	2833	2833	2833	2833	2833	2833	2833	2833	2833	2833	2833	2833	2833	2833	2833	2833
1341	1341	1341	1340	1338	1338	1338	1338	1338	1338	1337	1337	1337	1337	1337	1336	1334	1334	1331	1326	1322	1322	1317	1310	1305	1305	1302	1301	1301	1300	1298	1298	1298	1298	1300	1300	1300	1301	1301	1302	1305	1305	1307	1310	1310	1314	1318	1318	1321	1322	1322	1323	1323	1323	1322	1322	1321	1321	1321	1318	1314	1313	1313	1310	1309	1309	1309	1309	1309	1307	1307	1307	1307	1309	1310	1310	1310	1310	1310	1310	1313	1313	1313	1313	1313	1314	1314	1314	1314	1314	1317	1317	1317	1317	1317	1317	1318	1318	1318	1318	1318	1321	1323	1323	1326	1326	1327	1331	1331	1334	1336	1336	1338	1338	1338	1340	1340	1340	1341	1342	1342	1344	1344	1344	1345	1345	1344	1341	1340	1340	1336	1330	1318	1318	1307	1301	1296	1296	1286	1276	1267	1262	1262	1260	1257	1257	1256	1254	1254	1252	1252	1255	1255	1256	1258	1258	1262	1269	1269	1282	1282	1295	1301	1301	1313	1313	1327	1327	1337	1341	1341	1341	1341	1341	1341	1341	1341	1341	1341	1340	1340	1341	1341	1342	1345	1345	1345	1347	1347	1347	1348	1348	1348	1348	1348	1348	1351	1351	0	0	0	0	0	0	0	0	0	0	0	0	0	1665	1665	1667	1667	1674	1676	1676	1676	1678	1678	1676	1676	1676	1676	1676	1676	1676	1676	1674	1674	1674	1674	1672	1672	1674	1674	1674	1674	1674	1674	1676	1676	1680	1680	1680	1687	1689	1689	1695	1695	0	0	0	0	0	0	0	0	0	2367	2367	2367	2362	2362	2362	2358	2358	2358	2354	2350	2350	2350	2350	2350	2346	2346	2346	2337	2337	2337	2333	2333	2333	2329	2321	2321	2316	2308	2304	2304	2292	2284	2284	2284	2280	2280	2280	2280	2284	2284	2284	2292	2292	2304	2304	2304	2308	2308	2308	2312	2312	2312	2312	2312	2312	2312	2312	2312	2312	2312	2312	2312	2308	2308	2308	2308	2308	2304	2304	2304	2296	2296	2296	2292	2284	2284	2284	2284	2284	2280	2280	2280	2280	2276	2276	2276	2276	2276	2276	2276	2276	2276	2276	2276	2276	2276	2276	2276	2276	2268	2268	2268	2268	2268	2268	2268	2268	2268	2264	2264	2264	2257	2257	2257	2253	2253	2253	2245	2245	2245	2241	2237	2237	2233	2230	2226	2226	2222	2222	2222	2218	2218	2218	2218	2218	2218	2215	2215	2215	2215	2215	2215	2215	2211	2211	2211	2211	2211	2211	2211	2211	2207	2207	2207	2207	2203	2203	2203	2203	2203	2203	2203	2203	2203	2203	2203	2203	2200	2200	2200	2200	2200	2200	2200	2196	2196	2196	2196	2196	2196	2196	2196	2196	2196	2196	2196	2196	2196	2196	2196	2196	2196	2196	2200	2200	2200	2200	2200	2196	2196	2196	2196	2192	2192	2192	2189	2189	2185	2185	2185	2181	2174	2170	2170	2170	2170	2170	2163	2163	2163	2163	2170	2170	2170	2170	2170	2170	2174	2174	2174	2174	2181	2181	2181	2185	2185	2185	2185	2185	2192	2192	2192	2196	2200	2200	2200	2203	2203	2203	2203	2203	2203	2203	2203	2207	2207	2207	2207	2207	2207	2207	2211	2211	2222	2276	2276	2316	2316	2358	2358	0	2532	2532	2532	2666	2666	2779	2779	2815	2815	2821	2833	2833	2839	2845	2845	2851	2858	2858	2864	2870	2870	2870	2870	2870	2876	2889	2889	2889	2889	2889	2889	2889	2889	2889	2889	2889	2889	2896	2896	2896	2908	2908	2908	2928	2928	2928	2935	2935	2935	2935	2935	2935	2935	2928	2928	2928	2915	2915	2915	2915	2908	2908	2908	2896	2896	2889	2889	2876	2876	2876	2870	2870	2870	2870	2870	2864	2864	2864	2864	2858	2858	2858	2858	2858	2851	2845	2845	2845	2839	2839	2839	2845	2845	2845	2839	2839	2839	2839	2845	2845	2845	2851	2864	2864	2876	2876	2889	2896	2896	2908	2908	2908	2908	2908	2908	2908	2908	2896	2876	2870	2870	2870	2864	2864	2858	2851	2851	2845	2839	2839	2839	2839	2839	2833	2833	2833	2833	2827	2827	2827	2827	2827	2827	2827	2821	2821	2821	2821	2821	2821	2827	2827	2827
1341	1341	1341	1340	1338	1338	1338	1338	1338	1338	1337	1337	1337	1337	1337	1336	1334	1334	1331	1326	1322	1322	1317	1301	1298	1298	1297	1296	1296	1296	1296	1296	1296	1296	1296	1296	1296	1297	1298	1298	1301	1301	1302	1304	1304	1307	1309	1309	1313	1314	1314	1317	1318	1317	1317	1317	1317	1314	1313	1313	1310	1309	1309	1307	1307	1307	1306	1306	1306	1306	1306	1306	1306	1307	1307	1307	1309	1309	1309	1309	1309	1309	1309	1309	1310	1310	1313	1313	1313	1313	1313	1313	1313	1313	1313	1313	1314	1314	1314	1317	1317	1317	1318	1318	1321	1322	1322	1326	1327	1327	1330	1330	1331	1333	1333	1334	1336	1336	1336	1337	1337	1338	1338	1340	1340	1338	1338	1337	1331	1331	1326	1317	1307	1301	1301	1296	1286	1276	1276	1265	1261	1257	1257	1255	1252	1252	1250	1249	1246	1246	1246	1250	1250	1252	1255	1255	1258	1263	1263	1273	1282	1288	1297	1297	1304	1304	1314	1327	1327	1336	1336	1337	1337	1336	1336	1336	1336	1334	1333	1333	1333	1336	1336	1337	1338	1338	1340	1341	1341	1341	1341	1344	1344	1344	1344	1344	1345	1351	0	0	0	0	0	0	0	0	0	0	1672	1672	1674	1665	1665	1667	1667	1674	1676	1676	1676	1678	1678	1676	1676	1676	1676	1676	1676	1676	1676	1674	1674	1674	1674	1672	1672	1674	1674	1674	1674	1674	1674	1676	1676	1680	1680	1680	1687	1689	1689	1695	1695	0	0	0	0	0	0	0	0	0	2367	2367	2367	2367	2367	2367	2367	2367	2362	2362	2362	2358	2358	2354	2354	2350	2346	2346	2346	2337	2337	2337	2333	2333	2329	2325	2325	2316	2308	2304	2304	2292	2284	2284	2284	2280	2280	2280	2280	2284	2284	2284	2296	2296	2304	2308	2308	2308	2312	2312	2316	2316	2316	2316	2316	2316	2316	2316	2316	2316	2321	2321	2321	2321	2321	2321	2321	2321	2321	2321	2321	2316	2316	2316	2312	2308	2308	2308	2304	2304	2296	2296	2296	2296	2296	2296	2292	2292	2292	2292	2292	2292	2292	2292	2292	2292	2292	2292	2292	2292	2292	2292	2292	2292	2292	2292	2292	2292	2292	2284	2284	2284	2284	2284	2284	2280	2280	2280	2276	2268	2268	2264	2257	2257	2253	2241	2241	2237	2230	2226	2226	2222	2222	2222	2222	2222	2222	2218	2218	2218	2218	2218	2218	2218	2218	2218	2218	2215	2215	2215	2211	2211	2211	2211	2211	2211	2207	2207	2207	2207	2207	2207	2207	2203	2203	2203	2203	2203	2203	2203	2203	2203	2203	2203	2203	2200	2200	2200	2200	2200	2196	2196	2196	2196	2196	2196	2196	2196	2196	2196	2196	2196	2200	2200	2200	2200	2200	2200	2200	2200	2200	2200	2200	2196	2196	2196	2192	2192	2189	2189	2189	2185	2185	2185	2181	2174	2174	2174	2174	2174	2174	2174	2174	2181	2181	2181	2181	2181	2181	2185	2185	2185	2185	2185	2185	2189	2189	2189	2189	2189	2192	2196	2196	2200	2200	2200	2203	2203	2203	2203	2203	2203	2203	2203	2203	2207	2207	2207	2207	2207	2207	2207	2211	2211	2222	2276	2276	2316	2316	2358	2358	2479	2479	2532	2532	2666	2666	2779	2779	2809	2809	2821	2833	2833	2839	2845	2845	2851	2851	2851	2858	2864	2864	2864	2870	2870	2870	2876	2876	2876	2876	2876	2876	2876	2870	2870	2876	2870	2870	2876	2876	2876	2876	2876	2889	2896	2896	2908	2908	2908	2915	2915	2915	2915	2915	2908	2908	2908	2908	2896	2896	2896	2896	2896	2889	2876	2876	2876	2870	2870	2870	2864	2858	2858	2858	2858	2858	2858	2851	2851	2851	2845	2845	2845	2845	2845	2839	2839	2839	2839	2839	2839	2839	2839	2839	2839	2839	2839	2839	2839	2845	2845	2845	2851	2864	2864	2876	2876	2889	2896	2896	2908	2908	2908	2908	2908	2908	2908	2908	2896	2876	2870	2870	2870	2864	2864	2858	2851	2851	2845	2839	2839	2839	2839	2839	2833	2833	2833	2833	2827	2827	2827	2827	2827	2827	2827	2821	2821	2821	2821	2821	2821	2827	2827	2827
1340	1340	1338	1337	1334	1334	1330	1327	1327	1323	1323	1322	1322	1321	1318	1318	1317	1313	1313	1309	1306	1304	1304	1301	1298	1298	1297	1296	1296	1296	1296	1296	1296	1296	1296	1296	1296	1297	1298	1298	1301	1301	1302	1304	1304	1307	1309	1309	1313	1314	1314	1317	1318	1317	1317	1317	1317	1314	1313	1313	1310	1309	1309	1307	1307	1307	1306	1306	1306	1306	1306	1306	1306	1307	1307	1307	1309	1309	1309	1309	1309	1309	1309	1309	1310	1310	1313	1313	1313	1313	1313	1313	1313	1313	1313	1313	1314	1314	1314	1317	1317	1317	1318	1318	1321	1322	1322	1326	1327	1327	1330	1330	1331	1333	1333	1334	1336	1336	1336	1337	1337	1338	1338	1340	1340	1338	1338	1337	1331	1331	1326	1317	1307	1301	1301	1296	1286	1276	1276	1265	1256	1252	1252	1249	1245	1242	1242	1241	1241	1242	1242	1243	1246	1246	1250	1255	1256	1261	1261	1267	1279	1279	1292	1292	1298	1304	1306	1317	1317	1326	1330	1326	1326	1326	1326	1323	1323	1323	1322	1322	1322	1323	1323	1323	1327	1331	1331	1333	1336	1336	1337	1338	1338	1338	1340	1340	1345	0	0	0	0	0	0	0	0	0	0	0	1672	1672	1674	1674	1674	1678	1678	1680	1680	1680	1682	1684	1684	1682	1682	1682	1680	1680	1680	1678	1678	1676	1676	1676	1676	1674	1674	1674	1674	1674	1674	1674	1676	1678	1678	1682	1682	1682	1687	1689	1689	1695	1695	0	0	0	0	0	0	0	0	0	2371	2371	2371	2367	2367	2367	2367	2367	2362	2362	2362	2358	2358	2354	2354	2350	2346	2346	2346	2337	2337	2337	2333	2333	2329	2325	2325	2316	2308	2304	2304	2292	2284	2284	2280	2280	2280	2280	2280	2284	2284	2284	2292	2292	2304	2308	2308	2308	2312	2312	2316	2316	2316	2316	2316	2316	2316	2316	2316	2316	2321	2321	2321	2321	2321	2321	2321	2321	2321	2321	2321	2316	2316	2316	2312	2308	2308	2308	2304	2304	2296	2296	2296	2296	2296	2296	2292	2292	2292	2292	2292	2292	2292	2292	2292	2292	2292	2292	2292	2292	2292	2292	2292	2292	2292	2292	2292	2292	2292	2284	2284	2284	2284	2284	2284	2280	2280	2280	2276	2268	2268	2268	2280	2280	2276	2264	2264	2257	2245	2245	2241	2233	2230	2230	2230	2226	2226	2222	2222	2222	2222	2222	2222	2222	2222	2222	2222	2222	2222	2218	2218	2218	2218	2218	2218	2215	2211	2211	2211	2211	2211	2211	2211	2207	2207	2207	2207	2207	2207	2207	2207	2207	2203	2203	2203	2203	2203	2203	2203	2203	2203	2203	2203	2200	2200	2203	2200	2200	2200	2200	2200	2200	2200	2200	2203	2203	2203	2200	2200	2200	2200	2200	2200	2196	2196	2196	2192	2192	2192	2192	2192	2189	2185	2185	2185	2185	2185	2181	2181	2181	2181	2181	2181	2185	2185	2185	2185	2185	2189	2189	2189	2189	2189	2189	2189	2189	2189	2192	2192	2192	2196	2196	2196	2200	2203	2203	2203	2203	2203	2203	2207	2207	2207	2207	2207	2207	2207	2207	2207	2211	2211	2211	2215	2215	2230	2292	2292	2333	2333	2401	2401	2479	2479	2561	2561	2644	2644	2721	2721	2803	2803	2815	2821	2821	2833	2839	2839	2839	2845	2845	2851	2858	2858	2858	2864	2864	2864	2870	2864	2864	2870	2864	2864	2864	2864	2858	2858	2858	2858	2858	2858	2858	2858	2858	2864	2864	2864	2870	2876	2876	2876	2889	2889	2889	2896	2889	2889	2889	2876	2876	2876	2876	2870	2870	2870	2864	2864	2864	2858	2858	2858	2851	2851	2851	2851	2845	2845	2845	2845	2845	2839	2839	2839	2839	2839	2839	2839	2833	2833	2833	2833	2833	2833	2833	2833	2833	2833	2833	2833	2833	2839	2839	2839	2845	2851	2851	2864	2864	2870	2876	2876	2889	2896	2896	2896	2896	2889	2889	2876	2876	2870	2864	2864	2858	2851	2851	2845	2839	2839	2839	2839	2839	2833	2833	2833	2833	2821	2821	2821	2821	2821	2821	2821	2821	2821	2821	2815	2815	2815	2815	2821	2821	2821	2821	2821
1336	1331	1331	1323	1321	1313	1313	1310	1307	1307	1305	1304	1304	1302	1302	1302	1302	1301	1298	1298	1298	1297	1297	1296	1293	1293	1291	1289	1288	1288	1288	1288	1288	1288	1288	1289	1289	1291	1293	1293	1296	1297	1297	1298	1301	1301	1302	1304	1304	1305	1306	1306	1307	1307	1307	1307	1307	1306	1305	1305	1304	1304	1304	1302	1302	1302	1302	1302	1302	1302	1302	1302	1302	1302	1302	1304	1304	1304	1304	1304	1305	1305	1305	1305	1306	1306	1306	1306	1306	1307	1309	1309	1307	1307	1307	1307	1309	1309	1309	1309	1309	1310	1310	1310	1313	1314	1314	1317	1318	1318	1321	1322	1322	1323	1323	1323	1326	1326	1326	1326	1327	1327	1330	1330	1330	1326	1326	1323	1318	1313	1313	1305	1300	1296	1296	1286	1273	1263	1260	1260	1256	1252	1252	1249	1245	1242	1242	1241	1241	1242	1242	1243	1246	1246	1250	1256	1256	1261	1261	1267	1279	1279	1292	1292	1298	1306	1306	1317	1317	1326	1330	1326	1326	1326	1326	1323	1323	1323	1322	1322	1322	1323	1323	1323	1327	1331	1331	1333	1336	1336	1337	1338	1338	1338	1340	1340	0	0	0	0	0	0	0	0	0	0	0	0	0	0	0	1684	1684	1684	1684	1684	1687	1687	1689	1693	1689	1689	1689	1689	1687	1687	1684	1684	1684	1680	1678	1678	1678	1676	1676	1676	1676	1676	1676	1676	1676	1678	1678	1684	1687	1687	1689	1693	1693	1700	1700	0	0	0	0	0	0	0	0	0	2371	2371	2371	2371	2371	2371	2371	2371	2371	2367	2367	2367	2362	2358	2358	2354	2350	2350	2346	2341	2341	2337	2333	2333	2329	2325	2325	2316	2308	2304	2304	2292	2280	2280	2280	2276	2276	2276	2280	2284	2284	2292	2292	2292	2304	2308	2308	2312	2316	2316	2316	2321	2321	2321	2321	2321	2325	2325	2325	2325	2325	2325	2329	2329	2329	2329	2333	2333	2333	2333	2333	2333	2333	2333	2329	2325	2325	2321	2321	2321	2316	2316	2316	2312	2308	2308	2308	2308	2308	2308	2308	2308	2308	2308	2308	2308	2308	2308	2308	2308	2308	2308	2308	2308	2308	2308	2308	2308	2308	2308	2308	2308	2308	2308	2308	2308	2308	2304	2304	2304	2296	2292	2280	2280	2276	2264	2264	2257	2245	2245	2241	2233	2230	2230	2230	2226	2226	2222	2222	2222	2222	2222	2222	2222	2222	2222	2222	2222	2222	2218	2218	2218	2218	2218	2218	2215	2211	2211	2211	2211	2211	2211	2211	2207	2207	2207	2207	2207	2207	2207	2207	2207	2203	2203	2203	2203	2203	2203	2203	2203	2203	2203	2203	2200	2200	2203	2200	2200	2200	2200	2200	2200	2200	2200	2203	2203	2203	2200	2200	2200	2200	2200	2200	2196	2196	2196	2192	2192	2192	2192	2192	2189	2185	2185	2185	2185	2185	2181	2181	2181	2181	2181	2181	2185	2185	2185	2185	2185	2189	2189	2189	2189	2189	2189	2189	2189	2189	2192	2192	2192	2196	2200	2200	2200	2203	2203	2203	2203	2203	2203	2207	2207	2207	2207	2207	2207	2211	2211	2211	2211	2211	2215	2215	2215	2241	2308	2308	2350	2350	2428	2428	2488	2488	2571	2571	2644	2644	2721	2721	2803	2803	2815	2821	2821	2833	2839	2839	2839	2845	2845	2851	2858	2858	2858	2864	2864	2864	2870	2864	2864	2870	2864	2864	2864	2864	2858	2858	2858	2858	2858	2858	2858	2858	2858	2864	2864	2864	2870	2876	2876	2876	2889	2889	2889	2896	2889	2889	2889	2876	2876	2876	2876	2870	2870	2870	2864	2864	2864	2858	2858	2858	2851	2851	2851	2851	2845	2845	2845	2845	2845	2839	2839	2839	2839	2839	2839	2839	2833	2833	2827	2827	2827	2827	2827	2827	2827	2827	2827	2833	2833	2833	2833	2833	2839	2839	2839	2845	2858	2858	2864	2864	2864	2870	2870	2876	2870	2870	2864	2864	2864	2851	2851	2851	2845	2839	2839	2839	2839	2839	2833	2833	2833	2827	2827	2827	2821	2821	2821	2821	2815	2815	2815	2815	2815	2815	2815	2815	2815	2815	2815	2815	2815	2815	2815	2815
1336	1331	1331	1323	1321	1313	1313	1310	1307	1307	1305	1296	1296	1296	1295	1295	1295	1293	1291	1291	1289	1288	1288	1286	1284	1281	1281	1279	1277	1277	1277	1277	1277	1277	1279	1279	1279	1281	1284	1284	1288	1291	1291	1295	1296	1296	1297	1298	1298	1300	1301	1301	1301	1301	1301	1301	1301	1301	1301	1301	1298	1298	1298	1298	1298	1298	1298	1297	1297	1298	1298	1298	1298	1298	1298	1298	1298	1300	1300	1300	1300	1301	1301	1301	1301	1301	1301	1301	1301	1301	1302	1302	1302	1302	1302	1302	1302	1302	1302	1302	1302	1304	1304	1304	1306	1306	1306	1307	1307	1307	1309	1310	1310	1310	1310	1310	1310	1310	1310	1310	1310	1310	1310	1310	1310	1307	1305	1305	1302	1301	1297	1297	1292	1281	1268	1268	1261	1256	1251	1251	1245	1238	1235	1235	1231	1230	1230	1230	1230	1230	1230	1234	1237	1237	1242	1250	1250	1257	1257	1262	1272	1272	1286	1286	1297	1301	1301	1317	1317	1318	1321	1318	1317	1317	1317	1314	1314	1314	1313	1313	1313	1313	1313	1313	1314	1317	1317	1321	1322	1322	1326	1327	1327	1327	1331	1331	0	0	0	0	0	0	0	0	0	0	0	0	1687	1687	1687	1684	1684	1684	1684	1684	1687	1687	1689	1693	1689	1689	1689	1689	1687	1687	1684	1684	1684	1680	1678	1678	1678	1676	1676	1676	1676	1676	1676	1676	1676	1678	1678	1684	1687	1687	1689	1693	1693	1700	1700	1711	0	0	0	0	0	0	0	0	0	0	2384	2375	2375	2375	2375	2375	2371	2371	2375	2371	2367	2367	2362	2358	2350	2350	2350	2346	2346	2337	2337	2337	2329	2329	2329	2321	2312	2304	2304	2292	2280	2280	2280	2276	2276	2276	2280	2284	2284	2292	2296	2296	2308	2312	2312	2316	2321	2321	2321	2325	2325	2325	2329	2329	2329	2329	2329	2329	2329	2329	2333	2333	2333	2337	2337	2337	2341	2341	2341	2341	2346	2341	2337	2337	2337	2333	2333	2333	2329	2329	2329	2325	2325	2325	2325	2325	2325	2321	2321	2321	2321	2321	2321	2321	2321	2321	2321	2321	2321	2321	2321	2321	2321	2321	2321	2321	2321	2321	2325	2321	2321	2325	2321	2316	2316	2316	2316	2316	2316	2308	2308	2296	2292	2284	2284	2276	2264	2264	2257	2245	2245	2245	2237	2233	2233	2233	2233	2233	2230	2230	2230	2230	2230	2230	2230	2230	2230	2226	2222	2222	2222	2222	2222	2218	2218	2218	2218	2218	2218	2215	2215	2211	2211	2211	2211	2211	2211	2211	2211	2211	2207	2207	2207	2207	2207	2207	2207	2207	2203	2203	2203	2203	2203	2203	2203	2203	2203	2203	2203	2203	2203	2203	2203	2203	2203	2203	2203	2203	2200	2200	2200	2200	2200	2196	2196	2196	2196	2192	2192	2189	2189	2189	2189	2189	2189	2189	2185	2185	2185	2189	2189	2189	2189	2192	2192	2192	2192	2192	2192	2192	2192	2192	2192	2192	2192	2192	2196	2196	2196	2200	2200	2200	2203	2203	2203	2203	2203	2203	2207	2207	2207	2207	2207	2207	2211	2211	2211	2211	2211	2215	2215	2215	2241	2257	2308	2325	2350	2428	2428	2488	2488	2571	2571	2644	2644	2715	2715	2785	2785	2803	2815	2815	2821	2833	2833	2839	2839	2839	2845	2851	2851	2851	2858	2851	2851	2858	2858	2858	2858	2858	2851	2851	2851	2845	2845	2845	2839	2839	2839	2839	2839	2839	2845	2851	2851	2851	2858	2858	2864	2870	2870	2870	2870	2870	2870	2870	2870	2870	2864	2864	2864	2858	2858	2858	2851	2851	2851	2851	2851	2845	2839	2839	2839	2839	2839	2839	2839	2839	2833	2833	2833	2833	2833	2833	2833	2833	2833	2827	2827	2827	2827	2827	2827	2827	2827	2827	2833	2833	2833	2833	2833	2839	2839	2839	2845	2858	2858	2864	2864	2864	2870	2870	2876	2870	2870	2864	2864	2864	2851	2851	2851	2845	2839	2839	2839	2839	2839	2833	2833	2833	2827	2827	2827	2821	2821	2821	2821	2815	2815	2815	2815	2815	2815	2815	2815	2815	2815	2815	2815	2815	2815	2815	2815
1322	1317	1309	1309	1302	1301	1301	1298	1297	1297	1297	1296	1296	1296	1295	1295	1295	1293	1291	1291	1289	1288	1288	1286	1284	1281	1281	1279	1277	1277	1277	1277	1277	1277	1279	1279	1279	1281	1284	1284	1288	1291	1291	1295	1296	1296	1297	1298	1298	1300	1301	1301	1301	1301	1301	1301	1301	1301	1301	1301	1298	1298	1298	1298	1298	1298	1298	1297	1297	1298	1298	1298	1298	1298	1298	1298	1298	1300	1300	1300	1300	1301	1301	1301	1301	1301	1301	1301	1301	1301	1302	1302	1302	1302	1302	1302	1302	1302	1302	1302	1302	1304	1304	1304	1306	1306	1306	1307	1307	1307	1309	1310	1310	1310	1310	1310	1310	1310	1310	1310	1310	1310	1310	1310	1310	1307	1305	1305	1302	1288	1277	1267	1267	1261	1256	1249	1238	1238	1230	1227	1227	1224	1223	1223	1223	1223	1223	1223	1223	1223	1224	1224	1228	1231	1231	1242	1242	1254	1254	1258	1265	1265	1281	1281	1293	1301	1301	0	1313	1313	1314	1313	1310	1310	1310	1309	1307	1307	1306	1306	1306	1305	1305	1306	1306	1309	1310	1310	1313	1314	1314	1314	1318	1318	1331	1331	0	0	0	0	0	0	0	0	0	0	0	0	1687	1687	1687	1689	1689	1689	1693	1693	1693	1695	1700	1700	1700	1695	1695	1695	1693	1693	1689	1687	1687	1684	1682	1682	1680	1680	1680	1680	1678	1678	1678	1678	1680	1682	1682	1687	1687	1689	1693	1693	1700	1702	1702	1711	0	0	0	0	0	0	0	0	0	0	2384	2375	2375	2375	2375	2375	2371	2371	2375	2371	2367	2367	2362	2358	2350	2350	2350	2346	2346	2337	2337	2337	2329	2329	2329	2321	2312	2304	2304	2292	2280	2280	2276	2276	2276	2276	2280	2284	2284	2292	2296	2296	2304	2312	2312	2316	2321	2321	2321	2325	2325	2325	2329	2329	2329	2329	2329	2329	2329	2329	2333	2333	2333	2337	2337	2337	2341	2341	2341	2341	2346	2341	2337	2337	2337	2333	2333	2333	2329	2329	2329	2325	2325	2325	2325	2325	2325	2321	2321	2321	2321	2321	2321	2321	2321	2321	2321	2321	2321	2321	2321	2321	2321	2321	2321	2321	2321	2321	2329	2333	2329	2329	2329	2329	2329	2329	2329	2329	2329	2321	2321	2316	2312	2312	2304	2292	2284	2284	2276	2268	2268	2264	2253	2253	2245	2241	2241	2241	2241	2241	2241	2237	2237	2237	2237	2237	2237	2237	2237	2237	2237	2233	2233	2230	2226	2226	2226	2226	2226	2222	2222	2218	2218	2218	2218	2218	2218	2215	2215	2215	2211	2211	2211	2211	2211	2211	2207	2207	2207	2207	2207	2207	2207	2207	2207	2207	2207	2203	2203	2203	2203	2203	2203	2203	2203	2203	2203	2203	2203	2203	2200	2200	2200	2200	2200	2200	2196	2196	2196	2192	2192	2192	2192	2192	2192	2192	2192	2192	2192	2192	2192	2192	2192	2192	2192	2196	2196	2196	2196	2192	2192	2192	2192	2192	2192	2196	2196	2196	2196	2200	2200	2200	2203	2203	2203	2203	2203	2203	2207	2207	2207	2207	2207	2211	2211	2211	2215	2215	2215	2218	2218	2218	2257	2257	2325	2325	2362	0	0	2493	2493	2587	2587	2649	2649	2704	2704	2761	2761	2791	2809	2809	2815	2821	2821	2833	2839	2839	2839	2839	2839	2845	2845	2845	2845	2851	2851	2851	2851	2845	2839	2839	2839	2839	2839	2839	2833	2833	2833	2833	2833	2833	2833	2839	2839	2839	2845	2845	2851	2858	2858	2858	2864	2858	2858	2858	2858	2858	2858	2858	2851	2851	2851	2851	2845	2845	2845	2839	2839	2839	2839	2839	2839	2833	2833	2833	2833	2833	2833	2827	2827	2827	2827	2827	2827	2827	2827	2821	2821	2821	2821	2821	2821	2821	2821	2827	2827	2827	2827	2833	2833	2833	2833	2833	2839	2845	2845	2851	2858	2858	2864	2864	2864	2864	2864	2858	2851	2851	2845	2845	2845	2839	2839	2839	2839	2833	2833	2833	2833	2833	2827	2821	2821	2821	2821	2821	2815	2815	2815	2815	2815	2815	2815	2815	2815	2815	2815	2815	2815	2815	2815	2815	2815
1306	1302	1297	1297	1296	1292	1288	1288	1284	1281	1281	1279	1279	1277	1277	1277	1277	1277	1273	1273	1273	1272	1272	1272	1269	1268	1268	1268	1267	1267	1267	1267	1268	1269	1269	1269	1272	1272	1276	1276	1277	1282	1282	1284	1288	1288	1292	1293	1293	1295	1296	1296	1296	1297	1296	1296	1296	1296	1296	1296	1296	1295	1293	1293	1293	1293	1293	1293	1293	1293	1293	1293	1293	1293	1295	1296	1296	1296	1296	1296	1296	1297	1297	1297	1297	1297	1297	1297	1297	1297	1298	1297	1297	1298	1297	1297	1298	1298	1298	1298	1298	1298	1300	1300	1300	1301	1301	1301	1301	1301	1301	1302	1302	1302	1301	1301	1301	1301	1301	1300	1300	1300	1300	1298	1298	1297	1297	1293	1293	1288	1277	1267	1267	1261	1256	1249	1238	1238	1230	1227	1227	1224	1223	1223	1223	1223	1223	1223	1223	1223	1224	1224	1228	1231	1231	1242	1242	1254	1254	1258	1265	1265	1281	1281	1293	0	0	0	1313	1313	1314	1313	1310	1310	1310	1309	1307	1307	1306	1306	1306	1305	1305	1306	1306	1309	1310	1310	1313	1314	1314	1314	1318	1318	0	0	0	0	0	0	0	0	0	0	0	0	0	0	0	0	1700	1700	1700	1700	1702	1702	1702	1702	1706	1706	1706	1706	1702	1700	1700	1700	1695	1695	1695	1689	1689	1689	1684	1684	1684	1684	1682	1682	1682	1682	1684	1684	1687	1689	1689	1695	1700	1700	1702	1706	1706	1711	0	0	0	0	0	0	0	0	0	0	0	2375	2375	2375	2384	2384	2384	2375	2375	2375	2371	2371	2367	2358	2354	2354	2350	2346	2346	2341	2337	2337	2333	2329	2329	2321	2312	2296	2296	2292	2280	2280	2276	2276	2276	2276	2280	2280	2280	2292	2296	2296	2304	2312	2312	2316	2325	2325	2325	2329	2329	2329	2329	2329	2329	2333	2333	2333	2333	2333	2337	2341	2341	2346	2346	2346	2350	2350	2350	2350	2350	2350	2350	2350	2346	2346	2341	2341	2337	2337	2337	2333	2333	2333	2333	2329	2329	2329	2329	2329	2329	2329	2329	2329	2329	2329	2329	2329	2329	2329	2329	2329	2329	2333	2333	2329	2329	2329	2329	2333	2329	2329	2329	2329	2329	2329	2329	2329	2329	2321	2321	2316	2312	2312	2304	2292	2284	2284	2276	2268	2268	2264	2253	2253	2245	2241	2241	2241	2241	2241	2241	2237	2237	2237	2237	2237	2237	2237	2237	2237	2237	2233	2233	2230	2226	2226	2226	2226	2226	2222	2222	2218	2218	2218	2218	2218	2218	2215	2215	2215	2211	2211	2211	2211	2211	2211	2207	2207	2207	2207	2207	2207	2207	2207	2207	2207	2207	2203	2203	2203	2203	2203	2203	2203	2203	2203	2203	2203	2203	2203	2200	2200	2200	2200	2200	2200	2196	2196	2196	2192	2192	2192	2192	2192	2192	2192	2192	2192	2192	2192	2192	2192	2192	2192	2192	2196	2196	2196	2196	2196	2196	2196	2196	2196	2196	2196	2196	2196	2196	2200	2200	2203	2203	2203	2203	2203	2203	2207	2207	2207	2207	2207	2207	2211	2215	2215	2215	2218	2218	2222	2226	2226	2280	2280	2333	2333	2384	0	0	2502	2502	2597	2597	2649	2649	2704	2704	2761	2761	2791	2809	2809	2815	2821	2821	2833	2839	2839	2839	2839	2839	2845	2845	2845	2845	2851	2851	2851	2851	2845	2839	2839	2839	2839	2839	2839	2833	2833	2833	2833	2833	2833	2833	2839	2839	2839	2845	2845	2851	2858	2858	2858	2864	2858	2858	2858	2858	2858	2858	2858	2851	2851	2851	2851	2845	2845	2845	2839	2839	2839	2839	2839	2839	2833	2833	2833	2827	2827	2827	2821	2821	2821	2821	2821	2821	2821	2821	2821	2821	2821	2821	2821	2821	2821	2821	2821	2827	2827	2827	2827	2827	2827	2833	2833	2833	2839	2839	2839	2845	2845	2845	2851	2845	2845	2851	2845	2839	2839	2839	2839	2839	2839	2833	2833	2833	2833	2833	2827	2821	2821	2821	2821	2821	2815	2815	2815	2815	2815	2809	2809	2809	2809	2809	2809	2809	2809	2809	2809	2809	2809	2809	2809	2809
1296	1291	1282	1276	1269	1269	1267	1266	1266	1263	1262	1262	1262	1262	1262	1262	1262	1262	1262	1262	1262	1262	1262	1262	1262	1262	1262	1262	1262	1262	1262	1262	1262	1263	1263	1265	1266	1266	1267	1268	1268	1273	1276	1276	1279	1281	1281	1284	1284	1286	1288	1288	1289	1289	1289	1289	1289	1289	1288	1286	1286	1286	1284	1284	1284	1284	1284	1282	1282	1284	1284	1284	1284	1284	1286	1286	1286	1289	1289	1289	1289	1289	1289	1291	1292	1292	1292	1292	1292	1292	1292	1292	1293	1293	1293	1293	1293	1293	1293	1295	1295	1295	1296	1296	1296	1296	1296	1296	1297	1297	1297	1297	1297	1297	1296	1296	1295	1293	1293	1293	1291	1288	1288	1286	1279	1272	1272	1265	1261	1261	1257	1251	1241	1230	1230	1224	1223	1223	1220	1219	1217	1217	1217	1217	1217	1217	1217	1219	1219	1219	1220	1220	1222	1224	1224	1234	1234	1249	1254	1256	1262	1262	1273	1281	1289	1297	1297	1302	1302	1307	1309	1306	1305	1305	1305	1304	1304	1304	1302	1302	1302	1302	1302	1302	1302	1304	1305	1305	1306	1309	1309	1309	1318	1318	0	0	0	0	0	0	0	0	0	0	0	0	0	0	0	0	1700	1700	1700	1700	1702	1702	1702	1702	1706	1706	1706	1706	1702	1700	1700	1700	1695	1695	1695	1689	1689	1689	1684	1684	1684	1684	1682	1682	1682	1682	1684	1684	1687	1689	1689	1700	1706	1706	1706	1709	1709	1715	0	0	0	0	0	0	0	0	0	0	0	2388	2388	2388	2384	2384	2384	2388	2388	2384	2371	2371	2371	2362	2354	2354	2350	2346	2346	2341	2337	2337	2333	2329	2329	2321	2312	2296	2296	2292	2284	2284	2280	2276	2276	2276	2280	2280	2280	2292	2296	2296	2304	2312	2312	2316	2325	2325	2329	2329	2329	2329	2329	2329	2333	2333	2333	2333	2337	2337	2341	2346	2346	2350	2354	2354	2354	2362	2362	2367	2367	2362	2362	2362	2358	2350	2350	2350	2346	2341	2341	2341	2337	2337	2337	2337	2337	2333	2333	2333	2333	2333	2333	2333	2337	2337	2337	2337	2337	2337	2337	2337	2337	2337	2337	2337	2337	2337	2337	2337	2337	2337	2337	2337	2337	2337	2337	2337	2337	2333	2333	2329	2325	2325	2316	2308	2308	2304	2292	2284	2284	2276	2264	2264	2264	2253	2253	2253	2253	2253	2253	2253	2253	2253	2253	2253	2257	2257	2257	2257	2253	2253	2253	2253	2245	2245	2241	2237	2237	2233	2230	2230	2226	2222	2222	2222	2222	2218	2218	2218	2218	2218	2218	2218	2218	2218	2215	2215	2215	2211	2211	2211	2211	2211	2211	2211	2211	2207	2207	2207	2207	2207	2207	2207	2207	2203	2203	2203	2203	2203	2203	2203	2203	2203	2200	2200	2200	2200	2200	2196	2196	2196	2196	2196	2196	2196	2196	2196	2196	2196	2196	2196	2196	2196	2196	2196	2196	2196	2196	2196	2196	2196	2196	2196	2196	2196	2196	2196	2196	2200	2200	2200	2203	2203	2203	2203	2203	2207	2207	2207	2207	2207	2207	2211	2215	2215	2215	2218	2218	2222	2226	2226	2280	2280	2333	2333	2384	2401	0	2502	2502	2597	2597	2649	2649	2704	2704	2744	2761	2779	2797	2797	2809	2821	2821	2827	2833	2833	2839	2839	2839	2839	2839	2839	2839	2839	2839	2839	2839	2839	2839	2839	2833	2833	2833	2827	2827	2827	2827	2827	2827	2827	2827	2833	2833	2833	2833	2839	2839	2845	2845	2845	2851	2851	2851	2851	2851	2851	2851	2851	2845	2839	2839	2839	2839	2839	2839	2833	2833	2833	2833	2833	2833	2833	2833	2827	2827	2827	2827	2821	2821	2821	2821	2821	2821	2821	2821	2821	2821	2821	2821	2821	2821	2821	2821	2821	2827	2827	2827	2827	2827	2827	2833	2833	2833	2839	2839	2839	2845	2845	2845	2851	2845	2845	2851	2845	2839	2839	2839	2839	2839	2839	2833	2833	2833	2833	2833	2827	2821	2821	2821	2821	2821	2815	2815	2815	2815	2815	2809	2809	2809	2809	2809	2809	2809	2809	2809	2809	2809	2809	2809	2809	2809
1296	1291	1282	1276	1269	1269	1267	1266	1266	1263	1262	1262	1262	1262	1262	1262	1262	1262	1262	1262	1262	1262	1262	1262	1262	1262	1262	1262	1262	1262	1262	1262	1262	1263	1263	1265	1266	1266	1267	1268	1268	1273	1276	1276	1279	1281	1281	1284	1284	1286	1288	1288	1289	1289	1289	1289	1289	1289	1288	1286	1286	1286	1284	1284	1284	1284	1284	1282	1282	1284	1284	1284	1284	1284	1286	1286	1286	1289	1289	1289	1289	1289	1289	1291	1292	1292	1292	1292	1292	1292	1292	1292	1293	1293	1293	1293	1293	1293	1293	1295	1295	1295	1296	1296	1296	1296	1296	1296	1297	1297	1297	1297	1297	1297	1296	1296	1295	1293	1281	1281	1277	1276	1267	1267	1262	1258	1258	1256	1246	1235	1228	1228	1222	1219	1215	1215	1212	1208	1208	1206	1205	1205	1205	1205	1205	1205	1206	1208	1208	1212	1214	1214	1217	1221	1221	1228	1234	1241	1254	1254	1258	1258	1268	1284	1284	1295	1295	1300	1302	1302	1302	1302	1302	1302	1302	1301	1301	1301	1301	1300	1300	1300	1300	1300	1300	1301	1302	1302	1305	1305	1305	1306	0	0	0	0	0	0	0	0	0	0	0	0	0	0	0	0	0	0	1709	1709	1709	1709	1709	1709	1709	1711	1711	1711	1711	1711	1709	1706	1706	1702	1702	1700	1700	1695	1693	1693	1689	1689	1689	1689	1687	1687	1687	1687	1689	1689	1693	1695	1695	1700	1706	1706	1706	1709	1709	1715	0	0	0	0	0	0	0	0	0	0	0	2388	2388	2388	2384	2384	2384	2388	2388	2384	2371	2371	2371	2362	2354	2354	2350	2346	2346	2341	2337	2337	2333	2329	2329	2321	2312	2296	2296	2292	2284	2284	2280	2276	2276	2276	2276	2280	2280	2292	2296	2296	2304	2312	2312	2316	2325	2325	2329	2329	2329	2329	2329	2329	2333	2333	2333	2333	2337	2337	2341	2346	2346	2350	2354	2354	2354	2362	2362	2367	2367	2362	2362	2362	2358	2350	2350	2350	2346	2341	2341	2341	2337	2337	2337	2337	2337	2333	2333	2333	2333	2333	2333	2333	2337	2337	2337	2337	2337	2337	2346	2346	2346	2346	2346	2346	2346	2346	2346	2346	2346	2346	2346	2346	2346	2341	2341	2341	2341	2337	2337	2337	2329	2329	2329	2316	2316	2312	2308	2296	2296	2284	2276	2276	2268	2264	2264	2264	2264	2264	2264	2264	2264	2264	2268	2268	2268	2276	2280	2280	2280	2280	2280	2276	2276	2276	2268	2264	2264	2257	2253	2253	2253	2245	2245	2241	2241	2241	2237	2233	2230	2230	2230	2230	2230	2226	2226	2226	2222	2222	2222	2222	2222	2222	2218	2218	2218	2215	2215	2215	2215	2211	2211	2211	2207	2207	2207	2207	2203	2203	2203	2203	2203	2203	2203	2203	2203	2200	2200	2200	2200	2200	2200	2200	2200	2200	2196	2196	2196	2196	2200	2200	2200	2200	2200	2200	2200	2200	2196	2196	2196	2196	2196	2196	2196	2196	2196	2196	2196	2200	2200	2200	2203	2203	2203	2203	2203	2203	2207	2207	2207	2211	2211	2211	2215	2215	2218	2222	2222	2226	2237	2237	2308	2308	2346	2346	2401	2401	0	2517	2517	2607	2607	2649	2649	2704	2704	2732	2761	2761	2785	2785	2809	2815	2815	2821	2833	2833	2833	2839	2839	2839	2839	2839	2839	2839	2839	2833	2833	2833	2833	2833	2827	2827	2827	2821	2821	2821	2821	2815	2815	2821	2821	2821	2821	2821	2827	2833	2833	2839	2839	2839	2839	2839	2839	2839	2839	2839	2839	2839	2839	2839	2839	2833	2833	2833	2833	2833	2833	2827	2827	2827	2827	2821	2821	2821	2821	2821	2821	2821	2821	2821	2815	2815	2815	2815	2815	2815	2815	2815	2815	2815	2821	2821	2821	2821	2821	2821	2821	2821	2821	2827	2827	2827	2833	2833	2833	2839	2839	2839	2839	2839	2839	2839	2839	2839	2839	2839	2833	2833	2833	2833	2827	2827	2821	2821	2821	2821	2821	2821	2815	2815	2815	2815	2815	2809	2809	2809	2809	2809	2809	2809	2809	2809	2809	2809	2809	2809	2809	2809	2809	2809	2809
1267	1262	1262	1261	1258	1258	1258	1257	1257	1256	1256	1256	1256	1256	1256	1256	1256	1256	1256	1256	1256	1256	1256	1257	1257	1257	1257	1258	1258	1258	1260	1260	1260	1261	1261	1261	1262	1262	1262	1263	1263	1266	1267	1267	1269	1272	1272	1273	1276	1276	1277	1277	1277	1279	1279	1279	1277	1277	1277	1276	1276	1273	1273	1273	1273	1272	1272	1272	1272	1272	1273	1273	1273	1273	1273	1276	1277	1277	1279	1279	1279	1279	1279	1279	1281	1281	1281	1281	1281	1281	1282	1282	1282	1282	1284	1284	1284	1284	1284	1284	1286	1286	1288	1288	1288	1288	1288	1288	1289	1289	1289	1291	1291	1289	1288	1284	1284	1281	1281	1281	1277	1276	1267	1267	1262	1258	1258	1256	1246	1235	1228	1228	1222	1219	1215	1215	1212	1208	1208	1206	1205	1205	1205	1205	1205	1205	1206	1208	1208	1212	1214	1214	1217	1221	1221	1228	1241	1241	1254	1254	1258	1258	1268	1284	1284	1295	1295	1300	1302	1302	1302	1302	1302	1302	1302	1301	1301	1301	1301	1300	1300	1300	1300	1300	1300	1301	1302	1302	1305	1305	1305	1306	0	0	0	0	0	0	0	0	0	0	0	0	0	0	0	0	0	0	1718	1718	1718	1718	1718	1718	1718	1718	1718	1718	1715	1715	1715	1709	1709	1709	1709	1709	1706	1702	1700	1700	1700	1700	1700	1695	1695	1695	1695	1695	1695	1695	1700	1702	1702	1706	1709	1709	1711	1715	1715	1722	1727	1727	0	0	0	0	0	0	0	0	0	0	0	2388	2388	2388	2388	2388	2388	2384	2384	2384	2371	2367	2358	2358	2350	2346	2346	2346	2337	2337	2333	2329	2329	2321	2312	2304	2304	2292	2284	2284	2280	2276	2276	2276	2276	2280	2280	2292	2296	2296	2308	2312	2312	2321	2329	2329	2329	2329	2329	2329	2329	2329	2333	2333	2333	2337	2337	2337	2346	2350	2350	2350	2358	2358	2362	2371	2371	2371	2375	2371	2371	2371	2367	2358	2358	2354	2350	2350	2350	2346	2346	2346	2341	2341	2341	2337	2337	2337	2337	2337	2337	2337	2341	2341	2341	2341	2341	2341	2346	2346	2346	2346	2346	2346	2346	2346	2346	2346	2346	2346	2346	2346	2346	2341	2341	2341	2341	2337	2337	2337	2329	2329	2329	2316	2316	2312	2308	2296	2296	2284	2276	2276	2268	2264	2264	2264	2264	2264	2264	2264	2264	2264	2268	2268	2268	2276	2280	2280	2280	2280	2280	2276	2276	2276	2268	2264	2264	2257	2253	2253	2253	2245	2245	2241	2241	2241	2237	2233	2230	2230	2230	2230	2230	2226	2226	2226	2222	2222	2222	2222	2222	2222	2218	2218	2218	2215	2215	2215	2215	2211	2211	2211	2207	2207	2207	2207	2203	2203	2203	2203	2203	2203	2203	2203	2203	2200	2200	2200	2200	2200	2200	2200	2200	2200	2196	2196	2196	2200	2200	2200	2200	2200	2200	2200	2200	2200	2200	2200	2196	2196	2196	2196	2196	2196	2196	2196	2200	2200	2200	2200	2203	2203	2203	2203	2203	2203	2207	2207	2207	2211	2211	2211	2218	2218	2218	2222	2222	2233	2253	2253	2321	2321	2350	2350	2419	2419	0	2532	2532	2612	2612	2649	2649	2704	2704	2732	2761	2761	2785	2785	2809	2815	2815	2821	2833	2833	2833	2839	2839	2839	2839	2839	2839	2839	2839	2833	2833	2833	2833	2833	2827	2827	2827	2821	2821	2821	2821	2815	2815	2821	2821	2821	2821	2821	2827	2833	2833	2839	2839	2839	2839	2839	2839	2839	2839	2839	2839	2839	2839	2839	2839	2833	2833	2833	2833	2821	2821	2821	2821	2821	2821	2815	2815	2815	2815	2815	2815	2815	2815	2815	2815	2815	2815	2815	2815	2815	2815	2815	2815	2815	2815	2815	2815	2821	2821	2821	2821	2821	2821	2827	2827	2827	2833	2833	2833	2833	2833	2833	2839	2839	2839	2839	2839	2839	2833	2833	2833	2833	2833	2827	2821	2821	2821	2815	2815	2815	2815	2815	2809	2809	2809	2809	2809	2809	2809	2809	2809	2809	2809	2809	2809	2809	2809	2809	2809	2809	2809	2809	2809	2809	2809
1255	1251	1249	1249	1246	1246	1246	1246	1243	1243	1243	1243	1245	1245	1245	1245	1245	1245	1246	1246	1249	1250	1250	1251	1252	1252	1254	1255	1255	1256	1256	1256	1257	1257	1257	1258	1258	1258	1260	1261	1261	1262	1262	1262	1263	1265	1265	1265	1266	1266	1267	1267	1267	1267	1267	1267	1267	1266	1266	1266	1265	1265	1265	1265	1265	1263	1263	1263	1263	1263	1263	1263	1263	1265	1265	1265	1266	1266	1267	1267	1267	1267	1267	1267	1267	1267	1267	1268	1268	1268	1268	1268	1269	1269	1269	1269	1269	1272	1273	1273	1276	1276	1276	1276	1276	1276	1277	1277	1277	1277	1277	1277	1276	1276	1273	1269	1269	1268	1266	1263	1263	1261	1258	1258	1255	1246	1235	1228	1228	1222	1219	1210	1210	1205	1201	1195	1195	1193	1193	1193	1192	1192	1192	1192	1193	1194	1194	1195	1201	1201	1204	1210	1210	1216	1216	1223	1234	1234	1246	1246	1256	1256	1263	1277	1277	1289	1289	1296	1300	1300	1298	1298	1298	1298	1298	1298	1298	1298	1298	1297	1297	1297	1297	1297	1297	1298	1301	1301	1302	1302	1302	1306	0	0	0	0	0	0	0	0	0	0	0	0	0	0	0	0	0	0	1718	1718	1718	1718	1718	1718	1718	1718	1718	1718	1715	1715	1715	1709	1709	1709	1709	1709	1706	1702	1700	1700	1700	1700	1706	1706	1702	1702	1702	1702	1706	1706	1706	1709	1709	1715	1715	1715	1718	1722	1722	1724	1727	1727	0	0	0	0	0	0	0	0	0	0	0	0	2388	2388	2388	2388	2388	2388	2384	2384	2375	2367	2358	2358	2354	2350	2350	2346	2337	2337	2333	2333	2333	2325	2316	2308	2308	2292	2284	2284	2280	2276	2276	2276	2276	2280	2280	2292	2304	2304	2312	2316	2316	2325	2329	2329	2329	2329	2329	2329	2333	2333	2333	2333	2333	2337	2337	2337	2346	2350	2350	2354	2367	2367	2371	2375	2375	2384	2384	2375	2375	2375	2367	2362	2362	2354	2350	2350	2350	2346	2346	2346	2346	2341	2341	2341	2341	2341	2341	2341	2346	2346	2346	2346	2346	2346	2346	2346	2346	2350	2350	2350	2350	2350	2350	2350	2350	2350	2350	2350	2350	2350	2350	2350	2350	2346	2346	2346	2346	2341	2337	2337	2333	2329	2329	2321	2316	2316	2308	2296	2284	2284	2284	2280	2280	2276	2276	2276	2276	2276	2276	2276	2276	2284	2284	2292	2296	2296	2296	2296	2296	2304	2304	2304	2296	2296	2296	2292	2292	2284	2280	2280	2280	2276	2268	2268	2264	2264	2264	2257	2257	2257	2257	2253	2253	2245	2241	2241	2241	2237	2237	2237	2233	2233	2233	2226	2222	2222	2222	2222	2222	2218	2218	2218	2211	2211	2211	2211	2207	2207	2207	2207	2207	2207	2203	2203	2203	2203	2203	2203	2203	2203	2203	2200	2200	2200	2200	2200	2200	2200	2200	2200	2200	2200	2200	2200	2200	2200	2196	2196	2196	2196	2196	2196	2196	2196	2200	2200	2200	2200	2203	2203	2203	2203	2203	2203	2207	2207	2207	2211	2211	2211	2218	2218	2218	2222	2222	2233	2237	2253	2321	2321	2350	2350	2419	2419	0	2532	2532	2612	2612	2649	2649	2699	2699	2721	2744	2744	2779	2779	2797	2815	2815	2821	2827	2827	2833	2833	2833	2833	2833	2833	2833	2833	2833	2827	2827	2827	2821	2821	2821	2821	2821	2815	2815	2815	2815	2815	2815	2815	2815	2815	2815	2815	2821	2821	2821	2827	2833	2833	2839	2839	2839	2839	2839	2839	2833	2833	2833	2833	2833	2833	2827	2827	2827	2821	2821	2821	2821	2821	2821	2815	2815	2815	2815	2815	2815	2815	2815	2815	2815	2815	2815	2815	2815	2815	2815	2815	2815	2815	2815	2815	2815	2821	2821	2821	2821	2827	2827	2827	2833	2833	2833	2833	2833	2833	2833	2833	2839	2839	2839	2839	2839	2839	2833	2833	2833	2833	2833	2827	2821	2821	2821	2815	2815	2815	2815	2815	2809	2809	2809	2809	2809	2809	2809	2809	2809	2809	2809	2809	2809	2809	2809	2809	2809	2809	2809	2809	2809	2809	2809
1255	1251	1249	1249	1246	1246	1246	1246	1243	1243	1243	1243	1245	1245	1245	1245	1245	1245	1246	1246	1249	1250	1250	1251	1252	1252	1254	1255	1255	1256	1256	1256	1257	1257	1257	1258	1258	1258	1260	1261	1261	1262	1262	1262	1263	1265	1265	1265	1266	1266	1267	1267	1267	1267	1267	1267	1267	1266	1266	1266	1265	1265	1265	1265	1265	1263	1263	1263	1263	1263	1263	1263	1263	1265	1265	1265	1266	1266	1267	1267	1267	1267	1267	1267	1267	1267	1267	1268	1268	1268	1268	1268	1269	1269	1269	1269	1269	1272	1273	1273	1276	1276	1276	1276	1276	1276	1266	1266	1266	1265	1265	1265	1263	1262	1262	1261	1260	1260	1258	1257	1257	1254	1249	1238	1229	1229	1223	1219	1210	1210	1210	1194	1190	1190	1188	1188	1188	1186	1186	1186	1186	1186	1186	1186	1187	1188	1188	1189	1191	1191	1194	1202	1202	1212	1212	1220	1228	1228	1242	1242	1254	1254	1261	1269	1269	1282	1282	1292	1296	1296	1296	1296	1296	1296	1296	1296	1296	1296	1295	1295	1295	1295	1295	1295	1295	1296	1298	1298	1300	1300	1300	1301	0	0	0	0	0	0	0	0	0	0	0	0	0	0	0	1727	1727	1727	1722	1722	1724	1724	1722	1722	1722	1722	1722	1722	1722	1722	1718	1715	1715	1715	1711	1711	1711	1709	1706	1706	1706	1706	1706	1706	1702	1702	1702	1702	1706	1706	1706	1709	1709	1715	1715	1715	1718	1722	1722	1724	1727	1727	0	0	0	0	0	0	0	0	0	0	0	0	2388	2388	2388	2388	2388	2388	2384	2384	2375	2367	2358	2358	2354	2350	2350	2346	2337	2337	2333	2333	2333	2325	2316	2308	2308	2292	2284	2284	2280	2276	2276	2276	2276	2280	2280	2292	2304	2304	2312	2316	2316	2325	2329	2329	2329	2329	2329	2329	2333	2333	2333	2333	2333	2337	2337	2337	2346	2350	2350	2354	2367	2367	2371	2375	2375	2384	2384	2375	2371	2371	2367	2358	2358	2354	2350	2350	2350	2346	2346	2346	2346	2341	2341	2341	2341	2341	2341	2346	2346	2346	2346	2346	2346	2346	2350	2350	2350	2350	2350	2350	2350	2350	2350	2350	2350	2350	2350	2350	2350	2350	2350	2350	2350	2350	2350	2346	2346	2346	2341	2341	2337	2333	2333	2329	2325	2325	2316	2312	2312	2304	2296	2292	2292	2292	2284	2284	2284	2284	2292	2292	2292	2304	2304	2308	2308	2308	2316	2321	2321	2321	2321	2321	2321	2321	2321	2316	2316	2316	2312	2312	2308	2304	2304	2304	2296	2292	2292	2292	2284	2284	2284	2284	2284	2280	2276	2276	2268	2264	2264	2264	2257	2257	2253	2253	2245	2245	2241	2233	2233	2230	2222	2222	2222	2218	2218	2215	2211	2211	2211	2211	2207	2207	2207	2207	2207	2207	2203	2203	2203	2203	2203	2203	2203	2203	2203	2203	2203	2203	2203	2203	2203	2203	2203	2203	2200	2200	2200	2200	2200	2200	2200	2200	2200	2200	2200	2200	2200	2203	2203	2203	2203	2203	2203	2207	2207	2207	2207	2211	2211	2215	2218	2218	2222	2230	2230	2237	2237	2268	2329	2329	2362	2362	2433	2433	2488	2488	2536	2607	2607	2649	2649	2682	2682	2704	2738	2738	2761	2761	2791	2809	2809	2821	2827	2827	2833	2833	2833	2833	2833	2833	2833	2833	2827	2821	2821	2821	2821	2821	2815	2815	2815	2809	2809	2809	2809	2809	2809	2809	2809	2809	2809	2809	2809	2815	2815	2821	2821	2821	2827	2827	2827	2827	2833	2827	2827	2827	2827	2827	2827	2821	2821	2821	2821	2821	2821	2815	2815	2815	2815	2815	2815	2815	2815	2815	2809	2809	2809	2809	2809	2809	2809	2809	2809	2809	2809	2809	2809	2809	2809	2815	2815	2815	2821	2821	2821	2821	2821	2827	2827	2827	2827	2833	2833	2833	2833	2833	2833	2833	2833	2833	2833	2833	2833	2833	2821	2821	2821	2821	2815	2815	2815	2815	2815	2815	2809	2809	2809	2809	2809	2809	2809	2809	2809	2809	2809	2809	2809	2809	2809	2809	2809	2809	2809	2809	2809	2809	2803	2803	2803
1235	1234	1231	1231	1231	1231	1231	1234	1234	1234	1235	1235	1235	1235	1235	1237	1237	1237	1238	1241	1241	1242	1243	1243	1245	1245	1249	1250	1250	1251	1254	1254	1255	1256	1256	1256	1257	1257	1257	1258	1258	1258	1260	1260	1260	1261	1261	1261	1261	1261	1261	1261	1261	1261	1261	1261	1261	1261	1261	1261	1261	1261	1261	1260	1260	1258	1258	1258	1258	1260	1260	1260	1260	1260	1260	1260	1261	1261	1261	1261	1261	1261	1261	1261	1261	1261	1261	1261	1261	1261	1261	1261	1262	1262	1262	1262	1262	1262	1263	1263	1265	1265	1265	1265	1266	1266	1266	1266	1266	1265	1265	1265	1263	1262	1262	1261	1260	1260	1258	1257	1257	1254	1249	1238	1229	1229	1223	1219	1210	1210	1210	1194	1190	1190	1188	1188	1188	1186	1186	1186	1186	1186	1186	1186	1187	1188	1188	1189	1191	1191	1194	1202	1202	1212	1212	1220	1228	1228	1242	1242	1254	1254	1261	1269	1269	1282	1282	1292	1296	1296	1296	1296	1296	1296	1296	1296	1296	1296	1295	1295	1295	1295	1295	1295	1295	1296	1298	1298	1300	1300	1300	1301	0	0	0	0	0	0	0	0	0	0	0	0	0	0	0	1727	1727	1727	1727	1727	1727	1727	1727	1727	1727	1727	1727	1727	1724	1724	1722	1722	1722	1718	1718	1718	1715	1715	1715	1711	1711	1711	1711	1711	1711	1711	1711	1711	1711	1711	1711	1715	1715	1718	1718	1718	1722	1724	1724	1727	1729	1729	0	0	0	0	0	0	0	0	0	0	0	0	0	0	0	0	0	0	0	0	0	0	0	0	0	2350	2350	2346	2341	1008	1008	1008	1009	1010	1010	1010	2308	2296	2284	2284	2280	2276	2276	2276	2276	2280	2280	2292	2304	2304	2316	2316	2316	0	0	0	0	0	2333	2333	2333	2333	2333	2337	2337	2337	2341	2341	2346	2354	2354	2358	2367	2367	2371	2384	2384	2375	2375	2371	2367	2367	2362	2354	2354	2350	2350	2350	2346	2346	2346	2346	2346	2346	2346	2346	2341	2341	2341	2341	2341	2341	2346	2346	2346	2346	2346	2346	2350	2350	2350	2350	2350	2350	2350	2350	2350	2350	2350	2350	2350	2350	2350	2350	2350	2350	2350	2346	2346	2346	2341	2341	2337	2333	2333	2329	2325	2325	2316	2312	2312	2304	2296	2292	2292	2292	2284	2284	2284	2284	2292	2292	2292	2304	2304	2308	2308	2308	2316	2321	2321	2321	2321	2321	2321	2321	2321	2316	2316	2316	2312	2312	2308	2304	2304	2304	2296	2292	2292	2292	2284	2284	2284	2284	2284	2280	2276	2276	2268	2264	2264	2264	2257	2257	2253	2253	2245	2245	2241	2233	2233	2230	2222	2222	2222	2218	2218	2215	2211	2211	2211	2211	2207	2207	2207	2207	2211	2211	2207	2207	2207	2207	2207	2207	2207	2207	2207	2203	2203	2203	2203	2203	2203	2203	2203	2203	2203	2203	2203	2203	2203	2203	2203	2203	2203	2203	2203	2203	2203	2203	2203	2203	2203	2207	2207	2207	2207	2207	2211	2211	2211	2218	2222	2222	2226	2237	2237	2245	2245	2284	2333	2333	2371	2371	2446	2446	2488	2488	2536	2607	2607	2649	2649	2682	2682	2704	2738	2738	2761	2761	2791	2809	2809	2821	2827	2827	2833	2833	2833	2833	2833	2833	2833	2833	2827	2821	2821	2821	2821	2821	2815	2815	2815	2809	2809	2809	2809	2809	2809	2809	2809	2809	2809	2809	2809	2815	2815	2821	2821	2821	2827	2827	2827	2827	2833	2827	2821	2821	2821	2815	2815	2815	2815	2815	2815	2815	2815	2815	2809	2809	2809	2809	2809	2809	2809	2809	2809	2809	2809	2809	2803	2803	2803	2803	2803	2803	2803	2803	2809	2809	2809	2815	2815	2815	2815	2815	2821	2821	2821	2821	2821	2821	2827	2827	2827	2827	2833	2833	2833	2833	2833	2833	2833	2827	2821	2821	2821	2821	2821	2815	2815	2815	2815	2809	2809	2809	2809	2809	2809	2809	2809	2809	2803	2803	2803	2809	2803	2803	2803	2803	2803	2803	2803	2809	2809	2803	2803	2803	2797	2797	2797
1221	1222	1222	1223	1223	1223	1224	1224	1224	1227	1227	1227	1228	1229	1229	1229	1230	1230	1231	1234	1234	1235	1237	1237	1238	1242	1242	1245	1246	1246	1249	1249	1250	1252	1252	1254	1255	1255	1256	1256	1256	1257	1257	1257	1257	1257	1257	1257	1258	1258	1258	1258	1258	1257	1257	1257	1257	1257	1257	1257	1257	1257	1257	1256	1256	1256	1256	1256	1256	1256	1256	1256	1256	1256	1256	1256	1256	1256	1256	1256	1257	1256	1256	1256	1256	1256	1256	1256	1256	1257	1257	1257	1257	1257	1257	1257	1257	1258	1258	1258	1260	1260	1260	1260	1260	1260	1261	1260	1260	1260	1260	1260	1258	1257	1257	1256	1254	1254	1251	1246	1241	1241	1231	1224	1220	1220	1215	1215	1195	1191	1191	1187	1184	1184	1183	1182	1182	1182	1181	1181	1181	1181	1181	1182	1182	1184	1184	1184	1187	1189	1189	1194	1194	1205	1212	1219	1224	1224	1238	1238	1251	1254	1258	1266	1266	1277	1282	1286	1291	1291	1292	1292	1291	1291	1291	1291	1291	1291	1289	1289	1291	1291	1291	1291	1291	1295	1297	1297	1297	1300	1300	1300	1304	1304	0	0	0	0	0	0	0	0	0	0	0	0	0	1727	1727	1727	1727	1727	1727	1727	1727	1727	1727	1727	1727	1727	1724	1724	1724	1724	1724	1722	1722	1722	1718	1718	1718	1718	1718	1718	1715	1715	1718	1718	1718	1715	1715	1715	1715	1718	1718	1722	1724	1724	1724	1724	1724	1729	1729	1729	0	0	0	0	0	0	0	0	0	0	0	0	0	0	0	0	0	0	0	0	0	0	0	0	0	2350	2350	2350	2346	1008	1008	1008	1009	1010	1010	1010	2312	2304	2292	2292	2284	2280	2280	2280	2280	0	0	0	0	0	0	0	0	0	0	0	0	0	2333	2333	2333	2333	2333	2337	2337	2337	2341	2341	2346	2354	2354	2362	2371	2371	2375	2384	2384	2375	2375	2371	2367	2367	2362	2354	2354	2350	2350	2350	2346	2346	2346	2346	2346	2346	2346	2346	2341	2341	2341	2341	2341	2341	2346	2346	2346	2346	2346	2346	2350	2350	2350	2354	2354	2354	2354	2354	2354	2354	2354	2354	2354	2358	2354	2354	2354	2350	2350	2354	2350	2350	2346	2346	2341	2337	2337	2333	2329	2329	2329	2321	2321	2316	2312	2304	2304	2304	2304	2304	2304	2304	2304	2304	2308	2316	2316	2321	2325	2325	2329	2333	2333	2333	2333	2333	2333	2337	2333	2333	2333	2333	2333	2333	2329	2329	2329	2329	2329	2329	2325	2321	2321	2321	2316	2316	2316	2312	2308	2308	2304	2296	2296	2296	2292	2292	2292	2284	2284	2280	2268	2268	2264	2257	2241	2241	2237	2230	2230	2226	2222	2222	2218	2218	2215	2215	2215	2211	2211	2211	2207	2207	2207	2207	2207	2207	2207	2207	2207	2203	2203	2203	2203	2203	2203	2203	2203	2203	2203	2203	2203	2203	2203	2203	2203	2203	2203	2203	2203	2203	2203	2203	2203	2203	2203	2207	2207	2207	2207	2207	2211	2211	2211	2218	2222	2222	2226	2233	2237	2245	2245	2284	2304	2333	2371	2371	2446	2446	2488	2488	2536	2607	2607	2649	2649	2671	2671	2687	2721	2721	2755	2755	2785	2809	2809	2821	2827	2827	2833	2833	2833	2833	2833	2833	2827	2827	2821	2821	2821	2815	2815	2815	2815	2809	2809	2809	2803	2797	2797	2797	2797	2797	2797	2797	2803	2803	2803	2809	2809	2809	2815	2815	2815	2821	2821	2821	2821	2821	2821	2821	2821	2815	2815	2815	2815	2815	2815	2815	2815	2815	2809	2809	2809	2809	2809	2809	2809	2809	2809	2809	2809	2809	2803	2803	2803	2803	2803	2803	2803	2803	2809	2809	2809	2815	2815	2815	2815	2815	2821	2821	2821	2821	2821	2821	2827	2827	2827	2827	2833	2833	2833	2833	2833	2833	2833	2827	2821	2821	2821	2821	2821	2815	2815	2815	2815	2809	2809	2809	2809	2809	2809	2809	2809	2809	2803	2803	2803	2809	2803	2803	2803	2803	2803	2803	2803	2809	2809	2803	2803	2803	2797	2797	2797
1221	1222	1222	1223	1223	1223	1224	1224	1224	1227	1227	1227	1228	1229	1229	1229	1230	1230	1231	1234	1234	1235	1237	1237	1238	1242	1242	1245	1246	1246	1249	1249	1250	1252	1252	1254	1255	1255	1256	1256	1256	1257	1257	1257	1257	1257	1257	1257	1258	1258	1258	1258	1258	1257	1257	1257	1257	1257	1257	1257	1257	1257	1257	1256	1256	1256	1256	1256	1256	1256	1256	1256	1256	1256	1256	1256	1256	1256	1256	1256	1257	1256	1256	1256	1256	1256	1256	1256	1256	1257	1257	1257	1257	1257	1257	1257	1256	1256	1256	1256	1256	1256	1256	1256	1256	1256	1256	1256	1256	1256	1255	1255	1252	1250	1250	1245	1241	1235	1235	1229	1224	1221	1221	1217	1210	1210	1191	1191	1188	1184	1184	1183	1180	1178	1178	1177	1175	1175	1175	1175	1175	1175	1175	1178	1178	1179	1181	1181	1183	1187	1187	1190	1190	1199	1214	1214	1223	1223	1231	1238	1246	1257	1257	1262	1262	1269	1277	1277	1284	1284	1284	1284	1284	1284	1284	1284	1284	1284	1284	1284	1284	1288	1288	1288	1291	1291	1296	1296	1297	1298	1298	1300	1304	1304	0	0	0	0	0	0	0	0	0	0	0	0	0	1731	1731	1731	1731	1731	1731	1731	1731	1731	1729	1729	1729	1727	1727	1727	1724	1724	1724	1722	1722	1722	1718	1718	1718	1718	1718	1718	1715	1715	1718	1718	1718	1715	1715	1715	1715	1718	1718	1722	1724	1724	1724	1724	1724	1729	1729	1729	0	0	0	0	0	0	0	0	0	0	0	0	0	0	0	0	0	0	0	0	0	0	0	1001	1001	1001	1004	1005	1005	1007	1008	1008	1009	1010	1010	1010	1011	1011	2292	2292	2284	2280	2280	2280	2280	0	0	0	0	0	0	0	0	0	0	0	0	0	2333	2333	2333	2333	2333	2333	2333	2337	2341	2341	2346	2354	2354	2362	2371	2371	2375	2375	2375	2375	2375	2371	2362	2362	2358	2354	2354	2350	2346	2346	2346	2346	2346	2346	2346	2346	2346	2346	2341	2341	2341	2341	2341	2341	0	0	0	0	0	0	0	0	0	0	0	0	0	0	0	0	0	0	0	0	0	0	0	0	0	0	0	0	2346	2346	2341	2337	2337	2337	2333	2333	2333	2329	2329	2325	2316	2316	2316	2316	2321	2321	2316	2316	2316	2316	2325	2325	2329	2329	2329	2333	2337	2337	2341	2341	2341	2346	2346	2346	2346	2346	2346	2346	2346	2346	2346	2346	2346	2346	2341	2341	2341	2337	2337	2337	2337	2337	2337	2333	2333	2329	2329	2329	2329	2325	2325	2325	2321	2316	2316	2312	2304	2304	2296	2284	2284	2276	2264	2253	2253	2241	2237	2237	2226	2222	2222	2222	2218	2215	2215	2211	2211	2211	2211	2211	2211	2207	2207	2207	2207	2207	2207	2207	2207	2207	2207	2207	2207	2207	2207	2207	2207	2203	2203	2203	2203	2203	2203	2203	2203	2203	2203	2207	2207	2207	2207	2207	2207	2207	2211	2211	2211	2218	2218	2218	2226	2226	2233	2233	2245	2257	2257	2304	2304	2341	2388	2388	2465	2465	2493	2493	2546	2561	2607	2644	2644	2660	2660	2682	2715	2715	2744	2755	2779	2803	2803	2815	2821	2821	2827	2827	2827	2827	2827	2821	2821	2821	2815	2815	2815	2815	2809	2809	2809	2803	2797	2797	2791	2791	2791	2785	2785	2785	2785	2785	2791	2791	2791	2797	2797	2803	2803	2803	2809	2809	2809	2809	2815	2815	2815	2815	2815	2809	2809	2809	2809	2809	2809	2809	2809	2809	2809	2809	2803	2803	2803	2803	2803	2803	2803	2803	2803	2803	2797	2797	2797	2797	2797	2797	2797	2797	2797	2797	2809	2809	2809	2815	2815	2815	2815	2821	2821	2821	2821	2821	2821	2821	2821	2821	2821	2821	2827	2827	2827	2821	2821	2821	2821	2821	2821	2815	2815	2815	2809	2809	2809	2809	2809	2803	2803	2803	2803	2803	2803	2803	2797	2797	2803	2803	2797	2797	2797	2797	2797	2797	2797	2803	2797	2797	2797	2791	2785	2785	2785
1216	1217	1217	1219	1220	1220	1221	1222	1222	1223	1224	1224	1224	1225	1225	1227	1228	1228	1228	1229	1229	1230	1231	1231	1235	1237	1237	1238	1241	1241	1243	1245	1245	1249	1250	1250	1251	1252	1252	1254	1255	1255	1256	1256	1256	1256	1256	1256	1256	1256	1256	1256	1256	1256	1255	1255	1255	1255	1255	1254	1254	1254	1252	1252	1251	1251	1251	1251	1251	1251	1251	1251	1251	1251	1251	1251	1251	1252	1252	1252	1252	1252	1252	1252	1251	1251	1252	1252	1252	1252	1252	1252	1254	1254	1254	1255	1255	1256	1256	1256	1256	1256	1256	1256	1256	1256	1256	1256	1256	1256	1255	1255	1252	1250	1250	1245	1241	1235	1235	1229	1224	1221	1221	1217	1210	1210	1191	1191	1188	1184	1184	1183	1180	1178	1178	1177	1175	1175	1175	1175	1175	1175	1175	1178	1178	1179	1181	1181	1183	1187	1187	1190	1190	1199	1214	1214	1223	1223	1231	1246	1246	1257	1257	1262	1262	1269	1277	1277	1284	1284	1284	1284	1284	1284	1284	1284	1284	1284	1284	1284	1284	1288	1288	1288	1291	1291	1296	1296	1297	1298	1298	1300	1305	1305	0	0	0	0	0	0	0	0	0	0	0	0	0	1736	1736	1736	1734	1734	1734	1736	1736	1734	1731	1731	1731	1731	1729	1729	1729	1727	1727	1727	1724	1724	1724	1724	1724	1722	1722	1722	1722	1722	1724	1724	1722	1722	1722	1722	1722	1722	1724	1724	1724	1727	1727	1727	1727	1729	1731	1731	0	0	0	0	0	0	0	0	0	0	0	0	0	0	0	0	0	0	0	0	0	0	1000	1000	1001	1001	1004	1005	1005	1007	1008	1008	1009	1010	1010	1011	1011	1011	1012	2296	2284	2280	2280	2280	0	0	0	0	0	1012	1011	1011	1010	1010	0	0	0	0	0	2333	2333	2333	2333	2333	2333	2337	2341	2341	2346	2354	2354	2362	0	0	2375	2375	2371	2371	2371	2362	2358	2358	2354	2350	2350	2346	2346	2346	2346	2341	2341	2341	2341	2341	2346	2341	2341	2341	2341	2341	2341	2341	0	0	0	0	0	0	0	0	0	0	0	0	0	0	1062	1062	1064	1064	1065	1066	1066	0	0	0	1070	1070	1070	1070	1070	1070	1070	2337	2337	2337	2333	2333	2333	2329	2329	2325	2316	2316	2316	2316	2321	2321	2316	2316	2316	2316	2325	2325	2329	2329	2329	2333	2337	2337	2341	2341	2341	2346	2346	2346	2346	2346	2346	2346	2346	2346	2346	2346	2346	2346	2341	2341	2341	2337	2337	2337	2337	2337	2337	2333	2333	2329	2329	2329	2329	2325	2325	2325	2321	2316	2316	2312	2304	2304	2296	2284	2284	2276	2264	2253	2253	2253	2268	2268	2257	2253	2253	2241	2237	2237	2230	2226	2222	2222	2222	2222	2222	2218	2218	2218	2218	2215	2215	2215	2215	2215	2215	2211	2211	2211	2211	2211	2211	2211	2211	2211	2211	2211	2211	2207	2207	2207	2211	2211	2211	2211	2211	2211	2215	2215	2215	2215	2218	2218	2222	2226	2226	2233	2241	2241	2257	2264	2264	2316	2316	2350	2401	2401	2465	2465	2493	2493	2561	2561	2612	2644	2644	2660	2660	2682	2715	2715	2744	2779	2779	2803	2803	2815	2821	2821	2827	2827	2827	2827	2827	2821	2821	2821	2815	2815	2815	2815	2809	2809	2809	2803	2797	2797	2791	2791	2791	2785	2785	2785	2785	2785	2791	2791	2791	2797	2797	2791	2791	2791	2797	2797	2797	2803	2803	2803	2803	2803	2803	2803	2803	2803	2803	2803	2797	2797	2797	2797	2797	2797	2797	2797	2797	2791	2791	2791	2791	2791	2791	2791	2791	2791	2791	2785	2785	2785	2785	2791	2791	2791	2797	2803	2803	2809	2809	2809	2815	2815	2815	2815	2821	2821	2821	2821	2821	2821	2821	2821	2821	2821	2821	2815	2815	2815	2815	2815	2815	2815	2815	2809	2809	2809	2803	2803	2803	2803	2797	2797	2797	2791	2791	2797	2791	2791	2797	2797	2791	2791	2791	2791	2791	2791	2791	2791	2785	2785	2785	2779	2779	2779	2773
1210	1212	1212	1215	1217	1217	1219	1220	1220	1221	1222	1222	1223	1224	1224	1224	1224	1224	1225	1227	1227	1228	1229	1229	1230	1231	1231	1234	1237	1237	1238	1241	1241	1243	1245	1245	1246	1249	1249	1250	1251	1251	1252	1252	1252	1254	1254	1254	1254	1254	1254	1254	1254	1252	1252	1252	1251	1251	1251	1251	1251	1251	1250	1250	1249	1249	1246	1246	1249	1246	1246	1246	1246	1246	1246	1246	1246	1249	1249	1249	1250	1249	1249	1250	1250	1249	1249	1249	1250	1250	1249	1249	1249	1250	1250	1250	1251	1251	1251	1251	1251	1251	1251	1251	1251	1251	1250	1249	1249	1246	1245	1241	1241	1237	1231	1231	1227	1224	1222	1222	1219	1214	1206	1206	1206	1190	1187	1187	1183	1180	1180	1178	1174	1172	1172	1171	1170	1170	1170	1168	1168	1168	1170	1171	1171	1172	1177	1177	1180	1184	1184	1188	1190	1195	1210	1210	1221	1221	1229	1243	1243	1255	1255	1260	1260	1266	1272	1272	1277	1277	1277	1277	1277	1277	1277	1277	1277	1277	1279	1279	1279	1282	1282	1282	1288	1288	1295	1295	1296	1298	1298	1300	1305	1305	0	0	0	0	0	0	0	0	0	0	0	0	0	1736	1736	1736	1734	1734	1734	1738	1738	1736	1736	1736	1736	1736	1734	1734	1731	1731	1731	1729	1729	1729	1727	1727	1727	1727	1727	1727	1727	1727	1727	1727	1724	1724	1724	1727	1727	1727	1727	1727	1727	1729	1729	1729	1729	1731	1731	0	0	0	0	0	0	0	0	0	0	0	0	0	0	0	0	0	0	0	0	0	0	0	1000	1000	1002	1002	1004	1005	1005	1007	1008	1008	1009	1010	1010	1011	1011	1011	1012	0	0	0	0	0	0	0	0	0	0	1012	1011	1011	1010	1010	0	0	0	0	0	0	0	0	0	0	0	0	0	0	0	0	0	0	0	0	0	0	2371	2358	2358	2350	2350	2350	2346	2346	2346	2341	2337	2337	2346	2341	2341	2341	2341	2337	2337	2337	2337	2341	2341	0	0	0	0	0	0	0	0	0	1050	1050	1053	1053	1056	1059	1059	1061	1061	1061	1062	1062	1064	1065	1065	1066	1068	1068	1068	1068	1068	1068	1069	1069	1069	1069	1069	0	0	0	0	0	0	0	0	0	0	0	0	0	0	0	0	0	0	0	2337	2337	2337	2346	2346	2346	2350	2354	2354	2354	2362	2362	2367	2367	2367	2367	2371	2371	2367	2367	2367	2367	2367	2367	2362	2358	2358	2358	2354	2354	2350	2350	2350	2346	2346	2346	2341	2341	2341	2337	2337	2337	2333	2333	2333	2329	2325	2321	2321	2312	2304	2304	2292	2280	2268	2268	2257	2253	2253	2241	2237	2237	2230	2226	2222	2222	2222	2222	2222	2218	2218	2218	2218	2215	2215	2215	2215	2215	2215	2211	2211	2211	2211	2211	2211	2211	2211	2211	2211	2211	2211	2207	2207	2207	2211	2211	2211	2211	2211	2211	2215	2215	2215	2215	2218	2218	2222	2226	2226	2233	2241	2241	2257	2264	2264	2316	2316	2350	2401	2401	2465	2465	2493	2493	2561	2561	2612	2639	2639	2660	2660	2682	2704	2704	2738	2773	2773	2797	2797	2809	2821	2821	2821	2821	2821	2821	2821	2821	2815	2815	2815	2809	2809	2809	2803	2803	2797	2791	2791	2791	2779	2779	2779	2773	2773	2779	2779	2779	2779	2779	2779	2785	2785	2791	2791	2791	2797	2797	2797	2803	2803	2803	2803	2803	2803	2803	2803	2803	2803	2803	2797	2797	2797	2797	2797	2797	2797	2797	2797	2791	2791	2791	2791	2791	2791	2791	2791	2791	2791	2785	2785	2785	2785	2791	2791	2791	2797	2803	2803	2809	2809	2809	2815	2815	2815	2815	2821	2821	2821	2821	2821	2821	2821	2821	2821	2821	2821	2815	2815	2815	2815	2815	2815	2815	2815	2809	2809	2809	2803	2803	2803	2803	2797	2797	2797	2791	2791	2797	2791	2791	2797	2797	2791	2791	2791	2791	2791	2791	2791	2791	2785	2785	2785	2779	2779	2779	2773
1210	1212	1212	1215	1217	1217	1219	1220	1220	1221	1222	1222	1223	1224	1224	1224	1224	1224	1225	1227	1227	1228	1229	1229	1230	1231	1231	1234	1237	1237	1238	1241	1241	1243	1245	1245	1246	1249	1249	1250	1251	1251	1252	1252	1252	1254	1254	1254	1254	1254	1254	1254	1254	1252	1252	1252	1251	1251	1251	1251	1251	1251	1250	1250	1249	1249	1246	1246	1249	1246	1246	1246	1246	1246	1246	1246	1246	1249	1249	1249	1250	1249	1249	1250	1250	1245	1245	1245	1245	1245	1245	1245	1245	1246	1246	1246	1246	1246	1246	1246	1246	1245	1245	1245	1243	1243	1242	1238	1235	1235	1231	1228	1228	1224	1223	1220	1220	1219	1214	1214	1208	1204	1195	1190	1190	1186	1183	1183	1179	1175	1172	1172	1170	1168	1168	1166	1164	1164	1164	1164	1164	1164	1164	1166	1170	1170	1174	1174	1178	1183	1183	1188	1194	1194	1208	1208	1220	1220	1227	1241	1241	1251	1251	1257	1257	1262	1266	1266	1269	1269	1269	1269	1269	1269	1269	1269	1269	1272	1273	1273	1273	1277	1277	1279	1284	1284	1291	1295	1295	0	0	1306	1306	1306	0	0	0	0	0	0	0	0	0	0	0	0	0	1738	1738	1738	1738	1738	1738	1738	1738	1736	1736	1736	1736	1736	1734	1734	1731	1731	1731	1729	1729	1729	1727	1727	1727	1727	1727	1727	1727	1727	1727	1727	1724	1724	1724	1727	1727	1727	1727	1727	1727	1729	1729	1729	1729	1731	1731	0	0	0	0	0	0	0	0	0	0	0	0	0	0	0	0	0	0	0	0	998	998	999	999	1000	1002	1002	1004	1005	1005	1007	1008	1008	1009	1010	1010	1011	1011	1011	1012	1013	1013	0	0	0	0	0	0	1012	1012	1011	1010	1010	1009	1008	1008	0	0	0	0	0	0	0	0	0	0	0	0	0	0	0	0	0	0	0	0	0	0	2358	2358	2350	2350	2350	2346	2346	2346	2341	2337	2337	0	0	0	0	0	2337	2337	2337	2337	0	0	0	0	0	0	0	0	0	0	0	1050	1050	1053	1053	1056	1059	1059	1061	1061	1061	1062	1062	1064	1065	1065	1066	1068	1068	1068	1068	1068	1068	1069	1069	1069	1069	1069	0	0	0	0	0	0	0	0	0	0	0	0	0	0	0	0	0	0	0	0	0	2350	2350	2354	2354	2362	2367	2367	2371	2384	2384	2388	2397	2397	2401	2410	2410	2410	2415	2415	2415	2415	2410	2401	2401	2397	2397	2397	2388	2384	2375	2375	2371	2367	2367	2362	2358	2358	2354	2354	2354	2350	2350	2350	2346	2341	2341	2337	2333	2329	2329	2325	2321	2321	2312	2304	2304	2292	2284	2276	2276	2268	2264	2264	2253	2253	2253	2245	2241	2241	2237	2233	2230	2230	2230	2230	2230	2226	2222	2222	2222	2222	2222	2222	2218	2218	2218	2222	2222	2222	2222	2222	2218	2218	2218	2218	2222	2222	2222	2222	2222	2222	2222	2226	2226	2233	2241	2241	2257	2276	2276	2292	2304	2304	2337	2337	2371	2410	2442	2465	2479	2507	2507	2566	2566	2612	2639	2639	2655	2655	2676	2687	2687	2721	2755	2755	2785	2785	2803	2809	2809	2815	2815	2815	2815	2815	2809	2809	2809	2803	2797	2797	2791	2785	2779	2779	2779	2773	2773	2761	2755	2755	2755	2755	2755	2755	2755	2755	2755	2761	2761	2761	2773	2773	2773	2779	2779	2779	2785	2785	2785	2785	2785	2785	2785	2785	2785	2785	2785	2785	2785	2785	2779	2779	2779	2779	2779	2779	2779	2785	2785	2785	2785	2779	2779	2779	2779	2779	2779	2773	2773	2773	2779	2779	2779	2785	2797	2797	2797	2809	2809	2809	2809	2809	2815	2815	2815	2815	2815	2815	2815	2815	2815	2815	2815	2815	2815	2815	2815	2809	2809	2809	2809	2809	2803	2797	2797	2797	2791	2791	2791	2785	2785	2785	2785	2785	2785	2785	2785	2785	2785	2785	2785	2779	2779	2779	2773	2773	2779	2773	2773	2773	2761	2755	2755	2755
1204	1208	1212	1212	1214	1214	1216	1219	1219	1220	1220	1220	1221	1222	1222	1223	1223	1223	1224	1224	1224	1225	1227	1227	1227	1228	1228	1229	1231	1231	1234	1235	1235	1237	1241	1241	1242	1243	1243	1245	1246	1246	1249	1249	1249	1250	1250	1250	1250	1250	1250	1250	1250	1250	1250	1250	1250	1249	1246	1246	1246	1246	1246	1245	1245	1245	1245	1243	1243	1243	1243	1243	1243	1243	1243	1243	1243	1245	1245	1245	1245	1245	1245	1245	1245	1245	1245	1245	1245	1245	1245	1245	1245	1246	1246	1246	1246	1246	1246	1246	1246	1245	1245	1245	1243	1243	1242	1238	1235	1235	1231	1228	1228	1224	1223	1220	1220	1219	1214	1214	1208	1204	1195	1190	1190	1186	1183	1183	1179	1175	1172	1172	1170	1168	1168	1166	1164	1164	1164	1164	1164	1164	1164	1166	1170	1170	1174	1174	1178	1183	1183	1188	1194	1194	1208	1208	1220	1220	1227	1241	1241	1251	1251	1257	1257	1262	1266	1266	1269	1269	1269	1269	1269	1269	1269	1269	1269	1272	1273	1273	1273	1277	1277	1279	1284	1284	1291	1295	1295	0	0	0	0	0	0	0	0	0	0	0	0	0	0	0	0	0	0	1743	1743	1740	1740	1740	1740	1740	1740	1740	1738	1738	1738	1738	1738	1736	1736	1736	1736	1734	1731	1731	1731	1729	1729	1729	1729	1729	1729	1729	1729	1729	1729	1729	1729	1727	1727	1727	1727	1729	1729	1729	1731	1731	1731	1731	1731	0	0	0	0	0	0	0	0	0	0	0	0	0	0	0	0	0	995	995	996	996	997	998	998	1000	1002	1002	1004	1006	1006	1007	1008	1008	1009	1010	1010	1011	1011	1011	1012	1013	1013	1014	1015	1015	1014	1014	1013	1011	1011	1011	1009	1008	1008	1008	1006	1006	1004	1004	0	0	0	0	0	0	0	0	0	0	0	0	0	0	0	0	0	0	0	2358	2358	2346	2341	2341	2337	2337	2333	2333	2333	2333	0	0	0	0	0	2337	2337	2337	2337	0	0	0	0	0	0	1045	1045	1045	1048	1048	1048	1050	1053	1053	1054	1058	1058	1060	1061	1061	1061	1062	1062	1064	1064	1065	1066	1066	1067	1067	1067	1067	1068	1068	1068	1068	1068	1068	1067	1067	1067	0	0	0	0	0	0	0	0	0	0	0	0	0	0	0	0	0	2350	2350	2354	2354	2362	2367	2367	2371	2384	2384	2388	2397	2397	2401	2410	2410	2410	2415	2415	2415	2415	2410	2401	2401	2397	2397	2397	2388	2384	2375	2375	2371	2367	2367	2362	2358	2358	2354	2354	2354	2354	2375	2375	2367	2362	2362	2358	2350	2350	2350	2346	2337	2337	2333	2329	2329	2329	2321	2321	2316	2308	2308	2304	2292	2292	2292	2280	2276	2276	2268	2264	2264	2264	2257	2257	2253	2245	2245	2245	2241	2241	2241	2237	2237	2237	2237	2237	2237	2233	2233	2233	2233	2233	2233	2233	2233	2233	2233	2233	2233	2233	2237	2241	2241	2253	2264	2264	2280	2304	2304	2316	2316	2329	2354	2354	2410	2410	2465	2465	2488	2517	2517	2571	2571	2618	2639	2639	2655	2655	2676	2687	2687	2721	2755	2755	2785	2785	2803	2809	2809	2815	2815	2815	2815	2815	2809	2809	2809	2803	2797	2797	2791	2785	2779	2779	2779	2773	2773	2761	2755	2755	2755	2738	2738	2732	2732	2738	2738	2738	2738	2738	2744	2744	2744	2755	2755	2755	2755	2755	2755	2761	2761	2761	2761	2761	2761	2761	2761	2761	2761	2761	2761	2761	2761	2773	2761	2761	2761	2761	2761	2761	2761	2761	2761	2755	2755	2755	2755	2755	2755	2755	2755	2755	2755	2761	2779	2779	2779	2791	2791	2797	2803	2803	2809	2809	2809	2809	2809	2803	2803	2809	2809	2809	2809	2809	2809	2809	2809	2803	2803	2803	2803	2803	2791	2785	2785	2779	2779	2773	2773	2773	2773	2773	2773	2761	2761	2761	2773	2773	2761	2761	2761	2761	2761	2761	2755	2755	2755	2755	2744	2744	2744	2738	2738	2738
1199	1202	1206	1206	1210	1213	1213	1215	1215	1217	1219	1219	1220	1221	1221	1221	1222	1222	1223	1223	1223	1223	1223	1223	1224	1224	1225	1225	1227	1227	1228	1229	1229	1230	1234	1234	1235	1237	1237	1238	1242	1242	1243	1245	1245	1245	1246	1246	1246	1246	1246	1246	1246	1246	1246	1246	1246	1245	1245	1245	1243	1242	1242	1242	1241	1241	1241	1241	1241	1238	1235	1235	1235	1235	1234	1234	1234	1234	1234	1231	1229	1229	1229	1229	1229	1229	1230	1230	1230	1230	1230	1230	1230	1231	1231	1231	1231	1231	1231	1231	1231	1231	1231	1231	1229	1228	1228	1225	1224	1224	1223	1221	1220	1220	1217	1214	1214	1208	1204	1195	1195	1192	1189	1186	1186	1183	1179	1179	1177	1172	1168	1168	1168	1164	1164	1164	1163	1163	1163	1163	1163	1164	1164	1166	1168	1168	1172	1172	1178	1183	1183	1188	1194	1194	1208	1208	1220	1220	1227	1238	1238	1250	1250	1256	1256	1260	1262	1262	1265	1265	1265	1265	1265	1265	1265	1265	1265	1266	1267	1267	1268	1272	1272	1273	1279	1279	1291	1295	1295	0	0	0	0	0	0	0	0	0	0	0	0	0	0	0	0	0	0	1743	1743	1743	1743	1743	1743	1743	1743	1743	1743	1743	1740	1740	1740	1740	1738	1736	1736	1736	1736	1736	1734	1734	1734	1731	1729	1729	1729	1731	1731	1731	1729	1729	1729	1729	1729	1729	1729	1729	1729	1731	1731	1731	1731	0	0	0	0	0	0	0	0	0	0	0	0	0	0	0	0	0	0	0	995	995	996	996	997	998	998	1001	1002	1002	1004	1006	1006	1007	1008	1008	1009	1010	1010	1011	1012	1012	1013	1013	1013	1014	1015	1015	1014	1014	1013	1011	1011	1011	1009	1008	1008	1008	1006	1006	1004	1004	0	0	0	0	0	0	0	0	0	0	0	0	0	0	0	0	0	0	0	0	0	2346	2341	2341	2337	2337	2333	2333	2333	2333	0	0	0	0	0	0	0	0	1022	1022	1022	0	0	0	1043	1043	1045	1045	1048	1048	1048	1050	1051	1051	1054	1057	1057	1059	1061	1061	1061	1062	1062	1062	1064	1064	1065	1065	1065	1065	1065	1067	1067	1067	1067	1066	1066	1066	1066	1066	1065	1065	0	0	0	0	0	0	0	0	0	0	0	0	0	0	0	0	0	0	0	2371	2371	2384	2384	2397	2410	2410	2415	2415	2428	2433	2433	2442	2446	2446	2451	2451	2451	2446	2446	2446	2442	2433	2433	2428	2419	2419	2415	2410	2410	2401	2397	2397	2397	2388	2384	2384	2384	2375	2375	2367	2362	2362	2358	2350	2350	2350	2346	2337	2337	2333	2329	2329	2329	2321	2321	2316	2308	2308	2304	2292	2292	2292	2280	2276	2276	2268	2264	2264	2264	2257	2257	2253	2245	2245	2245	2241	2241	2241	2237	2237	2237	2237	2237	2237	2233	2233	2233	2233	2233	2233	2233	2233	2233	2233	2233	2233	2233	2237	2241	2241	2253	2264	2264	2280	2304	2304	2316	2316	2329	2354	2354	2410	2410	2465	2465	2488	2517	2517	2571	2571	2618	2639	2639	2655	2655	2666	2682	2682	2715	2732	2732	2761	2761	2785	2797	2797	2797	2803	2803	2803	2803	2803	2797	2797	2791	2779	2779	2779	2761	2761	2761	2755	2744	2744	2744	2738	2738	2732	2732	2738	2732	2732	2738	2738	2738	2738	2738	2744	2744	2744	2755	2755	2755	2755	2755	2755	2761	2761	2761	2761	2761	2761	2761	2761	2761	2761	2761	2761	2761	2761	2773	2761	2761	2761	2761	2761	2761	2761	2761	2761	2755	2755	2755	2755	2755	2755	2755	2755	2755	2755	2761	2779	2779	2779	2791	2791	2797	2803	2803	2809	2809	2809	2809	2809	2803	2803	2809	2809	2809	2809	2809	2809	2809	2809	2803	2803	2803	2803	2803	2791	2785	2785	2779	2779	2773	2773	2773	2773	2773	2773	2761	2761	2761	2773	2773	2761	2761	2761	2761	2761	2761	2755	2755	2755	2755	2744	2744	2744	2738	2738	2738
1199	1202	1206	1206	1210	1213	1213	1215	1215	1217	1219	1219	1220	1221	1221	1221	1222	1222	1223	1223	1223	1223	1223	1223	1224	1224	1225	1225	1227	1227	1228	1229	1229	1230	1234	1234	1235	1237	1237	1238	1242	1242	1243	1245	1245	1245	1246	1246	1246	1246	1246	1246	1246	1246	1246	1246	1246	1245	1245	1245	1243	1242	1242	1242	1241	1241	1241	1241	1241	1238	1235	1235	1235	1223	1223	1223	1223	1223	1223	1222	1221	1221	1221	1221	1222	1222	1222	1222	1222	1222	1222	1223	1223	1223	1223	1223	1223	1223	1223	1223	1223	1223	1222	1222	1221	1221	1221	1220	1219	1216	1216	1214	1212	1212	1206	1202	1197	1197	1193	1189	1188	1188	1186	1183	1183	1179	1177	1174	1174	1168	1168	1168	1164	1163	1163	1163	1163	1163	1163	1163	1163	1164	1164	1166	1166	1168	1172	1172	1178	1183	1183	1188	1189	1195	1210	1210	1220	1220	1224	1235	1235	1246	1246	1254	1256	1257	1260	1260	1261	1261	1261	1261	1261	1261	1261	1261	1262	1262	1263	1263	1263	1267	1267	1268	1272	1272	0	0	0	0	0	0	0	0	0	0	0	0	0	0	0	0	0	0	0	0	0	1743	1743	1743	1743	1743	1743	1743	1743	1743	1743	1743	1740	1740	1740	1740	1738	1736	1736	1736	1736	1736	1734	1734	1734	1731	1729	1729	1729	1731	1731	1731	1729	1729	1729	1729	1729	1729	1729	1729	1729	1731	1731	1731	1731	0	0	0	0	0	0	0	0	0	0	0	0	0	0	0	991	991	991	992	995	995	995	996	997	998	998	1001	1001	1001	1004	1006	1006	1007	1008	1008	1009	1010	1010	1011	1012	1012	1012	1013	1013	1014	1015	1015	1014	1014	1012	1011	1011	1010	1009	1008	1008	1006	1005	1005	1002	1000	1000	1000	0	0	0	0	0	0	0	0	0	0	0	0	0	0	0	0	0	0	0	0	0	0	0	0	0	0	0	0	0	0	0	0	0	0	0	0	1022	1022	1022	0	0	0	1043	1043	1045	1045	1048	1048	1048	1050	1051	1051	1054	1057	1057	1059	1061	1061	1061	1062	1062	1062	1064	1064	1065	1065	1065	1065	1065	1067	1067	1067	1067	1066	1066	1066	1066	1066	1065	1065	0	0	0	0	0	0	0	0	0	0	0	0	0	0	0	0	0	0	0	0	2397	2397	2397	2415	2415	2433	2442	2442	2451	2456	2456	2465	2465	2465	2469	2469	2469	2469	2469	2469	2465	2465	2465	2460	2460	2456	2451	2446	2446	2442	2442	2442	2433	2428	2428	2428	2419	2419	2415	2410	2410	2401	2397	2388	2388	2375	2371	2371	2362	2358	2358	2350	2346	2341	2341	2337	2333	2333	2329	2329	2329	2325	2316	2316	2312	2308	2308	2304	2296	2292	2292	2284	2280	2280	2280	2276	2276	2276	2268	2268	2264	2264	2264	2264	2264	2264	2264	2257	2257	2257	2257	2257	2257	2257	2257	2257	2257	2264	2268	2268	2280	2296	2296	2312	2312	2329	2337	2337	2350	2375	2384	2446	2446	2474	2474	2536	2536	2536	2581	2581	2618	2639	2639	2649	2649	2660	2671	2671	2687	2715	2715	2738	2755	2755	2773	2773	2773	2779	2779	2779	2779	2779	2779	2773	2773	2755	2744	2744	2738	2738	2738	2732	2721	2721	2721	2715	2704	2704	2704	2715	2715	2715	2715	2715	2715	2721	2721	2732	2732	2732	2732	2732	2738	2738	2738	2738	2738	2738	2738	2738	2738	2738	2738	2744	2744	2744	2744	2744	2744	2744	2744	2738	2738	2744	2744	2738	2738	2738	2738	2738	2738	2732	2732	2721	2721	2721	2721	2721	2732	2732	2738	2744	2744	2755	2761	2761	2773	2785	2785	2785	2791	2791	2791	2791	2785	2785	2791	2785	2785	2785	2785	2779	2779	2779	2773	2773	2773	2761	2755	2755	2744	2738	2738	2738	2738	2738	2738	2738	2744	2738	2738	2744	2744	2744	2744	2738	2738	2744	2738	2738	2738	2738	2732	2732	2732	2721	2721	2721	2721	2715	2715
1194	1199	1202	1202	1205	1208	1208	1212	1215	1215	1216	1216	1219	1220	1220	1220	1221	1221	1221	1222	1222	1222	1223	1223	1223	1223	1223	1223	1224	1224	1224	1225	1227	1227	1229	1230	1230	1234	1234	1235	1238	1238	1238	1241	1241	1241	1242	1242	1241	1241	1241	1241	1241	1241	1241	1241	1241	1238	1238	1238	1237	1235	1235	1231	1231	1230	1230	1229	1227	1227	1224	1224	1224	1223	1223	1223	1223	1223	1223	1222	1221	1221	1221	1221	1222	1222	1222	1222	1222	1222	1222	1223	1223	1223	1223	1223	1223	1223	1223	1223	1223	1223	1222	1222	1221	1221	1221	1220	1219	1216	1216	1214	1212	1212	1206	1202	1197	1197	1193	1189	1188	1188	1186	1183	1183	1179	1177	1174	1174	1168	1168	1168	1164	1163	1163	1163	1163	1163	1163	1163	1163	1164	1164	1166	1166	1170	1174	1174	1179	1183	1183	1189	1189	1195	1210	1210	1220	1220	1224	1235	1235	1246	1246	1254	1257	1257	1260	1260	1261	1261	1261	1261	1261	1261	1261	1261	1262	1262	1263	1263	1263	1267	1267	1268	1272	1272	0	0	0	0	0	0	0	0	0	0	0	0	0	0	0	0	0	0	0	0	0	1745	1745	1745	1747	1747	1747	1747	1747	1745	1745	1745	1745	1745	1745	1740	1740	1740	1738	1736	1736	1736	1734	1734	1734	1734	1734	1734	1734	1731	1731	1729	1729	1729	1729	1729	1731	1731	1731	1731	1731	0	0	0	0	0	0	0	0	0	0	0	0	0	0	0	987	987	988	988	989	990	990	992	995	995	995	996	997	999	999	1000	1001	1001	1004	1006	1006	1008	1008	1008	1009	1010	1010	1011	1012	1012	1012	1014	1014	1014	1014	1014	1012	1012	1011	1010	1010	1009	1008	1007	1007	1004	1004	1004	1000	999	999	999	0	0	0	0	0	0	0	0	0	0	0	0	0	0	0	0	0	0	0	0	0	0	0	0	0	0	0	0	0	989	989	989	0	0	0	0	1022	1022	1022	0	1037	1037	1043	1043	1045	1045	1048	1048	1048	1050	1051	1051	1054	1055	1055	1058	1060	1060	1061	1061	1061	1062	1063	1063	1064	1064	1065	1065	1065	1065	1065	1065	1065	1066	1066	1065	1065	1065	1065	1064	1064	1064	1064	0	0	0	0	0	0	0	0	0	0	0	0	0	0	0	0	0	2397	2397	2397	2415	2415	2433	2442	2442	2451	2456	2456	2465	2465	2465	2469	2469	2469	2469	2469	2469	2465	2465	2465	2460	2460	2456	2456	2469	2469	2469	2469	2469	2465	2460	2460	2460	2460	2460	2456	2451	2451	2446	2442	2442	2433	2428	2428	2415	2410	2397	2397	2384	2371	2371	2367	2358	2350	2350	2346	2341	2341	2341	2337	2337	2333	2329	2329	2329	2325	2325	2321	2316	2316	2312	2312	2308	2308	2304	2304	2304	2296	2296	2296	2296	2292	2292	2292	2292	2292	2284	2284	2284	2284	2284	2284	2284	2284	2292	2292	2304	2312	2312	2329	2333	2333	2346	2354	2354	2375	2375	2428	2469	2469	2488	2488	0	2551	2551	2587	2587	2618	2639	2639	2649	2649	2660	2671	2671	2687	2715	2715	2738	2755	2755	2773	2773	2773	2779	2779	2779	2779	2779	2779	2773	2773	2755	2744	2744	2738	2715	2715	2704	2699	2699	2699	2687	2687	2687	2687	2687	2687	2687	2687	2699	2699	2699	2699	2699	2704	2704	2704	2704	2704	2704	2704	2715	2715	2715	2715	2715	2715	2721	2721	2721	2721	2721	2721	2721	2721	2721	2732	2732	2721	2721	2721	2721	2721	2715	2715	2715	2715	2704	2704	2704	2699	2699	2699	2699	2699	2704	2704	2715	2715	2721	2732	2732	2744	2755	2755	2761	2761	2761	2761	2761	2761	2761	2761	2755	2755	2744	2744	2738	2738	2738	2732	2721	2721	2721	2715	2715	2715	2704	2704	2704	2715	2715	2715	2715	2715	2715	2715	2721	2721	2721	2721	2721	2721	2721	2715	2715	2715	2715	2715	2704	2704	2704	2699	2699	2699	2699	2699
1189	1191	1194	1194	1197	1202	1202	1206	1210	1210	1214	1215	1215	1216	1217	1217	1219	1219	1220	1220	1220	1220	1220	1221	1221	1221	1221	1221	1221	1222	1222	1223	1224	1224	1224	1227	1227	1228	1229	1229	1230	1230	1230	1230	1230	1230	1230	1230	1230	1229	1229	1229	1229	1229	1229	1229	1230	1229	1229	1229	1229	1227	1224	1224	1224	1223	1223	1222	1221	1221	1220	1219	1219	1217	1216	1216	1216	1215	1214	1214	1214	1214	1214	1214	1214	1215	1215	1215	1215	1215	1215	1215	1215	1216	1216	1216	1217	1217	1217	1216	1216	1216	1215	1214	1214	1213	1212	1212	1206	1204	1201	1201	1197	1194	1194	1191	1189	1189	1188	1186	1184	1184	1183	1180	1180	1178	1174	1171	1171	1168	1166	1166	1164	1163	1163	1163	1163	1163	1163	1163	1163	1164	1164	1166	1166	1170	1174	1174	1179	1183	1183	1189	1189	1195	1210	1210	1220	1220	1224	1234	1234	1245	1245	1252	1256	1256	1257	1257	1258	1258	1258	1258	1258	1258	1258	1258	1260	1260	1261	1261	1261	1263	1265	1265	1267	1272	1272	1276	1276	1281	0	0	0	0	0	0	0	0	0	0	0	0	0	0	0	0	0	0	0	0	1750	1750	1750	1750	1750	1750	1747	1747	1747	1747	1747	1745	1743	1743	1740	1738	1736	1736	1736	1734	1734	1734	1734	1734	1734	1731	1731	1729	1729	1729	1729	1729	1731	1731	0	0	0	0	0	0	0	0	0	0	0	0	0	0	0	0	0	0	987	987	988	988	989	990	990	992	995	995	996	996	997	999	999	1000	1002	1002	1004	1006	1006	1008	1008	1008	1009	1011	1011	1011	1012	1012	1012	1014	1014	1014	1014	1014	1012	1012	1011	1010	1010	1009	1008	1007	1007	1004	1004	1004	1000	999	999	999	0	0	0	0	0	0	0	0	0	0	0	0	0	0	0	0	0	0	0	0	0	0	0	0	0	0	988	988	988	988	989	989	998	998	1008	1012	1012	0	1034	1034	1034	1037	1043	1043	1045	1045	1048	1048	1048	1050	1050	1050	1050	1054	1054	1055	1057	1057	1059	1061	1061	1061	1062	1062	1062	1063	1063	1064	1064	1064	1064	1065	1065	1064	1064	1064	1064	1064	1064	1063	1063	1063	1062	1062	1062	0	0	0	0	0	0	0	0	0	0	0	0	0	0	0	0	0	0	0	2446	2446	2456	2456	2465	2469	2469	2474	2474	2474	2479	2479	2479	2479	2479	2479	2479	2479	2479	2474	2474	2474	2469	2469	2469	2469	2469	2469	2465	2460	2460	2460	2460	2460	2456	2451	2451	2446	2442	2442	2433	2428	2428	2415	2410	2397	2397	2384	2371	2371	2367	2358	2350	2350	2346	2341	2341	2341	2337	2337	2333	2329	2329	2329	2325	2325	2321	2316	2316	2312	2312	2308	2308	2304	2304	2304	2296	2296	2296	2296	2292	2292	2292	2292	2292	2284	2284	2284	2284	2284	2284	2284	2284	2292	2292	2304	2312	2312	2329	2333	2333	2346	2354	2354	2375	2375	2428	2465	2469	2488	2488	2536	2536	2551	2587	2587	2618	2633	2633	2644	2644	2655	2655	2655	2666	2676	2676	2699	2715	2715	2732	2738	2738	2744	2755	2755	2755	2755	2744	2744	2744	2738	2732	2732	2721	2715	2715	2704	2699	2699	2699	2687	2687	2687	2687	2687	2687	2687	2687	2699	2699	2699	2699	2699	2704	2704	2704	2704	2704	2704	2704	2715	2715	2715	2715	2715	2715	2721	2721	2721	2721	2721	2721	2721	2721	2721	2732	2732	2721	2721	2721	2721	2721	2715	2715	2715	2715	2704	2704	2704	2699	2699	2699	2699	2699	2704	2704	2715	2715	2721	2732	2732	2744	2755	2755	2761	2761	2761	2761	2761	2761	2761	2761	2755	2755	2744	2744	2738	2738	2738	2732	2721	2721	2721	2715	2715	2715	2704	2704	2704	2715	2715	2715	2715	2715	2715	2715	2721	2721	2721	2721	2721	2721	2721	2715	2715	2715	2715	2715	2704	2704	2704	2699	2699	2699	2699	2699
1189	1191	1194	1194	1197	1202	1202	1206	1210	1210	1214	1215	1215	1216	1217	1217	1219	1219	1220	1220	1220	1220	1220	1221	1221	1221	1221	1221	1221	1222	1222	1223	1224	1224	1224	1227	1227	1228	1229	1229	1230	1230	1230	1230	1230	1230	1230	1230	1230	1229	1229	1229	1229	1229	1229	1229	1230	1229	1229	1229	1229	1227	1219	1219	1217	1215	1215	1214	1212	1208	1208	1206	1204	1204	1202	1201	1201	1201	1199	1199	1199	1199	1201	1201	1201	1201	1201	1201	1201	1201	1201	1202	1202	1202	1202	1204	1204	1202	1202	1202	1201	1201	1201	1199	1199	1199	1195	1194	1194	1192	1190	1190	1189	1188	1188	1186	1184	1184	1184	1183	1181	1181	1180	1178	1178	1175	1171	1170	1170	1166	1164	1164	1163	1163	1163	1163	1163	1163	1163	1163	1164	1164	1164	1166	1166	1171	1175	1175	1180	1184	1184	1189	1189	1197	1212	1212	1220	1220	1224	1234	1234	1245	1245	1252	1255	1255	1256	1256	1256	1256	1257	1256	1256	1257	1257	1257	1257	1257	1258	1260	1260	1262	1262	1262	1265	1268	1268	1269	1276	1276	1279	1279	1281	0	0	0	0	0	0	0	0	0	0	0	0	0	0	0	0	0	1750	1750	1750	1750	1750	1750	1747	1747	1747	1747	1747	1745	1743	1743	1740	1738	1736	1736	1736	1734	1734	1734	1734	1734	1734	1731	1731	1729	1729	1729	1729	1729	1731	1731	0	0	0	0	0	0	0	0	0	0	0	0	0	986	986	986	986	986	986	987	987	987	989	990	990	992	994	994	996	996	997	999	999	1000	1002	1002	1004	1006	1006	1008	1008	1008	1009	1010	1010	1011	1011	1011	1012	1013	1013	1014	1014	1013	1012	1012	1011	1009	1009	1008	1007	1004	1004	1001	1000	1000	998	997	996	996	996	0	0	0	0	0	0	0	0	0	0	0	0	0	0	0	0	0	0	0	0	0	0	0	0	0	988	988	988	988	989	989	998	998	1008	1012	1012	0	1034	1034	1034	1038	1045	1045	1047	1047	1048	1048	1048	1050	1050	1050	1050	1054	1054	1055	1057	1057	1059	1061	1061	1061	1062	1062	1062	1063	1063	1064	1064	1064	1064	1065	1065	1064	1064	1064	1064	1064	1064	1063	1063	1063	1062	1062	1062	0	0	0	0	0	0	0	0	0	0	0	0	0	0	0	0	0	0	0	0	2469	2469	2469	2474	2479	2479	2479	2488	2488	2488	2488	2488	2493	2493	2488	2488	2488	2488	2488	2488	2483	2483	2483	2479	2479	2479	2479	2474	2474	2474	2474	2474	2474	2474	2474	2474	2469	2469	2469	2469	2465	2465	2456	2451	2451	2442	2428	2419	2419	2410	2397	2397	2388	2375	2375	2367	2362	2354	2354	2350	2346	2346	2341	2337	2337	2337	2333	2333	2333	2329	2329	2329	2329	2329	2325	2321	2321	2321	2321	2321	2321	2321	2321	2321	2321	2316	2316	2316	2321	2321	2321	2321	2325	2325	2329	2333	2333	2346	2354	2354	2371	2371	2397	2428	2428	2465	2465	2483	2502	2502	2536	2536	2566	2597	2597	2618	2633	2633	2644	2644	2649	2655	2655	2655	2666	2666	2676	2682	2682	2699	2704	2704	2715	2721	2721	2721	2721	2721	2721	2721	2715	2704	2704	2704	2699	2687	2687	2687	2682	2682	2676	2676	2682	2676	2676	2676	2676	2676	2682	2682	2682	2682	2682	2682	2687	2687	2687	2687	2687	2687	2687	2687	2687	2699	2699	2699	2704	2704	2704	2704	2704	2704	2704	2704	2704	2704	2704	2704	2704	2704	2699	2699	2687	2687	2682	2682	2676	2676	2676	2676	2676	2676	2676	2676	2676	2676	2682	2687	2687	2699	2715	2715	2721	2721	2732	2738	2738	2738	2732	2732	2721	2721	2721	2715	2704	2704	2699	2687	2687	2682	2682	2682	2676	2671	2671	2671	2671	2671	2671	2676	2682	2682	2682	2687	2687	2687	2699	2699	2699	2699	2699	2699	2687	2687	2687	2687	2687	2682	2682	2682	2676	2676	2676	2676	2671	2671
1187	1187	1188	1190	1190	1192	1197	1197	1201	1201	1205	1206	1206	1210	1213	1213	1214	1215	1215	1216	1216	1216	1216	1217	1217	1219	1219	1219	1219	1220	1220	1220	1221	1221	1221	1221	1221	1223	1223	1223	1222	1222	1221	1221	1221	1221	1220	1220	1220	1220	1220	1220	1220	1220	1220	1220	1220	1220	1219	1219	1220	1219	1219	1219	1217	1215	1215	1214	1212	1208	1208	1206	1204	1204	1202	1201	1201	1201	1199	1199	1199	1199	1201	1201	1201	1201	1201	1201	1201	1201	1201	1202	1202	1202	1202	1204	1204	1202	1202	1202	1201	1201	1201	1199	1199	1199	1195	1194	1194	1192	1190	1190	1189	1188	1188	1186	1184	1184	1184	1183	1181	1181	1180	1178	1178	1175	1171	1170	1170	1166	1164	1164	1163	1163	1163	1163	1163	1163	1163	1164	1164	1164	1166	1170	1170	1172	1178	1178	1182	1186	1186	1191	1191	1201	1213	1213	1220	1220	1225	1235	1235	1245	1245	1252	1255	1255	1256	1256	1256	1256	1257	1256	1256	1257	1257	1257	1257	1257	1258	1260	1260	1262	1262	1262	1263	1266	1266	1269	1276	1276	1277	1277	1279	0	0	0	0	0	0	0	0	0	0	0	0	0	0	0	0	0	1757	1757	1757	1754	1754	1754	1752	1752	1752	1750	1750	1747	1745	1745	1743	1740	1738	1738	1736	1736	1736	1736	1734	1734	1734	1734	1734	1731	1731	1731	1731	0	0	0	0	0	0	0	0	0	0	0	0	0	985	985	985	985	985	985	986	986	986	987	987	987	989	990	990	991	992	992	995	996	996	999	999	1000	1002	1002	1004	1006	1006	1008	1008	1008	1009	1010	1010	1010	1011	1011	1012	1012	1012	1012	1012	1011	1011	1011	1010	1008	1008	1007	1004	1001	1001	1000	998	998	996	995	995	995	995	0	0	0	0	0	0	0	0	0	0	0	0	0	0	0	0	0	0	0	0	0	0	989	989	988	988	988	988	988	989	989	998	998	1008	1012	1012	0	1034	1034	1034	1038	1045	1045	1047	1047	1048	1048	1048	1050	1050	1050	1050	1051	1051	1054	1055	1055	1057	1058	1058	1060	1061	1061	1061	1061	1061	1062	1062	1062	1063	1063	1063	1063	1064	1064	1062	1062	1062	1062	1062	1061	1061	1061	1061	1061	0	0	0	0	0	0	0	0	0	0	0	0	0	0	0	0	0	0	0	2469	2469	2469	2474	2479	2479	2479	2488	2488	2488	2488	2488	2507	2507	2507	2502	2502	2502	2498	2498	2498	2493	2493	2493	2493	2493	2488	2488	2488	2488	2488	2488	2488	2488	2488	2488	2483	2483	2479	2479	2479	2479	2474	2474	2474	2469	2465	2465	2456	2451	2451	2442	2428	2419	2419	2410	2397	2397	2388	2375	2375	2371	2362	2358	2358	2350	2350	2350	2346	2346	2346	2341	2341	2341	2337	2337	2337	2337	2337	2337	2337	2337	2337	2337	2337	2337	2337	2337	2337	2341	2341	2341	2346	2346	2350	2350	2358	2371	2371	2397	2419	2419	2446	2446	2469	2483	2483	2502	2536	2536	2566	2566	2587	2612	2612	2628	2633	2633	2644	2644	2649	2655	2655	2655	2666	2666	2676	2682	2682	2699	2704	2704	2715	2721	2721	2699	2699	2699	2687	2687	2687	2687	2687	2682	2682	2676	2676	2671	2671	2671	2666	2666	2666	2666	2666	2666	2666	2671	2671	2671	2671	2676	2676	2676	2676	2676	2676	2676	2676	2682	2682	2682	2682	2682	2682	2682	2682	2682	2682	2682	2682	2687	2687	2687	2682	2682	2682	2682	2682	2682	2676	2671	2671	2666	2666	2666	2660	2655	2655	2655	2655	2655	2655	2655	2660	2660	2660	2666	2666	2676	2676	2676	2687	2699	2699	2704	2704	2699	2699	2699	2687	2682	2682	2676	2671	2671	2666	2655	2655	2655	2655	2655	2655	2655	2655	2655	2655	2655	2660	2660	2660	2666	2666	2666	2671	2671	2676	2676	2676	2676	2676	2676	2671	2671	2671	2666	2666	2666	2666	2666	2660	2655	2655	2655	2655	2655
1183	1183	1184	1186	1186	1187	1189	1189	1191	1193	1193	1195	1199	1199	1201	1201	1201	1202	1202	1201	1201	1201	1201	1202	1202	1202	1204	1205	1205	1206	1212	1212	1214	1214	1216	1217	1217	1217	1217	1217	1216	1215	1215	1213	1212	1212	1208	1206	1206	1205	1205	1205	1205	1205	1205	1205	1205	1204	1204	1204	1204	1204	1202	1199	1199	1197	1197	1197	1194	1192	1191	1191	1190	1189	1189	1189	1189	1189	1189	1188	1188	1188	1188	1188	1188	1189	1189	1189	1189	1189	1189	1189	1189	1190	1190	1190	1190	1190	1189	1189	1189	1189	1189	1189	1189	1189	1188	1187	1187	1186	1184	1184	1184	1183	1181	1181	1181	1179	1179	1178	1178	1178	1175	1172	1171	1171	1170	1168	1168	1166	1164	1164	1163	1163	1163	1163	1163	1163	1163	1164	1164	1164	1166	1170	1170	1172	1178	1178	1182	1186	1186	1191	1191	1201	1213	1213	1220	1220	1225	1235	1235	1243	1243	1251	1254	1254	1255	1256	1255	1255	1255	1255	1255	1256	1256	1256	1256	1256	1258	1258	1258	1261	1262	1262	1263	1266	1266	1269	1276	1276	1277	1277	1279	0	0	0	0	0	0	0	0	0	0	0	0	0	0	0	0	0	0	0	1759	1759	1759	1759	1757	1757	1754	1752	1752	1747	1747	1747	1745	1740	1738	1738	1738	1736	1736	1736	1734	1734	1734	1734	0	0	0	0	0	0	0	0	0	0	0	0	0	0	0	0	0	0	985	985	985	985	985	985	986	986	986	987	988	988	989	990	990	991	992	992	995	996	996	999	999	1000	1002	1002	1005	1006	1006	1008	1008	1008	1009	1010	1010	1010	1011	1011	1012	1012	1012	1012	1012	1011	1011	1011	1010	1008	1008	1007	1004	1001	1001	997	995	994	994	994	994	994	994	0	0	0	0	0	0	0	0	0	0	0	0	0	0	0	0	0	0	0	0	0	0	989	989	988	988	988	988	988	989	989	998	998	1008	1013	1013	1025	1025	1034	1034	1038	1045	1045	1047	1047	1048	1048	1048	1048	1050	1050	1050	1050	1050	1051	1054	1054	1055	1056	1056	1058	1059	1059	1060	1061	1061	1061	1061	1061	1061	1061	1061	1062	1062	1062	1062	1062	1061	1061	1061	1061	1061	1061	1061	1060	1060	1060	0	0	0	0	0	0	0	0	0	0	0	0	0	0	0	0	0	0	0	2483	2483	2488	2488	2493	2493	2493	2502	2502	2502	2507	2507	2507	2502	2502	2502	2498	2498	2498	2493	2493	2493	2493	2493	2488	2488	2488	2488	2488	2488	2488	2488	2488	2488	2483	2483	2479	2479	2479	2479	2474	2474	2474	2469	2465	2465	2456	2451	2451	2442	2428	2419	2419	2410	2397	2397	2388	2375	2375	2371	2362	2358	2358	2350	2350	2350	2346	2346	2346	2341	2341	2341	2337	2337	2337	2337	2337	2337	2337	2337	2337	2337	2337	2337	2337	2337	2337	2341	2341	2341	2346	2346	2350	2350	2358	2371	2371	2397	2419	2419	2446	2446	2469	2483	2483	2502	2532	2536	2566	2566	2587	2612	2612	2628	2628	2633	2639	2639	2644	2649	2649	2649	2655	2655	2660	2666	2666	2676	2676	2676	2687	2687	2687	2687	2699	2699	2687	2687	2687	2687	2687	2682	2682	2676	2676	2671	2671	2671	2666	2666	2666	2666	2666	2666	2666	2671	2671	2671	2671	2676	2676	2676	2676	2676	2676	2676	2676	2682	2682	2682	2682	2682	2682	2682	2682	2682	2682	2682	2682	2687	2687	2687	2682	2682	2682	2682	2682	2682	2676	2671	2671	2666	2666	2666	2660	2655	2655	2655	2655	2655	2655	2655	2660	2660	2660	2666	2666	2676	2676	2676	2687	2699	2699	2704	2704	2699	2699	2699	2687	2682	2682	2676	2671	2671	2666	2655	2655	2655	2655	2655	2655	2655	2655	2655	2655	2655	2660	2660	2660	2666	2666	2666	2671	2671	2676	2676	2676	2676	2676	2676	2671	2671	2671	2666	2666	2666	2649	2649	2649	2649	2649	2644	2644	2644
1183	1183	1184	1186	1186	1187	1189	1189	1191	1193	1193	1195	1199	1199	1201	1201	1201	1202	1202	1201	1201	1201	1201	1202	1202	1202	1204	1205	1205	1206	1212	1212	1214	1214	1216	1217	1217	1217	1217	1217	1216	1215	1215	1213	1212	1212	1208	1206	1206	1205	1190	1189	1189	1189	1189	1189	1189	1189	1189	1189	1188	1188	1188	1188	1188	1188	1187	1186	1186	1184	1184	1184	1184	1183	1183	1183	1183	1183	1182	1182	1182	1182	1182	1182	1182	1182	1182	1183	1183	1183	1183	1183	1183	1183	1183	1183	1183	1183	1183	1183	1183	1183	1183	1183	1183	1183	1182	1181	1180	1180	1179	1178	1178	1177	1175	1175	1175	1174	1174	1174	1172	1171	1171	1170	1168	1168	1168	1166	1166	1164	1164	1164	1163	1163	1163	1163	1163	1164	1164	1164	1168	1168	1170	1172	1172	1175	1180	1180	1183	1188	1188	1193	1193	1204	1214	1214	1221	1221	1227	1235	1235	1243	1243	1250	1251	1251	1252	1252	1252	1252	1252	1252	1252	1254	1254	1254	1256	1256	1257	1258	1258	1260	1262	1262	1263	1266	1266	1269	1273	1273	1277	1277	1279	0	0	0	0	0	0	0	0	0	0	0	0	0	0	0	0	0	0	0	1759	1759	1759	1759	1757	1757	1754	1752	1752	1747	1747	1747	1745	1740	1738	1738	1738	1736	1736	1736	1734	1734	1734	1734	0	0	0	0	0	0	0	0	0	982	982	982	0	0	984	984	984	984	984	985	985	985	985	985	986	986	986	987	988	988	988	989	989	991	992	992	995	996	996	999	999	1000	1002	1002	1004	1006	1006	1007	1008	1008	1008	1009	1009	1010	1011	1011	1011	1011	1011	1011	1011	1010	1009	1009	1008	1005	1002	1002	1000	998	998	997	995	994	994	994	994	994	994	0	0	0	0	0	0	0	0	0	0	0	0	0	0	0	0	0	0	0	0	0	0	989	989	988	988	988	988	989	990	990	999	999	1008	0	0	1025	1025	1035	1035	1038	1045	1045	1047	1047	1048	1048	1048	1048	1050	1050	1050	1050	1050	1051	1054	1054	1055	1056	1056	1058	1059	1059	1060	1061	1061	1061	1061	1061	1061	1061	1061	1062	1062	1062	1062	1062	1061	1061	1061	1061	1061	1061	1061	1060	1060	1060	0	0	0	0	0	0	0	0	0	0	0	0	0	0	0	0	0	0	0	2498	2498	2498	2502	2507	2507	2512	2517	2517	2517	2522	2522	2522	2522	2517	2517	2517	2517	2512	2512	2512	2507	2507	2507	2502	2502	2502	2498	2498	2498	2498	2498	2498	2498	2498	2498	2493	2493	2493	2488	2488	2483	2483	2479	2479	2479	2474	2474	2474	2469	2465	2465	2456	2446	2433	2433	2428	2415	2415	2401	2397	2397	2388	2384	2371	2371	2367	2362	2362	2358	2358	2358	2354	2354	2354	2354	2350	2350	2350	2350	2354	2354	2354	2354	2354	2358	2358	2358	2367	2367	2367	2375	2384	2384	2401	2428	2428	2446	2446	2469	2479	2479	2488	2507	2507	2532	2532	2566	2597	2597	2607	2623	2623	2628	2628	2633	2639	2639	2639	2639	2639	2639	2649	2649	2649	2655	2655	2655	2666	2666	2666	2671	2671	2671	2676	2676	2671	2671	2671	2671	2666	2666	2666	2666	2666	2660	2660	2660	2660	2660	2660	2660	2660	2660	2660	2666	2666	2666	2666	2666	2666	2666	2666	2666	2666	2666	2666	2666	2671	2671	2671	2671	2671	2671	2671	2671	2676	2676	2676	2676	2676	2676	2676	2676	2671	2671	2666	2666	2660	2660	2660	2655	2655	2655	2649	2649	2649	2644	2644	2644	2644	2644	2649	2649	2649	2649	2649	2655	2660	2660	2660	2666	2666	2671	2676	2671	2666	2666	2660	2660	2660	2655	2655	2655	2649	2639	2639	2639	2639	2639	2639	2639	2639	2639	2639	2644	2644	2644	2649	2649	2649	2655	2655	2655	2655	2660	2660	2660	2660	2660	2655	2655	2655	2655	2655	2655	2649	2649	2649	2649	2649	2644	2644	2644
