0	0	0	0	0	0	0	0	0	0	0	0	0	0	0	0	0	0	0	0	0	0	0	0	0	0	0	0	0	0	0	0	0	0	0	0	0	0	0	0	0	0	0	0	0	0	0	0	0	0	0	0	0	0	0	0	0	0	0	0	0	0	0	0	0	0	0	60	3182	3182	3182	3182	3182	3182	3182	3201	3223	3263	3326	3400	3490	3586	3704	3865	3985	4136	4477	4731	5065	5464	3434	0	0	0	0	0	0	0	0	0	0	0	0	0	0	1351	4773	4509	4392	4279	4224	4206	4206	4206	4190	4136	4136	4151	4206	4257	4308	4432	4543	4626	4773	4834	4881	4963	5028	5079	5170	5170	5182	5280	5280	5270	5170	5170	5162	5065	5007	4952	4773	4724	4674	4432	4313	4202	4003	3879	3760	3545	3545	3545	3313	3193	3064	2893	2801	2698	2566	2504	2433	2269	2200	2121	2012	1959	1894	1809	1766	1712	1712	1098	0	0	0	0	0	0	0	0	0	0	0	0	0	0	0	0	0	0	0	0	0	0	0	0	0	0	0	0	0	0	0	0	0	0	0	37	277	277	277	276	276	276	276	275	275	275	274	274	273	273	273	272	272	272	271	270	270	270	270	270	270	270	270	270	270	270	270	270	271	271	271	271	272	272	272	272	272	273	273	273	273	273	273	273	274	274	274	274	274	275	275	275	276	277	277	278	279	279	281	282	282	284	285	285	286	287	287	288	288	288	289	289	289	289	289	289	289	289	289	289	289	289	289	289	289	289	289	289	289	290	290	290	290	290	290	291	291	291	291	291	291	291	291	291	291	291	290	290	289	288	288	287	286	286	285	285	285	284	283	283	283	283	283	282	282	282	282	53	0	0	0	0	0	0	0	0	0	0	0	0	0	0	0	0	0	0	0	0	0	0	0	0	0	0	0	0	0	0	0	0	0	0	0	0	0	0	0	0	0	0	0	0	0	0	0	0	0	0	0	0	0	0	0	0	0	0	0	0	0	0	0	0	0	0	0	0	0	0	0	0	0	0	0	0	0	0	0	0	0	0	0	0	0	0	0	0	0	0	0	0	0	0	1179	1642	1633	1625	1622	1622	1615	1610	1601	1588	1579	1571	1558	1550	1541	1535	1531	1523	1517	1513	1513	1508	1504	1504	1499	1495	1495	1490	1486	1486	1481	1477	1468	1464	1460	1443	1435	1426	1418	1414	1410	1402	1402	1402	1417	1421	1426	108	678	1633	1633	1664	1712	1849	1871	1880	1905	1914	1924	1924	1924	1924	327	0	0	0	0	0	0	0	0	0	0	0	0	0	0	0	0	0	0	0	0	0	0	0	0	0	0	0	0	0	0	0	0	0	0	0	0	0	0	0	0	0	0	0	0	0	0	0	0	0	0	0	0	0	0	0	0	0	0	0	0	0	0	704	1622	1622	1622	1622	1632	1637	1644	1644	1652	1666	1666	1670	1677	1686	1692	1700	1690	1688	1688	1688	1685	1677	1659	1651	1644	1627	1619	1612	1596	1589	1581	1574	1569	1561	1554	1551	1551	1544	1539	1532	1532	1530	1523	1523	1523	1523	1517	1513	1513	1513	1514	1523	1534	1542	1551	1563	1573	1601	1601	1602	1612	1623	1634	1654	1660	1666	1677	1683	1688	1700	1706	1712	1723	1723	1723	1735	1735	1735	1735	1735	1735	1735	1730	1723	1702	1700	1700	1689	1684	1677	1667	1662	1654	1654	1647	1633	1624	1619	1612	1595	1585	1571	1547	1536	1523	1501	1488	1468	1462	1454	1435	1417	1410	1410	399	0
0	0	0	0	0	0	0	0	0	0	0	0	0	0	0	0	0	0	0	0	0	0	0	0	0	0	0	0	0	0	0	0	0	0	0	0	0	0	0	0	0	0	0	0	0	0	0	0	0	0	0	2007	3218	3182	3182	2882	0	0	0	0	0	0	0	0	0	0	1681	3182	3182	3182	3182	3182	3182	3182	3182	3201	3223	3263	3326	3400	3586	3693	3818	4049	4187	4354	4652	4834	5065	5464	5664	5909	6034	6053	6053	914	0	0	0	1769	5515	5418	5360	5280	5110	4982	4773	4636	4553	4432	4432	4432	4432	4432	4432	4432	4432	4432	4432	4546	4612	4683	4807	4918	5170	5170	5187	5280	5354	5411	5515	5515	5501	5395	5395	5395	5395	5328	5272	5170	5053	4952	4773	4630	4506	4354	4239	4131	3878	3789	3704	3495	3495	3495	3269	3170	3064	2893	2801	2698	2541	2479	2409	2249	2181	2103	1983	1923	1852	1760	1734	1712	1712	1098	0	0	0	0	0	0	0	0	0	0	0	0	0	0	0	0	0	0	0	0	0	0	0	0	0	0	0	0	0	0	0	0	0	0	0	37	277	277	277	274	274	274	274	273	273	272	272	272	272	271	271	271	270	270	270	269	269	269	269	269	269	269	269	269	269	269	270	270	270	270	270	271	271	271	272	272	272	272	272	272	273	273	273	273	273	273	273	274	274	274	275	275	275	276	277	278	279	279	280	281	282	284	285	285	286	287	287	288	289	289	289	289	289	289	289	289	289	289	289	289	289	289	289	289	289	289	289	289	289	289	289	290	290	290	290	290	290	291	291	291	291	291	292	291	291	291	291	291	290	289	289	288	287	287	286	285	285	285	284	284	284	283	283	283	283	192	0	0	0	0	0	0	0	0	0	0	0	0	0	0	0	0	0	0	0	0	0	0	0	0	0	0	0	0	0	0	0	0	0	0	0	0	0	0	0	0	0	0	0	0	0	0	0	0	0	0	0	0	0	0	0	0	0	0	0	0	0	0	0	0	0	0	0	0	0	0	0	0	0	0	0	0	0	0	0	0	0	0	0	0	0	0	0	0	0	0	0	0	0	0	0	0	1179	1642	1633	1625	1622	1622	1615	1610	1601	1594	1588	1571	1565	1560	1551	1545	1540	1532	1532	1531	1523	1523	1522	1513	1513	1512	1504	1504	1504	1504	1499	1495	1486	1481	1477	1468	1460	1451	1435	1435	1435	1426	1426	1426	1442	1450	1460	1535	1562	1591	1629	1664	1712	1836	1857	1866	1890	1899	1909	1922	1924	1924	327	0	0	0	0	0	0	0	0	0	0	0	0	0	0	0	0	0	0	0	0	0	0	0	0	0	0	0	0	0	0	0	0	0	0	0	0	0	0	0	0	0	0	0	0	0	0	0	0	0	0	821	1612	1612	1612	1612	1612	1602	1591	1591	1591	1591	1600	1601	1601	1611	1612	1612	1631	1637	1644	1644	1652	1666	1666	1670	1677	1686	1692	1700	1700	1700	1700	1690	1685	1677	1659	1648	1633	1624	1614	1591	1583	1579	1571	1564	1559	1551	1544	1539	1532	1532	1530	1523	1523	1521	1513	1513	1513	1513	1507	1504	1504	1510	1514	1523	1528	1534	1551	1563	1573	1591	1591	1592	1601	1612	1623	1644	1656	1666	1666	1672	1677	1700	1706	1712	1723	1729	1735	1735	1735	1735	1747	1742	1735	1735	1730	1723	1713	1707	1700	1689	1688	1688	1669	1662	1654	1646	1637	1622	1614	1605	1591	1575	1565	1551	1529	1520	1513	1492	1484	1477	1464	1454	1435	1417	1410	1410	399	0
0	0	0	0	0	0	0	0	0	0	0	0	0	0	0	0	0	0	0	0	0	0	0	0	0	0	0	0	0	0	0	0	0	0	0	0	0	0	0	0	0	0	0	0	0	0	0	0	1021	1591	1591	2594	3200	3182	3182	3032	1591	1591	1471	0	0	0	0	0	60	1591	2432	3182	3182	3182	3182	3182	3182	3182	3182	3211	3244	3307	3361	3424	3612	3721	3848	4083	4223	4393	4696	4882	5118	5417	5552	5712	5886	5912	5912	3287	2820	2820	2718	3564	5398	5349	5304	5225	5098	5009	4868	4726	4639	4514	4514	4514	4514	4546	4558	4558	4558	4558	4558	4646	4711	4823	4920	5010	5225	5225	5233	5280	5354	5403	5455	5492	5501	5395	5360	5338	5338	5272	5213	5066	4980	4901	4684	4547	4426	4245	4135	4034	3848	3747	3650	3471	3416	3359	3246	3150	3045	2892	2801	2698	2541	2479	2409	2240	2168	2086	1967	1906	1832	1746	1729	1718	970	549	0	0	0	0	0	0	0	0	0	0	0	0	0	0	0	0	0	0	0	0	0	0	0	0	0	0	0	0	0	0	0	0	0	0	0	18	138	138	154	273	273	273	272	272	272	271	271	271	270	270	270	270	270	270	270	269	268	268	268	268	268	268	268	269	269	269	269	270	270	270	270	270	270	271	272	272	272	272	272	272	272	272	272	272	273	273	273	273	274	274	274	275	275	276	276	278	278	279	280	281	282	284	285	285	286	287	287	288	288	289	289	289	289	289	289	289	289	289	289	289	289	288	288	288	288	288	288	289	289	289	289	290	290	290	290	290	290	291	291	291	291	291	292	292	291	291	291	291	290	290	289	288	288	287	286	286	286	286	285	284	284	284	283	283	283	192	0	0	0	0	0	0	0	0	0	0	0	0	0	0	0	0	0	0	0	0	0	0	0	0	0	0	0	0	0	0	0	0	0	0	0	0	0	0	0	0	0	0	0	0	0	0	0	0	0	0	0	0	0	0	0	0	0	0	0	0	0	0	0	0	0	0	0	0	0	0	0	0	0	0	0	0	0	0	0	0	0	0	0	0	0	0	0	0	0	0	0	0	0	0	0	0	1179	1642	1633	1629	1626	1622	1619	1615	1606	1596	1589	1576	1570	1565	1561	1552	1545	1536	1536	1536	1528	1528	1527	1522	1522	1522	1514	1514	1514	1514	1511	1509	1500	1495	1490	1477	1471	1464	1452	1450	1448	1443	1445	1447	1459	1470	1482	1537	1562	1591	1639	1675	1724	1831	1853	1866	1884	1895	1909	1922	1924	1924	1125	653	0	0	0	0	0	0	0	0	0	0	0	0	0	0	0	0	0	0	0	0	0	0	0	0	0	0	0	0	0	0	0	0	0	0	0	0	0	0	0	0	0	0	0	0	0	0	431	816	816	1222	1612	1612	1612	1612	1612	1602	1591	1591	1591	1591	1600	1601	1601	1611	1612	1612	1631	1637	1644	1644	1652	1666	1671	1673	1677	1691	1696	1700	1700	1700	1700	1690	1685	1677	1659	1648	1633	1621	1610	1591	1580	1572	1561	1554	1549	1542	1535	1531	1528	1524	1521	1514	1514	1513	1508	1508	1508	1508	1506	1504	1504	1507	1510	1518	1524	1529	1546	1558	1568	1586	1589	1591	1596	1607	1618	1638	1650	1660	1666	1672	1677	1694	1703	1712	1723	1729	1735	1735	1741	1748	1754	1751	1748	1742	1736	1729	1714	1710	1706	1695	1692	1688	1669	1662	1654	1641	1633	1622	1605	1597	1586	1570	1559	1542	1523	1514	1504	1490	1484	1477	1467	1459	1443	1428	1422	1422	403	0
0	0	0	0	0	0	0	0	0	0	0	0	0	0	0	0	0	0	0	0	0	0	0	0	0	0	0	0	0	0	0	0	0	0	0	0	0	0	0	0	0	0	0	0	0	0	0	0	2041	3182	3182	3182	3182	3182	3182	3182	3182	3182	2942	0	0	0	0	0	120	3182	3182	3182	3182	3182	3182	3182	3182	3182	3182	3221	3265	3351	3396	3447	3639	3749	3878	4117	4259	4432	4741	4930	5170	5370	5440	5515	5737	5771	5771	5660	5640	5640	5437	5358	5280	5280	5247	5170	5087	5036	4963	4816	4726	4596	4596	4596	4596	4660	4683	4683	4683	4683	4683	4746	4809	4963	5032	5102	5280	5280	5280	5280	5354	5395	5395	5470	5501	5395	5326	5280	5280	5216	5154	4963	4908	4851	4596	4464	4346	4136	4032	3937	3818	3705	3597	3447	3337	3223	3223	3130	3026	2891	2801	2698	2541	2479	2409	2231	2155	2068	1951	1888	1811	1733	1723	1723	228	0	0	0	0	0	0	0	0	0	0	0	0	0	0	0	0	0	0	0	0	0	0	0	0	0	0	0	0	0	0	0	0	0	0	0	0	0	0	0	31	272	272	272	271	271	271	270	270	270	269	269	269	269	269	269	269	268	268	268	268	268	268	268	268	269	269	269	269	269	269	270	270	270	270	270	271	271	271	272	272	272	272	272	272	272	273	273	273	273	273	274	274	274	275	276	276	277	278	278	280	281	281	283	284	285	286	287	287	288	288	288	289	289	289	289	289	289	289	289	289	289	288	288	288	288	288	288	288	288	289	289	289	289	289	289	290	290	290	291	291	291	291	291	292	292	292	291	291	291	290	290	290	289	288	288	287	286	286	286	285	285	285	284	284	283	283	192	0	0	0	0	0	0	0	0	0	0	0	0	0	0	0	0	0	0	0	0	0	0	0	0	0	0	0	0	0	0	0	0	0	0	0	0	0	0	0	0	0	0	0	0	0	0	0	0	0	0	0	0	0	0	0	0	0	0	0	0	0	0	0	0	0	0	0	0	0	0	0	0	0	0	0	0	0	0	0	0	0	0	0	0	0	0	0	0	0	0	0	0	0	0	0	0	1179	1642	1633	1633	1631	1622	1622	1620	1612	1598	1589	1581	1575	1571	1571	1559	1550	1541	1541	1540	1532	1532	1532	1532	1532	1531	1523	1523	1523	1523	1523	1523	1513	1508	1504	1486	1482	1477	1468	1464	1460	1460	1464	1468	1476	1489	1504	1538	1562	1591	1648	1686	1735	1826	1849	1866	1878	1890	1909	1922	1924	1924	1924	1307	0	0	0	0	0	0	0	0	0	0	0	0	0	0	0	0	0	0	0	0	0	0	0	0	0	0	0	0	0	0	0	0	0	0	0	0	0	0	0	0	0	0	0	0	0	0	863	1633	1633	1622	1612	1612	1612	1612	1612	1602	1591	1591	1591	1591	1600	1601	1601	1611	1612	1612	1631	1637	1644	1644	1652	1666	1676	1677	1677	1697	1700	1700	1700	1700	1700	1690	1685	1677	1659	1648	1633	1617	1606	1591	1576	1566	1551	1544	1539	1532	1526	1523	1523	1516	1511	1504	1504	1504	1504	1504	1504	1504	1504	1504	1504	1504	1505	1513	1519	1525	1541	1553	1563	1581	1587	1591	1591	1602	1613	1633	1644	1654	1666	1672	1677	1688	1700	1712	1723	1729	1735	1735	1746	1760	1760	1760	1760	1749	1743	1735	1714	1712	1712	1701	1695	1688	1669	1662	1654	1636	1629	1622	1596	1588	1581	1565	1552	1532	1517	1508	1495	1488	1484	1477	1470	1464	1451	1439	1435	1435	406	0
15413	15960	16545	18898	20531	22561	24604	25910	27575	30632	32694	35453	40582	44328	49635	49635	53849	62043	62043	62043	62043	62043	55800	41362	41362	29656	0	0	0	0	0	0	0	2403	3255	3223	3194	3173	3141	3141	3134	3102	3102	3102	3102	3102	3102	3102	3102	3102	3102	3102	3102	3102	3102	3102	3102	3102	3102	3102	3124	3141	3141	3141	3143	3182	3182	3182	3182	3182	3182	3182	3182	3182	3182	3201	3223	3306	3393	3495	3641	3749	3878	4117	4259	4432	4741	4889	5065	5256	5280	5280	5380	5395	5395	5395	5356	5280	5189	5170	5170	5085	5065	5065	4984	4963	4963	4816	4773	4773	4773	4773	4773	4773	4773	4773	4773	4792	4866	4866	4884	4963	5032	5065	5065	5134	5170	5170	5170	5185	5280	5280	5268	5170	5107	5055	4963	4906	4859	4773	4673	4582	4354	4273	4198	4003	3905	3815	3650	3571	3495	3354	3250	3141	3141	3070	2990	2858	2783	2698	2541	2469	2386	2229	2148	2051	1909	1861	1811	1733	1723	1723	228	0	0	0	0	0	0	0	0	0	0	0	0	0	0	0	0	0	0	0	0	0	0	0	0	0	0	0	0	0	0	0	0	0	0	0	0	0	0	167	269	269	269	269	269	268	268	268	268	268	267	267	267	267	267	267	267	267	267	267	267	267	267	267	267	267	267	268	268	268	268	269	269	269	270	270	270	271	271	271	272	272	272	272	272	272	272	272	272	273	273	273	274	274	275	275	275	276	278	278	279	280	281	282	283	284	285	286	287	288	288	288	289	289	289	289	289	289	289	288	288	288	288	288	288	288	288	288	288	288	288	289	289	289	289	289	290	290	290	290	290	291	291	291	292	292	292	292	292	292	291	290	290	290	288	288	287	286	286	286	285	285	285	284	284	284	48	0	0	0	0	0	0	0	0	0	0	0	0	0	0	0	0	0	0	0	0	0	0	0	0	0	0	0	0	0	0	0	0	0	0	0	0	0	0	0	0	0	0	0	0	0	0	0	0	0	0	0	0	0	0	0	0	0	0	0	0	0	0	0	0	0	0	0	0	0	0	0	0	0	0	0	0	0	0	0	0	0	0	0	0	0	0	0	0	0	0	0	0	0	0	0	0	0	1171	1633	1633	1625	1620	1612	1612	1612	1612	1605	1599	1591	1585	1580	1571	1571	1570	1561	1555	1551	1551	1551	1551	1551	1545	1541	1541	1541	1541	1541	1541	1541	1541	1536	1532	1523	1518	1513	1513	1513	1513	1513	1513	1513	1531	1545	1561	1589	1608	1633	1694	1719	1748	1828	1849	1866	1878	1890	1909	1922	1924	1924	1924	1307	0	0	0	0	0	0	0	0	0	0	0	0	0	0	0	0	0	0	0	0	0	0	0	0	0	0	0	0	0	0	0	0	0	0	0	0	0	0	0	0	0	0	0	0	62	1644	1638	1633	1622	1617	1612	1612	1607	1601	1601	1601	1601	1601	1601	1601	1601	1606	1612	1612	1616	1622	1632	1637	1644	1653	1663	1677	1677	1681	1688	1698	1700	1700	1700	1700	1700	1690	1685	1677	1651	1641	1633	1608	1596	1581	1566	1556	1541	1528	1523	1523	1516	1511	1504	1498	1495	1495	1489	1486	1486	1492	1494	1486	1486	1486	1486	1492	1496	1504	1509	1515	1532	1543	1552	1561	1572	1581	1581	1592	1601	1612	1629	1644	1644	1655	1666	1677	1688	1700	1700	1711	1723	1723	1728	1735	1747	1753	1760	1749	1743	1735	1724	1719	1712	1701	1691	1677	1657	1650	1644	1617	1608	1601	1576	1568	1561	1545	1533	1513	1499	1492	1486	1479	1475	1468	1468	1466	1460	1447	1443	1443	1437	1430
14580	15247	16028	18229	19742	21621	23494	24682	26196	30476	32694	35453	38017	40950	45498	45498	49010	55839	60989	60053	55839	55839	51469	41362	33913	24867	6894	6894	5073	0	0	0	0	2403	3255	3223	3194	3173	3141	3141	3134	3102	3089	3083	3083	3083	3083	3083	3083	3083	3083	3083	3083	3083	3083	3085	3102	3102	3102	3102	3124	3141	3141	3141	3143	3182	3182	3182	3182	3182	3182	3182	3182	3182	3182	3201	3223	3306	3382	3471	3640	3749	3878	4117	4259	4432	4700	4841	5014	5201	5225	5225	5323	5338	5338	5291	5263	5225	5093	5066	5066	4985	4966	4966	4925	4901	4868	4760	4728	4728	4728	4728	4728	4728	4728	4728	4728	4747	4820	4820	4837	4914	4982	5014	5014	5082	5118	5118	5118	5132	5225	5192	5160	5066	5006	4952	4823	4769	4724	4642	4548	4462	4245	4151	4066	3910	3817	3731	3572	3509	3448	3310	3217	3122	3122	3051	2972	2857	2776	2684	2541	2469	2386	2229	2144	2042	1908	1878	1852	974	862	862	114	0	0	0	0	0	0	0	0	0	0	0	0	0	0	0	0	0	0	0	0	0	0	0	0	0	0	0	0	0	0	0	0	0	0	0	0	0	0	167	269	268	268	268	268	267	267	266	266	266	266	266	266	266	266	266	266	266	266	266	266	266	266	266	266	267	267	268	268	268	268	268	269	269	269	270	270	270	270	270	271	272	272	272	272	272	272	272	272	272	273	273	274	274	274	275	275	276	277	278	279	280	281	282	283	284	285	286	287	288	288	288	288	288	288	288	288	288	288	288	288	288	288	288	288	288	288	288	288	288	288	288	289	289	289	289	290	290	290	290	290	291	291	291	292	292	292	292	292	292	291	290	290	290	289	288	288	287	287	286	286	286	286	285	285	285	48	0	0	0	0	0	0	0	0	0	0	0	0	0	0	0	0	0	0	0	0	0	0	0	0	0	0	0	0	0	0	0	0	0	0	0	0	0	0	0	0	0	0	0	0	0	0	0	0	0	0	0	0	0	0	0	0	0	0	0	0	0	0	0	0	0	0	0	0	0	0	0	0	0	0	0	0	0	0	0	0	0	0	0	0	0	0	0	0	0	0	0	0	0	0	0	182	806	1387	1617	1617	1617	1616	1612	1612	1612	1612	1605	1599	1591	1585	1580	1576	1576	1575	1566	1563	1561	1556	1556	1556	1556	1553	1551	1556	1556	1556	1556	1556	1556	1556	1554	1552	1547	1542	1537	1537	1537	1537	1537	1539	1542	1556	1570	1586	1636	1651	1666	1707	1731	1760	1817	1840	1866	1878	1890	1909	1922	1924	1924	1924	1307	0	0	0	0	0	0	0	0	0	0	0	0	0	0	0	0	0	0	0	0	0	0	0	0	0	0	0	0	0	0	0	0	0	0	0	0	0	0	0	0	0	0	0	0	62	1638	1633	1627	1617	1612	1606	1606	1601	1596	1596	1596	1596	1596	1596	1596	1596	1601	1606	1606	1611	1617	1627	1632	1638	1648	1657	1672	1676	1679	1682	1697	1700	1700	1700	1700	1700	1690	1683	1672	1645	1635	1628	1603	1591	1576	1561	1551	1536	1523	1517	1514	1507	1502	1495	1489	1486	1486	1480	1477	1477	1480	1481	1477	1477	1477	1477	1480	1483	1495	1498	1501	1518	1526	1533	1546	1558	1566	1566	1577	1587	1602	1613	1623	1633	1641	1650	1660	1672	1683	1688	1697	1706	1711	1717	1724	1735	1741	1748	1742	1734	1724	1713	1707	1700	1690	1682	1672	1652	1643	1633	1610	1600	1586	1565	1556	1546	1531	1520	1504	1490	1483	1477	1470	1467	1464	1464	1464	1464	1455	1450	1447	1438	1430
13746	14535	15511	17560	18953	20681	22384	23455	24817	30320	32694	35453	35453	37571	41362	41362	44172	49635	59936	58063	49635	49635	47137	41362	26463	20078	13787	13787	10145	0	0	0	0	2403	3255	3223	3194	3173	3141	3141	3134	3102	3076	3064	3064	3064	3064	3064	3064	3064	3064	3064	3064	3064	3064	3068	3102	3102	3102	3102	3124	3141	3141	3141	3143	3182	3182	3182	3182	3182	3182	3182	3182	3182	3182	3201	3223	3306	3371	3447	3639	3749	3878	4117	4259	4432	4659	4794	4963	5147	5170	5170	5265	5280	5280	5187	5170	5170	4998	4963	4963	4884	4866	4866	4866	4840	4773	4703	4683	4683	4683	4683	4683	4683	4683	4683	4683	4702	4773	4773	4791	4866	4932	4963	4963	5030	5065	5065	5065	5079	5170	5105	5053	4963	4904	4849	4683	4632	4590	4512	4423	4342	4136	4028	3934	3818	3729	3647	3495	3447	3400	3265	3185	3102	3102	3032	2954	2857	2770	2669	2540	2469	2386	2229	2140	2034	1907	1894	1894	214	0	0	0	0	0	0	0	0	0	0	0	0	0	0	0	0	0	0	0	0	0	0	0	0	0	0	0	0	0	0	0	0	0	0	0	0	0	0	0	0	0	167	269	266	266	266	266	266	266	265	265	265	265	265	265	265	265	265	265	266	266	266	266	266	266	266	266	267	267	267	267	267	267	268	268	269	269	269	269	270	270	270	271	271	271	272	272	272	272	272	272	272	272	273	274	274	274	275	275	276	277	277	279	280	280	282	283	283	285	286	286	287	288	288	288	288	288	288	288	288	288	288	288	288	287	287	287	287	287	287	287	287	288	288	288	289	289	289	290	290	290	290	290	291	291	291	292	292	292	292	292	292	291	290	290	290	289	289	288	288	288	287	287	287	286	286	286	286	49	0	0	0	0	0	0	0	0	0	0	0	0	0	0	0	0	0	0	0	0	0	0	0	0	0	0	0	0	0	0	0	0	0	0	0	0	0	0	0	0	0	0	0	0	0	0	0	0	0	0	0	0	0	0	0	0	0	0	0	0	0	0	0	0	0	0	0	0	0	0	0	0	0	0	0	0	0	0	0	0	0	0	0	0	0	0	0	0	0	0	0	0	0	0	0	365	1612	1604	1601	1601	1609	1612	1612	1612	1612	1612	1605	1599	1591	1585	1581	1581	1581	1580	1571	1571	1570	1561	1561	1561	1561	1561	1562	1571	1571	1571	1571	1571	1571	1571	1571	1571	1571	1566	1561	1561	1561	1561	1561	1566	1571	1580	1594	1612	1682	1693	1700	1721	1743	1773	1807	1832	1866	1878	1890	1909	1922	1924	1924	1924	1307	0	0	0	0	0	0	0	0	0	0	0	0	0	0	0	0	0	0	0	0	0	0	0	0	0	0	0	0	0	0	0	0	0	0	0	0	0	0	0	0	0	0	0	0	62	1633	1627	1622	1612	1606	1601	1601	1596	1591	1591	1591	1591	1591	1591	1591	1591	1595	1601	1601	1606	1612	1621	1626	1633	1643	1652	1666	1676	1677	1677	1697	1700	1700	1700	1700	1700	1690	1681	1666	1640	1630	1622	1598	1586	1571	1556	1546	1532	1518	1511	1504	1498	1493	1486	1480	1477	1477	1471	1468	1468	1468	1468	1468	1468	1468	1468	1468	1470	1486	1486	1488	1504	1509	1514	1532	1543	1551	1551	1562	1572	1591	1596	1601	1622	1628	1633	1644	1655	1666	1677	1682	1688	1700	1705	1712	1722	1728	1735	1735	1725	1712	1701	1695	1688	1678	1673	1666	1647	1636	1622	1604	1591	1571	1554	1545	1532	1517	1508	1495	1481	1474	1468	1462	1460	1460	1460	1462	1468	1462	1458	1451	1440	1430
13062	13729	14598	16398	17601	19090	20531	22320	24817	27263	28876	31022	31022	32610	35453	40470	44172	49635	49635	49635	49635	49635	45354	35453	25237	20078	13787	13787	11870	6531	5504	4934	4206	3613	3369	3265	3235	3206	3141	3141	3134	3102	3076	3064	3064	3064	3058	3026	3026	3026	3026	3026	3026	3026	3026	3026	3026	3048	3067	3102	3102	3104	3141	3141	3143	3182	3182	3182	3182	3182	3182	3182	3182	3182	3182	3201	3223	3263	3347	3447	3589	3719	3878	4117	4226	4354	4573	4666	4773	4941	4963	4963	5052	5065	5065	5065	5030	4963	4963	4932	4866	4791	4773	4773	4702	4683	4683	4683	4660	4596	4596	4596	4596	4596	4596	4596	4658	4683	4683	4746	4773	4773	4836	4882	4963	4963	4963	4963	4963	4963	4963	4903	4855	4773	4666	4581	4432	4386	4348	4279	4160	4057	3878	3813	3756	3650	3568	3493	3400	3354	3309	3182	3105	3026	2955	2954	2954	2825	2752	2669	2540	2469	2386	2229	2140	2034	2034	1228	0	0	0	0	0	0	0	0	0	0	0	0	0	0	0	0	0	0	0	0	0	0	0	0	0	0	0	0	0	0	0	0	0	0	0	0	0	0	0	0	0	0	0	0	30	263	263	263	263	263	263	263	263	263	263	263	263	263	264	264	264	264	264	265	265	265	265	265	265	265	265	266	266	266	267	267	267	268	268	268	269	269	269	270	270	270	271	271	271	271	272	272	272	272	272	273	273	273	274	275	275	276	277	277	278	279	280	281	282	283	284	285	286	286	287	287	288	288	288	288	288	288	288	287	287	287	287	287	287	287	287	287	287	287	288	288	288	289	289	289	289	289	289	290	290	290	291	291	291	292	292	292	292	292	292	291	291	290	290	290	289	289	289	288	288	288	288	288	288	288	49	0	0	0	0	0	0	0	0	0	0	0	0	0	0	0	0	0	0	0	0	0	0	0	0	0	0	0	0	0	0	0	0	0	0	0	0	0	0	0	0	0	0	0	0	0	0	0	0	0	0	0	0	0	0	0	0	0	0	0	0	0	0	0	0	0	0	0	0	0	0	0	0	0	0	0	0	0	0	0	0	0	0	0	0	0	0	0	0	0	0	0	0	0	0	0	365	1612	1604	1601	1601	1601	1601	1601	1608	1612	1612	1605	1599	1591	1591	1591	1591	1591	1591	1591	1585	1581	1581	1581	1581	1581	1587	1591	1591	1591	1591	1591	1591	1591	1601	1601	1601	1612	1607	1601	1601	1606	1612	1612	1617	1622	1643	1648	1654	1685	1693	1700	1732	1745	1760	1805	1128	0	0	0	0	0	0	0	0	0	0	0	0	0	0	0	0	0	0	0	0	0	0	0	393	1735	1719	1710	1700	1700	1700	1700	1708	1712	1712	1712	1454	0	1091	1700	1700	642	0	0	0	0	0	0	0	0	0	94	1654	1649	1644	1633	1627	1622	1612	1606	1601	1591	1591	1591	1581	1581	1581	1581	1581	1581	1581	1585	1591	1591	1595	1601	1611	1616	1622	1632	1641	1654	1664	1670	1677	1686	1692	1700	1700	1696	1688	1679	1670	1654	1637	1627	1612	1596	1586	1571	1548	1537	1523	1509	1502	1495	1489	1484	1477	1471	1468	1468	1463	1460	1460	1460	1460	1460	1460	1460	1460	1460	1460	1460	1470	1478	1486	1497	1505	1513	1524	1532	1532	1542	1551	1561	1572	1581	1591	1596	1601	1622	1627	1633	1633	1638	1644	1665	1671	1677	1687	1693	1700	1700	1695	1688	1678	1673	1666	1646	1636	1622	1604	1597	1591	1574	1564	1551	1528	1517	1504	1489	1481	1468	1462	1457	1451	1445	1443	1443	1449	1451	1451	1451	1451	1451	1445	1438
13062	13729	14598	16398	17601	19090	20531	21873	23689	25912	27367	29298	30794	32610	35453	37962	40816	45498	45498	45498	45498	43101	39214	31514	23674	19519	14192	12386	10450	6531	5504	4934	4206	3685	3461	3332	3254	3210	3162	3162	3150	3102	3076	3064	3064	3064	3058	3026	3026	3026	3026	3026	3026	3026	3026	3026	3026	3048	3067	3102	3102	3104	3141	3152	3162	3182	3182	3182	3182	3182	3182	3182	3182	3182	3182	3201	3223	3263	3337	3424	3587	3719	3878	4117	4226	4354	4535	4606	4684	4847	4868	4868	4912	4936	4966	4966	4948	4914	4876	4852	4820	4745	4728	4728	4658	4640	4640	4640	4617	4554	4554	4564	4596	4596	4596	4596	4658	4683	4683	4746	4773	4773	4836	4882	4963	4963	4963	4963	4932	4908	4868	4810	4764	4684	4558	4457	4284	4241	4206	4141	4029	3933	3764	3703	3649	3572	3494	3423	3332	3299	3266	3142	3076	3008	2922	2920	2920	2824	2758	2684	2541	2500	2459	1210	1070	1017	1017	614	0	0	0	0	0	0	0	0	0	0	0	0	0	0	0	0	0	0	0	0	0	0	0	0	0	0	0	0	0	0	0	0	0	0	0	0	0	0	0	0	0	17	131	131	146	262	262	262	262	262	262	262	262	262	262	262	262	262	263	264	264	264	264	264	264	264	264	264	264	265	265	266	266	266	266	266	267	268	268	268	268	269	269	270	270	270	271	271	271	271	271	272	272	272	272	273	273	273	274	275	275	276	277	277	278	279	280	281	282	283	284	285	286	286	286	287	288	288	288	288	288	288	288	287	287	287	287	287	287	287	287	287	287	287	288	288	288	288	288	288	288	289	289	290	290	290	291	291	291	292	292	292	292	292	292	291	291	290	290	290	290	290	289	288	288	288	288	288	288	288	49	0	0	0	0	0	0	0	0	0	0	0	0	0	0	0	0	0	0	0	0	0	0	0	0	0	0	0	0	0	0	0	0	0	0	0	0	0	0	0	0	0	0	0	0	0	0	0	0	0	0	0	0	0	0	0	0	0	0	0	0	0	0	0	0	0	0	0	0	0	0	0	0	0	0	0	0	0	0	0	0	0	0	0	0	0	0	0	0	0	0	0	0	0	0	0	182	806	1376	1601	1601	1601	1601	1601	1608	1612	1612	1605	1600	1596	1596	1595	1591	1591	1591	1591	1588	1586	1586	1586	1586	1586	1592	1596	1596	1596	1596	1602	1602	1602	1612	1614	1617	1622	1620	1617	1617	1622	1628	1628	1633	1638	1654	1660	1666	1692	1699	1706	1732	1745	1760	1788	1453	892	118	0	0	0	0	0	0	0	0	0	0	0	0	0	0	0	0	0	0	0	0	0	393	1735	1719	1710	1700	1700	1700	1700	1708	1712	1712	1712	1583	856	1397	1700	1700	1171	754	0	0	0	0	0	0	0	0	94	1654	1649	1644	1633	1627	1622	1612	1606	1601	1591	1591	1591	1581	1581	1581	1581	1581	1581	1581	1583	1586	1591	1595	1601	1611	1616	1622	1632	1641	1654	1659	1664	1672	1686	1690	1694	1694	1690	1682	1674	1666	1654	1633	1622	1606	1587	1576	1561	1543	1532	1518	1504	1496	1486	1480	1475	1468	1465	1463	1460	1454	1452	1452	1454	1455	1452	1452	1452	1452	1452	1452	1456	1463	1470	1482	1489	1496	1508	1516	1523	1528	1533	1538	1551	1559	1566	1576	1581	1586	1606	1612	1617	1622	1627	1633	1649	1652	1655	1665	1671	1677	1677	1675	1671	1661	1652	1639	1624	1616	1606	1589	1581	1571	1554	1545	1532	1509	1499	1486	1475	1468	1456	1449	1446	1443	1440	1439	1439	1445	1447	1447	1447	1447	1447	1444	1439
13062	13729	14598	16398	17601	19090	20531	21426	22561	24562	25858	27575	30567	32610	35453	35453	37460	41362	41362	41362	41362	36568	33075	27575	22112	18959	14598	10985	9030	6531	5504	4934	4206	3758	3552	3400	3273	3214	3182	3182	3167	3102	3076	3064	3064	3064	3058	3026	3026	3026	3026	3026	3026	3026	3026	3026	3026	3048	3067	3102	3102	3104	3141	3163	3182	3182	3182	3182	3182	3182	3182	3182	3182	3182	3182	3201	3223	3263	3326	3400	3586	3719	3878	4117	4226	4354	4497	4545	4596	4753	4773	4773	4773	4806	4866	4866	4866	4866	4789	4773	4773	4700	4683	4683	4614	4596	4596	4596	4574	4512	4512	4533	4596	4596	4596	4596	4658	4683	4683	4746	4773	4773	4836	4882	4963	4963	4963	4963	4901	4854	4773	4717	4673	4596	4450	4333	4136	4096	4063	4003	3898	3808	3650	3593	3543	3495	3421	3352	3265	3244	3223	3102	3047	2990	2888	2886	2886	2822	2765	2698	2541	2532	2532	191	0	0	0	0	0	0	0	0	0	0	0	0	0	0	0	0	0	0	0	0	0	0	0	0	0	0	0	0	0	0	0	0	0	0	0	0	0	0	0	0	0	0	0	0	0	35	262	262	262	262	262	262	262	262	262	262	262	262	262	262	262	262	263	263	263	263	263	263	263	264	264	264	264	265	265	265	265	265	266	266	266	267	268	268	268	269	269	269	270	270	271	271	271	271	271	271	272	272	272	273	273	273	274	275	275	275	277	277	278	279	279	281	282	282	283	284	285	286	286	286	287	287	287	288	288	288	288	287	287	287	287	287	287	287	287	287	287	287	287	288	288	288	288	288	288	289	289	290	290	290	291	291	291	292	292	292	292	292	292	291	291	291	291	291	290	290	290	289	289	289	289	289	289	289	49	0	0	0	0	0	0	0	0	0	0	0	0	0	0	0	0	0	0	0	0	0	0	0	0	0	0	0	0	0	0	0	0	0	0	0	0	0	0	0	0	0	0	0	0	0	0	0	0	0	0	0	0	0	0	0	0	0	0	0	0	0	0	0	0	0	0	0	0	0	0	0	0	0	0	0	0	0	0	0	0	0	0	0	0	0	0	0	0	0	0	0	0	0	0	0	0	0	1148	1601	1601	1601	1601	1601	1608	1612	1612	1605	1601	1601	1601	1600	1591	1591	1591	1591	1591	1591	1591	1591	1591	1591	1597	1601	1601	1601	1601	1612	1612	1612	1622	1628	1633	1633	1633	1633	1633	1638	1644	1644	1649	1654	1665	1671	1677	1698	1705	1712	1733	1745	1760	1772	1778	1785	236	0	0	0	0	0	0	0	0	0	0	0	0	0	0	0	0	0	0	0	0	0	393	1735	1719	1710	1700	1700	1700	1700	1708	1712	1712	1712	1712	1712	1704	1700	1700	1700	1508	0	0	0	0	0	0	0	0	94	1654	1649	1644	1633	1627	1622	1612	1606	1601	1591	1591	1591	1581	1581	1581	1581	1581	1581	1581	1581	1581	1590	1595	1601	1611	1616	1622	1632	1641	1654	1654	1658	1666	1685	1688	1688	1688	1684	1677	1668	1662	1654	1629	1616	1601	1578	1566	1551	1537	1527	1513	1500	1491	1477	1471	1466	1460	1460	1458	1451	1446	1443	1443	1448	1450	1443	1443	1443	1443	1443	1444	1451	1456	1462	1477	1482	1487	1504	1509	1514	1523	1523	1524	1541	1546	1551	1561	1566	1571	1591	1596	1601	1612	1617	1622	1633	1633	1633	1643	1648	1654	1654	1654	1654	1645	1631	1612	1602	1597	1591	1574	1564	1551	1535	1526	1513	1491	1480	1468	1462	1455	1443	1437	1435	1435	1435	1435	1435	1441	1443	1443	1443	1443	1443	1443	1439
13025	13377	13787	15381	16431	17727	18961	19720	20681	24349	24817	24817	27211	27575	27575	30502	31022	31022	34701	34032	31022	31022	29149	24817	20279	17819	14598	10985	9233	7299	6146	5504	4683	4136	3886	3704	3554	3475	3400	3336	3293	3223	3195	3182	3182	3182	3176	3141	3116	3102	3102	3102	3098	3064	3064	3068	3102	3125	3141	3141	3164	3184	3223	3223	3223	3223	3245	3264	3223	3223	3223	0	1668	3400	3400	3336	3265	3265	3326	3400	3586	3719	3878	4117	4226	4354	4497	4545	4596	4522	4512	4512	4512	4512	4512	4512	4512	4512	4512	4486	4432	4432	4432	4432	4432	4432	4432	4432	4432	4432	4432	4452	4512	4574	4596	4596	4658	4702	4773	4773	4791	4866	4866	4882	4963	4963	4948	4866	4806	4761	4683	4577	4494	4354	4222	4117	3939	3868	3809	3704	3643	3586	3400	3375	3351	3265	3221	3181	3141	3102	3064	3026	2974	2920	2854	2822	2788	2788	2760	2727	2593	2585	2585	195	0	0	0	0	0	0	0	0	0	0	0	0	0	0	0	0	0	0	0	0	0	0	0	0	0	0	0	0	0	0	0	0	0	0	0	0	0	0	0	0	0	0	0	0	167	261	261	262	262	261	260	260	260	260	260	261	261	261	261	261	261	261	262	262	262	262	262	263	263	263	263	263	263	264	264	264	264	264	265	266	266	267	267	267	268	268	268	269	270	270	270	271	271	271	271	271	271	272	272	272	273	273	274	275	275	275	277	277	278	279	279	280	281	282	283	284	285	286	286	286	287	287	287	287	287	287	287	287	287	287	287	287	287	287	287	287	287	287	287	287	287	288	288	288	288	289	289	289	289	290	291	291	291	292	292	292	293	293	293	292	292	292	292	292	292	291	291	291	291	291	291	291	291	291	49	0	0	0	0	0	0	0	0	0	0	0	0	0	0	0	0	0	0	0	0	0	0	0	0	0	0	0	0	0	0	0	0	0	0	0	0	0	0	0	0	0	0	0	0	0	0	0	0	0	0	0	0	0	0	0	0	0	0	0	0	0	0	0	0	0	0	0	0	0	0	0	0	0	0	0	0	0	0	0	0	0	0	0	0	0	0	0	0	0	0	0	0	0	0	0	360	1591	1591	1593	1601	1601	1601	1601	1608	1612	1612	1605	1601	1601	1601	1601	1601	1601	1601	1601	1595	1591	1591	1597	1601	1601	1601	1602	1612	1617	1622	1622	1628	1633	1644	1644	1644	1654	1654	1654	1654	1660	1666	1666	1671	1677	1687	1693	1700	1711	1717	1723	1746	1753	1760	1772	1778	1785	236	0	0	0	0	0	0	0	0	0	0	0	0	0	0	0	0	0	0	0	0	0	398	1760	1751	1743	1723	1723	1723	1723	1716	1712	1712	1712	1712	1712	1712	1710	1700	1700	1700	1700	1693	1688	1688	1688	1688	1688	1676	1665	1654	1654	1654	1644	1638	1633	1622	1617	1612	1601	1596	1591	1581	1581	1581	1571	1571	1571	1571	1575	1581	1590	1591	1591	1600	1605	1612	1621	1626	1633	1651	1654	1654	1664	1666	1666	1666	1666	1666	1656	1648	1633	1624	1616	1601	1578	1563	1541	1527	1516	1495	1488	1482	1468	1462	1458	1451	1445	1441	1435	1435	1435	1435	1435	1434	1426	1426	1426	1426	1426	1426	1426	1436	1443	1443	1448	1452	1460	1470	1478	1486	1486	1487	1504	1509	1513	1523	1528	1532	1551	1556	1561	1571	1576	1581	1591	1596	1601	1601	1606	1612	1602	1601	1601	1583	1577	1571	1562	1553	1541	1525	1519	1513	1490	1480	1468	1461	1455	1443	1437	1430	1418	1412	1410	1410	1410	1410	1410	1416	1420	1426	1433	1435	1435	1435	1433
13008	13219	13424	14931	15919	17136	18288	18994	19886	22425	23104	23689	24886	25472	26196	27659	28388	29298	31138	30803	29298	27265	25571	22749	18841	16689	13830	10811	9293	7527	6365	5714	4874	4311	4044	3822	3662	3573	3472	3407	3365	3312	3282	3264	3246	3231	3217	3182	3156	3139	3122	3109	3100	3083	3083	3087	3122	3133	3143	3162	3185	3205	3244	3256	3267	3288	3300	3277	1612	1612	1612	0	1668	3400	3400	3415	3431	1700	1663	1700	1793	1859	1939	4144	4369	4433	4543	4554	4554	4517	4497	4472	4472	4472	4472	4439	4433	4433	4402	4383	4356	4356	4356	4356	4356	4366	4393	4393	4403	4432	4432	4442	4472	4563	4596	4596	4658	4702	4773	4773	4791	4866	4899	4931	5014	4980	4948	4866	4777	4711	4598	4472	4378	4245	4101	3990	3822	3740	3674	3576	3519	3466	3312	3276	3244	3164	3133	3103	3066	3046	3027	2990	2939	2886	2837	2814	2788	2788	2767	2742	2634	2627	2627	198	0	0	0	0	0	0	0	0	0	0	0	0	0	0	0	0	0	0	0	0	0	0	0	0	0	0	0	0	0	0	0	0	0	0	0	0	0	0	0	0	0	0	20	130	214	261	261	261	261	260	260	260	260	260	260	260	260	260	260	260	260	260	261	262	262	262	262	262	262	262	262	263	263	263	264	264	264	264	264	265	266	266	267	267	268	268	268	269	269	270	270	270	271	271	271	271	271	272	272	272	273	273	274	275	275	275	277	277	278	279	279	280	281	282	283	284	285	286	286	286	286	287	287	287	287	287	287	287	287	287	287	287	287	287	287	287	287	287	287	287	287	288	288	288	288	288	288	289	289	290	291	291	291	292	292	292	293	293	293	293	292	292	292	292	292	292	292	292	292	292	292	292	292	292	50	0	0	0	0	0	0	0	0	0	0	0	0	0	0	0	0	0	0	0	0	0	0	0	0	0	0	0	0	0	0	0	0	0	0	0	0	0	0	0	0	0	0	0	0	0	0	0	0	0	0	0	0	0	0	0	0	0	0	0	0	0	0	0	0	0	0	0	0	0	0	0	0	0	0	0	0	0	0	0	0	0	0	0	0	0	559	705	705	708	522	0	0	0	0	582	971	1586	1586	1588	1596	1599	1601	1601	1608	1612	1612	1608	1606	1601	1601	1601	1601	1601	1601	1601	1598	1596	1596	1599	1601	1606	1606	1607	1617	1620	1622	1628	1633	1639	1644	1647	1649	1660	1660	1660	1665	1668	1672	1677	1679	1682	1693	1699	1706	1712	1722	1736	1747	1753	1760	985	1223	1779	1004	891	899	905	906	906	154	0	0	0	0	0	734	926	926	210	0	0	683	906	906	901	1095	1766	1753	1744	1729	1729	1728	1723	1716	1712	1712	1712	1712	1712	1712	1710	1700	1700	1700	1700	1693	1688	1688	1688	1688	1688	1676	1665	1654	1654	1654	1644	1638	1633	1622	1617	1612	1601	1596	1591	1581	1579	1576	1571	1571	1571	1571	1575	1581	1586	1588	1591	1600	1605	1612	1621	1624	1628	1641	1644	1644	1653	1655	1655	1655	1653	1650	1645	1639	1628	1615	1606	1591	1572	1558	1536	1519	1508	1490	1481	1474	1464	1455	1450	1443	1440	1437	1430	1430	1430	1430	1428	1426	1422	1422	1422	1422	1422	1422	1422	1427	1431	1434	1439	1444	1452	1461	1469	1477	1477	1478	1490	1495	1500	1509	1514	1518	1537	1542	1546	1556	1561	1566	1571	1576	1581	1586	1588	1592	1586	1584	1581	1567	1562	1556	1548	1541	1532	1516	1508	1500	1480	1473	1464	1454	1446	1434	1428	1422	1410	1407	1406	1406	1406	1406	1406	1415	1419	1422	1432	1435	1435	1435	1433
12992	13062	13062	14482	15406	16545	17615	18267	19090	20501	21390	22561	22561	23370	24817	24817	25754	27575	27575	27575	27575	23507	21993	20681	17403	15559	13062	10637	9353	7755	6584	5925	5065	4487	4202	3939	3771	3671	3545	3477	3438	3400	3369	3346	3309	3280	3259	3223	3197	3177	3141	3117	3102	3102	3102	3106	3141	3141	3144	3182	3205	3225	3265	3289	3311	3354	3354	3291	0	0	0	0	1668	3400	3400	3493	3597	136	0	0	0	0	0	4171	4512	4512	4588	4563	4512	4512	4482	4432	4432	4432	4432	4366	4354	4354	4292	4279	4279	4279	4279	4279	4279	4300	4354	4354	4375	4432	4432	4432	4432	4553	4596	4596	4658	4702	4773	4773	4791	4866	4932	4980	5065	4998	4948	4866	4749	4660	4512	4367	4263	4136	3980	3862	3704	3611	3538	3447	3394	3347	3223	3178	3138	3064	3044	3025	2990	2990	2990	2954	2904	2853	2821	2805	2788	2788	2774	2757	2674	2669	2669	201	0	0	0	0	0	0	0	0	0	0	0	0	0	0	0	0	0	0	0	0	0	0	0	0	0	0	0	0	0	0	0	0	0	0	0	0	0	0	0	0	0	0	39	261	261	261	261	260	260	260	259	259	259	259	259	260	260	260	260	260	260	260	261	261	261	261	261	262	262	262	262	262	263	263	263	263	264	264	264	265	265	266	267	267	267	268	268	269	269	269	270	270	270	271	271	271	271	272	272	272	273	273	274	275	275	275	277	277	278	279	279	280	281	282	283	284	284	285	286	286	286	287	287	287	287	287	287	287	287	287	287	287	287	287	287	287	287	287	287	287	287	288	288	288	288	288	288	289	289	290	291	291	291	292	292	292	293	293	293	293	293	293	293	293	293	293	293	293	293	293	293	293	293	293	50	0	0	0	0	0	0	0	0	0	0	0	0	0	0	0	0	0	0	0	0	0	0	0	0	0	0	0	0	0	0	0	0	0	0	0	0	0	0	0	0	0	0	0	0	0	0	0	0	0	0	0	0	0	0	0	0	0	0	0	0	0	0	0	0	0	0	0	0	0	0	0	0	0	0	0	0	0	0	0	0	0	0	0	0	0	1117	1410	1410	1416	1043	0	0	0	0	1163	1581	1581	1581	1583	1591	1598	1601	1601	1608	1612	1612	1612	1610	1601	1601	1601	1601	1601	1601	1601	1601	1601	1601	1601	1602	1612	1612	1613	1622	1622	1622	1633	1639	1644	1644	1649	1654	1666	1666	1666	1677	1677	1677	1688	1688	1688	1699	1705	1712	1712	1727	1748	1748	1753	1760	199	669	1773	1773	1782	1798	1809	1811	1811	308	0	0	0	0	0	1468	1852	1852	419	0	0	1367	1811	1811	1801	1792	1773	1755	1745	1735	1735	1733	1723	1716	1712	1712	1712	1712	1712	1712	1710	1700	1700	1700	1700	1693	1688	1688	1688	1688	1688	1676	1665	1654	1654	1654	1644	1638	1633	1622	1617	1612	1601	1596	1591	1581	1576	1571	1571	1571	1571	1571	1575	1581	1581	1585	1591	1600	1605	1612	1621	1622	1622	1632	1633	1633	1642	1644	1644	1644	1640	1633	1633	1630	1622	1605	1595	1581	1566	1553	1532	1511	1500	1486	1473	1466	1460	1448	1441	1435	1435	1433	1426	1426	1426	1426	1421	1418	1418	1418	1418	1418	1418	1418	1418	1418	1419	1426	1431	1436	1443	1453	1460	1468	1468	1468	1477	1482	1486	1495	1500	1504	1523	1527	1532	1541	1546	1551	1551	1556	1561	1570	1571	1571	1571	1567	1561	1552	1547	1541	1533	1529	1523	1507	1498	1486	1471	1465	1460	1446	1438	1426	1420	1413	1402	1402	1402	1402	1402	1402	1402	1414	1418	1418	1431	1435	1435	1435	1433
11760	11818	11818	13638	14503	15511	16447	17013	17727	18936	19690	20681	20681	20681	20681	20681	20681	20681	22242	21958	20681	18284	17058	15511	14145	13078	11281	9665	8750	7520	6774	6252	5395	4807	4508	4206	4015	3902	3760	3683	3630	3545	3511	3487	3447	3416	3386	3309	3281	3259	3223	3223	3218	3182	3182	3186	3223	3223	3223	3223	3272	3312	3354	3379	3404	3495	3521	3478	0	0	0	0	0	0	0	0	0	0	0	0	0	0	0	4499	4866	4866	4700	4615	4512	4512	4482	4432	4432	4404	4354	4354	4329	4279	4279	4279	4279	4279	4279	4279	4279	4300	4354	4354	4354	4354	4354	4373	4432	4553	4616	4683	4748	4792	4866	4866	4866	4866	4932	4980	5065	4998	4948	4866	4693	4574	4432	4291	4190	4068	3917	3802	3650	3559	3488	3400	3348	3299	3141	3099	3063	3026	3007	2989	2954	2937	2920	2886	2854	2820	2820	2805	2788	2788	2788	2788	2759	2757	2757	208	0	0	0	0	0	0	0	0	0	0	0	0	0	0	0	0	0	0	0	0	0	0	0	0	0	0	0	0	0	0	0	0	0	0	0	0	0	0	0	0	0	0	39	261	260	260	260	260	260	259	259	259	259	259	259	259	259	259	259	259	259	260	260	260	260	261	261	261	261	261	262	262	262	262	262	263	263	263	264	265	265	265	266	266	267	267	267	268	269	269	270	270	270	271	271	271	271	272	272	272	273	273	274	275	275	275	277	277	278	279	279	280	281	281	283	284	284	284	285	285	286	286	286	286	287	287	287	287	287	287	287	287	287	287	287	287	287	287	287	287	287	288	288	288	288	288	288	289	289	290	291	291	292	292	292	293	293	293	293	294	294	294	294	294	294	294	294	294	294	294	294	44	0	0	0	0	0	0	0	0	0	0	0	0	0	0	0	0	0	0	0	0	0	0	0	0	0	0	0	0	0	0	0	0	0	0	0	0	0	0	0	0	0	0	0	0	0	0	0	0	0	0	0	0	0	0	0	0	0	0	0	0	0	0	0	0	0	0	0	0	0	0	0	0	0	0	0	0	0	0	0	0	0	0	0	0	0	0	0	0	1117	1410	1410	1416	1043	0	1115	1477	1477	1511	1534	1571	1578	1581	1581	1595	1601	1601	1608	1612	1612	1605	1601	1601	1601	1601	1601	1601	1601	1601	1601	1601	1601	1601	1601	1601	1607	1612	1612	1617	1622	1633	1633	1633	1644	1649	1654	1666	1666	1666	1677	1677	1677	1677	1682	1688	1699	1705	1712	1712	1717	1723	1734	1048	0	0	669	1773	1773	1777	1785	1796	1798	1798	1809	1815	1825	1825	1825	1825	1835	1838	1838	1838	1838	1838	1818	1811	1811	1792	1785	1785	1767	1758	1748	1739	1735	1735	1727	1721	1712	1712	1712	1712	1712	1710	1700	1700	1700	1700	1693	1688	1688	701	0	0	0	94	1654	1654	1654	1644	1638	1633	1622	1617	1612	1601	1596	1591	1581	1576	1571	1571	1571	1571	1571	1571	1571	1580	1581	1581	1590	1591	1591	1600	1605	1612	1612	1616	1622	1622	1626	1633	1633	1629	1622	1622	1616	1601	1593	1585	1571	1556	1544	1523	1509	1497	1477	1464	1458	1451	1440	1433	1426	1426	1424	1418	1418	1418	1418	1413	1410	1410	1405	1402	1402	1402	1402	1402	1407	1410	1410	1415	1419	1426	1426	1427	1435	1435	1436	1460	1464	1468	1477	1482	1486	1495	1499	1504	1513	1518	1523	1532	1532	1532	1540	1541	1541	1541	1537	1532	1532	1528	1523	1514	1510	1504	1481	1474	1468	1454	1446	1435	1421	1415	1410	1397	1392	1386	1380	1379	1379	1379	1381	1386	1392	1396	1402	1414	1420	1426	1426	1426
11747	11818	11818	13303	14101	15054	15936	16467	17136	18264	18709	19204	19795	19886	19886	19886	19886	19886	20100	19653	18613	16995	16024	14649	13186	12239	10811	9431	8629	7520	6774	6282	5518	4974	4684	4359	4154	4026	3850	3769	3713	3624	3571	3538	3496	3448	3410	3332	3289	3259	3223	3223	3218	3182	3182	3186	3223	3235	3244	3244	3294	3335	3400	3440	3479	3656	3702	3710	2034	998	0	0	0	0	0	0	0	0	0	0	0	0	0	4690	5007	4914	4705	4632	4554	4517	4482	4432	4398	4379	4354	4354	4329	4279	4279	3593	2140	2140	2140	2140	2140	2766	4354	4354	4354	4354	4354	4383	4472	4563	4616	4683	4781	4839	4914	4914	4924	4966	5034	5075	5118	5049	4992	4866	4693	4574	4432	4291	4187	4036	3904	3802	3650	3559	3488	3400	3336	3279	3141	3099	3062	3008	2989	2971	2937	2928	2920	2870	2845	2820	2789	2781	2772	2787	2788	2788	2629	2604	2583	1309	705	0	0	0	0	0	0	0	0	0	0	0	0	0	0	0	0	0	0	0	0	0	0	0	0	0	0	0	0	0	0	0	0	0	0	0	0	0	0	0	0	0	20	130	214	260	260	260	259	259	259	259	259	259	258	258	258	259	259	259	259	260	260	260	260	260	260	260	261	261	261	262	262	262	262	262	263	263	264	264	265	265	266	266	266	267	267	268	269	269	270	270	270	271	271	271	271	272	272	272	273	273	274	275	275	275	277	277	278	279	279	280	281	281	282	283	284	284	284	285	286	286	286	286	286	286	286	286	286	286	287	287	287	287	287	287	287	287	287	287	288	288	288	288	288	288	288	289	289	290	291	291	292	292	293	293	293	293	293	294	294	294	294	294	294	294	294	294	294	294	294	44	0	0	0	0	0	0	0	0	0	0	0	0	0	0	0	0	0	0	0	0	0	0	0	0	0	0	0	0	0	0	0	0	0	0	0	0	0	0	0	0	0	0	0	0	0	0	0	0	0	0	0	0	0	0	0	0	0	0	0	0	0	0	0	0	0	0	0	0	0	0	0	0	0	0	0	0	0	262	730	730	730	730	723	719	713	713	713	713	1272	1419	1422	1429	1243	722	1285	1471	1477	1507	1529	1566	1573	1577	1581	1591	1596	1596	1603	1607	1612	1605	1601	1601	1601	1601	1601	1601	1600	1596	1596	1596	1596	1596	1596	1601	1604	1606	1606	1612	1617	1622	1625	1628	1638	1644	1649	1655	1657	1660	1665	1668	1672	1672	1674	1677	1688	1691	1694	1689	1691	1694	1700	1027	0	0	647	1714	1714	1718	1726	1740	1745	1749	1769	1779	1792	1798	1803	1812	1827	1833	1838	1838	1836	1832	1821	1816	1811	1792	1785	1785	1767	1759	1754	1741	1735	1735	1727	1721	1712	1712	1712	1712	1712	1710	1700	1700	1700	1700	1693	1687	1682	1189	838	838	838	885	1660	1657	1654	1649	1643	1638	1628	1622	1617	1606	1601	1596	1586	1584	1581	1576	1574	1571	1566	1566	1566	1571	1571	1571	1580	1581	1581	1590	1595	1602	1602	1605	1612	1616	1619	1622	1627	1626	1622	1618	1612	1601	1593	1585	1571	1556	1544	1523	1509	1496	1472	1463	1457	1447	1435	1430	1426	1426	1424	1418	1415	1414	1414	1409	1406	1406	1401	1398	1398	1398	1398	1398	1400	1402	1406	1411	1414	1418	1420	1422	1430	1433	1436	1452	1454	1456	1464	1469	1473	1482	1488	1495	1499	1504	1509	1518	1518	1518	1526	1529	1532	1532	1528	1522	1522	1519	1514	1509	1505	1500	1476	1469	1464	1450	1441	1430	1417	1410	1402	1392	1388	1382	1377	1375	1375	1375	1377	1382	1388	1392	1398	1404	1409	1418	1418	1419
11734	11818	11818	12968	13700	14598	15425	15921	16545	17593	17727	17727	18910	19090	19090	19090	19090	19090	17958	17348	16545	15706	14991	13787	12227	11400	10341	9198	8508	7520	6774	6312	5640	5142	4861	4512	4293	4151	3939	3855	3796	3704	3631	3588	3545	3480	3433	3354	3297	3259	3223	3223	3218	3182	3182	3186	3223	3248	3265	3265	3315	3359	3447	3501	3555	3818	3882	3941	4068	1996	0	0	0	0	0	0	0	0	0	0	0	0	0	4882	5148	4963	4709	4649	4596	4522	4482	4432	4364	4354	4354	4354	4329	4279	4279	2906	0	0	0	0	0	1232	4354	4354	4354	4354	4354	4393	4512	4574	4616	4683	4814	4886	4963	4963	4982	5065	5136	5170	5170	5101	5035	4866	4693	4574	4432	4291	4183	4003	3891	3802	3650	3559	3488	3400	3324	3258	3141	3099	3061	2990	2971	2953	2920	2920	2920	2853	2837	2820	2758	2757	2757	2787	2788	2788	2499	2450	2409	2409	1409	0	0	0	0	0	0	0	0	0	0	0	0	0	0	0	0	0	0	0	0	0	0	0	0	0	0	0	0	0	0	0	0	0	0	0	0	0	0	0	0	0	0	0	167	260	259	259	259	259	259	259	259	258	258	258	258	258	259	259	259	259	259	259	260	260	260	260	260	261	261	261	262	262	262	262	263	263	263	264	264	265	266	266	266	267	267	268	269	269	270	270	270	271	271	271	271	272	272	272	273	273	274	275	275	275	277	277	278	279	279	280	281	281	282	283	283	284	284	284	285	285	285	285	286	286	286	286	286	286	287	287	287	287	287	287	287	287	287	288	288	288	288	288	289	289	289	289	289	290	291	291	292	293	293	293	293	293	293	294	294	294	295	295	295	295	295	295	295	295	295	45	0	0	0	0	0	0	0	0	0	0	0	0	0	0	0	0	0	0	0	0	0	0	0	0	0	0	0	0	0	0	0	0	0	0	0	0	0	0	0	0	0	0	0	0	0	0	0	0	0	0	0	0	0	0	0	0	0	0	0	0	0	0	0	0	0	0	0	0	0	0	0	0	0	0	0	0	0	523	1460	1460	1460	1460	1446	1438	1426	1426	1426	1426	1426	1429	1435	1441	1443	1443	1456	1464	1477	1503	1524	1561	1568	1573	1581	1588	1591	1591	1598	1603	1612	1605	1601	1601	1601	1601	1601	1601	1600	1591	1591	1591	1591	1591	1592	1601	1601	1601	1601	1607	1612	1612	1617	1622	1633	1639	1644	1644	1649	1654	1654	1660	1666	1666	1666	1666	1676	1677	1677	1667	1666	1666	1666	1006	0	0	624	1654	1654	1658	1666	1685	1692	1700	1729	1743	1760	1771	1781	1798	1819	1829	1838	1838	1835	1825	1825	1822	1811	1792	1785	1785	1767	1760	1760	1743	1735	1735	1727	1721	1712	1712	1712	1712	1712	1710	1700	1700	1700	1700	1693	1687	1677	1677	1677	1677	1677	1676	1666	1659	1654	1654	1649	1644	1633	1627	1622	1612	1607	1601	1591	1591	1591	1581	1576	1571	1562	1561	1561	1561	1561	1561	1570	1571	1571	1580	1585	1591	1591	1595	1601	1610	1612	1612	1620	1622	1622	1614	1609	1601	1593	1585	1571	1556	1544	1523	1509	1495	1468	1462	1456	1443	1431	1426	1426	1426	1424	1418	1413	1410	1410	1405	1402	1402	1397	1394	1394	1394	1394	1394	1394	1395	1402	1407	1410	1410	1415	1418	1426	1431	1435	1443	1443	1443	1451	1456	1460	1468	1477	1486	1486	1490	1495	1504	1504	1504	1512	1517	1523	1523	1519	1513	1513	1509	1504	1504	1501	1495	1472	1465	1460	1446	1437	1426	1413	1405	1394	1388	1384	1379	1373	1371	1371	1371	1373	1379	1384	1388	1394	1394	1398	1410	1410	1412
11204	12054	13062	13062	13700	14598	15425	15921	16545	17593	17727	17727	17727	17727	17727	17727	17326	16545	15687	14958	13787	13199	12686	11818	11003	10546	9927	9104	8508	7520	6906	6511	5909	5365	5101	4866	4612	4448	4206	4064	3968	3818	3741	3686	3597	3530	3474	3354	3297	3259	3223	3223	3223	3223	3223	3223	3223	3248	3268	3309	3361	3411	3597	3656	3708	3818	3882	3941	4068	1996	0	0	0	0	0	2926	6204	6204	6276	6363	6363	6228	6053	5338	5234	5170	4810	4703	4596	4522	4482	4432	4364	4354	4354	4354	2875	0	0	0	0	0	0	0	0	0	0	0	1171	4432	4432	4452	4512	4638	4703	4773	4909	4984	5065	5065	5085	5170	5170	5189	5280	5207	5139	4963	4783	4650	4432	4291	4183	4003	3891	3807	3704	3611	3538	3447	3344	3260	3182	3117	3061	2990	2971	2953	2886	2869	2853	2788	2758	2727	2699	2698	2698	2615	2612	2612	2489	2450	2409	2409	1409	0	0	0	0	0	0	0	0	0	0	0	0	0	0	0	0	0	0	0	0	0	0	0	0	0	0	0	0	0	0	0	0	0	0	0	0	0	0	0	0	0	0	0	166	259	259	259	259	258	258	258	258	258	258	258	258	258	258	258	258	259	259	259	259	260	260	260	260	260	261	261	261	262	262	262	263	263	263	264	264	265	266	266	266	267	267	268	269	269	270	270	270	271	271	271	271	272	272	273	273	273	274	275	275	276	277	277	278	279	279	280	281	281	282	283	283	283	284	284	284	285	285	285	285	285	286	286	286	286	287	287	287	287	287	287	287	287	288	288	288	288	289	289	289	289	289	290	290	290	291	291	292	293	293	293	293	293	294	294	294	295	295	295	295	295	295	296	296	296	297	45	0	0	0	0	0	0	0	0	0	0	0	0	0	0	0	0	0	0	0	0	0	0	0	0	0	0	0	0	0	0	0	0	0	0	0	0	0	0	0	0	0	0	0	0	0	0	0	0	0	0	0	0	0	0	0	0	0	0	0	0	0	0	653	1443	1443	1443	1443	1450	1451	1451	1451	1451	1451	1459	1460	1460	1460	1460	1460	1452	1451	1451	1438	1430	1418	1418	1418	1418	1424	1429	1435	1435	1437	1443	1449	1457	1477	1503	1522	1551	1558	1563	1571	1585	1591	1591	1598	1601	1601	1601	1601	1601	1601	1600	1591	1591	1591	1591	1591	1591	1591	1591	1591	1591	1591	1591	1591	1596	1601	1601	1601	1601	1612	1617	1622	1622	1627	1633	1633	1633	1633	1633	1633	1633	1675	1677	1677	1667	1666	1666	1666	1006	0	0	624	1654	1654	1658	1666	1685	1688	1688	1717	1735	1760	1771	1781	1798	1819	1829	1838	1838	1835	1825	1825	1822	1811	1811	1808	1798	1789	1783	1773	1764	1760	1760	1752	1744	1723	1716	1712	1712	1712	1710	1700	1700	1700	1700	1693	1687	1677	1677	1677	1677	1677	1676	1666	1666	1666	1654	1654	1654	1644	1638	1633	1622	1612	1601	1591	1591	1591	1581	1576	1571	1562	1561	1561	1561	1561	1561	1570	1571	1571	1580	1581	1581	1581	1585	1591	1599	1601	1601	1610	1612	1612	1603	1598	1591	1583	1578	1571	1556	1544	1523	1502	1488	1468	1462	1456	1443	1431	1426	1426	1420	1418	1418	1413	1410	1410	1405	1402	1402	1397	1394	1394	1394	1394	1394	1394	1394	1394	1394	1395	1402	1402	1402	1410	1414	1418	1418	1427	1435	1443	1443	1443	1443	1447	1451	1468	1472	1477	1477	1481	1486	1486	1490	1495	1495	1499	1504	1496	1491	1486	1478	1477	1477	1462	1454	1443	1436	1429	1418	1405	1397	1386	1380	1374	1364	1364	1362	1356	1356	1358	1364	1375	1381	1386	1386	1390	1402	1408	1412
11204	12054	13062	13062	13700	14598	15425	15921	16545	17593	17504	17136	16687	16455	16162	16162	15962	15572	14505	13905	13098	12346	11910	11304	10555	10132	9560	9021	8572	7763	7111	6732	6220	5719	5447	5130	4849	4668	4401	4219	4110	3977	3871	3792	3650	3581	3528	3424	3322	3259	3223	3223	3225	3244	3244	3246	3266	3291	3315	3378	3431	3483	3650	3727	3797	3943	4011	4077	4290	3297	2342	2433	2457	2482	2637	4159	5860	6191	6240	6284	6284	6183	6053	5505	5386	5282	4907	4795	4684	4569	4523	4472	4403	4379	4354	4354	3602	2140	2140	1453	0	0	0	0	0	0	0	1846	2972	4602	4569	4567	4598	4728	4796	4868	5010	5088	5172	5172	5182	5225	5264	5282	5280	5207	5139	4963	4755	4607	4393	4255	4152	4003	3874	3778	3677	3585	3513	3424	3334	3260	3182	3117	3061	2990	2962	2936	2870	2845	2820	2758	2735	2712	2670	2669	2669	2614	2612	2612	2551	1964	1204	1204	705	0	0	0	0	0	0	0	0	0	0	0	0	0	0	0	0	0	0	0	0	0	0	0	0	0	0	0	0	0	0	0	0	0	0	0	0	0	88	130	130	44	20	130	213	259	258	258	258	258	258	258	258	258	258	258	258	258	258	258	258	259	259	259	259	259	260	260	260	260	261	261	261	262	262	262	263	263	263	264	264	265	265	266	266	267	267	268	269	269	270	270	270	271	271	271	272	272	272	273	273	273	274	275	275	276	277	277	278	279	279	280	281	281	282	282	283	283	283	284	284	284	285	285	285	285	286	286	286	286	287	287	287	287	287	287	287	288	288	288	288	288	289	289	290	290	290	290	290	290	291	292	292	293	293	293	293	294	294	294	294	295	295	295	296	296	296	296	296	243	148	22	0	0	0	0	0	0	0	0	0	0	0	0	0	0	0	0	0	0	0	0	0	0	0	0	0	0	0	0	0	0	0	0	0	0	0	0	0	0	0	66	701	701	701	705	705	705	705	707	709	705	705	705	705	346	0	0	348	709	709	709	709	709	1038	1434	1439	1441	1443	1447	1447	1447	1447	1447	1447	1455	1456	1456	1456	1456	1456	1452	1451	1451	1438	1430	1418	1418	1418	1418	1424	1427	1430	1434	1437	1443	1449	1456	1472	1496	1514	1546	1557	1563	1571	1581	1587	1591	1598	1601	1601	1601	1601	1601	1601	1600	1591	1591	1591	1591	1588	1586	1586	1583	1581	1581	1584	1586	1586	1589	1591	1591	1594	1596	1602	1604	1606	1612	1614	1617	1617	1617	1617	1617	1617	1617	1638	1292	838	833	833	833	833	503	0	0	312	827	827	829	833	1559	1688	1688	1717	1731	1748	1768	1781	1798	1819	1829	1838	1838	1836	1832	1832	1830	1824	1820	1815	1804	1795	1790	1786	1772	1766	1766	1160	872	862	858	856	856	1405	1710	1700	1700	1700	1700	1696	1693	1688	1692	1694	1694	1210	838	833	833	833	827	827	827	822	819	816	811	806	800	796	796	796	791	788	786	781	780	780	780	780	780	785	786	786	790	1089	1581	1581	1583	1586	1594	1596	1596	1605	1606	1606	1598	1593	1586	1582	1578	1571	1556	1544	1523	1502	1489	1472	1463	1456	1443	1434	1430	1426	1420	1418	1418	1413	1410	1410	1405	1402	1402	1397	1394	1394	1394	1394	1394	1394	1394	1394	1394	1395	1402	1402	1402	1410	1414	1418	1410	1414	1419	1430	1433	1434	1434	1439	1443	1455	1460	1464	1468	1472	1477	1477	1479	1482	1486	1488	1490	1486	1482	1477	1473	1471	1468	1454	1447	1439	1432	1425	1414	1404	1397	1386	1377	1372	1364	1361	1359	1356	1356	1357	1360	1369	1373	1378	1381	1385	1394	1400	1405
11204	12054	13062	13062	13700	14598	15425	15921	16545	17593	17281	16545	15648	15184	14598	14598	14598	14598	13323	12853	12409	11494	11133	10790	10106	9719	9192	8937	8637	8006	7315	6954	6531	6073	5793	5395	5085	4887	4596	4375	4252	4136	4002	3899	3704	3633	3582	3495	3347	3259	3223	3223	3228	3265	3265	3269	3309	3335	3361	3447	3502	3554	3704	3799	3885	4068	4141	4212	4512	4599	4683	4866	4914	4963	5274	5391	5515	6178	6204	6204	6204	6138	6053	5671	5538	5395	5004	4888	4773	4616	4564	4512	4443	4404	4354	4354	4329	4279	4279	2906	0	0	0	0	0	0	0	3692	4773	4773	4705	4683	4683	4818	4888	4963	5111	5193	5280	5280	5280	5280	5358	5375	5280	5207	5139	4963	4728	4564	4354	4218	4121	4003	3856	3750	3650	3559	3488	3400	3324	3260	3182	3117	3061	2990	2953	2919	2853	2820	2788	2727	2713	2698	2641	2640	2640	2613	2612	2612	2612	1478	0	0	0	0	0	0	0	0	0	0	0	0	0	0	0	0	0	0	0	0	0	0	0	0	0	0	0	0	0	0	0	0	0	0	0	0	0	0	0	0	176	259	259	88	39	259	259	259	258	258	258	258	258	258	258	258	258	258	258	258	258	258	258	259	259	259	259	259	259	260	260	260	261	261	261	262	262	262	263	263	263	264	264	265	265	265	266	267	267	268	269	269	270	270	270	271	271	271	272	272	272	273	273	273	274	275	275	276	277	277	278	279	279	280	281	281	282	282	282	283	283	283	284	284	284	285	285	285	285	286	286	286	287	287	287	287	287	287	288	288	288	288	288	288	289	289	290	290	290	290	290	291	292	292	292	293	293	293	294	294	294	294	294	295	295	295	296	296	296	297	297	191	0	0	0	0	0	0	0	0	0	0	0	0	0	0	0	0	0	0	0	0	0	0	0	0	0	0	0	0	0	0	0	0	0	0	0	0	0	0	0	0	0	132	1402	1402	1403	1410	1410	1410	1410	1414	1418	1410	1410	1410	1410	692	0	0	696	1418	1418	1418	1418	1418	1422	1426	1434	1438	1443	1443	1443	1443	1443	1443	1443	1450	1451	1451	1451	1451	1451	1451	1451	1451	1438	1430	1418	1418	1418	1418	1424	1426	1426	1433	1437	1443	1449	1455	1468	1488	1505	1541	1555	1563	1571	1578	1583	1591	1598	1601	1601	1601	1601	1601	1601	1600	1591	1591	1591	1591	1585	1581	1581	1575	1571	1571	1577	1581	1581	1581	1581	1581	1586	1591	1591	1591	1591	1601	1601	1601	1601	1601	1601	1601	1601	1601	1601	906	0	0	0	0	0	0	0	0	0	0	0	0	0	1433	1688	1688	1717	1727	1735	1766	1781	1798	1819	1829	1838	1838	1838	1838	1838	1838	1838	1828	1822	1811	1802	1798	1798	1781	1773	1773	569	0	0	0	0	0	1098	1710	1700	1700	1700	1700	1700	1700	1700	1707	1712	1712	743	0	0	0	0	0	0	0	0	0	0	0	0	0	0	0	0	0	0	0	0	0	0	0	0	0	0	0	0	0	597	1581	1581	1581	1581	1589	1591	1591	1599	1601	1601	1593	1588	1581	1581	1578	1571	1556	1544	1523	1502	1491	1477	1464	1456	1443	1437	1433	1426	1420	1418	1418	1413	1410	1410	1405	1402	1402	1397	1394	1394	1394	1394	1394	1394	1394	1394	1394	1395	1402	1402	1402	1410	1414	1417	1402	1402	1402	1418	1422	1426	1426	1430	1435	1443	1447	1451	1460	1464	1468	1468	1468	1468	1476	1477	1477	1477	1473	1468	1468	1465	1460	1445	1440	1435	1427	1421	1410	1403	1397	1386	1374	1369	1364	1358	1356	1356	1356	1356	1356	1362	1366	1371	1377	1381	1386	1392	1399
11204	12054	13062	14482	14598	14598	15425	15921	16545	16545	16155	15511	14719	14307	13787	13787	13541	13062	12520	12047	11281	10518	10216	9927	9624	9445	9192	8937	8637	8006	7639	7366	6894	6627	6423	6053	5667	5443	5170	4893	4724	4512	4304	4172	4003	3843	3720	3495	3376	3303	3265	3265	3265	3265	3319	3358	3400	3456	3499	3545	3635	3717	3939	4010	4076	4279	4319	4357	4512	4599	4683	4683	4683	4683	5058	5115	5170	195	2613	5771	5771	5831	5909	5909	5745	5515	5203	5050	4866	4784	4706	4596	4596	4537	4432	4366	4329	4279	4279	4279	4279	807	0	0	0	0	0	3692	4773	4773	4916	4988	5065	5142	5195	5280	5448	5541	5640	5640	5616	5515	5515	5495	5395	5246	5139	4963	4728	4554	4279	4148	4053	3939	3831	3745	3597	3537	3488	3400	3324	3258	3141	3078	3023	2954	2918	2885	2853	2820	2788	2698	2656	2612	2559	2558	2558	97	0	0	0	0	0	0	0	0	0	0	0	0	0	0	0	0	0	0	0	0	0	0	0	0	0	0	0	0	0	0	0	0	0	0	0	0	0	0	0	0	0	0	0	0	175	258	258	258	258	258	258	258	258	258	258	258	258	258	257	257	257	257	257	257	258	258	258	259	259	259	259	259	259	260	260	260	261	261	261	262	262	262	262	262	263	264	264	265	265	265	266	267	267	268	269	269	270	271	271	271	272	272	272	272	272	273	274	274	274	275	275	276	277	277	278	279	279	280	281	281	282	282	282	283	283	283	283	284	284	284	285	285	285	286	286	286	286	286	287	287	287	287	288	288	288	289	289	289	289	289	290	290	290	290	290	291	292	292	292	293	293	293	294	294	294	295	295	296	296	296	297	298	298	298	39	0	0	0	0	0	0	0	0	0	0	0	0	0	0	0	0	0	0	0	0	0	0	0	0	0	0	0	0	0	0	0	0	0	0	0	0	0	0	0	0	0	0	132	1394	1394	1395	1410	1410	1410	1410	1410	1410	1410	1410	1410	1410	1414	1418	1418	1418	1418	1418	1418	1418	1418	1422	1426	1426	1430	1435	1442	1443	1443	1443	1443	1443	1443	1446	1451	1451	1451	1451	1451	1451	1451	1438	1432	1426	1420	1418	1418	1424	1426	1426	1433	1437	1443	1449	1455	1468	1488	1501	1523	1543	1555	1571	1578	1583	1591	1605	1612	1612	1612	1610	1601	1601	1600	1591	1591	1590	1581	1575	1571	1571	1571	1570	1561	1561	1561	1561	1561	1561	1561	1561	1561	1571	1571	1571	1581	1581	1581	1581	1581	1581	1581	1576	1571	1571	1567	1561	1543	1541	1541	145	0	0	0	0	0	0	0	0	1396	1644	1644	1681	1699	1723	1743	1763	1798	1819	1829	1838	1838	1838	1838	1838	1838	1838	1838	1835	1825	1815	1811	1811	1802	1793	1773	1773	1773	1773	602	264	1748	1740	1735	1735	1728	1722	1712	1712	1712	1712	1712	1712	1712	1718	1723	1723	1723	1723	1735	1742	1748	1748	1741	1735	1735	1729	1723	1723	1718	1712	1712	937	0	0	0	0	0	665	1601	1592	1587	1581	1581	1581	1581	1581	1581	1581	1589	1591	1591	1591	1591	1591	1591	1588	1581	1573	1568	1561	1553	1544	1523	1509	1500	1486	1473	1464	1451	1445	1441	1435	1429	1424	1418	1413	1410	1410	1405	1402	1402	1397	1394	1394	1389	1386	1386	1386	1385	1379	1379	1379	1379	1379	1379	1379	1379	1379	1379	1383	1386	1386	1390	1394	1402	1406	1410	1418	1422	1426	1435	1435	1435	1450	1451	1451	1444	1443	1443	1443	1443	1443	1436	1435	1435	1420	1418	1418	1411	1407	1402	1389	1384	1379	1367	1362	1356	1350	1349	1349	1343	1341	1341	1347	1353	1364	1364	1367	1379	1384	1388
11204	12054	13062	14482	14598	14598	15425	15921	16545	16545	16155	15511	14367	14047	13787	13479	13190	12736	11996	11513	10811	10107	9827	9560	9408	9272	9028	8900	8672	8139	7761	7532	7207	6992	6774	6292	5928	5692	5342	5084	4918	4689	4465	4316	4104	3936	3796	3495	3390	3323	3265	3265	3267	3287	3341	3384	3448	3490	3526	3598	3690	3777	4038	4112	4180	4356	4396	4434	4512	4556	4598	4598	4598	4598	4913	4944	4972	2575	3860	5526	5526	5692	5909	5909	5745	5515	5203	5069	4914	4789	4723	4640	4602	4552	4472	4405	4354	4279	4279	4279	4279	2574	2177	2177	2208	2264	2386	4386	4986	5026	5098	5148	5230	5359	5432	5526	5659	5740	5846	5846	5821	5712	5665	5611	5455	5267	5131	4914	4683	4513	4242	4114	4021	3908	3802	3719	3597	3537	3488	3400	3324	3258	3141	3078	3023	2954	2918	2885	2853	2820	2788	2698	2656	2612	2559	2558	2558	97	0	0	0	0	0	0	0	0	0	0	0	0	0	0	0	0	0	0	0	0	0	0	0	0	0	0	0	0	0	0	0	0	0	0	0	0	0	0	0	0	0	0	24	128	216	258	258	258	258	258	258	258	258	258	258	258	258	258	257	257	257	257	257	257	258	258	258	258	259	259	259	259	259	260	260	260	260	261	261	261	262	262	262	262	263	264	264	265	265	266	266	267	268	268	269	269	270	271	271	271	272	272	272	272	273	273	274	274	274	275	276	276	277	278	278	279	279	280	281	281	282	282	282	282	283	283	283	283	284	284	284	285	285	285	286	286	286	286	287	287	287	288	288	288	288	289	289	289	289	290	290	290	290	290	291	291	292	292	292	293	293	294	294	294	294	295	296	296	162	148	148	149	149	149	20	0	0	0	0	0	0	0	0	0	0	0	0	0	0	0	0	0	0	0	0	0	0	0	0	0	0	0	0	0	0	0	0	0	0	0	0	0	0	0	0	0	0	132	1394	1394	1395	1410	1410	1410	1410	1410	1410	1410	1410	1410	1410	1414	1418	1418	1418	1418	1418	1418	1418	1418	1422	1426	1426	1430	1435	1439	1441	1443	1443	1443	1443	1443	1446	1451	1451	1451	1451	1451	1451	1451	1444	1442	1438	1432	1429	1426	1430	1432	1434	1438	1440	1443	1452	1460	1472	1489	1500	1518	1542	1554	1566	1576	1584	1596	1607	1612	1612	1612	1610	1601	1601	1600	1591	1591	1590	1581	1575	1571	1566	1566	1565	1556	1556	1556	1556	1556	1556	1556	1556	1556	1561	1561	1561	1571	1571	1571	1571	1569	1566	1566	1564	1561	1561	1555	1546	1528	1525	1522	817	741	738	738	740	743	755	762	770	1485	1618	1628	1669	1688	1712	1736	1759	1798	1819	1829	1838	1838	1838	1838	1838	1838	1838	1838	1837	1832	1826	1822	1811	1802	1793	1773	1773	1773	1773	602	264	1748	1740	1735	1735	1728	1722	1718	1718	1718	1718	1718	1718	1718	1721	1723	1723	1723	1723	1735	1742	1748	1748	1741	1735	1735	1729	1723	1723	1718	1712	1712	937	0	0	0	0	0	665	1601	1592	1587	1581	1581	1579	1576	1576	1578	1581	1585	1588	1591	1591	1591	1591	1587	1584	1581	1573	1568	1561	1553	1544	1523	1509	1500	1486	1473	1465	1456	1449	1445	1439	1433	1429	1422	1417	1414	1414	1409	1405	1402	1399	1397	1394	1389	1386	1386	1386	1385	1379	1377	1375	1372	1372	1372	1372	1372	1372	1372	1373	1375	1378	1381	1382	1390	1394	1398	1406	1410	1414	1422	1424	1426	1438	1438	1438	1435	1436	1439	1439	1441	1443	1436	1435	1435	1420	1418	1418	1411	1407	1402	1389	1384	1379	1367	1362	1356	1350	1348	1345	1342	1341	1341	1344	1348	1356	1362	1367	1379	1384	1388
11204	12054	13062	14482	14598	14598	15425	15921	16545	16545	16155	15511	14015	13787	13787	13171	12840	12409	11473	10979	10341	9695	9438	9192	9192	9099	8863	8863	8707	8272	7882	7697	7520	7357	7125	6531	6188	5941	5515	5274	5113	4866	4626	4460	4206	4030	3872	3495	3405	3342	3265	3265	3270	3309	3364	3409	3495	3524	3553	3650	3745	3836	4136	4214	4285	4432	4474	4512	4512	4512	4512	4512	4512	4512	4768	4773	4773	4956	5107	5280	5280	5553	5909	5909	5745	5515	5203	5088	4963	4795	4739	4683	4607	4566	4512	4444	4380	4279	4279	4279	4279	4340	4354	4354	4416	4529	4773	5080	5199	5280	5280	5308	5395	5575	5670	5771	5870	5939	6053	6053	6026	5909	5815	5728	5515	5287	5124	4866	4639	4472	4206	4080	3989	3878	3773	3694	3597	3537	3488	3400	3324	3258	3141	3078	3023	2954	2918	2885	2853	2820	2788	2698	2656	2612	2559	2558	2558	97	0	0	0	0	0	0	0	0	0	0	0	0	0	0	0	0	0	0	0	0	0	0	0	0	0	0	0	0	0	0	0	0	0	0	0	0	0	0	0	0	0	0	48	257	257	257	257	257	257	258	258	258	257	257	257	258	258	258	257	257	257	257	257	257	258	258	258	258	259	259	259	259	259	260	260	260	260	260	261	261	261	262	262	262	263	264	264	265	266	266	267	267	268	269	269	269	270	271	271	271	272	272	272	273	273	273	274	274	275	276	276	277	278	278	278	279	279	280	281	281	282	282	282	282	283	283	283	283	283	284	284	284	285	285	285	286	286	286	287	287	287	288	288	288	288	289	289	289	290	290	290	291	291	291	291	291	292	292	292	293	293	294	294	294	295	295	296	297	28	0	0	0	0	0	0	0	0	0	0	0	0	0	0	0	0	0	0	0	0	0	0	0	0	0	0	0	0	0	0	0	0	0	0	0	0	0	0	0	0	0	0	0	0	0	0	0	0	132	1394	1394	1395	1410	1410	1410	1410	1410	1410	1410	1410	1410	1410	1414	1418	1418	1418	1418	1418	1418	1418	1418	1422	1426	1426	1430	1435	1435	1438	1443	1443	1443	1443	1443	1446	1451	1451	1451	1451	1451	1451	1451	1451	1451	1451	1445	1441	1435	1435	1437	1443	1443	1443	1443	1456	1464	1477	1490	1499	1513	1540	1553	1561	1575	1585	1601	1608	1612	1612	1612	1610	1601	1601	1600	1591	1591	1590	1581	1575	1570	1561	1561	1560	1551	1551	1551	1551	1551	1551	1551	1551	1551	1551	1551	1551	1561	1561	1561	1561	1556	1551	1551	1551	1551	1551	1543	1532	1514	1509	1504	1488	1482	1477	1477	1480	1486	1509	1523	1541	1575	1592	1612	1657	1677	1700	1728	1754	1798	1819	1829	1838	1838	1838	1838	1838	1838	1838	1838	1838	1838	1838	1832	1811	1802	1793	1773	1773	1773	1773	602	264	1748	1740	1735	1735	1728	1723	1723	1723	1723	1723	1723	1723	1723	1723	1723	1723	1723	1723	1735	1742	1748	1748	1741	1735	1735	1729	1723	1723	1718	1712	1712	937	0	0	0	0	0	665	1601	1592	1587	1581	1581	1577	1571	1571	1575	1581	1581	1584	1591	1591	1591	1591	1583	1581	1581	1573	1568	1561	1553	1544	1523	1509	1500	1486	1473	1466	1460	1454	1449	1443	1437	1433	1426	1421	1418	1418	1413	1409	1402	1402	1401	1394	1389	1386	1386	1386	1385	1379	1374	1370	1364	1364	1364	1364	1364	1364	1364	1364	1364	1371	1371	1371	1379	1382	1386	1394	1398	1402	1410	1414	1418	1426	1426	1426	1426	1430	1435	1435	1438	1443	1436	1435	1435	1420	1418	1418	1411	1407	1402	1389	1384	1379	1367	1362	1356	1350	1347	1341	1341	1341	1341	1341	1343	1349	1360	1367	1379	1384	1388
11734	12672	13787	14537	14598	14598	15425	15921	16545	15628	15166	14598	13265	12828	12409	11907	11636	11281	10501	9972	9192	8678	8558	8558	8331	8272	8272	8066	7940	7755	7578	7466	7299	7001	6774	6363	6249	6087	5640	5312	5095	4773	4773	4702	4354	4122	3950	3650	3520	3435	3354	3354	3354	3354	3439	3505	3597	3628	3663	3818	3886	3958	4279	4320	4360	4512	4512	4512	4512	4512	4512	4432	4432	4432	4593	4637	4683	4770	4815	4866	5054	5111	5170	5272	5280	5280	4993	4963	4963	4795	4773	4773	4619	4566	4512	4512	4485	4432	4367	4354	4354	4354	4354	4354	4416	4529	4773	5080	5229	5395	5486	5515	5515	5607	5670	5771	5973	6053	6053	5952	5883	5771	5682	5579	5280	5071	4921	4683	4424	4251	4068	3988	3919	3760	3694	3640	3545	3488	3440	3354	3304	3258	3141	3078	3023	2954	2918	2885	2853	2820	2788	2698	2698	2698	2535	2532	2532	96	0	0	0	0	0	0	0	0	0	0	0	0	0	0	0	0	0	0	0	0	0	0	0	0	0	0	0	0	0	0	0	0	0	0	0	0	0	0	0	0	0	0	48	256	256	256	257	257	257	258	258	258	257	257	257	257	257	257	257	257	257	257	257	257	257	258	258	258	258	258	259	259	259	259	259	260	260	260	261	261	261	262	262	262	263	264	264	265	266	266	267	268	268	269	270	270	271	271	271	272	272	272	273	273	273	274	275	275	275	276	276	277	278	278	279	279	279	280	281	281	281	282	282	282	282	282	283	283	283	283	284	284	284	285	285	285	286	286	287	287	287	288	288	288	289	289	289	289	290	290	291	291	291	291	291	292	292	292	293	11	0	0	0	0	0	0	0	0	0	0	0	0	0	0	0	0	0	0	0	0	0	0	0	0	0	0	0	0	0	0	0	0	0	0	0	0	0	0	0	0	0	0	0	0	0	0	0	0	0	0	0	0	0	0	0	0	0	132	1394	1394	1395	1410	1410	1410	1410	1410	1410	1410	1410	1410	1410	1410	1410	1418	1418	1418	1418	1418	1418	1418	1418	1418	1426	1430	1435	1435	1438	1443	1443	1443	1443	1450	1451	1451	1451	1451	1451	1451	1451	1451	1451	1451	1451	1445	1441	1435	1435	1435	1435	1441	1443	1443	1456	1464	1477	1490	1499	1513	1527	1538	1561	1575	1585	1601	1608	1612	1612	1612	1610	1601	1601	1601	1601	1595	1590	1581	1575	1570	1561	1555	1550	1541	1541	1541	1541	1536	1532	1532	1532	1532	1532	1532	1532	1532	1536	1541	1532	1532	1532	1532	1532	1532	1524	1515	1504	1487	1482	1477	1469	1468	1468	1468	1471	1477	1493	1505	1523	1555	1575	1601	1655	1673	1688	1726	1746	1773	1803	1815	1825	1835	1842	1852	1852	1855	1866	1866	1866	1866	1846	1838	1838	1838	1491	0	0	0	0	0	0	0	0	234	1773	1749	1735	1735	1758	1774	1785	1756	1735	1735	1771	1799	1811	1819	1823	1785	1785	1786	1852	1852	1852	1852	1852	1852	35	0	0	1730	1775	1748	1703	1690	1677	1646	1631	1612	1602	1597	1591	1582	1577	1571	1571	1571	1571	1579	1581	1581	1581	1581	1581	1581	1578	1571	1571	1571	1571	356	0	0	0	0	0	0	336	1486	1467	1458	1451	1445	1441	1435	1435	1433	1426	1421	1418	1418	1413	1409	1402	1397	1393	1386	1386	1385	1379	1370	1363	1356	1352	1349	1349	1349	1349	1349	1349	1349	1349	1349	1349	1356	1360	1364	1364	1367	1371	1385	1390	1394	1394	1394	1394	1409	1410	1410	1410	1410	1410	1410	1410	1410	1410	1407	1402	1402	926	0	0	0	0	1107	1362	1356	1350	1347	1341	1341	1339	1334	1334	1336	1341	1347	1351	1356	384	0
11734	12672	13787	14537	14787	15054	15468	15716	16028	15570	15166	14598	12981	12513	12114	11236	10918	10604	9909	9481	8875	8394	8244	8156	7950	7896	7896	7793	7701	7527	7285	7157	7003	6789	6598	6208	6050	5890	5518	5169	4947	4642	4642	4224	2177	2061	1975	1825	1760	1930	3288	3288	3296	3354	3439	3505	3597	3644	3690	3848	3918	3988	4279	4341	4397	4512	4491	4472	4472	4452	4433	4393	4393	4393	4473	4496	4518	4599	4624	4649	4781	4848	4926	5019	5026	5026	4803	4780	4780	4734	4728	4728	4613	4566	4512	4512	3732	2216	2184	2888	4393	4393	3724	2177	2208	2264	2386	2540	2615	2698	4779	5455	5455	5545	5592	5643	5836	5926	5981	5883	5815	5706	5578	5459	5172	5002	4867	4598	4370	4215	4036	3956	3892	3760	3678	3614	3520	3464	3418	3354	3292	3238	3141	3078	3023	2954	2918	2885	2836	2804	2772	2669	2649	2628	2534	2532	2532	96	0	0	0	0	0	0	0	0	0	0	0	0	0	0	0	0	0	0	0	0	0	0	0	0	0	0	0	0	0	0	0	0	0	0	0	0	0	0	0	0	0	0	48	256	256	256	257	257	257	258	258	257	257	257	257	257	257	257	257	257	257	257	257	257	257	257	258	258	258	258	259	259	259	259	259	260	260	260	261	261	261	262	262	262	263	264	264	265	266	266	267	268	268	269	270	270	271	271	272	272	272	273	273	273	274	274	275	275	276	276	276	277	278	278	279	279	279	280	281	281	281	281	282	282	282	282	282	283	283	283	284	284	284	284	285	285	286	286	286	287	287	288	288	288	288	289	289	289	290	290	291	217	146	146	146	146	146	146	146	6	0	0	0	0	0	0	0	0	0	0	0	0	0	0	0	0	0	0	0	0	0	0	0	0	0	0	0	0	0	0	0	0	0	0	0	0	0	0	0	0	0	0	0	0	0	0	0	0	0	0	0	0	0	0	0	0	421	763	1394	1394	1395	1406	1408	1410	1410	1410	1410	1410	1410	1410	1410	1410	1410	1418	1418	1418	1418	1418	1418	1418	1418	1418	1426	1430	1435	1435	1438	1443	1443	1443	1443	1450	1451	1451	1451	1451	1451	1455	1454	1451	1451	1451	1451	1445	1441	1435	1435	1435	1435	1441	1443	1443	1456	1464	1477	1490	1499	1513	1527	1538	1561	1578	1589	1601	1608	1612	1612	1612	1610	1601	1601	1601	1601	1595	1590	1581	1575	1570	1561	1555	1550	1541	1538	1536	1532	1530	1528	1528	1525	1522	1522	1522	1522	1528	1530	1532	1528	1528	1528	1528	1525	1522	1518	1512	1504	1487	1482	1477	1469	1468	1468	1468	1471	1477	1489	1502	1523	1551	1568	1591	1640	1660	1682	1716	1736	1766	1797	1810	1825	1835	1842	1852	1852	1855	1866	1866	1866	1866	1851	1844	1838	1829	1650	899	899	899	899	895	892	886	882	997	1766	1759	1754	1754	1765	1774	1785	1770	1760	1766	1784	1799	1811	1819	1824	1805	1808	1812	1852	1852	1852	1852	1852	1852	35	0	0	1730	1775	1748	1703	1690	1677	1646	1633	1617	1607	1600	1591	1578	1574	1571	1571	1571	1571	1575	1576	1576	1576	1576	1576	1576	1574	1571	1567	1566	1566	958	778	770	767	765	762	762	926	1486	1477	1474	1478	1472	1467	1460	1457	1452	1434	1432	1430	1426	1421	1417	1410	1403	1397	1390	1388	1385	1379	1370	1363	1352	1348	1345	1345	1343	1342	1342	1342	1342	1342	1342	1342	1345	1349	1352	1352	1356	1360	1371	1375	1379	1379	1381	1382	1394	1394	1394	1394	1394	1394	1398	1400	1402	1402	1401	1398	1401	1164	701	701	701	701	1239	1362	1356	1350	1347	1341	1341	1339	1334	1334	1336	1341	1347	1351	1356	384	0
11734	12672	13787	14537	14977	15511	15511	15511	15511	15511	15166	14598	12698	12197	11818	10564	10200	9927	9317	8989	8558	8110	7930	7755	7569	7520	7520	7520	7462	7299	6993	6848	6707	6577	6423	6053	5851	5693	5395	5026	4799	4512	4512	3746	0	0	0	0	0	426	3223	3223	3238	3354	3439	3505	3597	3660	3717	3878	3949	4019	4279	4363	4435	4512	4470	4432	4432	4392	4354	4354	4354	4354	4354	4354	4354	4429	4432	4432	4507	4586	4683	4766	4773	4773	4613	4596	4596	4673	4683	4683	4607	4566	4512	4512	2980	0	0	1422	4432	4432	3094	0	0	0	0	0	0	0	4072	5395	5395	5483	5515	5515	5699	5800	5909	5813	5746	5640	5474	5339	5065	4934	4813	4512	4316	4179	4003	3925	3865	3760	3662	3587	3495	3439	3397	3354	3280	3218	3141	3078	3023	2954	2918	2885	2820	2788	2757	2640	2600	2558	2532	2532	2532	96	0	0	0	0	0	0	0	0	0	0	0	0	0	0	0	0	0	0	0	0	0	0	0	0	0	0	0	0	0	0	0	0	0	0	0	0	0	0	0	0	0	0	48	256	256	256	257	257	257	257	257	257	257	257	257	257	257	257	257	257	257	257	257	257	257	257	257	258	258	258	259	259	259	259	259	260	260	260	261	261	261	262	262	262	263	264	264	265	266	266	267	268	268	269	270	270	271	272	272	272	273	273	273	274	274	275	275	275	276	276	276	277	278	278	279	279	279	280	281	281	281	281	281	282	282	282	282	283	283	283	284	284	284	284	284	285	286	286	286	287	287	287	288	288	288	289	289	289	290	290	291	143	0	0	0	0	0	0	0	0	0	0	0	0	0	0	0	0	0	0	0	0	0	0	0	0	0	0	0	0	0	0	0	0	0	0	0	0	0	0	0	0	0	0	0	0	0	0	0	0	0	0	0	0	0	0	0	0	0	0	0	0	0	0	0	0	842	1394	1394	1394	1395	1402	1407	1410	1410	1410	1410	1410	1410	1410	1410	1410	1410	1418	1418	1418	1418	1418	1418	1418	1418	1418	1426	1430	1435	1435	1438	1443	1443	1443	1443	1450	1451	1451	1451	1451	1451	1459	1457	1451	1451	1451	1451	1445	1441	1435	1435	1435	1435	1441	1443	1443	1456	1464	1477	1490	1499	1513	1527	1538	1561	1582	1593	1601	1608	1612	1612	1612	1610	1601	1601	1601	1601	1595	1590	1581	1575	1570	1561	1555	1550	1541	1536	1531	1523	1523	1523	1523	1518	1513	1513	1513	1513	1523	1523	1523	1523	1523	1523	1523	1518	1513	1513	1509	1504	1487	1482	1477	1469	1468	1468	1468	1471	1477	1485	1499	1523	1547	1561	1581	1624	1647	1677	1705	1726	1760	1790	1806	1825	1835	1842	1852	1852	1855	1866	1866	1866	1866	1856	1849	1838	1819	1809	1798	1798	1798	1798	1789	1783	1773	1765	1760	1760	1768	1773	1773	1773	1774	1785	1785	1786	1798	1798	1799	1811	1819	1825	1825	1832	1838	1852	1852	1852	1852	1852	1852	35	0	0	1730	1775	1748	1703	1690	1677	1646	1635	1622	1613	1604	1591	1573	1571	1571	1571	1571	1571	1571	1571	1571	1571	1571	1571	1571	1571	1571	1563	1561	1561	1561	1556	1541	1534	1530	1523	1523	1515	1486	1486	1490	1504	1498	1493	1486	1480	1471	1443	1443	1442	1435	1429	1425	1418	1408	1401	1394	1389	1385	1379	1370	1363	1349	1344	1341	1341	1337	1334	1334	1334	1334	1334	1334	1334	1334	1337	1341	1341	1345	1349	1356	1360	1364	1364	1367	1371	1378	1379	1379	1379	1379	1379	1385	1389	1394	1394	1394	1394	1401	1402	1402	1402	1402	1402	1371	1362	1356	1350	1347	1341	1341	1339	1334	1334	1336	1341	1347	1351	1356	384	0
12292	13007	13787	15381	15511	15511	15511	15149	14598	14598	14018	13062	11516	11105	10790	10057	9677	9192	8666	8381	8006	7612	7453	7299	7299	7299	7299	7138	7039	6894	6894	6764	6363	6246	6137	5909	5810	5693	5395	5026	4799	4512	4512	3746	0	0	0	0	0	426	3223	3223	3238	3354	3439	3515	3704	3771	3827	3939	4051	4153	4432	4476	4512	4512	4470	4431	4354	4316	4279	4206	4172	4136	4136	4136	4136	4203	4206	4206	4275	4312	4354	4426	4465	4512	4588	4596	4596	4673	4683	4683	4683	4652	4596	4596	3035	0	0	0	0	0	0	0	0	0	0	0	0	0	4072	5395	5395	5395	5422	5515	5605	5640	5640	5469	5373	5280	5205	5118	4866	4745	4645	4432	4287	4179	4003	3888	3805	3704	3639	3583	3447	3393	3351	3309	3260	3218	3141	3078	3023	2954	2918	2885	2820	2773	2727	2640	2600	2558	2558	1351	0	0	0	0	0	0	0	0	0	0	0	0	0	0	0	0	0	0	0	0	0	0	0	0	0	0	0	0	0	0	0	0	0	0	0	0	0	0	0	0	0	53	254	254	254	255	255	255	256	256	256	257	257	257	257	257	257	257	257	257	257	257	257	257	257	257	257	257	257	258	258	258	259	259	259	259	259	260	260	260	261	261	261	262	262	262	263	264	264	265	266	266	267	268	268	269	271	271	272	272	272	272	273	273	274	274	274	275	275	275	276	277	277	277	278	278	279	279	279	280	280	280	281	281	281	281	282	282	282	282	282	283	283	283	284	284	284	285	285	285	286	286	286	287	288	288	288	289	289	290	137	0	0	0	0	0	0	0	0	0	0	0	0	0	0	0	0	0	0	0	0	0	0	0	0	0	0	0	0	0	0	0	0	0	0	0	0	0	0	0	0	0	0	0	0	0	0	0	0	0	0	0	0	0	0	0	0	0	0	0	0	0	0	0	0	0	0	0	842	1393	1386	1386	1387	1394	1399	1402	1402	1406	1410	1410	1410	1410	1410	1410	1410	1410	1410	1410	1410	1410	1410	1418	1418	1418	1426	1430	1435	1435	1438	1443	1443	1446	1451	1451	1451	1451	1451	1451	1451	1459	1460	1460	1460	1457	1451	1451	1449	1443	1443	1443	1443	1443	1445	1451	1458	1466	1486	1499	1508	1523	1529	1538	1561	1575	1585	1601	1615	1622	1622	1622	1620	1612	1612	1612	1612	1599	1590	1581	1575	1570	1561	1555	1550	1541	1536	1531	1523	1518	1513	1513	1508	1504	1504	1504	1504	1504	1508	1513	1513	1513	1513	1513	1513	1513	1513	1509	1504	1496	1488	1477	1469	1468	1468	1468	1471	1477	1485	1499	1523	1538	1555	1581	1615	1636	1666	1703	1723	1748	1768	1780	1798	1808	1818	1838	1838	1841	1852	1852	1852	1852	1842	1835	1825	1806	1796	1785	1777	1773	1773	1773	1771	1760	1760	1760	1760	1768	1773	1773	1780	1785	1785	1800	1812	1825	1825	1826	1838	1838	1839	1852	1859	1866	1866	1866	1866	1852	1852	1852	35	861	1825	1799	1775	1748	1703	1690	1677	1656	1645	1633	1614	1604	1591	1573	1567	1561	1561	1561	1561	1561	1564	1571	1563	1561	1561	1561	1561	1561	1561	1561	1561	1561	1556	1541	1534	1530	1523	1523	1521	1513	1513	1511	1504	1498	1493	1486	1480	1475	1468	1463	1459	1451	1446	1442	1435	1424	1416	1402	1397	1393	1379	1370	1363	1349	1344	1341	1334	1334	1334	1334	1330	1327	1327	1327	1327	1327	1327	1327	1327	1330	1334	1334	1334	1334	1341	1341	1341	1348	1352	1356	1356	1356	1356	1363	1364	1364	1370	1374	1379	1399	1402	1402	1402	1402	1402	1396	1394	1394	1388	1384	1379	1379	1379	1379	1384	1386	1386	1398	1085	0	0	0
11748	12389	13098	14197	14286	14286	14615	14468	14192	13871	13305	12440	11221	10724	10168	9651	9327	8875	8383	8116	7763	7476	7345	7195	7117	7096	7096	7016	6919	6712	6649	6544	6284	6116	6023	5909	5860	5693	5130	4882	4717	4472	4395	3964	2034	2013	1997	1970	1970	2153	3359	3359	3378	3529	3606	3675	3854	3906	3956	4109	4186	4260	4514	4536	4552	4512	4449	4392	4316	4279	4242	4171	4137	4102	4070	4070	4070	4134	4137	4137	4204	4239	4280	4350	4388	4433	4471	4475	4475	2583	2342	2342	2342	2326	2298	4249	3816	2298	2230	2216	2216	418	0	0	0	702	2482	2482	2495	2532	4649	5352	5395	5395	5422	5515	5560	5578	5578	5410	5316	5225	5117	5025	4820	4701	4602	4393	4251	4149	4003	3888	3802	3677	3613	3559	3447	3393	3349	3287	3239	3198	3122	3069	3023	2954	2918	2885	2853	2789	2727	2640	2620	2599	1304	676	0	0	0	0	0	0	0	0	0	0	0	0	0	0	0	0	0	0	0	0	0	0	0	0	0	0	0	0	0	0	0	0	0	0	0	0	0	0	0	0	90	152	253	253	254	254	255	255	256	256	256	256	256	256	256	256	256	256	256	256	256	256	256	256	257	257	257	257	257	258	258	258	258	259	259	259	259	260	260	260	261	261	261	262	262	263	264	264	265	265	266	267	268	268	269	270	271	271	272	272	272	272	273	273	274	274	274	275	275	275	276	276	277	277	278	278	279	279	279	280	280	280	280	281	281	281	281	282	282	282	282	282	283	283	284	284	284	284	285	285	286	286	286	287	287	288	288	289	284	145	68	0	0	0	0	0	0	0	0	0	0	0	0	0	0	0	0	0	0	0	0	0	0	0	0	0	0	0	0	0	0	0	0	0	0	0	0	0	0	0	0	0	0	0	0	0	0	0	0	0	0	0	0	0	0	0	0	0	0	0	0	0	0	0	0	0	0	0	421	762	1386	1386	1386	1390	1395	1398	1398	1402	1406	1406	1406	1406	1406	1406	1406	1406	1408	1410	1410	1410	1410	1414	1416	1418	1426	1428	1430	1435	1438	1443	1443	1446	1451	1451	1451	1451	1451	1451	1451	1459	1460	1460	1460	1457	1451	1451	1449	1443	1443	1443	1443	1443	1445	1451	1458	1466	1486	1499	1508	1523	1529	1538	1561	1575	1586	1606	1617	1622	1622	1622	1621	1617	1617	1616	1612	1602	1595	1586	1580	1575	1561	1555	1550	1541	1536	1531	1523	1518	1513	1513	1508	1504	1504	1504	1504	1504	1508	1513	1513	1513	1513	1513	1513	1513	1513	1509	1504	1496	1491	1486	1478	1475	1472	1472	1476	1482	1493	1507	1528	1539	1553	1576	1610	1631	1660	1697	1717	1742	1761	1774	1792	1802	1810	1824	1824	1828	1838	1838	1838	1838	1828	1822	1812	1798	1788	1772	1768	1766	1766	1763	1760	1754	1754	1754	1754	1766	1774	1779	1790	1799	1805	1816	1826	1838	1838	1839	1852	1852	1852	1859	1866	1873	1866	1866	1866	1852	1852	1852	937	1343	1818	1787	1766	1742	1702	1690	1677	1656	1645	1633	1614	1604	1591	1573	1567	1561	1557	1556	1556	1560	1563	1566	1558	1556	1556	1556	1556	1556	1560	1561	1561	1561	1557	1546	1543	1539	1532	1532	1531	1527	1527	1525	1518	1512	1507	1500	1493	1489	1482	1476	1471	1460	1454	1450	1439	1428	1421	1410	1403	1397	1382	1374	1366	1352	1346	1341	1334	1332	1330	1330	1329	1327	1324	1322	1320	1320	1320	1320	1320	1322	1324	1324	1324	1324	1330	1329	1327	1331	1332	1334	1334	1334	1334	1361	1364	1364	1370	1374	1379	803	701	701	701	701	701	1301	1440	1440	848	893	1398	1398	1409	1437	1417	1410	1410	888	542	0	0	0
11204	11771	12409	13013	13062	13062	13719	13787	13787	13144	12593	11818	10926	10344	9545	9245	8977	8558	8100	7850	7520	7341	7236	7091	6935	6894	6894	6894	6798	6531	6404	6324	6204	5987	5909	5909	5909	5693	4866	4738	4636	4432	4278	4183	4068	4025	3993	3939	3939	3880	3495	3495	3519	3704	3773	3835	4003	4041	4084	4279	4321	4368	4596	4596	4593	4512	4429	4353	4279	4242	4206	4136	4103	4068	4004	4003	4003	4066	4068	4068	4132	4166	4206	4273	4310	4354	4354	4354	4354	493	0	0	0	0	0	3902	4596	4596	4460	4432	4432	836	0	0	0	1405	4963	4963	4990	5065	5227	5308	5395	5395	5422	5515	5515	5515	5515	5351	5259	5170	5029	4931	4773	4656	4559	4354	4214	4118	4003	3888	3799	3650	3587	3536	3447	3393	3347	3265	3218	3177	3102	3060	3023	2954	2918	2886	2886	2805	2727	2640	2640	2640	50	0	0	0	0	0	0	0	0	0	0	0	0	0	0	0	0	0	0	0	0	0	0	0	0	0	0	0	0	0	0	0	0	0	0	0	0	0	0	0	0	0	181	252	252	253	253	254	255	255	255	256	256	256	256	256	256	256	256	256	256	256	256	256	256	256	257	257	257	257	257	257	258	258	258	259	259	259	259	260	260	260	261	261	261	262	262	263	264	265	265	265	267	267	268	269	269	270	271	271	272	272	272	273	273	273	274	274	274	275	275	275	276	276	276	277	278	278	279	279	279	279	280	280	280	281	281	281	281	281	282	282	282	282	283	283	283	284	284	284	285	285	285	286	286	287	287	287	288	289	278	0	0	0	0	0	0	0	0	0	0	0	0	0	0	0	0	0	0	0	0	0	0	0	0	0	0	0	0	0	0	0	0	0	0	0	0	0	0	0	0	0	0	0	0	0	0	0	0	0	0	0	0	0	0	0	0	0	0	0	0	0	0	0	0	0	0	0	0	0	0	131	1386	1386	1386	1386	1391	1394	1394	1398	1402	1402	1402	1402	1402	1402	1402	1402	1406	1410	1410	1410	1410	1410	1414	1418	1426	1426	1426	1434	1438	1443	1443	1446	1451	1451	1451	1451	1451	1451	1451	1459	1460	1460	1460	1457	1451	1451	1449	1443	1443	1443	1443	1443	1445	1451	1458	1466	1486	1499	1508	1523	1529	1538	1561	1575	1587	1612	1619	1622	1622	1622	1622	1622	1622	1621	1612	1605	1600	1591	1585	1579	1561	1555	1550	1541	1536	1531	1523	1518	1513	1513	1508	1504	1504	1504	1504	1504	1508	1513	1513	1513	1513	1513	1513	1513	1513	1509	1504	1496	1495	1495	1487	1482	1477	1477	1480	1486	1502	1514	1532	1540	1551	1571	1605	1625	1654	1691	1711	1735	1755	1767	1785	1795	1801	1811	1811	1814	1825	1825	1825	1825	1815	1808	1798	1789	1780	1760	1760	1760	1760	1752	1748	1748	1748	1748	1748	1764	1774	1785	1801	1812	1825	1833	1839	1852	1852	1853	1866	1866	1866	1866	1873	1880	1866	1866	1866	1852	1852	1852	1838	1825	1811	1774	1756	1735	1702	1690	1677	1656	1645	1633	1614	1604	1591	1573	1567	1561	1552	1551	1551	1559	1561	1561	1553	1551	1551	1551	1551	1551	1559	1561	1561	1561	1558	1551	1551	1549	1541	1541	1541	1541	1541	1539	1532	1526	1521	1513	1507	1502	1495	1489	1483	1468	1463	1458	1443	1432	1425	1418	1408	1400	1386	1377	1370	1356	1348	1341	1334	1330	1327	1327	1327	1327	1320	1316	1313	1313	1313	1313	1313	1313	1313	1313	1313	1313	1320	1317	1313	1313	1313	1313	1313	1313	1313	1358	1364	1364	1370	1374	1379	208	0	0	0	0	0	1206	1486	1486	308	401	1418	1418	1438	1495	1450	1435	1435	379	0	0	0	0
11204	11771	12409	12409	12409	12409	13657	13241	12409	11409	10926	10341	9344	8965	8558	8089	7841	7520	7164	7028	6894	6599	6480	6363	6237	6204	6204	6204	6164	6053	5840	5739	5640	5640	5510	5065	4856	4736	4596	4537	4468	4279	4229	4183	4068	4025	3993	3939	3939	3939	3939	3979	4034	4279	4371	4440	4512	4561	4603	4683	4787	4866	4866	4815	4766	4596	4468	4351	4206	4136	4068	4003	4003	4003	3940	3939	3939	3939	3968	4003	4003	4061	4136	4201	4236	4279	4213	4206	4206	4271	2664	0	4064	4683	4683	4609	4596	4596	4460	4432	4432	836	0	0	0	1405	4963	4963	4990	5065	5227	5308	5395	5395	5395	5395	5395	5395	5395	5238	5150	5065	4996	4915	4683	4570	4477	4279	4187	4110	3939	3864	3799	3650	3556	3486	3400	3321	3259	3182	3137	3102	3102	3041	2989	2954	2918	2886	2886	1416	0	0	0	0	0	0	0	0	0	0	0	0	0	0	0	0	0	0	0	0	0	0	0	0	0	0	0	0	0	0	0	0	0	0	0	0	0	0	0	0	0	0	0	0	57	251	251	251	251	252	252	253	254	254	254	255	255	255	256	256	256	256	256	256	256	256	256	256	256	256	256	256	257	257	257	257	258	258	258	259	259	259	259	260	260	260	261	262	262	262	263	263	264	265	265	266	267	267	268	269	269	270	271	271	272	272	272	273	273	273	274	274	274	275	275	275	276	276	276	277	278	278	278	279	279	279	280	280	280	281	281	281	281	281	282	282	282	282	283	283	283	283	283	284	284	284	285	286	286	286	287	287	288	130	0	0	0	0	0	0	0	0	0	0	0	0	0	0	0	0	0	0	0	0	0	0	0	0	0	0	0	0	0	0	0	0	0	0	0	0	0	0	0	0	0	0	0	0	0	0	0	0	0	0	0	0	0	0	0	0	0	0	0	0	0	0	0	0	0	0	0	0	0	0	0	0	0	811	1386	1386	1391	1394	1394	1398	1402	1402	1402	1402	1402	1402	1402	1402	1406	1410	1410	1410	1410	1410	1414	1418	1426	1426	1426	1434	1438	1443	1443	1446	1451	1451	1454	1460	1460	1460	1460	1460	1460	1460	1460	1460	1460	1453	1449	1443	1443	1443	1443	1443	1445	1451	1464	1472	1486	1499	1508	1523	1536	1545	1561	1589	1605	1622	1622	1624	1633	1633	1633	1633	1633	1632	1622	1616	1610	1591	1585	1580	1571	1565	1560	1551	1545	1540	1532	1522	1513	1513	1513	1513	1513	1513	1513	1513	1518	1523	1523	1523	1523	1523	1523	1523	1523	1519	1513	1496	1495	1495	1487	1486	1486	1486	1489	1495	1511	1520	1532	1540	1551	1571	1605	1625	1654	1682	1699	1723	1733	1742	1760	1760	1763	1773	1773	1776	1785	1785	1782	1773	1764	1758	1748	1739	1733	1723	1716	1712	1712	1712	1712	1712	1712	1713	1723	1739	1749	1760	1775	1787	1811	1835	1853	1866	1866	1867	1880	1880	1880	1880	1880	1880	1880	1873	1866	1852	1845	1838	1812	1799	1785	1749	1737	1723	1690	1678	1666	1646	1635	1622	1603	1593	1581	1563	1557	1551	1542	1541	1541	1541	1541	1541	1534	1532	1532	1532	1532	1532	1539	1541	1541	1549	1551	1551	1551	1551	1551	1551	1553	1561	1561	1561	1561	1554	1549	1541	1535	1530	1523	1510	1503	1495	1483	1475	1460	1449	1441	1426	1416	1408	1386	1377	1370	1356	1348	1340	1327	1323	1320	1313	1313	1313	1306	1302	1299	1299	1296	1293	1293	1293	1293	1293	1293	1293	1293	1293	1293	1293	1293	1293	1293	1293	1293	1293	1293	1293	171	0	0	0	0	0	1191	1435	1435	1455	1465	1477	307	0	0	0	395	1495	1495	1128	0	0	0	0	0	0
8766	9239	9558	12194	12409	12409	13657	13241	12409	11409	10926	10341	9344	8779	8039	7539	7306	7026	6778	6646	6474	6268	6174	6067	5952	5922	5922	5827	5780	5724	5533	5429	5302	5232	5121	4830	4639	4537	4438	4358	4296	4174	4149	4131	4102	4128	4136	4109	4109	4119	4186	4230	4293	4572	4679	4757	4841	4866	4886	4926	5009	5070	5018	4936	4859	4640	4489	4351	4171	4119	4068	3971	3956	3940	3909	3908	3908	3880	3893	3910	3968	4000	4038	4099	4120	4141	4108	4104	4104	4166	3379	2068	4229	4558	4558	4555	4554	4554	4486	3748	2216	418	0	0	0	1419	5014	4975	4976	5014	5095	5148	5230	5230	5230	5230	5230	5230	5230	5116	5047	4966	4899	4829	4640	4555	4477	4279	4165	4080	3939	3846	3773	3650	3556	3484	3377	3311	3257	3162	3117	3082	3064	3024	2989	2972	2164	1443	1443	708	0	0	0	0	0	0	0	0	0	0	0	0	0	0	0	0	0	0	0	0	0	0	0	0	0	0	0	0	0	0	0	0	0	0	0	0	0	0	0	0	0	30	124	124	153	250	250	251	251	252	252	252	253	254	254	254	255	255	255	256	256	256	256	256	256	256	256	256	256	256	256	256	256	257	257	257	258	258	258	259	259	259	259	260	260	261	261	262	262	262	263	263	264	265	265	266	267	267	268	269	269	270	271	271	272	272	272	272	273	273	274	274	274	274	275	275	276	276	276	276	277	278	278	279	279	279	280	280	280	281	281	281	281	281	282	282	282	282	283	283	283	283	283	284	284	284	285	285	286	286	287	279	144	65	0	0	0	0	0	0	0	0	0	0	0	0	0	0	0	0	0	0	0	0	0	0	0	0	0	0	0	0	0	0	0	0	0	0	0	0	0	0	0	0	0	0	0	0	0	0	0	0	0	0	0	0	0	0	0	0	0	0	0	0	0	0	0	0	0	0	0	0	0	0	0	0	0	405	693	693	695	737	1398	1400	1402	1402	1402	1402	1402	1404	1406	1406	1408	1410	1410	1410	1410	1414	1416	1418	1426	1428	1430	1435	1438	1443	1447	1449	1451	1455	1457	1460	1460	1460	1460	1460	1460	1460	1460	1460	1460	1453	1449	1443	1443	1443	1443	1446	1448	1451	1464	1472	1486	1499	1508	1523	1539	1551	1571	1596	1609	1622	1626	1628	1633	1637	1638	1633	1633	1632	1628	1618	1610	1596	1590	1585	1576	1570	1565	1556	1550	1545	1532	1527	1522	1518	1518	1518	1518	1518	1518	1518	1523	1528	1528	1528	1528	1528	1528	1528	1528	1525	1522	1510	1507	1504	1500	1500	1500	1500	1503	1509	1525	1534	1546	1555	1566	1586	1621	1638	1660	1683	1697	1718	1727	1734	1748	1748	1749	1754	1754	1755	1760	1760	1757	1748	1739	1734	1724	1715	1709	1700	1696	1694	1694	1694	1694	1694	1698	1701	1706	1728	1743	1754	1769	1781	1804	1832	1853	1866	1866	1867	1880	1880	1880	1880	1880	1880	1880	1873	1866	1852	1842	1832	1811	1799	1785	1743	1728	1712	1679	1667	1655	1635	1624	1612	1593	1583	1571	1553	1547	1542	1533	1532	1532	1528	1527	1527	1523	1522	1522	1522	1522	1522	1530	1532	1532	1539	1543	1546	1546	1547	1551	1551	1553	1561	1561	1562	1566	1559	1554	1546	1543	1539	1528	1518	1511	1500	1488	1479	1464	1451	1441	1426	1416	1408	1386	1377	1370	1356	1346	1337	1324	1320	1316	1310	1310	1309	1300	1296	1292	1289	1288	1286	1283	1283	1283	1283	1283	1283	1280	1280	1280	1280	1280	1280	1277	1276	1276	1276	1276	1276	715	404	0	0	0	0	1168	1407	1407	1426	1436	1448	869	719	722	722	921	1478	1484	1302	734	734	732	726	717	710
6327	6707	6707	11979	12409	12409	13657	13241	12409	11409	10926	10341	9344	8593	7520	6988	6771	6531	6392	6264	6053	5936	5867	5771	5667	5640	5640	5450	5395	5395	5225	5119	4963	4823	4733	4596	4422	4338	4279	4179	4123	4068	4068	4080	4136	4230	4279	4279	4279	4299	4432	4482	4552	4866	4986	5075	5170	5170	5170	5170	5232	5274	5170	5057	4952	4683	4509	4350	4136	4101	4068	3939	3909	3878	3878	3878	3878	3820	3818	3818	3932	3939	3939	3998	4003	4003	4003	4003	4003	4061	4094	4136	4393	4432	4432	4500	4512	4512	4512	3065	0	0	0	0	0	1433	5065	4986	4963	4963	4963	4988	5065	5065	5065	5065	5065	5065	5065	4994	4945	4866	4803	4743	4596	4541	4477	4279	4144	4051	3939	3828	3748	3650	3556	3482	3354	3302	3256	3141	3097	3062	3026	3006	2990	2990	1410	0	0	0	0	0	0	0	0	0	0	0	0	0	0	0	0	0	0	0	0	0	0	0	0	0	0	0	0	0	0	0	0	0	0	0	0	0	0	0	0	0	0	0	0	61	248	248	248	249	250	250	251	252	252	252	253	253	254	254	254	255	255	255	255	255	255	256	256	256	256	256	256	256	256	256	256	257	257	257	258	258	258	259	259	259	259	260	261	261	261	262	262	262	263	263	264	265	265	266	267	267	268	269	269	270	271	271	272	272	272	272	273	273	273	274	274	274	275	275	275	276	276	276	277	277	278	279	279	279	280	280	280	281	281	281	281	281	282	282	282	282	283	283	283	283	283	284	284	284	285	285	285	286	287	271	0	0	0	0	0	0	0	0	0	0	0	0	0	0	0	0	0	0	0	0	0	0	0	0	0	0	0	0	0	0	0	0	0	0	0	0	0	0	0	0	0	0	0	0	0	0	0	0	0	0	0	0	0	0	0	0	0	0	0	0	0	0	0	0	0	0	0	0	0	0	0	0	0	0	0	0	0	0	0	79	1402	1402	1402	1402	1402	1402	1402	1406	1410	1410	1410	1410	1410	1410	1410	1418	1418	1418	1426	1430	1435	1435	1438	1443	1450	1451	1451	1459	1460	1460	1460	1460	1460	1460	1460	1460	1460	1460	1460	1453	1449	1443	1443	1443	1443	1449	1451	1451	1464	1472	1486	1499	1508	1523	1543	1557	1581	1603	1614	1622	1629	1633	1633	1640	1642	1633	1633	1633	1633	1620	1611	1601	1595	1590	1581	1575	1570	1561	1555	1550	1532	1532	1532	1523	1523	1523	1523	1523	1523	1523	1527	1532	1532	1532	1532	1532	1532	1532	1532	1532	1532	1524	1519	1513	1513	1513	1513	1513	1517	1523	1539	1548	1561	1569	1581	1601	1637	1651	1666	1684	1695	1712	1721	1726	1735	1735	1735	1735	1735	1735	1735	1735	1732	1723	1715	1710	1700	1692	1686	1677	1677	1677	1677	1677	1677	1677	1684	1688	1688	1717	1736	1748	1763	1775	1798	1830	1853	1866	1866	1867	1880	1880	1880	1880	1880	1880	1880	1873	1866	1852	1839	1825	1811	1799	1785	1737	1719	1700	1668	1656	1644	1624	1613	1601	1583	1573	1561	1543	1538	1532	1524	1523	1523	1515	1513	1513	1513	1513	1513	1513	1513	1513	1521	1523	1523	1530	1534	1541	1541	1543	1551	1551	1553	1561	1561	1563	1571	1564	1559	1551	1551	1548	1532	1526	1520	1504	1492	1484	1468	1452	1441	1426	1416	1408	1386	1377	1370	1356	1344	1333	1320	1316	1313	1306	1306	1306	1293	1289	1286	1279	1279	1279	1273	1273	1273	1273	1273	1273	1266	1266	1266	1266	1266	1266	1261	1260	1260	1260	1260	1260	1260	808	0	0	0	0	1145	1379	1379	1398	1407	1418	1431	1437	1443	1443	1447	1460	1473	1475	1468	1468	1464	1451	1433	1419
6327	6707	6707	506	0	0	0	0	0	0	0	0	0	2281	6363	6228	6104	5909	5794	5729	5640	5441	5360	5280	5193	5140	5065	4986	4937	4866	4728	4621	4432	4319	4247	4136	4041	4003	4003	3916	3878	3878	3919	3961	4068	4207	4290	4354	4509	4607	4683	4857	4999	5280	5422	5527	5640	5640	5631	5515	5515	5502	5280	5162	5051	4683	4509	4350	4136	4068	4003	3939	3909	3878	3819	3818	3818	3818	3818	3818	3818	3844	3878	3878	3903	3939	3939	3964	4003	4061	4094	4136	4393	4432	4432	4500	4512	4512	4512	3065	0	0	0	0	0	0	0	3839	4963	4963	4963	4988	5065	4850	4773	4773	4840	4866	4866	4738	4683	4683	4683	4668	4596	4488	4409	4279	4144	4051	3939	3828	3748	3650	3556	3482	3354	3302	3256	3141	3097	3062	3026	3026	2912	0	0	0	0	0	0	0	0	0	0	0	0	0	0	0	0	0	0	0	0	0	0	0	0	0	0	0	0	0	0	0	0	0	0	0	0	0	0	0	0	0	0	0	0	0	187	248	248	248	248	249	250	250	250	251	251	252	253	253	253	254	254	254	255	255	255	255	255	255	255	255	255	256	256	256	256	256	256	257	257	257	258	258	259	259	259	260	260	260	261	261	262	262	262	263	263	263	264	266	266	266	267	267	268	269	269	269	270	270	271	271	271	272	272	272	272	273	273	273	274	274	275	275	275	276	277	277	278	279	279	279	280	280	280	281	281	281	281	281	282	282	282	282	282	282	283	283	283	284	284	284	284	285	285	286	124	0	0	0	0	0	0	0	0	0	0	0	0	0	0	0	0	0	0	0	0	0	0	0	0	0	0	0	0	0	0	0	0	0	0	0	0	0	0	0	0	0	0	0	0	0	0	0	0	0	0	0	0	0	0	0	0	0	0	0	0	0	0	0	0	0	0	0	0	0	0	0	0	0	0	0	0	0	0	0	0	0	0	767	1402	1402	661	0	0	0	0	0	0	0	1391	1418	1418	1418	1422	1426	1434	1435	1435	1442	1446	1451	1451	1455	1460	1467	1468	1468	1468	1468	1468	1468	1468	1468	1461	1460	1460	1453	1449	1443	1443	1445	1451	1451	1453	1460	1473	1481	1495	1508	1517	1532	1553	1565	1581	1603	1614	1622	1637	1644	1644	1644	1644	1644	1637	1633	1633	1626	1621	1612	1605	1600	1591	1585	1580	1571	1565	1560	1551	1546	1541	1541	1541	1541	1541	1541	1541	1541	1551	1561	1561	1561	1561	1561	1566	1571	1562	1561	1561	1552	1543	1532	1532	1532	1532	1540	1541	1541	1558	1568	1581	1589	1598	1612	1639	1651	1666	1684	1692	1700	1700	1703	1712	1703	1700	1700	1700	1697	1688	1688	1686	1677	1669	1664	1654	1647	1642	1633	1633	1633	1633	1640	1644	1644	1650	1656	1666	1687	1703	1723	1745	1762	1785	1816	1840	1866	1874	1880	1880	1888	1894	1894	1887	1880	1880	1866	1852	1838	1832	1825	1799	1780	1760	1724	1707	1688	1667	1656	1644	1624	1613	1601	1583	1573	1561	1543	1534	1523	1514	1510	1504	1504	1501	1495	1495	1495	1495	1495	1498	1504	1504	1507	1513	1521	1525	1532	1539	1543	1551	1551	1553	1561	1568	1571	1571	1571	1571	1571	1564	1558	1541	1535	1529	1513	1496	1484	1468	1452	1441	1426	1416	1408	1386	1373	1363	1349	1341	1333	1320	1312	1306	1293	1293	1293	1286	1279	1273	1266	1263	1260	1260	1257	1253	1253	1250	1247	1247	1247	1247	1241	1239	1235	1235	1233	1229	1229	1241	1260	1260	808	0	0	0	0	1090	1313	1313	1330	1341	1356	1374	1383	1394	1400	1404	1410	1410	1410	1410	1398	1391	1379	1379	1373
