0	0	0	0	0	0	0	0	0	0	0	0	0	0	0	0	0	0	0	0	0	0	0	0	0	0	0	0	0	0	0	0	0	0	0	0	0	0	0	0	0	0	0	0	0	0	0	0	0	0	0	0	0	0	0	0	0	0	0	0	0	0	0	0	0	0	0	0	0	0	0	0	0	0	0	0	0	0	0	0	0	0	0	0	0	0	0	0	0	0	0	0	0	0	0	0	0	0	0	0	0	0	0	0	0	0	0	0	0	0	0	0	0	0	0	0	0	1672	1658	1650	1643	1629	1622	1615	1608	1608	0	1629	1629	1643	1658	1665	1680	1695	1711	1718	1718	1718	1711	1703	1695	1687	1687	1680	1672	1672	1672	1665	1665	1658	1650	1643	1636	1629	1622	1622	1622	1615	1615	1615	1615	1622	1629	1636	1643	1643	1658	1658	1665	1665	1658	1658	1643	1636	1601	1548	1498	1498	1419	1387	1377	1377	1377	1377	1377	1382	1387	1393	1393	1398	0	0	0	0	0	0	0	0	0	0	0	0	0	0	0	0	0	0	0	0	0	0	0	0	0	0	0	0	0	0	0	0	0	0	0	0	0	0	0	0	0	0	0	0	0	0	0	0	0	0	0	0	0	0	0	0	0	0	0	0	0	0	0	1972	1972	1972	1982	1972	1961	1961	0	0	0	0	0	0	0	0	0	0	0	0	0	0	0	1767	1767	1792	1845	1882	1911	1941	1961	1961	1961	1961	1941	1921	1902	1882	1882	1882	1873	1854	1845	1845	0	0	0	0	0	0	0	0	0	0	0	0	0	0	0	0	0	0	0	0	0	0	0	0	0	0	0	0	0	0	0	0	0	0	0	0	0	0	0	0	0	0	0	0	0	0	0	0	0	0	0	0	0	0	0	0	1892	1892	1902	1921	1941	1961	1961	1961	1951	1941	1921	1902	1882	1882	1864	1836	1827	1810	1801	1801	1792	1792	1792	1792	1792	1792	1792	1801	1801	1810	1810	1810	1818	1827	1836	1845	1845	1845	1836	1827	1810	1784	1750	1703	1672	1587	1523	1469	1446	1435	1419	1403	1393	1382	1382	1424	1554	1554	1750	1750	1836	1882	1941	1931	1911	1892	1892	0	0	0	0	0	0	0	0	0	0	0	0	0	1734	1734	1734	1742	1742	1750	1759	1767	1784	1792	1810	1827	1864	1873	1892	1931	1951	0	0	0	0	0	0	0	0	0	0	0	0	0	0	0	0	0	0	0	0	0	0	0	0	0	0	0	0	0	0	0	0	0	0	0	0	0	0	0	0	0	0	0	0	0	0	0	0	0	0	0	0	0	0	0	0	0	0	0	0	0	0	0	0	0	0	0	0	0	0	0	0	0	0	0	0	0	0	0	0	0	0	0	0	0	0	0	0	0	0	0	0	0	0	0	0	0	0	0	0	0	0	0	0	0	0	0	0	0	0	0	0	0	0	0	0	0	0	0	1801	1784	1775	1775	1775	1775	1775	1767	1767	1767	1784	1784	1801	1818	1827	1836	1854	1864	1873	1882	1882	1873	1873	1873	1873	1873	1882	1882	1882	1882	1892	1892	1902	1911	1921	1921	1931	1931	1921	1921	1921	1911	1911	1902	1892	1892	1892	1882	1873	1864	1854	1845	1845	1836	1827	1827	1818	1818	1810	1801	1801	1792	1784	1775	1775	1775	1784	1784	1784	1792	1792	1792	1801	1827	1873	1882	1911	1951	2003	2025	2070	2104	2141	2153	2191	2204	2204	2204	2191	2191	2153	2141	2104	2093	2070	2070	2070	2070	2070	2070	2070	2081	2081	2081	2104	2116	2128	2153	2165	2191	2217	2243	2284	2298	2327	2341	2356	2371	2356	2356	2341	2341	2312	2298	2284	2257	2243	2217	2204	2178	2165	2165	2165	2165	2165	2153	2153	2153	2153	2153	2153	2153	2153	2153	2153	2165	2165	2178	2191	2191	2191	2191	2191	2178	2178	2178	2165	2165	2153	2141	2141	2128	2104	2104	2093	2081	2070	2070	2058	2047	2047	2047	2036	2036	2036	2047	2047	2047	2047	2047	2047	2058	2058	2070	2081	2081	2093	2093	2104	2104	2104	2104	2093	2093	2081	2081	2058	2047	2036	2014	2003	1982	1972	1961	1941	1931	1921	1921	1921	1911	1911	1902	1902	1902	1902	1911	1931	1951	1982	2025	2081	2128	2178	2243	2298	2341	2386	2401	2417	2432	2417	2386	2386	2356	2327	2284	2257	2217
0	0	0	0	0	0	0	0	0	0	0	0	0	0	0	0	0	0	0	0	0	0	0	0	0	0	0	0	0	0	0	0	0	0	0	0	0	0	0	0	0	0	0	0	0	0	0	0	0	1759	1759	1759	0	0	0	0	0	0	0	0	0	0	0	0	0	0	0	0	0	0	0	0	0	0	0	0	0	0	0	0	0	0	1481	1481	1492	1498	1517	0	0	0	0	0	0	0	0	0	0	0	0	0	0	0	0	0	0	0	0	0	0	0	0	0	0	0	0	1718	1703	1680	1665	1658	1643	1643	1629	1615	1615	1615	1615	1622	1629	1643	1658	1665	1672	1687	1695	1711	1711	1703	1703	1695	1687	1680	1680	1672	1672	1665	1665	1665	1665	1658	1658	1650	1636	1636	1629	1622	1622	1622	1622	1622	1629	1636	1643	1643	1650	1658	1665	1665	1665	1665	1658	1658	1643	1629	1594	1548	1498	1458	1414	1387	1372	1372	1372	1372	1377	1382	1387	1387	1387	1398	0	0	0	0	0	0	0	0	0	0	0	0	0	0	0	0	0	0	0	0	0	0	0	0	0	0	0	0	0	0	0	0	0	0	0	0	0	0	0	0	0	0	0	0	0	0	0	0	0	0	0	0	0	0	0	0	0	0	0	0	0	0	0	1972	1972	1972	1972	1972	1961	1961	0	0	0	0	0	0	0	0	0	0	0	0	0	0	0	1767	1767	1801	1845	1882	1911	1941	1961	1961	1972	1972	1951	1931	1911	1892	1882	1882	1873	1854	1845	1845	0	0	0	0	0	0	0	0	0	0	0	0	0	0	0	0	0	0	0	0	0	0	0	0	0	0	0	0	0	0	0	0	0	0	0	0	0	0	0	0	0	0	0	0	0	0	0	0	0	0	0	0	0	0	1873	1873	1882	1892	1902	1931	1951	1972	1993	1982	1972	1961	1941	1921	1902	1892	1864	1845	1836	1818	1810	1801	1801	1801	1792	1792	1792	1792	1801	1801	1810	1810	1818	1818	1827	1836	1836	1845	1845	1854	1836	1827	1810	1784	1750	1703	1658	1587	1517	1469	1446	1430	1419	1403	1393	1387	1387	1414	1458	1548	1750	1750	1836	1873	1921	1911	1902	1873	1873	0	0	0	0	0	0	0	0	0	0	0	0	0	0	1742	1742	1742	1750	1759	1775	1784	1801	1801	1827	1854	1873	0	1941	1941	0	0	0	0	0	0	0	0	0	0	0	0	0	0	0	0	0	0	0	0	0	0	0	0	0	0	0	0	0	0	0	0	0	0	0	0	0	0	0	0	0	0	0	0	0	0	0	0	0	0	0	0	0	0	0	0	0	0	0	0	0	0	0	0	0	0	0	0	0	0	0	0	0	0	0	0	0	0	0	0	0	0	0	0	0	0	0	0	0	0	0	0	0	0	0	0	0	0	0	0	0	0	0	0	0	0	0	0	0	0	0	0	0	0	0	0	0	0	0	0	1792	1775	1767	1767	1767	1759	1759	1759	1759	1767	1767	1784	1801	1810	1818	1836	1854	1864	1873	1882	1882	1882	1882	1882	1882	1882	1892	1892	1892	1892	1902	1911	1921	1921	1931	1941	1941	1941	1951	1941	1941	1931	1931	1931	1921	1921	1911	1911	1892	1892	1882	1882	1873	1864	1864	1854	1845	1845	1836	1836	1827	1818	1810	1801	1801	1792	1792	1801	1801	1801	1801	1810	1818	1836	1873	1902	1941	1972	2014	2058	2093	2141	2178	2204	2217	2243	2257	2243	2243	2230	2204	2178	2153	2141	2104	2104	2093	2081	2070	2070	2081	2081	2081	2093	2104	2104	2116	2153	2165	2178	2204	2230	2270	2298	2327	2341	2356	2371	2371	2371	2356	2356	2341	2312	2298	2284	2270	2257	2243	2217	2217	2204	2204	2204	2204	2204	2191	2191	2178	2178	2178	2165	2165	2178	2178	2178	2178	2191	2191	2191	2191	2191	2191	2178	2178	2178	2165	2165	2165	2153	2153	2128	2116	2104	2093	2081	2081	2070	2058	2047	2036	2036	2025	2025	2025	2025	2036	2036	2036	2036	2047	2047	2058	2058	2070	2070	2093	2093	2104	2104	2104	2104	2104	2093	2081	2070	2058	2036	2025	2014	2003	1982	1972	1961	1951	1931	1931	1931	1921	1921	1921	1911	1911	1911	1911	1921	1941	1972	2003	2047	2093	2141	2204	2257	2312	2356	2386	2401	2417	2417	2401	2371	2371	2341	2298	2270	2230	2191
0	0	0	0	0	0	0	0	0	0	0	0	0	0	0	0	0	0	0	0	0	0	0	0	0	0	0	0	0	0	0	0	0	0	0	0	0	0	0	0	0	0	0	0	0	0	0	1784	1775	1759	1759	1759	1767	1775	1775	1775	0	0	0	0	0	0	0	0	1601	1529	1463	1419	1393	1367	1343	1343	1343	1343	0	0	0	0	0	0	1424	1424	1430	1441	1452	1458	1517	1517	1529	0	0	0	0	0	0	0	0	0	0	0	0	0	0	0	0	0	1759	1759	1784	1801	0	0	0	1775	1767	1718	1703	1687	1672	1665	1650	1643	1636	1622	1622	1615	1615	1622	1629	1643	1658	1665	1672	1680	1687	1703	1703	1703	1695	1687	1687	1680	1672	1672	1672	1665	1665	1665	1665	1665	1658	1650	1650	1643	1643	1636	1636	1636	1636	1643	1650	1658	1658	1665	1672	1680	1680	1680	1680	1672	1665	1658	1643	1622	1587	1535	1492	1446	1414	1382	1372	1367	1367	1372	1372	1372	1372	1377	1387	0	0	0	0	0	0	0	0	0	0	0	0	0	0	0	0	0	0	0	0	0	0	0	0	0	0	0	0	0	0	0	0	0	0	0	0	0	0	0	0	0	0	0	0	0	0	0	0	0	0	0	0	0	0	0	0	0	0	0	0	0	0	0	0	1972	1972	1972	1972	1972	1961	1961	0	0	0	0	0	0	0	0	0	0	0	0	0	0	1759	1759	1775	1810	1845	1873	1902	1931	1951	1951	1972	1972	1951	1931	1911	1892	1882	1882	1873	1854	1845	1845	0	0	0	0	0	0	0	0	0	0	0	0	0	0	0	0	0	0	0	0	0	0	0	0	0	0	0	0	0	0	0	0	0	0	0	0	0	0	0	0	0	0	0	0	0	0	0	0	0	0	0	0	0	1864	1864	1873	1882	1892	1911	1941	1961	1982	2003	1993	1982	1972	1951	1941	1921	1892	1864	1845	1827	1818	1810	1801	1801	1801	1801	1801	1801	1801	1801	1810	1810	1818	1827	1827	1836	1836	1845	1854	1854	1854	1845	1836	1810	1792	1750	1711	1658	1587	1517	1469	1452	1430	1419	1403	1393	1393	1393	1414	1458	1535	1711	1711	1845	1845	1892	1882	1882	1854	1827	1810	1810	0	1695	1695	0	0	0	0	0	0	0	0	0	0	0	1767	1767	1767	1775	1784	1801	1818	1845	0	0	0	0	0	0	0	0	0	0	0	0	0	0	0	0	0	0	0	0	0	0	0	0	0	0	0	0	0	0	0	0	0	0	0	0	0	0	0	0	0	0	0	0	0	0	0	0	0	0	0	0	0	0	0	0	0	0	0	0	0	0	0	0	0	0	0	0	0	0	0	0	0	0	0	0	0	0	0	0	0	0	0	0	0	0	0	0	0	0	0	0	0	0	0	0	0	0	0	0	0	0	0	0	0	0	0	0	0	0	0	0	0	0	0	0	0	0	0	0	0	0	0	1775	1775	1784	1775	1767	1759	1759	1750	1750	1750	1750	1767	1767	1784	1801	1810	1818	1836	1854	1864	1873	1892	1892	1892	1892	1902	1902	1902	1911	1911	1911	1921	1921	1931	1931	1941	1941	1951	1961	1961	1961	1961	1961	1961	1951	1951	1951	1941	1931	1931	1921	1921	1921	1911	1902	1892	1892	1882	1882	1873	1864	1864	1854	1845	1836	1827	1827	1810	1810	1818	1818	1818	1818	1818	1827	1854	1882	1911	1941	1972	2014	2058	2104	2153	2178	2217	2243	2270	2284	2284	2284	2270	2257	2217	2191	2165	2128	2128	2104	2104	2093	2093	2093	2093	2093	2093	2104	2104	2116	2153	2165	2178	2204	2230	2257	2284	2312	2327	2341	2356	2371	2371	2371	2371	2356	2341	2327	2312	2298	2284	2270	2257	2257	2243	2243	2243	2243	2243	2230	2217	2204	2204	2191	2191	2178	2165	2165	2165	2165	2178	2178	2178	2165	2165	2165	2165	2153	2153	2141	2141	2141	2141	2141	2128	2116	2104	2093	2093	2081	2070	2058	2047	2036	2036	2025	2025	2025	2025	2025	2025	2025	2025	2036	2036	2047	2047	2070	2070	2081	2093	2104	2104	2104	2104	2093	2081	2070	2058	2047	2036	2014	2014	1993	1982	1972	1961	1951	1941	1941	1941	1931	1931	1931	1931	1921	1921	1921	1941	1951	1982	2025	2058	2104	2165	2217	2284	2327	2356	2386	2401	2417	2401	2371	2356	2356	2312	2270	2243	2204	2165
0	0	0	0	0	0	0	0	0	0	0	0	0	0	0	0	0	0	0	0	0	0	0	0	0	0	0	0	0	0	0	0	0	0	0	0	0	0	0	0	0	0	0	0	0	1792	1792	1784	1775	1775	1767	1767	1767	1775	1775	1775	0	0	0	0	0	0	0	0	1601	1441	1393	1362	1343	1343	1319	1319	1319	1324	1338	1338	1347	1362	1372	1382	1393	1403	1408	1441	1452	1458	1469	1481	1492	1498	1510	1517	1529	0	0	0	0	0	0	0	0	0	0	0	0	0	1759	1759	1784	1801	0	1827	1801	1775	1767	1742	1718	1703	1695	1680	1658	1658	1650	1636	1629	1622	1622	1622	1629	1643	1650	1658	1672	1680	1687	1695	1703	1695	1695	1687	1680	1680	1672	1672	1672	1672	1672	1672	1672	1665	1665	1658	1658	1650	1650	1658	1658	1658	1658	1665	1672	1680	1687	1687	1695	1703	1703	1695	1687	1680	1672	1665	1643	1615	1574	1523	1481	1441	1408	1377	1362	1357	1357	1357	1357	1357	1362	1367	1367	1367	1367	1372	1372	0	0	0	0	0	0	0	0	0	0	0	0	0	0	0	0	0	0	0	0	0	0	0	0	0	0	0	0	0	0	0	0	0	0	0	0	0	0	0	0	0	0	0	0	0	0	0	0	0	0	0	0	0	0	0	0	0	0	0	1972	1972	1972	1972	1972	1972	1961	1961	0	0	0	0	0	0	0	0	0	0	0	0	0	0	1750	1750	1775	1792	1827	1854	1892	1911	1931	1941	1961	1982	1961	1941	1921	1911	1902	1902	1882	1864	1854	1854	0	0	0	0	0	0	0	0	0	0	0	0	0	0	0	0	0	0	0	0	0	0	0	0	0	0	0	0	0	0	0	0	0	0	0	0	0	0	0	0	0	0	0	0	0	0	0	0	0	0	0	0	0	1864	1864	1873	1882	1892	0	0	0	1982	1982	1982	1972	1961	1951	1931	1911	1882	1864	1845	1827	1818	1810	1801	1801	1801	1801	1801	1801	1801	1801	1810	1818	1827	1836	1836	1836	1845	1854	1854	1854	1854	1836	1818	1801	1775	1742	1695	1650	1587	1523	1475	1452	1435	1419	1408	1398	1398	1398	1424	1458	1535	1711	1711	1784	1784	1836	1836	1836	1827	1801	1775	1750	1711	1680	1680	0	0	0	0	0	0	0	0	0	0	0	1767	1767	1767	1775	1784	0	0	0	0	0	0	0	0	0	0	0	0	0	0	0	0	0	0	0	0	0	0	0	0	0	0	0	0	0	0	0	0	0	0	0	0	0	0	0	0	0	0	0	0	0	0	0	0	0	0	0	0	0	0	0	0	0	0	0	0	0	0	0	0	0	0	0	0	0	0	0	0	0	0	0	0	0	0	0	0	0	0	0	0	0	0	0	0	0	0	0	0	0	0	0	0	0	0	0	0	0	0	0	0	0	0	0	0	0	0	0	0	0	0	0	0	0	0	0	0	0	0	0	0	0	0	1775	1775	1775	1767	1767	1759	1759	1750	1750	1750	1750	1759	1767	1784	1801	1810	1836	1845	1864	1873	1882	1902	1902	1911	1911	1911	1911	1921	1921	1921	1931	1931	1931	1941	1941	1951	1961	1961	1972	1972	1972	1972	1982	1982	1982	1982	1972	1972	1961	1961	1951	1951	1931	1931	1921	1911	1911	1902	1902	1902	1902	1882	1873	1864	1864	1854	1845	1836	1836	1836	1836	1827	1827	1836	1836	1864	1892	1911	1931	1961	2003	2036	2093	2128	2165	2204	2243	2270	2284	2298	2284	2284	2270	2257	2230	2204	2204	0	0	2116	2104	2104	2104	2104	2104	2116	2116	2116	2141	2153	2165	2178	2204	2230	2243	2270	2284	2312	2327	2341	2356	2356	2356	2356	2356	2356	2356	2341	2327	2327	2312	2312	2298	2298	2298	2284	2284	2270	2257	2243	2230	2217	2204	2178	2165	2153	2153	2153	2153	2153	2153	2153	2141	2128	2128	2128	2128	2128	2116	2116	2116	2128	2128	2116	2104	2104	2093	2093	2081	2070	2058	2047	2036	2025	2014	2014	2014	2003	2003	2003	2003	2014	2025	2036	2036	2047	2058	2070	2081	2081	2093	2093	2093	2104	2093	2081	2058	2047	2036	2025	2014	2003	1993	1982	1972	1961	1951	1951	1951	1951	1951	1951	1951	1941	1941	1941	1941	1951	1972	2003	2036	2070	2104	2178	2230	2284	2312	2356	2371	2386	2386	2386	2356	2327	2284	2284	2243	2204	2165	2116
0	0	0	0	0	0	0	0	0	0	0	0	0	0	0	0	0	0	0	0	0	0	1542	1529	1529	0	0	0	0	0	0	0	0	0	0	0	0	0	0	0	0	0	0	0	1836	1792	1792	1792	1792	1792	1775	1775	1775	1775	1775	1775	0	0	0	0	0	0	0	0	0	1441	1393	1324	1310	1305	1301	1301	1305	1314	1319	1338	1343	1352	1362	1372	1382	1387	1408	1414	1419	1435	1441	1452	1463	1475	1481	1492	1504	1523	1535	0	0	0	0	0	0	0	0	0	0	0	0	0	0	0	1854	1827	1801	1792	1775	1759	1734	1718	1703	1695	1672	1665	1658	1650	1643	1636	1629	1629	1636	1643	1650	1658	1672	1680	1687	1695	1695	1695	1695	1687	1680	1680	1680	1672	1672	1672	1672	1672	1680	1680	1672	1672	1672	1672	1672	1680	1680	1680	1687	1695	1695	1711	1711	1718	1718	1718	1718	1711	1703	1687	1672	1665	1636	1608	1561	1510	1463	1430	1398	1367	1357	1352	1347	1347	1352	1352	1352	1352	1357	1357	1357	1357	1357	0	0	0	0	0	0	0	0	0	0	0	0	0	0	0	0	0	0	0	0	0	0	0	0	0	0	0	0	0	0	0	0	0	0	0	0	0	0	0	0	0	0	0	0	0	0	0	0	0	0	0	0	0	0	0	0	0	0	0	1972	1972	1972	1972	1982	1982	1972	1972	0	0	0	0	0	0	0	0	0	0	0	0	0	0	1750	1750	1775	1792	1818	1845	1873	1902	1911	1921	1951	1972	1972	1951	1931	1921	1911	1911	1911	1864	1864	0	0	0	0	0	0	0	0	0	0	0	0	0	0	0	0	0	0	0	0	0	0	0	0	0	0	0	0	0	0	0	0	0	0	0	0	0	1711	1711	0	0	1759	1759	0	0	0	0	0	0	0	0	0	0	0	1864	1864	1873	1882	1892	0	0	0	1982	1961	1961	1951	1941	1931	1921	1892	1873	1845	1836	1818	1810	1810	1801	1801	1801	1801	1801	1801	1801	1810	1810	1818	1827	1836	1845	1845	1845	1854	1854	1854	1845	1827	1810	1792	1767	1734	1695	1650	1587	1529	1487	1463	1452	1430	1414	1414	1408	1408	1430	1458	1517	0	0	1784	1775	1775	1792	1792	1792	1767	1742	1726	1711	1680	1680	0	0	0	0	0	0	0	0	0	0	0	0	0	0	0	0	0	0	0	0	0	0	0	0	0	0	0	0	0	0	0	0	0	0	0	0	0	0	0	0	0	0	0	0	0	0	0	0	0	0	0	0	0	0	0	0	0	0	0	0	0	0	0	0	0	0	0	0	0	0	0	0	0	0	0	0	0	0	0	0	0	0	0	0	0	0	0	0	0	0	0	0	0	0	0	0	0	0	0	0	0	0	0	0	0	0	0	0	0	0	0	0	0	0	0	0	0	0	0	0	0	0	0	0	0	0	0	0	0	0	0	0	0	0	0	0	0	0	0	0	0	0	0	1775	1775	1759	1759	1750	1750	1750	1750	1750	1750	1759	1775	1792	1810	1827	1845	1864	1882	1902	1911	1921	1921	1921	1921	1921	1921	1931	1931	1931	1941	1941	1941	1951	1951	1961	1972	1972	1982	1982	1993	1993	1993	1993	2003	1993	1993	1993	1982	1972	1972	1961	1951	1951	1941	1941	1931	1931	1931	1921	1911	1911	1902	1892	1882	1873	1854	1854	1845	1845	1845	1845	1845	1845	1845	1864	1882	1902	1921	1951	1982	2014	2058	2104	2153	2178	2217	2257	2270	2298	2298	2284	2270	2257	2230	2217	2204	2204	0	0	0	2116	2116	2116	2116	2128	2128	2141	2141	2153	2165	2178	2191	2217	2230	2257	2270	2284	2298	2312	2327	2327	2341	2341	2356	2371	2371	2371	2356	2356	2356	2356	2356	2341	2327	2327	2312	2298	2284	2257	2243	2217	2191	2178	2153	2141	2128	2128	2128	2128	2128	2128	2116	2104	2104	2104	2104	2093	2093	2093	2093	2104	2104	2104	2104	2104	2093	2093	2081	2070	2058	2047	2036	2025	2014	2014	2003	2003	2003	2003	2003	2003	2014	2025	2036	2036	2047	2058	2070	2081	2093	2093	2093	2081	2081	2070	2058	2047	2036	2014	2014	2003	1993	1982	1972	1961	1961	1961	1961	1961	1961	1961	1961	1961	1961	1961	1961	1972	1993	2014	2036	2070	2116	2165	2217	2270	2298	2327	2341	2356	2356	2356	2327	2298	2257	2257	2204	2178	2141	2104
0	0	0	0	0	0	0	0	0	0	0	0	0	0	0	0	0	0	0	1643	1643	1587	1542	1529	1529	1517	1504	1492	1487	1481	1481	1481	0	0	0	0	0	0	0	0	0	0	0	0	1836	1827	1818	1818	1810	1801	1784	1784	1775	1775	1775	1775	1775	0	0	0	0	0	0	0	0	0	0	1305	1296	1296	1296	1296	1296	1305	1314	1324	1338	1347	1362	1367	1382	1387	1398	1403	1408	1414	1419	1430	1435	1446	1458	1469	1481	1498	1510	0	0	0	0	0	0	0	0	0	0	0	0	0	0	0	1854	1836	1818	1801	1792	1767	1750	1734	1718	1703	1703	1695	1680	1665	1658	1650	1643	1643	1650	1650	1650	1665	1672	1680	1687	1695	1695	1695	1695	1687	1687	1680	1680	1680	1680	1680	1680	1680	1687	1687	1687	1695	1695	1703	1703	1703	1711	1711	1718	1726	1734	1734	1742	1742	1742	1742	1734	1718	1711	1695	1680	1665	1636	1594	1554	1498	1463	1424	1393	1362	1347	1343	1338	1338	1343	1343	1347	1347	1352	1352	1352	1352	1352	0	0	0	0	0	0	0	0	0	0	0	0	0	0	0	0	0	0	0	0	0	0	0	0	0	0	0	0	0	0	0	0	0	0	0	0	0	0	0	0	0	0	0	0	0	0	0	0	0	0	0	0	0	0	0	1931	1931	0	0	0	0	0	0	0	0	0	0	0	0	0	0	0	0	0	0	0	0	0	0	0	0	0	1775	1775	1792	1818	1836	1864	1892	1902	1911	1941	1972	0	1961	1941	1941	0	0	0	0	0	0	0	0	0	0	0	0	0	0	0	0	0	0	0	0	0	0	0	0	0	0	0	0	0	1665	1665	0	0	0	0	0	0	1608	1608	0	0	1680	1680	1695	1703	1726	1726	1734	0	0	0	0	0	0	0	0	0	0	0	0	0	1854	1845	1845	0	0	1921	1921	1941	1931	1931	1921	1921	1902	1882	1864	1836	1827	1810	1801	1801	1792	1792	1792	1792	1801	1801	1801	1810	1810	1827	1827	1836	1845	1845	1845	1854	1854	1845	1836	1818	1801	1784	1759	1734	1695	1658	1608	1548	1510	1487	1475	1452	1430	1430	1430	1430	1446	1517	1517	0	1622	1622	1775	1775	1742	1742	1750	1726	1711	1695	1665	1665	0	1608	1594	1574	1561	1561	0	0	0	0	0	0	0	0	0	0	0	0	0	0	0	0	0	0	0	0	0	0	0	0	0	0	0	0	0	0	0	0	0	0	0	0	0	0	0	0	0	0	0	0	0	0	0	0	0	0	0	0	0	0	0	0	0	0	0	0	0	0	0	0	0	0	0	0	0	0	0	0	0	0	0	0	0	0	0	0	0	0	0	0	0	0	0	0	0	0	0	0	0	0	0	0	0	0	0	0	0	0	0	0	0	0	0	0	0	0	0	0	0	0	0	0	0	0	0	0	0	0	0	0	0	0	0	0	0	0	0	0	0	0	0	0	0	0	1775	1767	1759	1750	1750	1750	1750	1750	1750	1750	1759	1775	1801	1818	1836	1864	1882	1902	1921	1931	1931	1931	1941	1941	1941	1941	1941	1941	1941	1951	1951	1951	1951	1961	1961	1972	1982	1993	1993	2003	2003	2003	2014	2014	2014	2003	2003	2003	1993	1993	1982	1982	1972	1972	1961	1951	1951	1951	1941	1931	1921	1911	1902	1892	1882	1864	1864	1854	1854	1845	1845	1845	1854	1854	1864	1882	1892	1911	1931	1961	1982	2025	2070	2116	2141	2191	2217	2243	2257	2284	2270	2257	2243	2230	2217	2204	2178	2165	2153	2141	2141	2128	2128	2128	2128	2128	2128	2141	2141	2153	2165	2178	2191	2204	2217	2243	2257	2270	2284	2298	2298	2312	2327	2341	2356	2371	2371	2371	2371	2386	2386	2371	2371	2356	2356	2341	2312	2298	2257	2230	2204	2178	2153	2128	2116	2104	2104	2104	2104	2104	2093	2093	2081	2081	2081	2081	2070	2070	2070	2070	2081	2093	2093	2081	2081	2093	2093	2081	2070	2058	2047	2036	2025	2014	2003	1993	1993	1993	1993	1993	2003	2014	2014	2025	2036	2047	2047	2058	2081	2081	2081	2081	2081	2081	2070	2058	2036	2025	2014	2014	2003	1993	1982	1982	1972	1972	1972	1972	1972	1972	1982	1982	1972	1972	1972	1972	1982	1993	2025	2036	2058	2093	2153	2191	2243	2270	2284	2298	2327	2327	2312	2298	2257	2217	2217	2178	2153	2104	2081
1951	0	0	0	0	0	0	0	0	0	0	0	0	0	0	0	0	0	1687	1643	1636	1587	1561	1548	1535	1517	1504	1492	1487	1481	1481	1481	1517	1510	1510	0	0	0	0	0	0	0	0	0	1854	1845	1827	1827	1818	1801	1792	1784	1775	1775	1775	1767	1767	0	0	0	0	0	0	0	0	0	1278	1278	1278	1278	1278	1283	1296	1301	1310	1319	1333	1347	1362	1367	1377	1382	1382	1393	1393	1398	1408	1414	1414	1419	1435	1446	1463	1469	1492	0	0	0	0	0	0	0	0	0	0	0	0	0	0	0	1864	1836	1818	1801	1792	1775	1759	1750	1734	1734	1718	1711	1695	1687	1672	1665	1658	1658	1658	1658	1658	1665	1672	1680	1687	1695	1695	1695	1695	1687	1687	1687	1687	1687	1687	1687	1687	1687	1687	1695	1703	1703	1711	1718	1726	1726	1734	1742	1742	1750	1759	1767	1767	1767	1759	1759	1750	1734	1718	1703	1680	1658	1629	1587	1548	1498	1458	1424	1393	1362	1347	1343	1338	1338	1338	1343	1343	1347	1347	1352	1352	1352	1352	0	0	0	0	0	0	0	0	0	0	0	0	0	0	0	0	0	0	0	0	0	0	0	0	0	0	0	0	0	0	0	0	0	0	0	0	0	0	0	0	0	0	0	0	0	0	0	0	0	0	0	0	0	0	0	1931	1931	0	0	0	0	0	0	0	0	0	0	0	0	0	0	0	0	0	0	0	0	0	0	0	0	0	0	1792	1792	1810	1827	1854	1873	1892	1902	1921	0	0	1921	1921	0	0	0	0	0	0	0	0	0	0	0	0	0	0	0	0	0	0	0	0	0	0	0	0	0	0	0	0	0	0	1665	1665	0	0	0	0	0	0	1608	1608	0	0	1680	1680	1687	1703	1726	1726	1734	0	0	0	0	0	0	0	0	0	0	0	1801	1801	1801	1810	1810	1818	1827	1854	1873	1892	1892	1902	1892	1892	1873	1864	1845	1827	1810	1801	1801	1792	1792	1792	1792	1792	1801	1801	1801	1810	1818	1827	1836	1836	1845	1845	1854	1854	1854	1845	1836	1818	1801	1784	1759	1734	1695	1665	1622	1574	1548	1523	1504	1481	1469	1458	1452	1452	0	0	1535	1535	1542	1567	1601	0	1680	1680	1687	1680	1672	1658	1650	1636	1615	1601	1587	1574	1561	1561	0	0	0	0	0	0	0	0	0	0	0	0	0	0	0	0	0	0	0	0	0	0	0	0	0	0	0	0	0	0	0	0	0	0	0	0	0	0	0	0	0	0	0	0	0	0	0	0	0	0	0	0	0	0	0	0	0	0	0	0	0	0	0	0	0	0	0	0	0	0	0	0	0	0	0	0	0	0	0	0	0	0	0	0	0	0	0	0	0	0	0	0	0	0	0	0	0	0	0	0	0	0	0	0	0	0	0	0	0	0	0	0	0	0	0	0	0	0	0	0	0	0	0	0	0	0	0	0	0	0	0	0	0	0	0	0	0	0	0	1767	1767	1750	1750	1759	1759	1759	1759	1759	1767	1792	1818	1845	1854	1892	1902	1931	1941	1951	1961	1961	1951	1951	1951	1951	1951	1951	1961	1961	1961	1961	1961	1972	1972	1982	1993	1993	2003	2014	2014	2014	2025	2025	2025	2025	2025	2014	2014	2014	2003	1993	1993	1993	1982	1982	1982	1972	1961	1951	1941	1931	1911	1902	1882	1882	1864	1864	1854	1854	1854	1854	1854	1854	1864	1864	1882	1892	1911	1931	1961	1982	2025	2058	2093	2141	2165	2204	2217	2243	2243	2243	2230	2217	2217	2204	2178	2153	2153	2141	2128	2128	2116	2116	2116	2116	2116	2116	2116	2128	2128	2141	2153	2165	2178	2191	2204	2230	2243	2257	2270	2270	2284	2312	2341	2341	2356	2371	2371	2386	2386	2371	2371	2356	2356	2327	2298	2270	2230	2217	2178	2153	2128	2116	2104	2093	2093	2081	2081	2081	2070	2070	2070	2058	2047	2047	2047	2036	2036	2047	2058	2070	2070	2070	2070	2081	2081	2081	2070	2058	2047	2036	2025	2014	2003	1993	1993	1993	1993	1993	2003	2003	2014	2025	2036	2047	2047	2058	2070	2081	2081	2081	2081	2070	2070	2058	2036	2025	2025	2014	2003	2003	1993	1982	1982	1982	1982	1982	1982	1993	2003	1993	1993	1993	1982	1982	1993	2003	2014	2025	2047	2081	2116	2153	2204	2230	2257	2257	2284	2298	2284	2270	2230	2191	2153	2153	2116	2081	2058
1931	1951	1982	2003	0	0	0	0	0	0	0	0	0	0	0	1775	1750	1742	1687	1665	1636	1608	1581	1561	1554	1542	1535	1517	1517	1510	1510	1510	1517	1510	1510	0	0	0	0	0	0	0	0	0	1845	1836	1836	1827	1818	1801	1792	1784	1784	1775	1767	1750	1750	0	0	0	0	0	0	0	0	1228	1228	1228	1236	1240	1253	1266	1278	1292	1301	1319	1333	1347	1357	1367	1372	1372	1372	1377	1377	1382	1387	1387	1398	1403	1408	1424	1435	1452	1475	1487	1517	1554	0	0	0	0	0	0	1961	1961	1961	1921	1911	1892	1864	1836	1818	1801	1792	1775	1759	1750	1750	1734	1718	1711	1703	1687	1672	1665	1658	1658	1658	1658	1658	1665	1672	1680	1687	1695	1695	1695	1695	1687	1687	1687	1687	1687	1687	1687	1687	1687	1695	1695	1703	1711	1718	1734	1742	1750	1759	1759	1775	1775	1784	1784	1775	1775	1767	1759	1750	1734	1711	1695	1672	1658	1622	1587	1548	1498	1458	1424	1393	1367	1347	1343	1338	1338	1338	1343	1343	1347	1347	1352	1352	1352	1357	1357	1362	1367	1372	1382	1387	1403	0	0	0	0	0	0	0	0	0	0	0	0	0	0	0	0	0	0	0	0	0	0	0	0	0	0	0	0	0	0	0	0	0	0	0	0	0	0	0	0	0	0	0	0	0	0	0	0	0	0	0	0	0	0	0	0	0	0	0	0	0	0	0	0	0	0	0	0	0	0	0	0	0	0	1742	1742	1759	1775	1792	1818	1836	1854	1864	1864	1882	1892	0	1854	1854	0	0	0	0	0	0	0	0	0	0	0	0	0	0	0	0	0	1687	1672	1658	1658	1650	1643	1629	1629	1615	1615	1622	0	0	0	0	0	0	0	0	0	0	0	1643	1643	1658	1665	1687	1687	1703	1718	1734	0	0	0	0	0	0	0	0	0	0	0	0	1784	1784	1784	1784	1784	1784	1801	1818	1827	1854	1864	1864	1864	1864	1854	1845	1827	1810	1801	1801	1792	1792	1792	1792	1792	1792	1801	1801	1801	1810	1818	1827	1836	1845	1845	1845	1854	1854	1854	1845	1836	1818	1801	1784	1759	1742	1703	1680	1650	1608	1587	1567	1567	1574	1554	1498	1492	1492	0	1517	1517	1517	1523	1535	1554	1574	1587	1608	1629	1643	1636	1629	1629	1615	1601	1587	1587	1587	1561	1561	1561	1554	1554	1554	0	0	0	0	0	0	0	0	0	2058	2058	2058	2058	0	0	0	0	0	0	0	0	0	0	0	0	0	0	0	0	0	0	0	0	0	0	0	0	0	0	0	0	0	0	0	0	0	0	0	0	0	0	0	0	0	0	0	0	0	0	0	0	0	0	0	0	0	0	0	0	0	0	0	0	0	0	0	0	0	0	0	0	0	0	0	0	0	0	0	0	0	0	0	0	0	0	0	0	0	0	0	0	0	0	0	0	0	0	0	0	0	0	0	0	0	0	0	0	0	0	0	0	0	0	0	0	0	0	0	0	0	0	0	0	0	0	1775	1775	1767	1767	1759	1759	1767	1767	1775	1792	1818	1845	1873	1902	1921	1941	1961	1972	1982	1982	1972	1972	1972	1961	1961	1961	1961	1961	1961	1961	1961	1961	1961	1972	1972	1982	1993	1993	2014	2014	2014	2025	2036	2036	2036	2047	2036	2036	2025	2025	2003	2003	2003	2003	2003	1993	1993	1982	1972	1961	1951	1931	1911	1892	1882	1873	1873	1864	1864	1864	1864	1864	1854	1854	1854	1864	1873	1882	1902	1921	1951	1972	2014	2058	2081	2116	2141	2178	2191	2204	2204	2204	2204	2204	2191	2165	2141	2128	2128	2116	2104	2104	2093	2093	2081	2081	2081	2081	2081	2093	2093	2104	2116	2128	2141	2165	2178	2191	2204	2217	2230	2257	2284	2298	2312	2327	2341	2356	2371	2371	2371	2371	2356	2327	2312	2298	2257	2217	2191	2153	2128	2104	2093	2070	2070	2058	2058	2058	2058	2058	2047	2047	2036	2025	2025	2014	2003	2003	2014	2025	2036	2047	2058	2058	2058	2070	2070	2058	2058	2047	2036	2025	2014	2003	1993	1993	1982	1982	1982	2003	2003	2025	2036	2036	2047	2058	2070	2070	2093	2093	2081	2081	2070	2070	2047	2036	2036	2025	2014	2014	2014	2003	2003	2003	2003	2003	2003	2003	2003	2014	2003	1993	1993	1993	1993	1993	1993	2014	2014	2025	2058	2081	2128	2165	2178	2204	2217	2230	2243	2243	2217	2191	2153	2116	2116	2093	2058	2025
1911	1931	1972	1993	0	0	0	0	0	0	0	0	0	1827	1810	1775	1750	1742	1718	1687	1665	1629	1601	1581	1567	1561	1548	1535	1535	1523	1523	1535	1535	1542	1548	0	0	0	0	0	1827	1827	1854	1854	1845	1836	1836	1827	1818	1810	1792	1784	1775	1775	1759	1750	1742	1742	0	0	0	0	0	0	1201	1201	1208	1212	1220	1228	1240	1257	1274	1292	1301	1319	1333	1343	1352	1357	1362	1362	1362	1362	1362	1362	1367	1377	1382	1387	1398	1419	1424	1452	1463	1481	1510	1554	0	0	0	0	0	0	1931	1921	1911	1911	1902	1882	1854	1836	1810	1801	1784	1775	1759	1750	1750	1734	1718	1711	1703	1687	1680	1665	1665	1665	1658	1658	1658	1665	1672	1680	1680	1687	1695	1695	1695	1687	1687	1687	1687	1687	1687	1687	1695	1695	1695	1703	1703	1711	1718	1734	1750	1759	1775	1775	1784	1784	1792	1792	1784	1775	1767	1750	1742	1726	1711	1695	1672	1650	1622	1587	1548	1498	1463	1424	1398	1372	1352	1343	1338	1338	1338	1343	1343	1347	1352	1352	1352	1357	1357	1357	1362	1367	1372	1382	1387	1403	1446	1463	0	0	0	0	0	0	0	0	0	0	0	0	0	0	0	0	0	0	0	0	0	0	0	0	0	0	0	0	0	0	0	0	0	0	0	0	0	0	0	0	0	0	0	0	0	0	0	0	0	0	0	0	0	0	0	0	0	0	0	0	0	0	0	0	0	0	0	0	0	0	0	0	1742	1742	1742	1759	1775	1792	1818	1827	1818	1818	1827	1892	0	1854	1854	0	0	0	0	0	0	0	0	0	0	0	0	0	0	0	0	0	1687	1672	1658	1658	1650	1643	1629	1629	1615	1615	1622	1622	0	0	0	0	0	0	0	0	0	1636	1636	1643	1658	1665	1680	1687	1711	1718	1734	1742	0	0	0	0	0	0	0	0	0	0	0	1759	1759	1759	1767	1767	1767	1775	1784	1801	1827	1827	1836	1836	1836	1836	1827	1810	1801	1792	1792	1784	1784	1792	1792	1792	1792	1792	1792	1801	1810	1818	1827	1836	1845	1845	1854	1854	1854	1845	1845	1827	1810	1792	1784	1767	1742	1718	1695	1672	1643	1622	1608	1587	1574	1554	1542	1529	1529	1529	1517	1517	1504	1504	1510	1523	1535	1548	1561	1581	1587	1587	1594	1594	1594	1587	1581	1574	1567	1561	1561	1561	1554	1554	1554	0	0	0	0	0	0	0	0	1972	1972	1993	1993	2003	2003	0	0	0	0	0	2036	2036	2070	2116	2153	2165	0	0	0	0	0	0	0	0	0	0	0	0	0	0	0	0	0	0	0	0	0	0	0	0	0	0	0	0	0	0	0	0	0	0	0	0	0	1498	1498	1498	1498	1504	1498	1498	1498	1498	1492	1492	0	0	0	0	0	0	0	0	0	0	0	0	0	0	0	0	0	0	0	0	0	0	0	0	0	0	0	0	0	0	0	0	0	0	0	0	0	0	0	0	0	0	0	0	0	0	0	0	0	0	0	0	0	0	0	0	0	0	0	0	0	0	0	1775	1775	1767	1767	1775	1775	1784	1801	1818	1845	1864	1902	1931	1951	1972	1982	1993	1993	1993	1982	1982	1972	1961	1961	1961	1961	1951	1951	1951	1951	1951	1951	1961	1972	1972	1982	1993	1993	2003	2014	2014	2025	2025	2025	2036	2036	2036	2025	2025	2014	2014	2014	2014	2014	2003	2003	1993	1982	1982	1961	1941	1921	1902	1892	1882	1882	1873	1864	1864	1864	1854	1845	1845	1845	1845	1854	1854	1873	1882	1902	1931	1961	1993	2025	2058	2093	2116	2128	2153	2153	2153	2153	2153	2141	2141	2116	2104	2093	2093	2081	2070	2058	2058	2058	2058	2047	2047	2047	2058	2058	2070	2081	2093	2104	2128	2141	2165	2165	2191	2204	2217	2243	2270	2284	2312	2327	2327	2341	2341	2341	2341	2327	2312	2298	2270	2243	2204	2165	2128	2116	2081	2070	2058	2047	2047	2047	2047	2047	2036	2036	2025	2025	2014	2003	1993	1982	1982	1993	2003	2014	2025	2036	2047	2047	2058	2070	2058	2058	2047	2036	2025	2014	2003	1993	1993	1982	1982	1982	2003	2003	2025	2036	2036	2058	2070	2081	2081	2093	2093	2081	2081	2070	2070	2047	2047	2036	2025	2025	2014	2014	2014	2014	2014	2014	2014	2014	2014	2014	2014	2014	2003	1993	1993	1993	1993	1993	2003	2003	2014	2036	2058	2093	2128	2141	2165	2165	2191	2204	2204	2191	2153	2128	2093	2093	2070	2036	2003
1892	1921	1961	1993	2025	0	0	0	0	0	0	0	1854	1827	1810	1792	1775	1759	1734	1711	1672	1643	1608	1594	1581	1574	1561	1548	1548	1548	1548	1561	1561	1561	1561	0	0	0	0	1784	1784	1801	1827	1836	1845	1836	1827	1827	1818	1810	1792	1784	1775	1767	1759	1750	1742	1742	0	0	0	0	0	0	1201	1201	1208	1208	1212	1220	1240	1257	1274	1292	1301	1319	1333	1343	1352	1357	1362	1362	1362	1362	1362	1362	1367	1372	1377	1382	1393	1408	1419	1441	1463	1481	1510	1554	1622	0	0	0	0	1882	1882	1892	1892	1892	1892	1873	1854	1827	1810	1792	1784	1767	1750	1750	1742	1734	1726	1711	1703	1695	1680	1672	1665	1665	1658	1658	1658	1665	1672	1680	1680	1687	1687	1687	1687	1687	1687	1687	1687	1687	1687	1695	1695	1695	1695	1703	1703	1711	1726	1742	1750	1759	1775	1784	1784	1792	1792	1784	1775	1767	1759	1750	1734	1718	1703	1687	1672	1650	1622	1587	1554	1510	1469	1435	1403	1377	1357	1343	1338	1338	1338	1343	1347	1347	1352	1352	1352	1357	1362	1362	1367	1377	1387	1398	1414	1430	1446	1463	1492	1504	1504	1504	0	0	0	1347	1333	1333	1333	1333	1338	1347	1362	1393	1419	1452	1498	1554	1594	1636	1665	1695	1718	1750	1750	1750	1750	1759	0	0	0	0	0	0	0	0	0	1581	1581	0	0	1658	1658	1726	1726	1750	1775	1801	1818	1827	0	0	0	0	0	0	0	0	0	0	0	0	0	0	0	0	0	1672	1672	1695	1718	1726	1742	1750	1767	1775	1792	1792	1784	1784	1775	1775	0	0	0	0	0	0	0	0	0	0	0	0	1750	1750	1759	1750	1734	1734	1742	1734	1703	1695	1680	1672	1672	1658	1650	1643	1629	1629	1622	1622	1622	1622	1622	1622	0	0	0	1629	1629	1636	1636	1643	1658	1665	1680	1695	1711	1718	1734	1742	1750	1759	1767	1767	1767	1759	1759	1759	1767	1759	1750	1750	1750	1759	1759	1759	1759	1767	1775	1792	1810	1810	1818	1818	1818	1818	1810	1801	1792	1784	1784	1784	1784	1784	1792	1792	1792	1792	1792	1801	1810	1818	1827	1836	1845	1845	1845	1854	1854	1845	1836	1818	1810	1792	1775	1767	1742	1726	1711	1703	1680	1665	1650	1636	1615	1594	1581	1561	1542	1529	1517	1510	1504	1504	1504	1504	1517	1517	1529	1548	1554	1567	1567	1574	1574	1581	1574	1567	1567	1561	1561	1561	1554	1554	1554	0	0	0	0	0	0	0	0	1972	1931	1931	1951	1961	1961	1961	0	0	0	0	2014	2014	2058	2104	2141	2153	0	0	0	0	0	0	0	0	0	0	0	0	0	0	0	0	0	0	0	0	0	0	0	0	0	0	0	0	0	0	0	0	1535	1535	1523	1517	1510	1498	1498	1498	1498	1504	1498	1498	1498	1498	1492	1492	1504	1504	1510	0	0	0	0	0	0	0	0	0	0	0	0	0	0	0	0	0	0	0	0	0	0	0	0	0	0	0	0	2093	2093	2014	1982	1961	1941	1931	1921	1902	1902	1902	0	0	0	0	0	0	0	0	0	0	0	0	0	0	0	0	0	0	0	0	0	1784	1784	1784	1784	1784	1792	1801	1818	1836	1864	1892	1931	1961	1972	2003	2014	2014	2014	2003	1993	1982	1972	1961	1951	1951	1941	1941	1941	1941	1941	1941	1941	1951	1951	1961	1972	1972	1993	1993	1993	2003	2014	2014	2025	2025	2025	2014	2014	2003	2003	2003	2003	2014	2014	2003	2003	2003	1993	1982	1972	1951	1931	1911	1892	1882	1882	1864	1854	1854	1845	1845	1827	1827	1827	1818	1818	1827	1836	1854	1873	1892	1911	1941	1972	1993	2025	2058	2081	2093	2093	2104	2104	2116	2104	2104	2081	2081	2070	2058	2047	2047	2036	2025	2025	2025	2014	2014	2014	2025	2025	2047	2058	2081	2093	2104	2116	2141	2153	2153	2165	2191	2217	2243	2257	2284	2298	2312	2312	2312	2298	2284	2284	2257	2243	2230	2204	2178	2141	2116	2093	2070	2047	2036	2025	2025	2036	2036	2036	2025	2025	2025	2014	2003	1993	1982	1972	1972	1972	1982	1993	2003	2014	2025	2036	2047	2058	2047	2047	2036	2036	2025	2014	2003	2003	1993	1993	1993	1993	2003	2025	2036	2047	2058	2058	2081	2093	2093	2093	2081	2081	2081	2070	2058	2058	2047	2036	2036	2025	2025	2025	2025	2025	2025	2025	2025	2025	2025	2025	2025	2014	2003	1993	1982	1982	1982	1982	1993	1993	2003	2014	2047	2070	2093	2104	2116	2128	2153	2165	2153	2141	2116	2104	2058	2047	2047	2003	1993
1864	1902	1941	1972	1993	2014	2014	2014	0	1921	1873	1845	1845	1836	1818	1810	1784	1767	1742	1718	1687	1650	1615	1594	1587	1574	1567	1561	1554	1548	1548	1561	1561	1567	1567	1608	0	0	0	1775	1775	1792	1810	1827	1836	1836	1827	1818	1818	1810	1792	1784	1775	1767	1759	1742	1742	0	0	0	0	1328	1283	1283	1212	1212	1208	1208	1212	1220	1240	1257	1274	1292	1301	1319	1333	1347	1357	1362	1367	1367	1362	1362	1367	1367	1372	1372	1377	1382	1393	1408	1419	1441	1487	1492	1529	1574	1622	0	0	0	0	1845	1845	1864	1864	1873	1873	1873	1836	1818	1792	1784	1767	1759	1742	1734	1734	1718	1711	1703	1695	1680	1672	1665	1658	1658	1658	1658	1658	1665	1665	1672	1680	1680	1687	1680	1680	1680	1680	1680	1687	1687	1687	1687	1687	1687	1695	1695	1695	1711	1726	1750	1759	1767	1767	1775	1784	1784	1775	1775	1767	1759	1750	1742	1726	1711	1695	1680	1672	1658	1629	1594	1561	1523	1481	1452	1419	1393	1372	1357	1347	1343	1343	1347	1347	1347	1352	1357	1357	1362	1367	1372	1377	1387	1398	1414	1430	1446	1469	1487	1492	1504	1504	1504	0	0	0	1347	1333	1333	1333	1333	1338	1347	1362	1393	1419	1452	1498	1554	1594	1636	1665	1695	1718	1742	1750	1750	1750	1750	1750	1750	0	0	0	0	0	0	0	1581	1581	1629	1629	1650	1658	1711	1726	1750	1775	1801	1818	1827	0	0	0	0	0	0	0	0	0	0	0	0	0	0	0	0	0	1672	1672	1695	1718	1726	1742	1750	1767	1775	1784	1775	1759	1750	1742	1742	0	1687	1658	1636	1636	1636	1650	0	0	0	0	1742	1742	1750	1759	1750	1734	1734	1742	1734	1726	1711	1703	1695	1687	1680	1665	1650	1643	1636	1629	1622	1622	1615	1615	1608	1608	1615	1622	1629	1629	1636	1643	1650	1665	1672	1680	1703	1711	1726	1734	1742	1750	1759	1767	1767	1767	1759	1759	1759	1759	1759	1750	1750	1750	1759	1750	1750	1759	1759	1759	1775	1784	1792	1792	1801	1801	1801	1792	1792	1784	1784	1784	1784	1784	1784	1784	1784	1792	1792	1801	1801	1801	1810	1818	1827	1836	1845	1845	1845	1845	1845	1827	1818	1801	1784	1775	1767	1750	1734	1718	1711	1687	1680	1665	1658	1636	1615	1594	1574	1548	1542	1523	1510	1504	1504	1504	1504	1504	1510	1510	1523	1535	1542	1542	1548	1554	1554	1561	1567	1561	1561	1561	1561	1561	1561	1561	0	0	0	0	0	0	0	0	1864	1864	1892	1911	1921	1931	1931	1931	0	0	0	2014	2014	2047	2093	2141	2153	2178	0	0	0	0	0	0	0	0	0	0	0	0	0	0	0	0	0	0	0	0	0	0	0	0	0	0	0	0	0	0	0	1535	1535	1523	1517	1510	1510	1504	1504	1510	1510	1504	1504	1504	1504	1504	1504	1504	1504	1510	0	0	0	0	0	0	0	0	0	0	0	0	0	2230	2230	2270	2270	2257	2230	2217	2217	0	2217	2204	2178	2165	2141	2104	2070	2070	2014	1972	1951	1931	1921	1911	1892	1892	1892	0	0	1911	1911	0	0	0	0	0	0	0	0	0	0	0	0	0	0	0	0	0	1784	1784	1784	1784	1792	1801	1818	1827	1854	1882	1921	1951	1982	2003	2014	2025	2025	2014	2003	1993	1972	1961	1951	1941	1941	1931	1931	1921	1921	1921	1921	1931	1931	1941	1951	1951	1961	1972	1972	1993	1993	1993	2003	2014	2014	2014	2014	2014	2003	2003	2003	2003	2014	2014	2014	2014	2003	2003	1993	1982	1961	1941	1921	1892	1882	1873	1854	1845	1836	1827	1818	1801	1801	1792	1792	1792	1801	1801	1810	1827	1845	1864	1892	1921	1941	1961	1993	2003	2025	2025	2036	2047	2058	2058	2047	2047	2047	2047	2036	2025	2014	2003	1993	1993	1993	1993	1993	1993	2003	2014	2025	2047	2070	2081	2093	2116	2128	2128	2141	2153	2165	2191	2204	2217	2243	2243	2257	2257	2257	2243	2243	2230	2217	2204	2178	2153	2128	2104	2093	2070	2047	2036	2025	2014	2014	2014	2025	2025	2025	2014	2014	2014	2003	1993	1972	1961	1961	1972	1972	1982	1993	2003	2014	2014	2036	2047	2047	2047	2036	2036	2036	2025	2014	2003	2003	2003	2003	2003	2025	2025	2036	2058	2070	2070	2081	2093	2093	2093	2081	2081	2081	2070	2058	2058	2047	2036	2036	2036	2036	2025	2025	2025	2025	2025	2025	2025	2025	2025	2014	2014	1993	1993	1982	1982	1982	1982	1982	1993	2003	2014	2036	2047	2070	2081	2093	2093	2104	2116	2104	2093	2070	2058	2025	2014	2014	1982	1972
1836	1873	1911	1951	1961	1972	1982	1972	1941	1902	1873	1845	1827	1818	1818	1801	1792	1775	1759	1734	1695	1665	1629	1615	1608	1594	1587	1581	1574	1567	1567	1581	1581	1587	1594	1608	1650	1680	1711	1742	1767	1784	1801	1818	1827	1827	1827	1818	1818	1810	1801	1784	1784	1767	1759	1742	1718	1718	0	0	0	1328	1283	1283	1245	1236	1228	1228	1220	1220	1240	1257	1274	1292	1310	1324	1343	1357	1367	1372	1377	1372	1372	1372	1372	1377	1382	1382	1387	1393	1408	1419	1435	1458	1487	1504	1535	1581	1622	0	0	0	0	1818	1818	1827	1836	1836	1845	1845	1810	1792	1775	1759	1750	1742	1734	1718	1703	1703	1695	1687	1680	1672	1665	1658	1650	1650	1650	1650	1650	1650	1658	1665	1665	1672	1672	1672	1672	1672	1672	1672	1672	1672	1672	1672	1672	1680	1680	1687	1695	1711	1726	1742	1750	1767	1767	1767	1767	1767	1767	1759	1750	1750	1742	1734	1718	1711	1695	1680	1672	1658	1629	1601	1574	1535	1504	1469	1435	1408	1387	1367	1362	1352	1352	1352	1352	1357	1357	1357	1367	1367	1377	1382	1393	1408	1419	1435	1452	1475	1492	1510	1517	1529	1529	1535	0	0	1424	1393	1357	1352	1352	1352	1357	1367	1387	1408	1441	1481	1529	1567	1608	1650	1680	1703	1718	1742	1750	1750	1759	1750	1750	1742	1742	1734	1718	1687	1680	1665	1643	1608	1608	1629	1629	1650	1672	1711	1734	1759	1775	1801	1818	1810	1810	0	0	0	0	1742	1742	1750	1767	1775	1792	0	0	0	0	0	1759	1718	1718	1734	1742	1742	1750	1759	1767	1775	1784	1767	1742	1718	1711	1703	1687	1665	1636	1622	1622	1622	1629	1636	1665	1695	1726	1742	1742	1767	1784	1775	1759	1759	1759	1750	1742	1726	1718	1711	1703	1695	1680	1665	1650	1636	1636	1622	1622	1615	1615	1608	1608	1615	1622	1636	1636	1643	1650	1658	1665	1680	1687	1703	1711	1726	1742	1750	1750	1759	1767	1767	1767	1767	1759	1759	1759	1759	1750	1750	1750	1750	1742	1742	1742	1742	1750	1759	1775	1775	1775	1784	1784	1792	1784	1784	1775	1775	1775	1775	1775	1784	1784	1784	1792	1792	1792	1801	1801	1810	1818	1827	1827	1836	1836	1836	1836	1836	1827	1818	1801	1784	1775	1767	1750	1734	1726	1718	1711	1695	1680	1665	1650	1622	1601	1581	1554	1542	1523	1517	1510	1504	1504	1498	1498	1504	1510	1510	1517	1523	1523	1529	1535	1535	1548	1548	1548	1548	1548	1548	1548	1554	1561	0	0	0	0	0	0	0	0	1864	1864	1864	1882	1902	1911	1921	1921	1931	1941	1951	1982	2014	2047	2093	2128	2153	2165	2204	0	0	0	0	0	0	0	0	0	0	0	0	0	0	0	0	0	0	0	0	0	0	0	0	0	0	0	0	0	1587	1567	1548	1535	1529	1523	1517	1517	1517	1517	1517	1510	1510	1510	1510	1510	1510	1510	0	0	0	0	0	0	0	0	0	0	2003	2003	2047	2070	2070	2081	2104	2270	2270	2257	2128	2128	2128	2141	2165	2165	2153	2141	2116	2093	2070	2070	1993	1972	1951	1931	1921	1902	1892	1882	1864	1864	1864	1864	1882	1902	0	0	0	0	0	0	0	0	0	0	0	0	0	0	0	0	0	0	1792	1792	1801	1810	1827	1836	1864	1892	1931	1961	1993	2014	2025	2025	2025	2014	1993	1972	1961	1951	1941	1931	1921	1921	1921	1911	1911	1911	1911	1921	1921	1931	1931	1941	1951	1961	1961	1972	1972	1982	1993	2003	2003	2003	2003	2014	2014	2014	2014	2014	2025	2025	2036	2025	2025	2025	2014	1993	1972	1951	1921	1892	1873	1854	1827	1810	1801	1792	1784	1767	1759	1759	1759	1759	1767	1775	1784	1792	1810	1827	1845	1864	1882	1911	1911	1931	1941	1961	1972	1982	1993	2003	2014	2014	2014	2014	2014	2003	1993	1982	1972	1972	1972	1972	1972	1982	1993	2003	2025	2047	2058	2081	2093	2116	2116	2128	2141	2141	2141	2153	2178	2178	2204	2204	2217	2217	2204	2191	2178	2153	2141	2128	2116	2116	2093	2081	2070	2047	2036	2025	2014	2003	2003	2003	2014	2014	2014	2014	2014	2014	2003	1993	1972	1961	1961	1961	1972	1982	1982	1993	1993	2014	2025	2036	2036	2036	2036	2036	2047	2047	2036	2025	2025	2014	2014	2025	2036	2036	2047	2070	2070	2081	2093	2104	2093	2093	2081	2081	2081	2081	2070	2058	2047	2047	2047	2036	2036	2036	2036	2036	2036	2036	2036	2025	2025	2025	2014	2003	1993	1982	1982	1982	1982	1982	1982	1993	2003	2014	2036	2047	2070	2081	2081	2093	2104	2093	2070	2058	2036	2025	2003	1972	1972	1951	1941
1801	1836	1873	1902	1921	1941	1941	1941	1911	1892	1854	1836	1827	1810	1801	1801	1784	1775	1759	1742	1711	1687	1658	1636	1629	1615	1608	1601	1594	1594	1594	1601	1601	1608	1608	1615	1650	1680	1703	1734	1750	1775	1792	1810	1818	1810	1810	1818	1810	1801	1801	1784	1775	1767	1750	1742	1718	1718	0	0	0	0	0	0	1274	1261	1228	1228	1228	1232	1249	1266	1287	1305	1324	1343	1357	1372	1393	1393	1393	1393	1393	1398	1398	1398	1398	1403	1408	1408	1424	1435	1452	1475	1498	0	0	0	0	0	0	1726	1726	1759	1775	1792	1792	1801	1810	1801	1784	1767	1742	1734	1726	1711	1703	1695	1680	1672	1672	1665	1665	1658	1650	1650	1643	1636	1636	1643	1643	1643	1650	1650	1650	1658	1658	1658	1658	1658	1658	1658	1658	1658	1658	1665	1665	1665	1672	1672	1695	1703	1718	1734	1742	1750	1750	1759	1750	1750	1750	1742	1734	1734	1726	1726	1718	1711	1695	1687	1672	1665	1643	1615	1587	1554	1529	1492	1463	1435	1408	1393	1382	1372	1367	1367	1367	1367	1372	1377	1377	1387	1393	1398	1408	1424	1441	1458	1475	1498	1510	1529	1542	1542	1535	1535	0	1469	1424	1393	1377	1377	1367	1367	1377	1382	1403	1430	1458	1498	1542	1587	1622	1658	1687	1711	1726	1750	1759	1759	1759	1750	1750	1742	1734	1734	1718	1687	1680	1665	1643	1629	1629	1629	1650	1665	1687	1726	1742	1767	1784	1801	1801	1792	1792	0	0	0	1734	1734	1742	1750	1767	1775	1792	1836	0	0	0	0	1759	1759	1759	1759	1767	1767	1767	1767	1775	1784	1784	1759	1718	1687	1687	1672	1658	1643	1622	1608	1608	1608	1629	1629	1665	1695	1726	1767	1810	1836	1864	1854	1827	1818	1801	1784	1767	1750	1742	1726	1718	1711	1687	1672	1658	1643	1643	1629	1622	1622	1615	1615	1615	1615	1622	1636	1643	1650	1658	1665	1672	1680	1695	1703	1718	1734	1742	1750	1759	1759	1767	1767	1767	1767	1759	1759	1759	1759	1750	1750	1742	1742	1742	1742	1734	1734	1742	1750	1759	1767	1767	1775	1784	1784	1784	1775	1775	1775	1775	1775	1775	1784	1784	1784	1784	1792	1792	1792	1801	1801	1810	1818	1827	1827	1827	1836	1836	1836	1827	1818	1801	1792	1775	1767	1759	1734	1734	1718	1711	1703	1687	1672	1650	1629	1608	1581	1561	1542	1523	1517	1510	1504	1504	1498	1498	1504	1504	1510	1510	1510	1517	1517	1517	1523	1529	1535	1529	1529	1535	1535	1535	1542	1554	1567	1567	1574	1587	1601	1643	1695	1742	1784	1818	1854	1873	1892	1902	1921	1921	1931	1941	1951	1982	2014	2047	2081	2128	2153	2165	2204	0	0	0	0	0	0	0	0	0	0	0	0	0	0	0	0	0	0	0	0	0	0	0	0	0	0	0	1622	1608	1587	1567	1561	1548	1542	1529	1523	1517	1517	1523	1517	1517	1517	1517	1517	1517	1517	1517	0	0	0	0	0	0	0	0	0	0	2003	1993	1993	2014	2025	2081	2104	0	0	0	2128	2128	2128	2141	2165	2165	2153	2141	2116	2093	2093	0	1993	1972	1951	1931	1921	1902	1892	1873	1864	1854	1854	1864	1873	1902	0	0	0	0	0	0	0	0	0	0	0	0	0	0	0	0	0	0	1810	1810	1810	1818	1836	1845	1864	1892	1931	1972	2003	2014	2025	2014	2003	1993	1982	1961	1951	1941	1921	1921	1921	1911	1902	1902	1902	1902	1902	1911	1911	1921	1931	1931	1931	1941	1951	1951	1961	1972	1982	1993	2003	2003	2003	2025	2025	2025	2036	2036	2036	2036	2047	2036	2036	2036	2014	2003	1982	1951	1911	1873	1845	1818	1792	1775	1759	1750	1742	1726	1726	1726	1726	1734	1742	1750	1750	1767	1784	1801	1810	1827	1845	1854	1873	1882	1902	1911	1921	1931	1951	1961	1972	1982	1982	1993	1993	1993	1982	1972	1961	1961	1961	1972	1972	1982	1993	2003	2025	2047	2058	2081	2093	2116	2116	2128	2128	2128	2128	2141	2153	2165	2165	2165	2178	2178	2178	2141	2128	2116	2104	2081	2070	2070	2047	2036	2036	2025	2014	2003	2003	1993	1993	2003	2003	2003	2003	2003	2014	2014	2003	1993	1972	1961	1961	1961	1961	1972	1972	1982	1993	1993	2014	2025	2025	2025	2025	2036	2036	2047	2047	2047	2036	2036	2036	2047	2058	2070	2081	2081	2093	2093	2104	2116	2104	2104	2104	2104	2093	2081	2081	2070	2070	2058	2047	2047	2047	2047	2047	2036	2036	2036	2036	2036	2025	2025	2014	2003	1993	1982	1982	1982	1982	1982	1993	1993	2003	2014	2036	2047	2058	2070	2081	2093	2081	2081	2058	2036	2014	2003	1982	1961	1941	1941	1931
1759	1792	1827	1864	1882	1902	1911	1921	1902	1873	1854	1818	1818	1810	1792	1775	1775	1767	1750	1734	1711	1687	1665	1650	1636	1629	1622	1615	1608	1608	1608	1608	1615	1615	1615	1622	1650	1672	1695	1718	1734	1750	1775	1792	1801	1801	1801	1801	1801	1792	1792	1784	1775	1767	1750	1734	1718	1695	1658	1636	1561	1498	1458	1458	1274	1261	1249	1245	1245	1245	1261	1283	1301	1324	1343	1367	1387	1414	1458	1469	1458	1458	1452	1452	1424	1424	1424	1430	1430	1435	1446	1458	1498	1510	1529	1542	1561	1587	1615	1636	1650	1672	1703	1726	1742	1750	1759	1767	1775	1767	1750	1734	1718	1703	1695	1687	1672	1658	1658	1643	1636	1636	1636	1629	1629	1629	1622	1622	1622	1622	1629	1629	1636	1636	1643	1643	1643	1643	1643	1643	1643	1643	1643	1650	1650	1650	1658	1658	1665	1672	1695	1703	1711	1726	1734	1734	1734	1734	1726	1726	1726	1726	1726	1718	1718	1718	1711	1711	1703	1687	1680	1672	1658	1636	1615	1587	1561	1529	1498	1469	1441	1419	1408	1393	1387	1387	1387	1393	1393	1398	1403	1408	1414	1424	1441	1458	1469	1487	1504	1523	1542	1548	1554	1554	1535	1529	1529	1469	1430	1414	1387	1382	1382	1382	1387	1403	1414	1446	1475	1510	1554	1601	1636	1665	1695	1718	1734	1750	1759	1759	1759	1750	1750	1742	1734	1734	1726	1703	1680	1665	1658	1650	1650	1650	1665	1680	1695	1734	1750	1767	1784	1792	1784	1775	1775	0	0	0	1734	1734	1750	1767	1784	1792	1818	1836	1882	1902	1892	1892	0	0	1792	1792	1792	1784	1784	1784	1784	1792	1784	1742	1695	1672	1665	1658	1650	1629	1622	1608	1608	1608	1622	1629	1672	1718	1767	1827	1873	1911	1941	1921	1902	1873	1836	1810	1792	1775	1750	1742	1726	1718	1703	1687	1665	1650	1650	1636	1629	1629	1622	1622	1622	1622	1629	1643	1650	1658	1665	1672	1680	1695	1703	1711	1726	1742	1750	1750	1759	1759	1767	1767	1767	1767	1767	1767	1759	1759	1750	1750	1742	1742	1742	1742	1734	1734	1742	1742	1759	1767	1767	1775	1784	1784	1784	1775	1775	1775	1775	1775	1775	1784	1784	1784	1784	1792	1792	1792	1801	1801	1801	1818	1818	1818	1827	1827	1827	1836	1827	1827	1810	1801	1784	1784	1767	1750	1750	1742	1726	1711	1695	1680	1658	1636	1615	1587	1561	1542	1529	1523	1517	1510	1504	1498	1498	1504	1504	1510	1510	1510	1510	1510	1510	1510	1517	1523	1523	1523	1517	1517	1535	1542	1554	1567	1567	1574	1587	1601	1643	1695	1734	1767	1801	1827	1854	1873	1892	1911	1921	1941	1951	1961	1993	2025	2047	2081	2128	2153	2165	2204	0	0	0	0	0	0	0	0	0	0	0	0	0	0	0	0	0	0	0	0	0	0	0	0	1650	1643	1636	1622	1608	1594	1581	1567	1554	1548	1535	1529	1523	1523	1523	1523	1523	1517	1517	1517	1517	1517	1517	1542	1554	0	0	0	0	0	0	0	0	0	1961	1961	1982	1993	0	0	0	0	0	0	0	0	0	0	0	0	0	0	0	0	0	1982	1961	1941	1921	1911	1892	1882	1864	1854	1845	1845	1854	1864	1873	0	0	0	0	0	0	0	0	0	0	0	0	0	0	0	0	0	0	0	1818	1818	1836	1845	1854	1873	1892	1931	1951	1982	1993	2003	1993	1982	1982	1961	1951	1931	1921	1911	1902	1902	1892	1892	1892	1892	1892	1892	1892	1902	1902	1911	1921	1921	1921	1931	1941	1951	1951	1972	1982	1993	2003	2014	2025	2036	2036	2036	2036	2047	2047	2058	2058	2058	2047	2036	2014	1972	1941	1902	1864	1827	1801	1775	1759	1742	1726	1718	1703	1695	1695	1695	1703	1711	1718	1726	1734	1750	1767	1775	1792	1801	1818	1827	1845	1854	1873	1882	1902	1921	1931	1951	1961	1972	1982	1982	1982	1972	1972	1961	1961	1961	1972	1982	1993	2003	2025	2047	2058	2081	2093	2104	2116	2141	2128	2128	2116	2116	2128	2128	2128	2141	2141	2141	2141	2128	2116	2093	2081	2058	2047	2036	2036	2025	2014	2014	2014	2003	1993	1993	1982	1982	1982	1993	2003	1993	1993	2003	2003	1993	1982	1972	1961	1961	1951	1951	1961	1972	1972	1982	1993	2003	2014	2025	2025	2025	2036	2036	2047	2058	2047	2047	2058	2058	2070	2081	2081	2093	2104	2104	2104	2116	2128	2116	2116	2104	2104	2093	2093	2093	2081	2070	2070	2058	2058	2047	2047	2047	2047	2047	2036	2036	2036	2025	2025	2014	2003	1993	1993	1982	1982	1993	1993	2003	2003	2014	2025	2047	2058	2058	2070	2081	2093	2081	2070	2047	2025	2003	1993	1972	1951	1931	1931	1931
1718	1750	1784	1827	1845	1864	1873	1882	1882	1854	1854	1818	1810	1801	1792	1775	1767	1767	1750	1734	1711	1687	1672	1658	1643	1636	1629	1622	1615	1615	1615	1615	1615	1615	1615	1629	1643	1665	1680	1695	1711	1726	1742	1767	1784	1784	1784	1792	1792	1792	1784	1784	1775	1767	1750	1734	1718	1695	1658	1636	1561	1498	1458	1458	0	0	0	0	0	0	0	0	0	1377	1377	1398	1430	1446	1458	1469	1458	1458	1452	1452	1458	1458	1458	1463	1463	1469	1475	1487	1498	1510	1529	1542	1561	1587	1615	1629	1643	1658	1680	1703	1711	1718	1726	1734	1742	1742	1726	1711	1695	1672	1672	1658	1650	1643	1622	1622	1615	1608	1608	1608	1601	1601	1601	1601	1608	1608	1615	1622	1629	1629	1629	1636	1636	1636	1636	1636	1636	1636	1636	1643	1643	1650	1650	1658	1665	1680	1695	1703	1711	1726	1726	1726	1718	1718	1711	1711	1703	1703	1703	1703	1703	1703	1703	1703	1703	1695	1695	1687	1680	1658	1643	1622	1594	1567	1542	1504	1475	1458	1435	1419	1408	1408	1408	1408	1414	1419	1424	1435	1446	1458	1475	1492	1510	1529	1548	1561	1567	1574	1574	1561	1548	1529	1517	1481	1441	1414	1398	1393	1393	1393	1403	1414	1430	1463	1492	1529	1574	1608	1643	1672	1695	1718	1742	1750	1759	1759	1759	1750	1750	1750	1742	1734	1726	1703	1687	1680	1665	1658	1658	1658	1672	1687	1703	1734	1750	1759	1775	1775	1767	1750	1734	1734	0	0	1742	1742	1759	1775	1792	1810	1836	1854	1882	1902	1892	1892	1882	1864	1864	0	1810	1792	1784	1784	1784	1784	1792	1742	1695	1650	1650	1643	1629	1615	1608	1601	1601	1608	1615	1636	1687	1742	1792	1864	1921	1961	1972	1982	1931	1921	1873	1845	1818	1801	1775	1759	1750	1734	1718	1695	1680	1665	1650	1643	1636	1636	1622	1622	1622	1622	0	0	1665	1665	1680	1687	1703	1718	1726	1726	1734	1742	1750	1759	1759	1759	1767	1767	1767	1767	1767	1767	1759	1759	1759	1750	1750	1742	1742	1742	1734	1734	1742	1742	1759	1767	1767	1775	1784	1784	1784	1784	1775	1775	1775	1775	1784	1784	1784	1784	1792	1792	1792	1792	1801	1801	1801	1810	1818	1818	1818	1827	1827	1827	1827	1827	1818	1818	1801	1792	1784	1767	1759	1750	1734	1718	1703	1680	1665	1636	1615	1594	1574	1561	1548	1548	1548	1548	1542	1535	1535	1535	1535	1529	1523	1517	1510	1510	1510	1510	1510	1517	1523	1517	1517	1517	1529	1542	1561	1574	1581	1594	1608	1629	1650	1687	1718	1759	1784	1810	1836	1864	1882	1902	1921	1941	1951	1972	2003	2025	2047	2081	2128	2128	2165	0	0	0	0	0	0	0	0	0	0	0	0	0	0	0	0	0	0	0	0	0	0	0	0	0	1650	1643	1636	1629	1608	1601	1587	1574	1561	1548	1542	1535	1529	1529	1529	1529	1523	1517	1517	1523	1523	1529	1542	1542	1554	1608	1650	1680	1703	1734	1734	1784	1864	1864	1882	1902	1921	1931	1941	0	0	0	0	1972	1972	1993	2014	2036	2058	2070	0	0	2047	2025	1993	1972	1941	1931	1911	1902	1882	1873	1854	1845	1836	1836	1836	1836	1845	1854	0	0	0	0	0	0	0	0	0	0	0	0	0	0	0	0	0	0	1818	1818	1827	1836	1845	1864	1873	1892	1921	1951	1961	1972	1961	1961	1951	1941	1931	1911	1902	1892	1892	1882	1882	1882	1882	1873	1873	1882	1882	1892	1892	1902	1902	1911	1911	1911	1921	1931	1941	1951	1972	1982	2003	2014	2025	2036	2036	2047	2058	2058	2070	2070	2070	2070	2047	2047	2014	1972	1931	1882	1845	1810	1784	1759	1734	1726	1703	1695	1680	1672	1672	1672	1672	1687	1687	1703	1718	1726	1742	1759	1767	1775	1784	1792	1810	1818	1827	1845	1864	1882	1902	1931	1941	1951	1961	1972	1972	1972	1972	1961	1961	1982	1993	1993	2003	2036	2058	2070	2104	2104	2116	2128	2141	2141	2128	2128	2116	2104	2104	2104	2104	2093	2093	2093	2081	2081	2058	2058	2036	2025	2014	2014	2014	2003	2003	1993	1993	1982	1982	1982	1972	1972	1972	1982	1982	1982	1993	1993	1993	1993	1982	1972	1961	1951	1951	1951	1961	1972	1972	1982	1993	2003	2014	2025	2036	2036	2036	2047	2047	2058	2058	2058	2070	2070	2081	2093	2104	2104	2116	2116	2128	2128	2128	2128	2128	2116	2116	2104	2104	2104	2081	2081	2070	2070	2058	2047	2047	2047	2047	2047	2036	2025	2025	2025	2014	2014	2003	2003	1993	1993	1993	1993	1993	2003	2014	2025	2025	2047	2058	2070	2070	2081	2093	2081	2058	2025	2014	1993	1982	1951	1941	1921	1921	1921
1703	1726	1759	1792	1810	1836	1854	1864	1864	1854	1836	1818	1810	1801	1792	1775	1767	1767	1759	1750	1726	1703	1687	1672	1665	1650	1643	1629	1622	1622	1622	1622	1622	1622	1622	1629	1643	1658	1672	1680	1695	1711	1726	1750	1767	1767	1775	1784	1784	1792	1784	1784	1775	1759	1750	1734	1718	1695	1658	1643	1561	1498	1458	1458	1469	1446	1424	1424	1393	1393	1408	1419	1441	1430	1430	1452	1469	1492	1504	1510	1504	1504	1498	1498	1504	1504	1504	1504	1510	1517	1523	1535	1542	1548	1561	1567	1587	1594	1622	1629	1643	1650	1665	1680	1687	1695	1695	1703	1711	1711	1703	1695	1680	1658	1650	1643	1629	1622	1608	1601	1594	1594	1594	1594	1594	1594	1594	1594	1594	1608	1608	1615	1622	1622	1622	1622	1622	1622	1622	1629	1636	1636	1636	1643	1643	1650	1650	1658	1665	1680	1695	1703	1711	1711	1718	1711	1703	1695	1687	1687	1687	1687	1687	1687	1695	1695	1695	1695	1703	1703	1703	1695	1695	1687	1672	1658	1636	1608	1581	1554	1517	1492	1469	1452	1435	1430	1430	1435	1435	1441	1446	1458	1469	1492	1510	1529	1548	1567	1581	1601	1601	1608	1601	1587	1561	1542	1517	1487	1458	1435	1419	1414	1414	1419	1435	1452	1469	1504	1535	1581	1615	1650	1687	1711	1734	1750	1759	1759	1767	1767	1759	1759	1750	1750	1742	1734	1734	1718	1711	1695	1687	1680	1680	1680	1687	1703	1718	1734	1750	1759	1767	1759	1742	1726	1711	1711	1711	1718	1726	1734	1759	1784	1801	1827	1854	1873	1902	1911	1921	1911	1882	1864	1864	0	1836	1818	1792	1784	1784	1784	0	0	0	1650	1650	1622	1608	1608	1594	1587	1587	1587	1608	1636	1695	1750	1818	1902	1961	2003	2025	2025	1982	1961	1931	1892	1854	1836	1810	1792	1775	1759	1734	1711	1695	1680	1665	1650	1643	1636	1636	1629	1629	1636	1665	0	1695	1695	1711	1726	1734	1742	1742	1750	1750	1759	1759	1767	1767	1767	1775	1775	1775	1767	1767	1767	1767	1767	1759	1759	1759	1750	1750	1742	1742	1742	1750	1759	1767	1784	1784	1792	1792	1792	1792	1784	1784	1784	1784	1784	1784	1792	1792	1792	1792	1792	1792	1792	1801	1801	1810	1810	1818	1818	1818	1818	1827	1827	1827	1827	1827	1818	1818	1810	1801	1784	1775	1759	1742	1726	1711	1687	1672	1658	1643	1629	1615	1608	1601	1601	1608	1608	1608	1601	1594	1581	1574	1567	1554	1542	1523	1510	1510	1510	1510	1517	1523	1517	1510	1510	1529	1548	1574	1587	1594	1608	1629	1636	1665	1680	1711	1742	1767	1792	1818	1845	1873	1892	1921	1941	1961	1982	2003	2036	2058	2081	2104	2128	0	0	0	0	0	0	0	0	0	0	0	0	0	0	0	0	0	0	0	0	0	0	0	0	0	1658	1658	1650	1643	1636	1629	1615	1601	1587	1574	1567	1561	1554	1542	1529	1529	1529	1529	1529	1529	1529	1529	1535	1542	1554	1574	1608	1650	1680	1703	1734	1734	1767	1801	1818	1827	1836	1845	1854	1854	1873	1892	1882	1882	1902	1911	1941	1961	1993	2014	2025	2025	2036	2036	1993	1961	1941	1921	1902	1892	1873	1864	1845	1836	1827	1818	1810	1810	1810	1818	1818	1827	0	0	0	0	0	0	0	0	0	0	0	0	0	0	0	0	1810	1810	1810	1818	1827	1836	1845	1854	1864	1892	1921	1931	1931	1931	1921	1911	1911	1902	1882	1873	1873	1873	1873	1873	1864	1864	1864	1864	1864	1873	1882	1882	1882	1892	1892	1902	1902	1911	1921	1931	1941	1961	1972	1993	2014	2025	2047	2047	2058	2070	2070	2070	2081	2081	2070	2058	2036	2003	1961	1931	1873	1836	1801	1775	1750	1734	1711	1695	1687	1672	1665	1658	1658	1665	1672	1680	1695	1711	1726	1734	1750	1759	1767	1767	1775	1784	1792	1792	1810	1827	1845	1873	1902	1921	1931	1951	1961	1961	1972	1972	1972	1982	1993	2014	2025	2047	2058	2081	2116	2141	2141	2153	2153	2153	2153	2141	2104	2093	2081	2058	2047	2025	2014	2003	2003	1993	1993	1993	1993	1982	1982	1982	1982	1993	1993	1982	1982	1982	1982	1972	1961	1961	1961	1961	1972	1972	1982	1982	1982	1982	1982	1982	1972	1961	1951	1951	1951	1961	1972	1982	1982	1993	2003	2025	2025	2036	2036	2036	2058	2070	2070	2070	2070	2081	2081	2104	2104	2116	2128	2128	2141	2128	2128	2141	2128	2128	2128	2116	2116	2116	2104	2093	2093	2081	2070	2058	2047	2047	2036	2036	2036	2025	2014	2014	2014	2014	2014	2014	2003	1993	1993	1993	2014	2014	2014	2025	2036	2047	2058	2070	2081	2081	2093	2081	2058	2036	2014	1993	1972	1961	1941	1921	1911	1911	1911
1680	1703	1734	1759	1784	1810	1827	1836	1845	1827	1827	1810	1801	1784	1784	1775	1767	1759	1750	1742	1734	1718	1695	1695	1680	1665	1658	1643	1636	1636	1636	1629	1629	1629	1629	1629	1643	1658	1672	1680	1695	1711	1726	1742	1759	1767	1775	1775	1784	1784	1784	1784	1775	1759	1750	1742	1718	1711	1658	1643	1601	1554	1523	1492	1469	1446	1424	1424	1393	1393	1408	1419	1441	1469	1481	1504	1523	1535	1548	1548	1548	1548	1548	1548	1554	1554	1554	1561	1567	1567	1581	1587	1594	1601	1608	1615	1629	1629	1629	1636	1643	1650	1665	1665	1665	1672	1672	1680	1680	1687	1680	1672	1658	1636	1636	1629	1615	1608	1601	1594	1581	1581	1587	1587	1587	1587	1587	1587	1594	1601	1601	1608	1615	1615	1615	1615	1622	1622	1622	1622	1629	1629	1636	1643	1643	1650	1650	1658	1672	1687	1695	1703	1711	1711	1711	1703	1695	1687	1680	1672	1672	1672	1672	1672	1680	1680	1687	1695	1703	1703	1711	1711	1711	1711	1703	1695	1672	1650	1622	1587	1561	1535	1510	1481	1463	1463	1463	1463	1463	1469	1481	1487	1504	1523	1542	1567	1581	1601	1615	1629	1636	1629	1622	1594	1574	1548	1529	1504	1475	1458	1441	1441	1441	1463	1469	1487	1510	1542	1574	1608	1643	1680	1711	1726	1742	1759	1759	1767	1767	1767	1759	1759	1759	1750	1750	1742	1734	1734	1726	1711	1703	1703	1703	1703	1711	1726	1734	1742	1750	1759	1759	1734	1718	1695	1687	1687	1687	1703	1711	1734	1759	1784	1810	1836	1864	1882	1902	1921	1941	1951	1921	1921	1921	1972	0	1882	1845	1810	1801	1801	0	0	0	0	0	1601	1594	1587	1581	1581	1581	1581	1601	1643	0	0	1911	1911	1982	2036	2070	2070	2025	1993	1951	1921	1892	1864	1836	1810	1792	1775	1750	1734	1718	1695	1680	1672	1658	1650	1643	1643	1650	1650	1665	0	0	1742	1742	1750	1750	1750	1750	1750	1759	1767	1767	1775	1775	1775	1775	1775	1775	1775	1775	1775	1775	1767	1767	1767	1767	1759	1759	1759	1750	1750	1767	1775	1792	1801	1801	1810	1818	1818	1810	1801	1792	1792	1792	1792	1792	1801	1801	1792	1792	1801	1801	1801	1801	1801	1801	1810	1818	1818	1818	1818	1827	1827	1827	1827	1827	1827	1818	1818	1810	1792	1784	1767	1750	1742	1726	1711	1711	1695	1687	1680	1672	1672	1672	1672	1687	1687	1687	1672	1665	1658	1643	1643	1636	1622	1601	1581	1561	1561	1561	1542	1535	1523	1510	1510	1535	1561	1581	1601	1608	1622	1636	1650	1665	1680	1711	1734	1759	1784	1810	1836	1864	1892	1921	1941	1961	1993	2014	2036	2058	2081	2093	0	0	0	0	0	0	0	0	0	0	0	0	0	0	0	0	0	0	0	0	0	0	0	0	0	0	1658	1658	1650	1650	1643	1636	1629	1615	1608	1594	1587	1561	1554	1542	1542	1542	1542	1535	1535	1535	1542	1548	1554	1561	1574	1601	1636	1672	1703	1718	1734	1742	1742	1759	1775	1775	1775	1775	1784	1784	1801	1818	1827	1827	1864	1892	1921	1941	1961	1982	2003	2014	2014	2025	1961	1941	1911	1902	1882	1873	1854	1845	1836	1818	1810	1810	1801	1801	1801	1801	1801	1801	0	0	0	0	0	0	0	0	0	0	0	0	0	0	1801	1801	1801	1801	1810	1810	1818	1827	1836	1845	1854	1873	1902	1911	1902	1902	1882	1882	1873	1864	1864	1854	1854	1854	1854	1854	1854	1854	1854	1854	1854	1864	1873	1873	1873	1882	1882	1892	1892	1902	1911	1921	1931	1951	1972	1993	2003	2025	2047	2047	2058	2070	2070	2081	2093	2081	2070	2058	2025	1982	1951	1911	1864	1827	1792	1767	1742	1726	1711	1687	1680	1665	1658	1658	1658	1665	1672	1680	1695	1711	1726	1734	1750	1759	1759	1767	1767	1767	1775	1775	1784	1801	1818	1845	1873	1902	1921	1941	1961	1961	1972	1972	1972	2003	2025	2047	2070	2093	2116	2141	2165	2178	2178	2191	2191	2178	2153	2141	2104	2058	2036	2014	1982	1961	1941	1931	1921	1921	1931	1941	1941	1951	1961	1961	1972	1982	1982	1982	1982	1972	1972	1972	1961	1951	1951	1951	1961	1961	1972	1972	1972	1972	1972	1982	1972	1961	1951	1951	1961	1961	1972	1982	1982	1993	2003	2025	2025	2036	2036	2047	2058	2070	2081	2081	2093	2093	2104	2128	2128	2141	2141	2153	2141	2141	2153	2153	2153	2153	2141	2128	2128	2116	2116	2104	2093	2081	2070	2047	2047	2036	2036	2025	2025	2014	2003	2003	2003	2003	2014	2003	2003	2003	2014	2014	2025	2025	2036	2047	2047	2070	2070	2081	2093	2093	2093	2070	2047	2014	1993	1972	1951	1941	1931	1911	1902	1902	1902
1665	1687	1703	1726	1750	1775	1784	1801	1818	1810	1810	1801	1792	1775	1775	1767	1759	1759	1750	1742	1734	1726	1711	1703	1695	1687	1672	1665	1658	1650	1643	1643	1636	1636	1636	1643	1650	1658	1672	1687	1695	1711	1726	1742	1759	1767	1775	1775	1784	1784	1784	1784	1775	1775	1759	1742	1718	1711	1695	1680	1650	1615	1594	1574	1561	1542	1523	1498	1498	1561	1498	1498	1523	1523	1535	1548	1567	1574	1587	1587	1587	1587	1594	1601	1608	1615	1615	1622	1629	1636	1643	1650	1650	1650	1650	1658	1658	1658	1658	1658	1658	1658	1658	1650	1650	1650	1650	1658	1658	1665	1658	1650	1629	1615	1615	1608	1594	1594	1587	1574	1561	1561	1567	1567	1561	1561	1567	1567	1574	1587	1601	1601	1601	1601	1601	1615	1615	1622	1622	1622	1629	1629	1643	1643	1650	1658	1658	1665	1680	1703	1703	1711	1711	1711	1703	1695	1687	1680	1665	1658	1658	1658	1665	1665	1665	1672	1680	1687	1703	1711	1718	1726	1726	1734	1734	1726	1703	1687	1658	1636	1601	1574	1548	1517	1492	1492	1492	1498	1498	1498	1504	1517	1535	1554	1574	1594	1608	1629	1636	1650	1650	1643	1629	1608	1581	1561	1535	1517	1492	1469	1458	1452	1452	1463	1487	1510	1529	1561	1594	1629	1665	1695	1718	1734	1750	1759	1767	1767	1767	1767	1759	1759	1759	1759	1750	1750	1742	1742	1742	1734	1726	1718	1718	1726	1726	1742	1750	1750	1750	1750	1759	1711	1695	1672	1665	1665	1672	1687	1711	1734	1759	1792	1827	1854	1882	1911	1921	1951	1972	1982	1972	1972	1972	1972	2014	0	0	1854	1854	0	0	0	0	0	0	1601	1587	1587	1574	1567	1567	1581	1601	0	0	0	1941	1941	2014	2058	2093	2104	2058	2014	1982	1941	1911	1873	1854	1827	1810	1792	1767	1742	1734	1711	1695	1687	1672	1665	1658	1658	1658	1665	0	0	0	1750	1750	1759	1759	1759	1759	1767	1767	1767	1775	1775	1775	1775	1775	1775	1775	1775	1775	1775	1775	1775	1775	1767	1767	1767	1767	1767	1767	1767	1775	1784	1810	1810	1818	1827	1827	1827	1818	1810	1801	1801	1801	1801	1801	1801	1801	1801	1801	1801	1801	1801	1801	1801	1801	1810	1818	1818	1818	1827	1827	1836	1836	1836	1836	1836	1836	1827	1818	1810	1801	1784	1775	1759	1759	1750	1750	1750	1750	1750	1750	1750	1750	1759	1767	1767	1759	1750	1742	1734	1734	1726	1718	1718	1672	1650	1629	1615	1601	1574	1561	1535	1535	1535	1535	0	1608	1608	1615	1629	1636	1650	1665	1672	1695	1726	1742	1775	1801	1827	1854	1892	1921	1941	1972	1993	2025	2047	2070	2081	2093	0	0	0	0	0	0	0	0	0	0	0	0	0	0	0	0	0	0	0	0	0	0	0	0	0	1665	1665	1658	1658	1658	1650	1643	1643	1629	1608	1594	1587	1574	1567	1561	1561	1554	1554	1554	1554	1554	1561	1561	1574	1581	1594	1622	1643	1680	1703	1718	1734	1742	1742	1759	1759	1759	1750	1750	1750	1750	1775	1818	1827	1827	1864	1892	1921	1941	1961	1982	2003	2014	2014	2025	1961	1941	1911	1902	1882	1873	1854	1845	1836	1818	1810	1801	1801	1792	1792	1792	1801	1801	0	0	0	0	0	0	0	0	0	0	0	0	0	0	1801	1801	1801	1801	1810	1810	1818	1827	1836	1836	1845	1854	1882	1882	1882	1873	1864	1864	1854	1845	1845	1836	1836	1836	1836	1845	1845	1845	1845	1854	1854	1864	1864	1873	1873	1882	1882	1882	1892	1902	1911	1921	1931	1951	1972	1993	2003	2025	2047	2047	2070	2081	2093	2093	2093	2081	2070	2036	2003	1961	1921	1882	1845	1810	1775	1750	1734	1718	1703	1687	1680	1665	1658	1658	1658	1665	1672	1680	1695	1711	1726	1742	1750	1759	1759	1767	1767	1767	1767	1775	1784	1801	1818	1845	1873	1902	1921	1941	1961	1972	1982	1982	1993	2036	2070	2093	2128	2153	2178	2191	2217	2230	2230	2217	2217	2204	2165	2128	2081	2036	1993	1951	1941	1902	1882	1873	1873	1873	1873	1892	1902	1911	1931	1941	1961	1982	1982	1972	1972	1972	1972	1961	1951	1941	1941	1941	1951	1951	1951	1951	1951	1961	1961	1961	1961	1961	1961	1961	1961	1972	1982	1982	1982	1993	2003	2014	2036	2047	2047	2058	2070	2081	2093	2093	2104	2116	2128	2153	2153	2165	2165	2178	2178	2165	2165	2153	2153	2165	2153	2141	2128	2128	2116	2116	2093	2070	2058	2036	2036	2025	2014	2014	2003	2003	1993	1993	1993	2003	2003	2003	2003	2014	2014	2025	2036	2036	2047	2058	2070	2081	2081	2093	2093	2093	2081	2058	2036	2003	1982	1951	1941	1931	1921	1902	1892	1892	1892
1650	1665	1680	1695	1718	1726	1742	1750	1767	1767	1775	1775	1775	1775	1767	1759	1759	1759	1759	1750	1734	1734	1726	1718	1718	1711	1695	1687	1680	1672	1658	1650	1650	1643	1643	1650	1658	1665	1680	1687	1695	1711	1726	1734	1759	1759	1767	1775	1784	1784	1784	1784	1775	1775	1759	1742	1726	1711	1703	1687	1680	1665	1650	1643	1629	1622	1608	1581	1574	1561	1561	1567	1567	1567	1574	1581	1594	1601	1601	1601	1601	1601	1608	1622	1636	1643	1650	1658	1665	1672	1672	1672	1672	1672	1672	1672	1672	1672	1665	1658	1658	1658	1650	1643	1643	1643	1643	1643	1643	1643	1636	1629	1608	1587	1587	1581	1561	1554	1548	1535	1529	1529	1529	1529	1529	1535	1535	1542	1548	1567	1581	1587	1594	1594	1601	1608	1615	1622	1622	1622	1636	1643	1643	1658	1658	1665	1672	1672	1687	1711	1718	1718	1711	1711	1703	1687	1680	1665	1650	1650	1650	1650	1650	1650	1658	1665	1672	1680	1695	1711	1718	1726	1742	1742	1750	1750	1734	1718	1703	1680	1658	1629	1601	1567	1542	1535	1535	1529	1529	1535	1542	1561	1567	1594	1608	1629	1636	1650	1658	1665	1665	1658	1643	1615	1594	1574	1554	1529	1504	1487	1469	1469	1469	1481	1498	1529	1554	1581	1615	1650	1680	1711	1734	1742	1759	1767	1775	1775	1775	1767	1767	1767	1767	1767	1767	1767	1759	1759	1759	1750	1750	1759	1759	1784	1759	1759	1759	1759	1750	1750	1718	1703	1687	1665	1665	1665	1672	1687	1711	1734	1767	1810	1845	1882	1902	1921	1941	1961	1982	2003	2003	2003	2003	2014	2014	0	0	0	0	0	0	0	0	0	0	0	1587	1587	1567	1567	1567	1567	1587	0	0	1854	1854	1941	2025	2058	2081	2104	2070	2014	1993	1951	1921	1882	1864	1836	1818	1801	1784	1759	1742	1718	1711	1695	1680	1672	1672	0	0	0	1718	1718	1742	1742	1759	1775	1759	1759	1767	1775	1775	1775	1775	1775	1775	1775	1775	1775	1775	1775	1775	1775	1775	1775	1775	1775	1767	1767	1767	1767	1767	1767	1784	1792	1810	1827	1827	1836	1836	1836	1827	1827	1818	1818	1810	1810	1810	1810	1810	1810	1810	1810	1810	1810	1810	1810	1810	1818	1818	1827	1827	1836	1836	1845	1845	1845	1845	1845	1854	1854	1854	1845	1827	1818	1810	1801	1801	1801	1810	1810	1810	1810	1818	1827	1827	1836	1845	1854	1845	1836	1827	1827	1827	1931	1931	0	0	0	0	1687	1658	1622	1594	1594	0	0	0	0	1608	1608	1622	1636	1636	1650	1665	1672	1695	1726	1742	1775	1801	1827	1854	1892	1921	1951	1982	2014	2036	2058	2070	2081	2093	2116	0	0	0	0	0	0	0	0	0	0	0	0	0	0	0	0	0	0	0	0	0	0	0	0	1665	1665	1672	1672	1672	1665	1643	1643	1629	1622	1615	1608	1594	1587	1581	1581	1574	1574	1581	1581	1587	1594	1608	1622	1636	1658	1680	1711	1742	1750	1759	1767	1767	1759	1759	1759	1750	1742	1742	1742	1742	1767	0	1864	1864	1902	1931	1961	1982	2014	2036	2047	2058	2058	2058	2003	1972	1941	1921	1902	1882	1864	1845	1836	1818	1810	1801	1801	1792	1792	1792	1792	1801	0	0	0	0	0	0	0	0	0	0	0	0	0	0	1818	1818	1810	1810	1818	1818	1818	1827	1827	1827	1836	1836	1854	1864	1854	1854	1845	1845	1836	1827	1827	1827	1827	1827	1827	1836	1845	1845	1845	1854	1854	1864	1864	1873	1882	1882	1882	1882	1892	1902	1911	1931	1941	1951	1972	1993	2014	2036	2047	2070	2081	2093	2104	2104	2104	2093	2058	2014	1982	1931	1892	1854	1827	1784	1767	1742	1726	1718	1703	1687	1680	1672	1665	1665	1665	1665	1680	1687	1695	1711	1726	1742	1750	1759	1759	1767	1767	1767	1767	1767	0	0	0	0	0	0	1972	1972	1972	1993	2003	2014	2025	2070	2104	2141	2178	2204	2230	2243	2270	2270	2257	2243	2230	2204	2165	2116	2058	2014	1972	1921	1892	1864	1845	1827	1827	1836	1845	1854	1873	1882	1911	1931	1951	1982	1982	1972	1972	1972	1972	1961	1951	1941	1941	1941	1951	1951	1951	1951	1951	1951	1961	1961	1961	1961	1961	1961	1961	1972	1982	1982	1982	1993	2003	2014	2036	2047	2058	2070	2081	2093	2104	2104	2116	2128	2141	2153	2165	2165	2178	2178	2178	2165	2165	2165	2165	2165	2153	2153	2141	2128	2116	2116	2093	2070	2047	2036	2025	2014	2003	1993	1993	1982	1972	1972	1982	1982	1993	2003	2003	2014	2025	2025	2047	2047	2070	2070	2081	2093	2093	2093	2093	2081	2070	2047	2014	1993	1961	1941	1931	1921	1911	1892	1892	1892	1892
1643	1650	1658	1672	1680	1695	1703	1718	1726	1742	1750	1750	1759	1767	1767	1759	1759	1759	1759	1750	1750	1742	1742	1734	1726	1718	1711	1695	1687	1680	1672	1665	1658	1658	1658	1658	1665	1672	1687	1695	1695	1703	1718	1734	1742	1750	1759	1775	1784	1784	1784	1784	1784	1775	1759	1742	1726	1718	1703	1695	1687	1672	1650	1643	1636	1622	1608	1594	1574	1574	1567	1567	1567	1574	1581	1587	1601	1608	1615	1615	1615	1615	1629	1643	1658	1665	1672	1680	1687	1687	1695	1687	1687	1695	1695	1695	1680	1680	1672	1665	1665	1658	1643	1636	1629	1629	1622	1615	1615	1615	1608	1587	1574	1548	1548	1535	1523	1517	1504	1504	1498	1498	1498	1504	1504	1510	1517	1523	1535	1548	1567	1574	1587	1594	1601	1608	1615	1629	1629	1636	1643	1650	1665	1680	1680	1680	1680	1687	1703	1711	1726	1718	1711	1711	1703	1687	1680	1665	1650	1643	1643	1643	1643	1643	1650	1650	1665	1672	1687	1695	1711	1718	1734	1742	1750	1759	1759	1750	1734	1718	1703	1680	1658	1629	1601	1587	1581	1581	1581	1581	1581	1601	1615	1629	1643	1658	1665	1672	1680	1680	1672	1665	1650	1629	1608	1587	1574	1554	1542	1523	1504	1504	1504	1517	1535	1561	1587	1615	1643	1680	1711	1734	1759	1767	1775	1784	1792	1784	1784	1784	1784	1775	1775	1775	1784	1784	1784	1784	1784	1784	1784	1784	1784	1784	1784	1784	0	1759	1742	1742	1711	1695	1680	1658	1658	1658	1672	1687	1711	1734	1775	1818	1854	1892	1921	1941	1951	1982	1993	2014	2014	2014	2014	2014	0	2025	2025	1993	1993	0	0	0	0	0	0	0	0	1561	1561	1561	1561	1567	1587	1636	0	1854	1854	1951	2036	2058	2070	2093	2058	2025	1993	1961	1931	1892	1864	1836	1818	1801	1784	1767	1750	1734	1718	1703	1687	1680	1680	1703	0	0	1718	1718	1734	1742	1767	1775	1767	1767	1775	1775	1784	1784	1784	1784	1784	1775	1775	1775	1784	1775	1775	1784	1775	1775	1775	1775	1767	1767	1767	1767	1767	1775	1775	1792	1818	1827	1845	1845	1854	1854	1845	1836	1827	1827	1827	1818	1818	1818	1818	1818	1810	1810	1810	1810	1810	1818	1818	1827	1827	1836	1836	1845	1854	1854	1854	1864	1873	1873	1873	1882	1882	1873	1864	1864	1854	1854	1854	1854	1864	1864	1873	1882	1902	1902	1911	1921	1941	1941	1941	1931	1931	1931	1931	1931	1931	2047	1993	1951	1902	1864	1726	1726	0	0	0	0	0	0	0	1636	1636	1643	1650	1650	1672	1680	1703	1726	1759	1775	1801	1836	1873	1902	1941	1972	2003	2036	2058	2081	2093	2104	2116	2116	0	0	0	0	0	0	0	0	0	0	0	0	0	0	0	0	0	0	0	0	0	0	1658	1658	1665	1680	1680	1672	1672	1665	1665	1658	1650	1643	1629	1622	1608	1601	1601	1594	1594	1594	1608	1615	1636	1658	1672	1703	1718	1750	1775	1792	1801	1801	1792	1775	1775	1775	1767	1759	1750	1742	1742	1742	1742	1767	0	0	1931	1931	1961	1993	2003	2036	2058	2070	2058	2058	0	2014	1982	1961	1931	1921	1892	1864	1854	1836	1827	1810	1801	1792	1792	1792	1792	1792	0	0	0	0	0	0	0	0	0	0	0	0	0	0	0	1836	1827	1827	1827	1827	1827	1827	1827	1827	1827	1836	1836	1854	1854	1845	1836	1827	1827	1818	1818	1810	1810	1810	1818	1827	1827	1836	1845	1845	1854	1854	1864	1873	1882	1882	1882	1892	1902	1902	1911	1921	1941	1951	1961	1982	2003	2036	2058	2070	2093	2104	2116	2116	2116	2116	2093	2036	1982	1941	1892	1854	1818	1784	1750	1734	1734	1726	1718	1711	1695	1695	1687	1680	1680	1687	1687	1695	1703	1718	1726	1742	1750	1759	1759	1767	1767	1767	1775	1767	1767	0	0	0	0	0	0	1972	1972	1993	2014	2025	2036	2081	2116	2153	2178	2217	2257	2270	2270	2298	2312	2298	2270	2243	2217	2165	2116	2047	2003	1951	1911	1864	1845	1818	1801	1801	1801	1818	1836	1854	1873	1892	1921	1951	1982	1982	1982	1982	1972	1972	1972	1951	1941	1941	1951	1951	1951	1951	1951	1951	1951	1951	1951	1961	1961	1961	1961	1961	1972	1972	1982	1982	1993	2003	2025	2047	2047	2058	2070	2081	2093	2104	2116	2116	2141	2141	2153	2165	2178	2178	2178	2178	2165	2165	2165	2165	2153	2153	2141	2128	2128	2116	2104	2081	2058	2036	2025	2014	1993	1993	1972	1961	1961	1961	1961	1961	1972	1972	1993	1993	2003	2025	2025	2047	2058	2070	2081	2081	2093	2104	2104	2093	2070	2058	2036	2003	1972	1951	1931	1921	1921	1911	1892	1892	1892	1892
1643	1650	1650	1658	1665	1672	1672	1695	1703	1718	1726	1734	1750	1767	1775	1767	1767	1775	1775	1767	1767	1759	1759	1759	1750	1742	1726	1718	1711	1695	1687	1672	1672	1672	1672	1672	1672	1680	1687	1687	1695	1703	1718	1726	1734	1750	1759	1767	1775	1775	1784	1784	1784	1775	1759	1750	1734	1718	1711	1695	1687	1672	1650	1643	1636	1622	1608	1594	1574	1574	1574	1574	1574	1574	1581	1587	1601	1608	1615	1615	1622	1622	1643	1658	1672	1680	1695	1703	1711	1711	1718	1726	1718	1718	1726	1718	1718	1703	1695	1680	1665	1658	1643	1629	1615	1608	1608	1587	1587	1587	1574	1554	1535	1517	1517	1510	1498	1492	1481	1481	1481	1481	1481	1481	1487	1492	1498	1510	1523	1542	1561	1574	1587	1594	1608	1615	1629	1643	1650	1650	1665	1672	1687	1703	1703	1703	1703	1711	1718	1726	1734	1726	1726	1711	1703	1695	1687	1665	1650	1643	1643	1636	1636	1636	1643	1643	1650	1665	1680	1687	1703	1711	1726	1734	1750	1759	1759	1759	1759	1742	1734	1718	1695	1665	1643	1636	1629	1622	1622	1622	1629	1636	1650	1665	1672	1680	1687	1695	1695	1695	1687	1680	1665	1650	1629	1615	1594	1587	1567	1554	1542	1542	1542	1554	1581	1601	1622	1650	1680	1711	1742	1759	1775	1784	1792	1801	1792	1792	1792	1792	1784	1784	1784	1784	1792	1792	1792	1792	1792	1801	1792	1792	1792	1792	1792	0	0	0	1742	1726	1711	1695	1680	1658	1658	1658	1672	1695	1711	1742	1784	1818	1854	1902	1921	1941	1961	1982	1993	2003	1993	1993	1993	1993	0	2025	2025	1993	1993	0	0	0	0	0	0	1561	1561	1561	1554	1554	1554	1561	1594	1636	0	1864	1864	1902	1961	2058	2025	2025	1993	1972	1961	1941	1911	1882	1864	1836	1818	1810	1792	1775	1767	1750	1742	1718	1711	1703	1703	1703	1726	1726	1726	1726	1734	1750	1775	1784	1775	1775	1784	1784	1792	1792	1792	1792	1784	1784	1784	1784	1784	1784	1784	1784	1784	1775	1775	1767	1767	1767	1767	1767	1767	1767	1775	1792	1818	1836	1845	1854	1864	1864	1864	1854	1836	1836	1836	1827	1827	1827	1818	1818	1818	1818	1818	1818	1818	1827	1827	1836	1836	1845	1845	1864	1864	1873	1882	1882	1882	1892	1892	1892	1902	1902	1892	1892	1892	1892	1892	1902	1911	1921	1931	1951	1972	1982	1993	2003	2025	2036	2036	2036	2047	2047	2058	2047	2047	2047	1993	1951	1902	1864	1864	0	0	0	0	0	0	1643	1643	1650	1650	1658	1658	1665	1672	1687	1703	1734	1759	1792	1818	1854	1892	1921	1972	2014	2047	2081	2104	2128	2141	2153	2165	2165	0	0	0	0	0	0	0	0	0	0	0	0	0	0	0	0	0	0	0	0	0	0	1504	1504	1665	1680	1680	1680	1687	1687	1680	1680	1672	1658	1643	1636	1629	1615	1615	1615	1615	1622	1636	1665	1687	1726	1767	1784	1836	1864	1873	1902	0	1882	1845	1818	1818	1801	1775	1767	1759	1750	1750	1759	1767	0	0	0	0	0	0	2036	2036	2058	2093	2093	0	0	0	0	0	0	1931	1911	1882	1864	1845	1836	1827	1810	1801	1792	1784	1784	1784	1792	0	0	0	0	0	0	0	0	0	0	0	0	0	0	0	1845	1845	1845	1854	1845	1845	1854	1854	1854	1864	1873	1873	1864	1854	1845	1836	1827	1818	1810	1810	1801	1801	1801	1810	1818	1827	1836	1845	1845	1854	1864	1873	1873	1882	1892	1892	1902	1911	1911	1921	1931	1941	1961	1972	1993	2014	2047	2070	2093	2104	2128	2141	2141	2141	2128	2093	2014	1961	1911	1854	1810	1784	1759	1734	1726	1726	1726	1726	1726	1718	1711	1711	1718	1718	1718	1726	1734	1742	1742	1750	1759	1767	1767	1767	1767	1767	1767	1775	1775	1784	0	0	0	0	0	0	1993	1993	2014	2036	2047	2058	2104	2153	2191	2217	2257	2270	2298	2312	2341	2341	2312	2298	2270	2230	2165	2116	2047	1993	1941	1892	1854	1827	1801	1801	1801	1801	1810	1827	1854	1873	1892	1921	1951	1982	1993	1982	1982	1982	1982	1972	1961	1951	1951	1951	1951	1951	1951	1951	1951	1951	1951	1951	1961	1961	1961	1961	1961	1972	1972	1982	1982	1993	2003	2025	2047	2047	2058	2058	2081	2093	2104	2116	2116	2141	2153	2153	2165	2165	2165	2165	2165	2153	2153	2141	2141	2141	2141	2128	2116	2104	2093	2081	2058	2047	2025	2003	1993	1982	1972	1961	1951	1951	1941	1941	1941	1951	1961	1972	1982	1993	2003	2025	2036	2047	2070	2081	2093	2104	2104	2104	2093	2070	2058	2025	1993	1972	1951	1931	1921	1921	1911	1902	1892	1892	1892
1650	1650	1650	1658	1658	1658	1665	1672	1680	1695	1703	1718	1742	1767	1784	1801	1801	1801	1810	1801	1801	1801	1792	1767	1767	1759	1750	1742	1726	1718	1695	1687	1680	1680	1672	1672	1680	1680	1687	1687	1703	1711	1718	1726	1734	1742	1750	1759	1767	1775	1784	1784	1784	1775	1759	1750	1742	1726	1718	1703	1695	1680	1665	1650	1643	1636	1622	1608	1601	1601	1594	1594	1594	1594	1594	1601	1608	1615	1622	1622	1629	1629	1650	1665	1687	1703	1718	1726	1734	1742	1750	1750	1750	1750	1750	1750	1734	1726	1711	1703	1680	1658	1643	1622	1601	1587	1567	1561	1561	1554	1535	1517	1510	1492	1487	1481	1475	1463	1458	1458	1458	1458	1458	1469	1469	1481	1492	1504	1517	1535	1561	1581	1594	1601	1615	1629	1636	1658	1665	1672	1687	1703	1718	1734	1742	1734	1734	1742	1742	1742	1742	1734	1726	1711	1703	1695	1687	1672	1658	1643	1643	1636	1636	1636	1636	1636	1643	1658	1672	1680	1695	1703	1718	1734	1742	1750	1759	1759	1759	1759	1742	1734	1711	1695	1672	1665	1665	1658	1658	1658	1665	1672	1680	1695	1695	1703	1703	1703	1703	1703	1695	1687	1680	1665	1650	1636	1622	1615	1601	1587	1581	1581	1581	1594	1615	1636	1658	1680	1711	1734	1759	1784	1792	1801	1810	1810	1810	1810	1810	1801	1801	1792	1792	1792	1792	1801	1801	1801	1801	1810	1810	1810	1810	1810	1810	1810	0	1767	1742	1726	1711	1695	1680	1665	1665	1665	1680	1703	1726	1759	1784	1827	1864	1902	1921	1941	1951	1972	1982	1982	1972	1972	1961	1961	1961	1931	1931	0	0	0	0	0	0	0	0	1561	1561	1561	1554	1554	1554	1561	1594	1636	1687	1726	1784	1827	1864	1892	1921	1941	1931	1911	1911	1902	1882	1873	1854	1836	1827	1818	1810	1801	1792	1784	1767	1759	1734	1726	1726	1726	1726	1726	1734	1742	1750	1767	1784	1792	1784	1784	1792	1792	1792	1801	1792	1792	1792	1792	1792	1792	1784	1784	1784	1784	1775	1775	1767	1767	1767	1759	1759	1759	1759	1759	1767	1792	1810	1836	1845	1864	1873	1873	1873	1864	1854	1845	1836	1836	1836	1827	1827	1827	1827	1827	1827	1827	1827	1836	1836	1845	1845	1854	1854	1864	1873	1873	1873	1892	1892	1902	1892	1892	1911	1902	1902	1902	1902	1911	1921	1931	1941	1961	1972	1993	2003	2025	2047	2058	2081	2093	2104	2104	2116	2128	2141	2141	2153	2153	2128	2081	2036	1993	1993	0	0	0	0	0	1665	1643	1643	1658	1658	1658	1658	1658	1658	1665	1672	1711	1734	1759	1801	1836	1882	1921	1972	2036	2081	2116	2153	2178	2191	2204	2217	2230	0	0	0	0	0	0	0	0	0	0	0	0	0	0	0	0	0	0	0	0	0	0	1504	1504	1542	1574	1587	1615	1636	1665	1680	1680	1680	1665	1650	1643	1636	1629	1629	1636	1643	1658	1680	1726	1750	1784	1836	1873	1911	2014	2036	2036	2014	1982	1931	1845	1818	1818	1801	1784	1767	1759	1759	1759	0	0	0	0	2104	2104	2116	2081	2081	2093	2093	2081	2070	2047	2025	2003	1972	1941	1911	1892	1873	1864	1845	1836	1827	1810	1801	1792	1784	1784	1784	0	0	0	0	0	0	0	0	0	0	0	0	0	0	0	1882	1864	1864	1864	1873	1864	1864	1873	1873	0	0	0	0	1873	1864	1845	1845	1836	1818	1801	1792	1792	1792	1801	1801	1818	1827	1836	1845	1845	1864	1873	1873	1892	1892	1902	1911	1921	1931	1931	1941	1951	1961	1972	1993	2014	2036	2070	2093	2128	2153	2165	2178	2178	2178	2141	2093	2014	1941	1882	1845	1801	1767	1742	1734	1726	1726	1734	1734	1734	1742	1742	1742	1750	1759	1767	1775	1767	1767	1767	1775	1775	1775	1767	1767	1767	1767	1767	1775	1784	1784	0	0	0	0	0	0	2003	2003	2025	2047	2058	2081	2128	2165	2217	2243	2284	2312	2341	2356	2371	2371	2341	2312	2284	2230	2178	2116	2047	1993	1941	1892	1854	1827	1801	1801	1801	1801	1810	1827	1854	1873	1902	1931	1972	2003	2003	2003	1993	1993	1993	1982	1972	1961	1951	1951	1951	1951	1951	1951	1951	1951	1951	1951	1961	1961	1961	1961	1961	1972	1982	1993	1993	2003	2003	2025	2047	2047	2058	2058	2081	2093	2104	2116	2128	2141	2141	2153	2165	2165	2165	2153	2153	2141	2141	2141	2128	2116	2116	2104	2104	2081	2070	2070	2047	2025	2003	1993	1982	1961	1951	1941	1931	1931	1921	1921	1921	1931	1941	1951	1961	1982	1993	2014	2036	2047	2070	2081	2093	2104	2116	2104	2093	2070	2058	2025	1993	1972	1951	1931	1931	1921	1921	1902	1892	1892	1892
1658	1650	1650	1658	1650	1650	1650	1658	1665	1672	1687	1703	1742	1775	1810	1836	1854	1854	1864	1864	1864	1845	1836	1810	1810	1801	1784	1767	1750	1734	1718	1711	1695	1695	1687	1687	1687	1695	1703	1711	1711	1711	1718	1726	1734	1742	1750	1759	1767	1775	1775	1784	1784	1775	1767	1759	1742	1734	1726	1718	1711	1687	1680	1665	1658	1643	1636	1622	1608	1608	1601	1601	1601	1601	1601	1608	1615	1622	1629	1629	1636	1643	1665	1687	1711	1726	1734	1742	1750	1759	1767	1767	1767	1767	1767	1767	1759	1742	1726	1711	1695	1665	1629	1601	1581	1554	1554	1561	1561	1554	1498	1492	1481	1469	1469	1463	1452	1446	1446	1441	1441	1441	1446	1452	1458	1469	1475	1492	1510	1535	1554	1581	1594	1608	1622	1636	1650	1672	1680	1703	1711	1734	1742	1759	1767	1767	1767	1767	1759	1759	1759	1742	1734	1726	1711	1703	1695	1680	1658	1650	1643	1636	1636	1629	1629	1636	1643	1650	1665	1680	1687	1703	1718	1726	1742	1750	1759	1759	1767	1759	1750	1742	1726	1711	1695	1695	1687	1687	1687	1687	1687	1703	1703	1718	1718	1718	1718	1718	1718	1711	1711	1703	1695	1680	1680	1665	1658	1650	1643	1636	1629	1629	1629	1636	1650	1672	1695	1718	1742	1767	1784	1801	1818	1827	1836	1827	1827	1827	1818	1818	1818	1810	1801	1801	1810	1810	1818	1818	1818	1827	1827	1818	1818	1818	1810	1810	1784	1767	1750	1734	1718	1703	1687	1680	1680	1680	1695	1711	1734	1759	1792	1827	1864	1892	1921	1931	1951	1961	1972	1972	1972	1972	1931	1921	1921	1892	1873	1845	1845	0	0	0	0	0	0	0	0	1561	1561	1561	1561	1567	1594	1636	1665	1695	1734	1767	1801	1827	1854	1873	1864	1854	1854	1854	1854	1845	1836	1836	1827	1818	1810	1801	1792	1784	1775	1759	1750	1742	1742	1750	1742	1742	1750	1759	1759	1767	1792	1792	1792	1792	1801	1801	1801	1801	1801	1801	1801	1801	1792	1792	1792	1784	1784	1784	1775	1775	1767	1759	1759	1750	1750	1759	1759	1759	1767	1784	1810	1827	1845	1864	1864	1873	1882	1864	1854	1845	1836	1836	1827	1827	1827	1827	1827	1827	1827	1827	1827	1836	1845	1845	1854	1854	1854	1864	1864	1864	1854	1854	1845	1845	1845	1836	1836	1836	1845	1845	1854	1873	1892	1911	1931	1972	1993	2014	2036	2058	2081	2093	2116	2141	2153	2165	2178	2204	2217	2217	2230	2243	2243	2217	2178	2165	2165	2284	0	0	0	0	1665	1665	1650	1650	1643	1636	1636	1636	1643	1650	1665	1695	1718	1750	1792	1827	1873	1921	1972	2047	2093	2128	2165	2191	2204	2217	2230	0	0	0	0	0	0	0	0	0	0	0	0	0	0	0	0	0	0	0	0	0	0	1403	1403	1419	1446	1458	1481	1504	1542	1561	1601	1636	1665	1672	1665	1650	1636	1636	1643	1643	1665	1687	1718	1767	1818	1864	1911	1951	2003	2014	2036	2036	2014	1982	1931	1873	1845	1845	1818	1801	1784	1767	1767	0	0	0	0	0	2104	2104	2116	2128	2116	2116	2093	2081	2058	2036	2014	1982	1951	1931	1902	1892	1873	1854	1845	1836	1836	0	0	0	0	0	0	0	0	0	0	0	0	0	0	0	0	0	0	0	0	0	1882	1882	1882	1882	1892	1892	1892	1902	0	0	0	0	0	0	0	1854	1845	1836	1818	1801	1792	1792	1792	1801	1801	1818	1827	1836	1854	1864	1873	1882	1892	1902	1911	1921	1931	1941	1951	1961	1961	1982	1993	2003	2025	2047	2093	2116	2141	2165	2191	2217	2217	2204	2204	2178	2116	2014	1931	1873	1818	1784	1767	1742	1734	1734	1742	1750	1767	1792	1801	1827	1836	1854	1854	1854	1845	1836	1827	1818	1801	1801	0	0	0	0	1767	1767	1775	1784	1792	0	0	0	0	0	0	0	0	2047	2047	2058	2081	2141	2178	2230	2270	2312	2341	2371	2401	2401	2401	2371	2341	2298	2243	2191	2128	2058	2003	1951	1902	1864	1836	1818	1801	1801	1801	1818	1836	1854	1882	1911	1941	1982	2025	2036	2025	2014	2003	2003	1993	1982	1961	1961	1961	1961	1961	1961	1951	1951	1951	1951	1951	1961	1961	1961	1972	1972	1982	1993	1993	2003	2003	2014	2025	2036	2047	2058	2058	2070	2081	2104	2116	2128	2141	2141	2153	2165	2153	2153	2153	2153	2128	2128	2128	2128	2116	2104	2093	2081	2070	2058	2047	2025	2014	1993	1982	1961	1951	1941	1931	1911	1911	1911	1911	1911	1911	1921	1931	1951	1961	1982	2003	2025	2047	2058	2081	2093	2104	2116	2116	2093	2070	2058	2025	1993	1972	1951	1931	1931	1931	1931	1902	1892	1892	1892
1672	1665	1658	1658	1643	1643	1636	1636	1643	1650	1665	1687	0	0	0	1911	1911	1931	1941	1941	1931	1921	1892	1854	1827	1801	1792	1784	1775	1750	1726	1718	1711	1703	1695	1695	1703	1711	1718	1718	1726	1726	1726	1734	1734	1742	1750	1759	1767	1775	1775	1784	1784	1775	1767	1767	1750	1750	0	1726	1718	1703	1687	1672	1665	1658	1643	1629	1615	1608	1608	1608	1601	1601	1608	1608	1622	1629	1636	1636	1643	1658	1687	1703	1726	1742	1750	1767	1775	1784	1784	1792	1792	1792	1792	1784	1775	1759	1750	1718	1695	1665	1629	1601	1581	1554	1554	0	0	1481	1469	1463	1463	1469	1441	1441	1435	1430	1430	1430	1430	1430	1435	1435	1446	1458	1469	1487	1504	1529	1554	1581	1601	1622	1629	1650	1665	1687	1703	1718	1734	1750	1767	1784	1801	1792	1792	1792	1775	1775	1767	1759	1750	1742	1734	1726	1711	1695	1680	1665	1650	1643	1636	1629	1629	1636	1643	1650	1665	1680	1687	1703	1718	1726	1742	1750	1759	1759	1767	1767	1759	1759	1742	1726	1703	1703	1711	1703	1703	1711	1711	1718	1726	1734	1726	1726	1726	1726	1726	1718	1718	1718	1711	1703	1695	1695	1687	1687	1680	1680	1672	1672	1672	1680	1695	1711	1734	1750	1767	1792	1818	1836	1845	1864	1864	1854	1854	1845	1845	1836	1836	1827	1818	1818	1827	1836	1836	1836	1836	1836	1827	1827	1827	1827	1810	1801	1784	1767	1750	1742	1726	1718	1703	1695	1695	1695	1750	1750	1750	1775	1801	1827	1864	1892	1911	1931	1941	1941	1961	1972	0	0	1902	1892	1882	1864	1845	1827	1827	1836	0	0	0	0	0	0	0	0	0	0	1574	1574	1608	1636	1665	1687	1718	1726	1767	1784	1801	1818	1810	1810	1810	1810	1818	1818	1810	1810	1801	1801	1810	1810	0	1792	1792	1792	0	0	0	0	0	0	0	0	1775	1775	1792	1792	1792	1801	1810	1810	1810	1810	1810	1810	1810	1810	1801	1801	1792	1792	1784	1775	1775	1767	1759	1759	1750	1750	1750	1750	1759	1759	1767	1784	1801	1827	1845	1864	1864	1873	1873	1864	1854	1845	1836	1827	1827	1827	1827	1827	1827	1827	1827	1827	1827	1836	1836	1845	1845	1845	1845	1845	1845	1836	1827	1818	1801	1784	1775	1775	1775	1767	1767	1775	1792	1818	1845	1873	1911	1941	1982	2014	2047	2070	2081	2116	2141	2165	2178	2191	2204	2217	2230	2243	2257	2270	2270	2270	2284	2270	2270	2284	0	0	0	0	0	0	1650	1650	1636	1629	1629	1629	1636	1643	1658	1687	1718	1742	1792	1827	1873	1921	1972	2047	2093	2178	2178	2204	2217	2230	0	0	0	0	0	0	0	0	0	0	0	0	0	0	0	0	0	0	0	0	0	0	0	1403	1403	1419	1446	1458	1441	1441	1463	1487	1529	1581	1608	1629	1650	1658	1650	1650	1650	1658	1680	1711	1759	1818	1882	1921	1982	2025	2093	2104	2128	2104	2070	2036	1972	1911	1873	1864	1836	1818	1792	1784	1784	0	1911	1911	2047	2217	2178	2178	2165	2165	2153	2128	2104	2081	2047	2025	1993	1961	1931	1921	1892	1873	1854	1845	1836	1836	1836	0	0	0	0	0	0	0	0	0	0	0	0	0	0	0	0	0	0	0	0	0	1902	1902	1902	1902	1902	1931	1941	1951	1951	1972	1972	1982	1982	1961	1941	1882	1873	1854	1827	1810	1801	1792	1792	1801	1801	1818	1827	1845	1864	1873	1882	1902	1911	1921	1931	1941	1951	1961	1972	1993	1993	2014	2025	2047	2070	2104	2141	2165	2191	2230	2243	2243	2243	2217	2217	2191	2116	2014	1931	1873	1818	1784	1767	1759	1750	1750	1775	1801	1827	1864	1902	1931	1941	1951	1951	1941	1931	1921	1902	1882	1882	0	0	0	0	0	0	0	0	0	0	0	0	0	0	0	1993	1993	2025	2036	2047	2058	2081	2153	2204	2270	2327	2356	2401	2432	2448	2464	2464	2417	2371	2327	2270	2204	2141	2081	2025	1972	1921	1882	1854	1818	1810	1810	1818	1836	1864	1892	1931	1961	2003	2058	2081	2081	2058	2047	2036	2014	2014	1993	1982	1972	1972	1972	1972	1961	1951	1951	1951	1951	1951	1961	1961	1961	1961	1961	1982	1993	1993	2003	2003	2014	2025	2036	2047	2047	2058	2058	2081	2081	2116	2116	2128	2141	2153	2153	2153	2153	2141	2141	2128	2128	2128	2128	2104	2104	2093	2081	2058	2058	2036	2025	2003	1982	1972	1951	1941	1921	1911	1902	1902	1902	1902	1902	1911	1911	1921	1941	1961	1972	2003	2014	2036	2058	2081	2104	2116	2128	2128	2104	2081	2058	2036	2003	1972	1951	1931	1931	1931	1931	1902	1892	1892	1882
1680	1665	1650	1636	1629	1622	1615	1615	1622	1650	1665	1687	0	0	0	1961	1961	1972	1993	1982	1972	1951	1931	1882	1845	1801	1792	1792	1775	1734	1711	1711	1711	1703	1703	1703	1703	1711	1718	1726	1734	1734	1734	1734	1734	1742	1750	1759	1767	1775	1784	1784	1784	1784	0	0	0	0	0	0	0	0	0	0	0	0	0	1629	1615	1608	1608	1608	0	0	0	0	0	0	0	0	0	0	0	1750	1750	1759	1775	1784	1792	1801	1801	1801	1792	1792	1775	1759	1750	1742	1742	0	0	0	0	0	0	0	0	1463	1452	1446	1435	1435	1463	0	1419	1419	1414	1408	1408	1408	1414	1414	1419	1424	1430	1446	1458	1481	1504	1529	1554	1587	1608	1622	1643	1665	1680	1703	1718	1742	1767	1775	1801	1818	1818	1827	1818	1810	1810	1792	1792	1784	1775	1767	1759	1742	1726	1711	1695	1680	1665	1650	1643	1636	1636	1643	1643	1650	1665	1680	1695	1703	1718	1726	1742	1750	1759	1759	1767	1767	1767	1767	1750	1734	1726	1726	1726	1726	1726	1726	1726	1734	1742	1750	1742	1742	1742	1742	1742	1734	1734	1734	1734	1734	1726	1726	1726	1726	1718	1718	1718	1718	1718	1726	1734	1750	1767	1784	1801	1818	1836	1854	1873	1892	1892	1892	1882	1882	1873	1864	1854	1845	1836	1836	1836	1845	1845	1845	1845	1845	1827	1827	1827	1818	1801	1792	1792	1775	1767	1759	1742	1734	1726	1718	1718	1718	1750	1750	1767	1784	1810	1836	1864	1892	1902	1911	1921	1931	1931	0	1882	1873	1845	1836	1827	1810	1801	1792	1792	1801	1801	0	0	0	0	0	0	1581	1581	1587	1587	1587	1608	1636	1665	1680	1703	1718	1734	1750	1767	1784	1767	1767	1767	1775	1784	1784	1784	1792	1792	1792	1792	1801	1810	1801	1792	1784	1775	1775	1767	1767	0	0	1759	1759	1767	1775	1792	1810	1810	1810	1818	1818	1818	1818	1818	1818	1818	1810	1810	1801	1801	1792	1784	1775	1775	1767	1759	1759	1750	1750	1750	1750	1759	1759	1767	1784	1801	1827	1845	1854	1864	1873	1873	1864	1854	1836	1827	1827	1827	1827	1818	1818	1818	1818	1818	1827	1827	1827	1827	1836	1836	1836	1836	1827	1827	1810	1801	1775	1759	1742	1718	1718	1718	1711	1711	1726	1742	1775	1810	1845	1882	1921	1961	1993	2025	2047	2070	2116	2153	2178	2204	2217	2243	2257	2257	2270	2284	2284	2284	2298	2298	2298	2298	0	0	0	0	0	0	0	0	0	1636	1608	1608	1608	1629	1629	1643	1672	1703	1734	1784	1827	1873	1921	1982	0	0	2204	2204	2217	2243	0	0	0	0	0	0	0	0	0	0	0	0	0	0	0	0	0	0	0	0	0	0	0	0	0	0	0	0	0	1441	1441	1463	1487	1529	1581	1608	1629	1650	1658	1658	1658	0	0	1742	1742	1801	1882	1951	2014	2070	2116	2178	2191	2204	2178	2116	2070	2003	1941	1892	1864	1864	1827	1810	1792	1792	1792	1911	1911	2047	2217	2243	2230	2217	2191	2153	2128	2093	2070	2036	1993	1961	1941	1911	1892	1873	1854	1836	1818	1810	1810	1810	1810	0	0	0	0	0	0	0	0	0	0	0	0	0	0	0	0	0	0	0	0	0	1921	1911	1911	1921	1931	1941	1951	1951	1972	1972	1982	1982	1961	1941	1921	1902	1882	1854	1827	1818	1810	1810	1810	1818	1836	1845	1864	1882	1892	1902	1921	1931	1951	1961	1972	1982	1993	2014	2025	2036	2058	2081	2104	2128	2165	2191	2230	2257	2284	2312	2312	2312	2257	2230	2230	2153	2047	1951	1882	1836	1801	1784	1775	1775	1775	1818	1854	1892	1941	1972	2014	2036	2047	2047	2047	2036	2014	1993	1972	1972	0	0	0	0	0	0	0	0	0	0	0	0	0	0	0	1993	1993	2025	2036	2047	2070	2081	2191	2284	2356	2432	2497	2548	2566	2583	2583	2548	2481	2417	2371	2312	2230	2178	2104	2058	2014	1972	1931	1902	1873	1873	1873	1892	1911	1941	1982	2025	2070	2104	2141	2165	2128	2104	2081	2058	2036	2025	2014	1993	1982	1982	1972	1972	1961	1951	1951	1951	1951	1951	1951	1951	1951	1951	1961	1982	1993	1993	2003	2003	2014	2025	2036	2047	2047	2058	2058	2070	2070	2104	2104	2116	2128	2141	2141	2141	2141	2128	2128	2116	2116	2104	2104	2093	2093	2081	2070	2058	2047	2025	2014	1993	1982	1961	1951	1941	1921	1911	1902	1892	1892	1892	1892	1892	1902	1911	1931	1941	1972	1982	2003	2036	2058	2081	2104	2128	2141	2141	2116	2093	2070	2047	2014	1993	1961	1941	1941	1941	1931	1911	1892	1892	1882
1672	1650	1643	1629	1608	1601	1594	1581	1581	0	0	0	0	0	0	0	2070	2058	2058	2058	2036	2014	1961	1902	1845	1801	1750	1734	1718	1718	1695	1687	1687	1687	0	0	0	0	1734	1734	1734	1742	1734	1734	1742	1742	1750	0	0	0	0	0	0	0	0	0	0	0	0	0	0	0	0	0	0	0	0	0	0	0	0	0	0	0	0	0	0	0	0	0	0	0	0	0	1784	1784	1792	1801	1801	1810	1801	1792	1775	1767	1750	1726	1703	1680	1680	0	0	0	0	0	0	0	0	1430	1424	1414	1398	1398	1393	1393	1393	1393	1393	1393	1393	1393	1398	1398	1403	1408	1419	1430	1446	1469	1492	1517	1554	1587	1615	1629	1650	1672	1695	1718	1734	1759	1775	1792	1810	1827	1845	1845	1845	1836	1836	1827	1827	1810	1801	1792	1784	1775	1750	1726	1711	1695	1680	1665	1650	1650	1650	1650	1650	1658	1672	1680	1695	1711	1718	1734	1742	1750	1759	1767	1775	1775	1775	1775	1759	1742	1742	1734	1734	1742	1742	1742	1742	1750	1750	1759	1750	1750	1750	1750	1750	1750	1742	1742	1742	1750	1750	1750	1759	1759	1759	1759	1750	1750	1759	1759	1767	1775	1792	1801	1818	1836	1854	1873	1882	1902	1911	1911	1911	1892	1892	1882	1864	1854	1836	1836	1845	1854	1845	1836	1836	1827	1818	1810	1801	1801	1784	1784	1784	1775	1775	1767	1759	1750	1742	1734	1734	1742	1750	1767	1775	1792	1818	1836	1854	1873	1882	1892	1892	1892	1892	0	1836	1818	1801	1792	1792	1784	1775	1775	1775	1784	1792	0	0	0	0	0	0	1581	1581	1587	1587	1601	1615	1636	1665	1680	1703	1718	1734	1742	1759	1750	1750	1742	1742	1742	1750	1759	1759	1767	1767	1775	1784	1801	1810	1801	1801	1784	1775	1775	1767	1767	0	0	1759	1759	1767	1775	1792	1810	1810	1810	1827	1827	1827	1827	1836	1827	1827	1827	1818	1810	1801	1792	1784	1784	1775	1767	1767	1759	1759	1750	1750	1750	1759	1759	1767	1784	1810	1827	1845	1854	1864	1864	1873	1854	1845	1836	1827	1818	1818	1818	1818	1818	1818	1818	1818	1818	1818	1827	1827	1827	1827	1827	1810	1810	1792	1784	1759	1734	1718	1695	1665	1665	1665	1665	1665	1665	1687	1718	1750	1792	1827	1873	1921	1961	2003	2036	2070	2116	2165	2191	2217	2230	2257	2284	2298	2298	2298	2312	2327	2327	2341	2341	0	0	0	0	0	0	0	0	0	0	0	1574	1574	1587	1594	1615	1622	1658	1687	1718	1767	1827	1873	0	0	0	0	0	2257	2257	0	0	0	0	0	0	0	0	0	0	0	0	0	0	0	0	0	0	0	0	0	0	0	0	0	1292	1292	1301	1310	1310	1314	0	0	0	0	0	0	0	0	0	0	0	0	0	0	1854	1854	1951	2025	2081	2153	2191	2243	2270	2257	2243	2178	2081	2014	1941	1892	1864	1836	1836	1810	1792	1792	1792	0	0	0	2298	2270	2243	2204	2178	2141	2104	2070	2036	2003	1972	1941	1921	1892	1873	1854	1836	1818	1801	1792	1792	1792	1792	0	0	0	0	0	0	0	0	0	0	0	0	0	0	0	0	0	0	0	0	0	0	1941	1941	1961	1961	1972	1993	1993	2014	2025	2025	2025	2003	1982	1961	1941	1921	1892	1864	1854	1845	1845	1845	1845	1854	1873	1882	1902	1911	1931	1941	1961	1972	1982	1993	2014	2025	2036	2058	2070	2093	2128	2153	2191	2217	2270	2298	2341	2356	2371	2371	2356	2312	2284	2284	2204	2128	2036	2036	1873	1836	1818	1818	1818	1827	1873	1911	0	2128	2128	2128	2128	2141	2128	2116	2104	2093	2070	2070	0	0	0	0	0	0	0	0	0	0	0	0	0	0	0	0	0	2025	2025	2047	2058	2070	2093	2191	2298	2417	2531	2601	2638	2695	2714	2695	2657	2583	2497	2432	2371	2284	2230	2165	2116	2081	2047	2014	1982	1972	1972	1972	1993	2014	2058	2104	2153	2204	2230	2257	2257	2217	2178	2128	2093	2058	2047	2025	2003	1993	1982	1982	1972	1961	1951	1951	1951	1951	1941	1941	1941	1941	1951	1951	1972	1982	1993	2014	2014	2036	2036	2036	2047	2047	2058	2058	2070	2070	2081	2093	2104	2104	2128	2128	2128	2128	2128	2128	2116	2116	2104	2104	2093	2093	2081	2070	2047	2036	2014	2003	1993	1982	1961	1941	1931	1921	1911	1892	1892	1892	1882	1882	1892	1902	1902	1921	1931	1951	1972	2003	2025	2047	2070	2104	2116	2141	2141	2116	2093	2081	2047	2025	1993	1972	1951	1951	1941	1941	1921	1902	1892	1882
1658	1636	1622	1608	1587	1574	1554	1542	1535	1535	0	0	0	0	0	0	0	2165	2141	2116	2104	2081	2081	1931	1845	1845	1734	1718	1703	1687	1687	1687	1687	1687	1695	0	0	0	0	1742	1742	1742	1742	1742	1742	0	0	0	0	0	0	0	0	0	0	0	0	0	0	0	0	0	0	0	0	0	0	0	0	0	0	0	0	0	0	0	0	0	0	0	0	0	0	0	1801	1801	1818	1810	1810	1792	1792	1775	1767	1742	1718	1695	1672	1636	1636	1574	1574	0	0	1452	1430	1414	1403	1398	1393	1382	1377	1372	1367	1367	1372	1372	1372	1372	1372	1372	1377	1377	1387	1393	1403	1414	1430	1452	1481	1504	1542	1574	1608	1636	1658	1680	1711	1734	1750	1775	1792	1810	1827	1845	1854	1873	1882	1882	1892	1882	1882	1873	1854	1845	1827	1801	1784	1759	1726	1711	1695	1680	1665	1658	1658	1658	1658	1665	1680	1695	1703	1718	1726	1734	1742	1759	1767	1767	1775	1775	1784	1775	1767	1750	1750	1742	1742	1750	1750	1759	1759	1759	1759	1767	1759	1759	1750	1750	1750	1750	1750	1750	1750	1750	1759	1759	1767	1767	1767	1775	1767	1767	1775	1767	1767	1775	1784	1792	1801	1810	1827	1845	1873	1882	1892	1882	1882	1864	1854	1845	1827	1818	1801	1792	1792	1792	1784	1784	1775	1767	1750	1750	1759	1759	1759	1759	1767	1775	1775	1775	1775	1759	1759	1750	1750	1759	1767	1775	1792	1801	1818	1836	1845	1864	1873	1882	1882	1873	1845	1818	1792	1775	1750	1750	1750	1742	1742	1742	1750	1759	1767	0	0	0	0	0	0	0	1601	1601	1608	1615	1636	1650	1672	1695	1711	1718	1734	1734	1742	1742	1726	1726	1718	1718	1734	1734	1742	1750	1750	1759	1775	1792	0	1818	1818	1810	1801	1801	1801	0	0	0	0	0	1792	1792	1810	1818	1818	1827	1836	1845	1845	1845	1845	1845	1836	1836	1827	1818	1810	1801	1792	1784	1775	1775	1767	1759	1759	1759	1759	1759	1759	1767	1775	1792	1810	1827	1845	1854	1864	1864	1864	1854	1836	1827	1818	1818	1818	1818	1818	1818	1818	1818	1818	1818	1818	1818	1827	1827	1818	1810	1801	1792	1775	1759	1734	1703	1680	1658	1636	1629	1615	1615	1615	1615	1629	1658	1687	1718	1759	1810	1845	1902	1941	1993	2036	2104	2165	2204	2243	2270	2284	2312	2327	2327	2341	2341	0	2371	2371	2371	0	0	0	0	0	0	0	0	0	0	0	1574	1574	1587	1594	1601	1622	1658	1687	1718	1767	0	0	0	0	0	0	0	0	0	0	0	0	0	0	0	0	0	0	0	0	0	0	0	0	0	0	0	0	0	0	0	0	0	0	1245	1245	1253	1261	1266	1266	1274	1283	1292	0	0	0	0	0	0	0	0	0	0	0	0	0	2128	2128	2178	2230	2270	2312	2312	2284	2257	2178	2093	2014	1941	1882	1854	1827	1827	1801	1784	1784	0	0	0	0	2312	2284	2243	2204	2165	2128	2093	2047	2003	1972	1941	1921	1882	1864	1845	1827	1810	1792	1784	1775	1775	1775	1775	0	0	0	0	0	0	0	0	0	0	0	0	0	0	0	0	0	0	0	0	0	0	1972	1972	1993	1993	2003	2014	2025	2036	2047	2047	2036	2036	2025	2003	1993	1961	1941	1921	1892	1882	1882	1882	1882	1892	1902	1911	1921	1941	1951	1961	1982	1993	2014	2025	2036	2047	2070	2093	2104	2141	2165	2204	2257	2298	2341	2401	2417	2432	2448	2432	2417	2386	2327	2284	2243	2128	2036	2014	1951	1873	1864	1864	1864	1873	1911	2036	2093	2128	2128	2178	2191	2204	2191	2178	2165	2165	2165	2191	0	0	0	0	0	0	0	0	0	0	0	0	0	0	0	0	0	0	0	0	2081	2081	2104	0	0	0	2754	2754	2775	2817	2838	2838	2775	2695	2566	2497	2417	2356	2298	2243	2191	2165	2128	2104	2093	2081	2081	2093	2116	2153	2191	2243	2284	2327	2371	2371	2341	2284	2230	2165	2116	2081	2058	2047	2025	2003	1993	1972	1961	1961	1951	1941	1941	1931	1931	1931	1931	1941	1941	1951	1972	1982	2003	2025	2025	2047	2058	2070	2058	2058	2058	2058	2070	2070	2081	2093	2104	2104	2116	2116	2116	2116	2116	2116	2116	2116	2104	2104	2093	2081	2070	2070	2047	2036	2014	2003	1993	1982	1961	1941	1931	1911	1902	1892	1892	1882	1882	1882	1882	1892	1892	1911	1921	1941	1961	1982	2014	2036	2058	2093	2116	2128	2141	2116	2104	2081	2070	2036	2014	1993	1972	1961	1961	1951	1941	1911	1902	1892
