4659	4659	4659	4648	4648	4648	4637	4637	4637	4637	4659	4659	4681	4681	4681	4670	4670	4670	4659	4648	4648	4627	4627	4616	4616	4605	4605	4594	4594	4584	4594	4594	4605	4616	4627	4648	4659	4670	4693	4693	4704	4704	4693	4693	4693	4681	4681	4681	4693	4693	4693	4693	4693	4704	4704	4715	4726	4726	4738	4738	4738	4749	4749	4738	4738	4726	4715	4704	4693	4681	4670	4648	4648	4637	4627	4616	4605	4573	4562	4552	4552	4541	4541	4541	4552	4552	4552	4562	4573	4573	4584	4584	4594	4605	4605	4616	4627	4637	4637	4637	4648	4648	4648	4648	4648	4648	4637	4637	4637	4637	4637	4627	4627	4616	4616	4616	4627	4627	4627	4637	4648	4648	4648	4659	4670	4670	4670	4670	4670	4659	4648	4648	4648	4637	4637	4637	4627	4637	4637	4637	4648	4648	4659	4659	4681	4693	4693	4704	4704	4704	4726	4749	4772	4783	4795	4795	4772	4749	4738	4704	4670	4627	4573	4541	4521	4500	4490	0	0	0	0	0	0	0	0	0	0	0	0	0	0	0	0	0	0	0	6836	6883	6883	6860	6860	6860	6860	6860	6860	6860	6836	6860	6860	6836	6836	6812	6812	6789	6766	6720	6674	6652	6629	6585	6542	6393	6352	6292	6252	6193	6135	6079	0	0	0	0	0	0	2620	2617	2617	2613	2613	2610	2606	2603	2599	2596	2593	2593	2589	2586	2586	2582	2582	2579	2579	2576	2576	2572	2572	2569	2566	2566	2566	2566	2562	2562	2562	2562	2559	2559	2556	2556	2552	2549	2546	2543	2536	2533	2533	2533	0	0	0	0	1924	1922	1922	1920	1920	1918	1918	1918	1916	1916	1916	1918	0	0	0	0	0	0	0	0	0	2533	2533	2536	2539	2539	2543	2549	2556	2559	2562	2566	2566	2566	2569	2569	2569	2569	2566	2569	2566	2569	2566	2566	2566	2569	2569	2569	2569	2572	2576	2582	2589	2596	2603	2613	2624	2634	2641	2652	2659	2666	2673	2681	2688	2691	2695	2695	2695	2699	2695	2695	2695	2691	2691	2695	2695	2699	2695	2699	2699	2695	2695	0	0	0	0	0	0	0	0	0	0	0	5354	5368	5368	5339	5311	5268	5213	0	0	0	0	4749	4749	4749	4760	4760	4760	4760	4772	4760	4749	4726	4715	4659	4637	4616	4594	4584	4562	4552	4531	4510	4490	4480	4459	4439	4420	4410	4390	4380	4361	4351	4342	4332	4304	4285	4258	4221	4185	4142	4107	4073	4040	4007	3991	3975	3975	3975	3975	3967	3967	3967	3967	3959	3951	3943	3943	3951	3951	3943	3943	3935	3928	3928	3935	3928	3935	3943	3951	3959	3959	3959	3951	3951	3943	3943	3943	3943	3943	3959	3983	4024	4073	4133	4185	0	4230	4276	4313	4342	4361	4361	4351	4332	4323	4313	4304	4304	4295	4295	4285	4276	4276	4267	4267	4258	4258	4248	4239	4230	4230	4221	4212	4212	4203	4194	4194	4185	4185	4185	4185	4185	4194	4185	4194	4194	4203	4203	4203	4212	4203	4203	4194	4185	4177	4168	4159	4142	4124	4116	4107	4082	4073	4065	4048	4040	4024	3999	3983	3959	3928	3897	3866	3821	3792	3734	3706	3679	3652	3632	3618	3612	3598	3592	3579	3572	3566	3560	3553	3547	3528	3472	3436	3406	3365	3326	3287	3255	3202	3186	3171	3161	3156	3151	3151	3151	3151	3156	3161	3166	3166	3171	3171	3171	3176	3171	3166	3161	3151	3146	3141	3131	3126	3121	3111	3111	3111	3106	3106	3106	3116	3116	3126	3131	3136	3146	3146	3151	3156	3151	3156	3151	3151	3146	3141	3136	3136	3136	3136	3136	3136	3141	3141	3141	3131	3126	3121	3116	3106	3106	3096	3092	3087	3082	3072	3068	3058	3049	3039	3030	3021	3016	3012	3007	3007	3002	2998	2998	2998	2998	3002	3002	3007	3012	3016	3021	3025	3025	3030	3030	3030	3030	3030	3030	3030	3030	3030	3025	3016	3016	3007
4648	4659	4659	4659	4659	4659	4659	4659	4659	4659	4670	4681	4693	4693	4693	4693	4693	4681	4681	4670	4659	4648	4637	4627	4627	4616	4605	4605	4594	4594	4594	4594	4605	4616	4627	4637	4659	4670	4681	4693	4693	4693	4693	4681	4681	4681	4670	4670	4670	4670	4681	4681	4681	4681	4693	4693	4704	4715	4715	4726	4738	4749	4738	4738	4726	4726	4715	4693	4693	4681	4670	4659	4648	4637	4627	4616	4616	4573	4573	4552	4552	4552	4552	4552	4552	4552	4562	4562	4562	4573	4573	4584	4584	4594	4594	4605	4605	4627	4627	4616	4616	4627	4627	4627	4627	4616	4616	4616	4627	4627	4627	4616	4616	4616	4616	4616	4616	4627	4637	4637	4637	4637	4648	4648	4648	4648	4648	4648	4648	4637	4637	4627	4627	4627	4627	4616	4627	4627	4627	4627	4637	4637	4648	4659	4681	4693	4693	4704	4704	4715	4726	4749	4760	4783	4795	4783	4760	4738	4726	4693	4659	4627	4584	4552	4521	4510	4500	4490	0	0	0	0	0	0	0	0	0	0	0	0	0	0	0	0	0	0	0	6766	6789	6789	6789	6812	6789	6766	6766	6789	6789	6789	6789	6789	6766	6766	6766	6720	6720	6697	6652	6629	6607	6563	6520	6393	6332	6272	6252	6193	6135	6079	0	0	0	0	0	0	2617	2613	2613	2613	2613	2606	2603	2599	2599	2596	2593	2589	2586	2586	2582	2582	2579	2579	2576	2576	2572	2572	2569	2566	2566	2566	2566	2562	2562	2562	2562	2562	2562	2559	2559	2559	2556	2552	2552	2549	2546	2539	2539	2536	0	0	0	0	1922	1922	1922	1918	1916	1918	1916	1918	1916	1916	1914	1916	0	0	0	0	0	0	0	0	0	2533	2536	2536	2536	2539	2543	2549	2552	2556	2559	2559	2562	2566	2566	2566	2566	2562	2566	2566	2566	2566	2562	2566	2562	2566	2566	2566	2569	2572	2572	2579	2586	2596	2603	2610	2620	2631	2638	2648	2655	2662	2670	2677	2681	2688	2691	2691	2695	2695	2695	2695	2691	2691	2695	2695	2695	2699	2699	2699	2699	2699	2699	0	0	0	0	0	0	0	0	0	0	0	5339	5354	5368	5368	5368	5354	5325	0	5079	4976	4902	4866	4842	4818	4818	4807	4807	4818	4818	4795	4783	4760	4738	4715	4670	4637	4616	4594	4562	4552	4531	4510	4490	4470	4449	4429	4420	4400	4380	4371	4351	4342	4332	4313	4295	4285	4258	4221	4185	4142	4116	4073	4040	4015	3991	3983	3983	3983	3975	3975	3975	3975	3967	3959	3951	3951	3951	3951	3951	3951	3951	3943	3943	3943	3943	3943	3935	3943	3943	3951	3959	3951	3951	3943	3935	3935	3928	3928	3928	3943	3967	3999	4057	4116	4168	0	4212	4258	4304	4342	4351	4351	4342	4332	4323	4313	4304	4304	4295	4285	4276	4276	4267	4267	4258	4258	4248	4239	4239	4230	4221	4212	4203	4194	4194	4185	4185	4177	4177	4168	4177	4168	4177	4177	4185	4185	4194	4194	4203	4203	4203	4203	4194	4185	4185	4177	4168	4159	4150	4142	4124	4124	4116	4107	4082	4065	4048	4040	4015	3983	3959	3928	3897	3858	3821	3792	3734	3706	3679	3658	3645	3632	3625	3612	3598	3585	3579	3566	3560	3547	3534	3478	3448	3412	3371	3331	3298	3260	3207	3186	3176	3166	3161	3156	3151	3151	3151	3151	3156	3156	3161	3161	3161	3161	3161	3156	3151	3146	3141	3136	3131	3126	3121	3116	3111	3111	3111	3111	3111	3116	3121	3126	3131	3136	3146	3146	3151	3151	3156	3156	3156	3151	3151	3146	3146	3146	3146	3146	3146	3151	3151	3156	3156	3161	3156	3156	3151	3136	3131	3126	3116	3111	3106	3096	3092	3077	3068	3058	3049	3035	3025	3016	3012	3007	2998	2998	2993	2993	2993	2993	2993	2998	3002	3007	3012	3016	3021	3025	3025	3025	3025	3025	3025	3025	3021	3021	3021	3012	3012	3007	3002
4637	4648	4648	4659	4659	4659	4659	4659	4659	4670	4670	4681	4693	4693	4693	4693	4693	4681	4681	4670	4659	4659	4648	4648	4637	4627	4616	4605	4605	4605	4594	4594	4605	4616	4627	4637	4648	4659	4670	4681	4681	4681	4681	4681	4681	4670	4670	4670	4670	4670	4670	4670	4670	4670	4670	4681	4693	4693	4704	4704	4715	4726	4693	4693	4693	4693	4681	4693	4681	4670	4659	4637	4637	4627	4616	4605	4605	4573	4562	4562	4552	4541	4541	4552	4552	4562	4562	4562	4562	4562	4573	4573	4573	4573	4584	4584	4584	4594	4594	4594	4594	4594	4594	4584	4584	4594	4584	4594	4605	4605	4616	4605	4605	4616	4616	4627	4627	4627	4627	4627	4637	4637	4637	4637	4637	4637	4637	4637	4637	4637	4627	4616	4616	4616	4616	4616	4616	4616	4627	4627	4627	4637	4648	4659	4670	4681	4681	4693	4704	4715	4726	4738	4749	4772	4783	4772	4749	4726	4715	4681	4659	4627	4584	4541	4521	4510	4500	4480	4470	0	0	0	0	0	0	0	0	0	0	0	0	0	6174	0	0	0	0	6674	6697	6720	6742	6742	6720	6720	6720	6720	6720	6742	6720	6720	6720	6697	6697	6697	6674	6652	6607	6585	6563	6542	6499	6373	6312	6252	6212	6174	6135	6060	0	0	0	0	0	0	2617	2613	2613	2610	2606	2606	2603	2599	2596	2593	2589	2589	2586	2582	2582	2579	2579	2576	2572	2572	2572	2569	2566	2566	2562	2562	2562	2562	2562	2562	2562	2562	2562	2562	2562	2562	2562	2559	2556	2556	2552	2549	2549	2543	2543	0	0	0	0	1920	1918	1918	1920	1918	1916	1914	1914	1916	1914	1916	1916	0	0	0	0	0	0	0	0	2536	2536	2536	2539	2539	2543	2546	2549	2552	2556	2559	2559	2559	2562	2559	2562	2562	2562	2562	2562	2562	2562	2562	2566	2562	2562	2566	2569	2569	2572	2576	2586	2593	2599	2610	2620	2627	2638	2645	2652	2659	2666	2670	2677	2684	2688	2691	2691	2691	2691	2691	2691	2691	2691	2695	2699	2699	2699	2703	2703	2703	0	0	0	0	0	0	0	0	0	0	0	0	5339	5354	5354	5368	5368	5354	5339	5296	5131	5053	4976	4939	4902	4878	4866	4854	4842	4854	4842	4830	4807	4795	4772	4738	4693	4648	4627	4605	4573	4552	4531	4510	4490	4470	4449	4420	4400	4390	4371	4351	4342	4323	4304	4304	4295	4276	4248	4221	4185	4150	4107	4082	4048	4015	3999	3991	3991	3983	3983	3983	3983	3975	3967	3959	3959	3951	3951	3959	3959	3959	3959	3951	3951	3951	3951	3951	3943	3951	3951	3951	3959	3951	3951	3943	3935	3935	3928	3920	3920	3935	3959	3991	4040	4107	4150	0	4203	4248	4295	4332	4351	4351	4342	4332	4323	4313	4313	4304	4295	4295	4285	4276	4267	4267	4258	4248	4248	4239	4230	4221	4212	4203	4194	4185	4185	4177	4168	4168	4159	4159	4159	4159	4168	4168	4168	4177	4185	4185	4194	4203	4203	4203	4203	4203	4194	4185	4185	4177	4168	4159	4159	4142	4142	4142	4124	4099	4073	4065	4048	4024	3999	3967	3928	3897	3858	3821	3756	3727	3706	3686	3665	3658	3638	3625	3612	3605	3592	3579	3566	3560	3540	3515	3454	3418	3377	3337	3298	3265	3212	3192	3181	3166	3161	3156	3156	3151	3151	3151	3151	3156	3151	3151	3151	3151	3146	3146	3141	3136	3126	3126	3121	3116	3116	3111	3111	3111	3111	3111	3116	3121	3126	3136	3141	3146	3146	3151	3156	3156	3156	3156	3151	3151	3151	3151	3151	3151	3151	3151	3156	3161	3166	3171	3176	3176	3176	3176	3171	3166	3161	3146	3141	3131	3121	3116	3106	3092	3082	3072	3058	3049	3039	3025	3021	3012	3007	3002	2998	2993	2993	2993	2998	2998	3002	3007	3016	3016	3021	3025	3025	3025	3025	3025	3025	3021	3021	3016	3007	3002	2998	2993	2989
4616	4616	4627	4627	4637	4637	4648	4648	4659	4659	4681	4681	4693	4693	4693	4693	4693	4693	4681	4681	4670	4670	4659	4659	4648	4637	4627	4616	4616	4605	4605	4605	4605	4605	4616	4627	4637	4648	4648	4659	4670	4670	4670	4670	4670	4659	4659	4659	4659	4659	4659	4659	4659	4659	4659	4670	4670	4648	4648	4648	4659	4659	4670	4670	4670	4670	4670	4670	4659	4659	4637	4637	4616	4616	4605	4605	4584	4562	4562	4552	4552	4552	4552	4552	4552	4552	4562	4562	4562	4562	4562	4562	4562	4562	4573	4573	4573	4573	4573	4562	4562	4562	4562	4562	4562	4562	4562	4562	4594	4605	4605	4605	4605	4616	4616	4616	4616	4627	4627	4627	4627	4627	4627	4627	4627	4627	4627	4627	4627	4616	4605	4605	4594	4605	4605	4605	4605	4616	4627	4627	4637	4637	4637	4648	4659	4670	4681	4693	4693	4715	4715	4726	4738	4749	4760	4749	4738	4715	4704	4681	4659	4627	4584	4562	4531	4510	4490	4521	0	0	0	0	0	0	0	0	0	0	0	0	6135	6174	6252	6352	0	0	6585	6629	6652	6652	6674	6674	6674	6674	6652	6674	6674	6674	6697	6674	6674	6652	6652	6629	6629	6607	6585	6563	6542	6520	6477	6352	6312	6232	6193	6154	6116	6060	6005	0	0	0	0	0	0	2613	2610	2610	2603	2599	2596	2593	2593	2589	2586	2582	2579	2576	2576	2576	2572	2572	2569	2569	2569	2566	2562	2559	2559	2559	2559	2559	2559	2562	2562	2562	2562	2566	2566	2566	2566	2566	2562	2559	2559	2556	2552	2552	2552	2549	0	0	0	1918	1918	1918	1916	1916	1914	1916	1914	1916	1916	1916	1916	0	0	0	0	0	0	0	0	2536	2536	2539	2539	2539	2543	2546	2549	2552	2549	2552	2552	2552	2556	2556	2556	2556	2559	2559	2562	2559	2562	2562	2562	2562	2566	2566	2566	2566	2569	2576	2582	2593	2599	2606	2617	2627	2634	2645	2652	2655	2662	2666	2673	2681	2681	2684	2688	2688	2688	2688	2691	2688	2691	2695	2695	2695	2699	2699	2703	0	0	0	0	0	0	0	0	0	0	0	0	0	5325	5339	5354	5368	5368	5354	5339	5296	5145	5079	5014	4976	4939	4927	4902	4890	4890	4878	4866	4854	4842	4818	4795	4772	4738	4670	4637	4605	4573	4541	4521	4490	4470	4449	4429	4410	4390	4371	4361	4342	4332	4313	4304	4295	4285	4276	4248	4221	4185	4150	4116	4082	4048	4024	3999	3991	3991	3991	3983	3983	3983	3975	3967	3959	3951	3951	3951	3951	3959	3959	3959	3959	3959	3959	3951	3951	3951	3951	3959	3967	3959	3959	3959	3951	3943	3943	3928	3928	3928	3943	3967	3999	4048	4107	4159	0	4203	4248	4295	4323	4342	4351	4342	4332	4332	4323	4313	4313	4304	4304	4295	4276	4276	4267	4258	4258	4248	4239	4230	4221	4212	4203	4185	4177	4168	4168	4159	4150	4150	4142	4142	4150	4150	4150	4159	4168	4177	4185	4194	4203	4212	4212	4212	4212	4221	4212	4212	4212	4203	4194	4194	4185	4177	4168	4159	4142	4124	4090	4073	4048	4032	3999	3975	3943	3897	3866	3829	3799	3734	3706	3693	3672	3658	3645	3632	3618	3605	3592	3579	3566	3547	3515	3454	3418	3383	3343	3304	3265	3239	3197	3181	3171	3166	3161	3156	3151	3151	3151	3151	3151	3151	3146	3146	3141	3141	3136	3131	3126	3121	3121	3116	3116	3111	3111	3111	3111	3116	3121	3121	3126	3136	3141	3146	3151	3151	3156	3156	3156	3156	3156	3151	3151	3151	3151	3151	3156	3156	3161	3166	3171	3181	3186	3192	3197	3197	3197	3192	3192	3181	3176	3171	3151	3141	3131	3121	3111	3096	3087	3077	3063	3049	3044	3030	3025	3021	3016	3007	3002	3002	3002	3007	3007	3007	3012	3016	3021	3025	3025	3025	3025	3025	3025	3021	3021	3016	3016	3002	3002	2993	2989	2989
4605	4605	4616	4616	4627	4627	4637	4637	4648	4659	4659	4670	4670	4681	4681	4693	4693	4681	4681	4681	4681	4681	4670	4670	4659	4648	4648	4637	4627	4616	4616	4616	4616	4616	4616	4627	4627	4637	4648	4648	4648	4648	4659	4659	4659	4648	4648	4648	4648	4648	4648	4627	4627	4616	4605	4605	4616	4616	4605	4605	4616	4627	4627	4637	4648	4648	4648	4648	4637	4637	4637	4627	4616	4594	4584	4584	4562	4562	4552	4552	4552	4552	4541	4552	4552	4562	4562	4562	4562	4562	4562	4562	4562	4562	4562	4562	4562	4562	4562	4552	4552	4541	4541	4541	4552	4552	4552	4562	4584	4594	4605	4605	4605	4616	4616	4627	4627	4627	4627	4616	4616	4616	4616	4616	4616	4605	4616	4616	4605	4594	4594	4594	4594	4594	4594	4605	4605	4616	4627	4627	4637	4637	4637	4648	4659	4670	4681	4693	4704	4704	4704	4715	4726	4738	4749	4738	4726	4715	4704	4681	4659	4627	4605	4562	4541	4531	0	0	0	0	0	0	0	0	0	0	0	0	0	0	6212	6252	6312	6373	6414	6477	6542	6563	6607	6607	6629	6652	6629	6652	6629	6629	6629	6629	6629	6629	6629	6607	6585	6585	6563	6542	6542	6520	6499	6477	6456	6352	6292	6232	6174	6135	6097	6041	0	0	0	0	0	0	2617	2610	2610	2606	2603	2599	2596	2589	2586	2586	2582	2579	2576	2576	2572	2572	2569	2566	2566	2562	2562	2559	2559	2559	2556	2556	2559	2559	2559	2559	2562	2566	2566	2566	2569	2569	2569	2569	2569	2566	2562	2559	2559	2559	2552	2552	0	0	0	1918	1916	1918	1916	1914	1916	1916	1914	1914	1916	1916	1916	0	0	0	0	0	0	0	0	2539	2539	2539	2539	2539	2543	2546	2543	2546	2546	2546	2546	2549	2549	2552	2552	2556	2556	2556	2559	2562	2562	2562	2562	2562	2562	2562	2566	2566	2569	2576	2582	2593	2599	2606	2617	2624	2631	2641	2648	2652	2659	2662	2670	2673	2677	2681	2684	2684	2684	2688	2684	2688	2688	2691	2691	2691	2691	2695	0	0	0	0	0	0	0	0	0	0	0	5254	5282	5296	5311	5325	5354	5354	5368	5354	5325	5296	5240	5105	5053	5014	4989	4964	4939	4927	4914	4914	4902	4890	4866	4842	4818	4795	4760	4681	4637	4616	4573	4531	4500	4480	4449	4439	4420	4400	4380	4361	4342	4332	4313	4295	4285	4285	4276	4267	4248	4212	4185	4150	4116	4082	4048	4024	3999	3991	3983	3983	3975	3975	3967	3967	3959	3959	3951	3951	3951	3959	3959	3967	3967	3959	3959	3959	3959	3959	3951	3959	3959	3975	3975	3975	3967	3967	3959	3959	3951	3943	3943	3959	3975	4007	4065	4116	4159	0	4203	4248	4295	4323	4342	4342	4342	4342	4332	4332	4323	4313	4313	4304	4304	4295	4276	4267	4267	4258	4248	4239	4230	4221	4203	4194	4185	4168	4159	4150	4142	4142	4142	4133	4133	4133	4142	4142	4150	4150	4168	4185	4194	4203	4212	4221	4230	4239	4239	4239	4239	4239	4230	4221	4221	4212	4203	4194	4185	4168	4150	4133	4099	4082	4065	4040	4015	3983	3959	3912	3881	3851	3806	3749	3720	3700	3679	3665	3645	3632	3618	3598	3592	3572	3553	3528	3460	3424	3383	3343	3304	3271	3239	3202	3186	3171	3166	3161	3156	3151	3151	3151	3146	3146	3146	3141	3141	3136	3131	3126	3121	3116	3111	3111	3111	3106	3106	3106	3106	3111	3116	3121	3126	3131	3136	3141	3146	3151	3156	3156	3156	3156	3156	3156	3151	3151	3151	3151	3151	3156	3161	3166	3171	3181	3192	3197	3207	3212	3212	3212	3212	3207	3202	3197	3186	3176	3166	3151	3136	3126	3116	3101	3092	3082	3068	3063	3049	3044	3039	3035	3025	3021	3016	3016	3016	3021	3021	3021	3025	3030	3035	3035	3035	3030	3030	3030	3025	3025	3021	3016	3012	3002	2998	2993	2989
4584	4594	4605	4605	4616	4616	4627	4627	4648	4648	4648	4670	4670	4681	4681	4681	4681	4681	4681	4681	4681	4681	4670	4670	4659	4659	4648	4637	4627	4627	4627	4627	4616	4616	4616	4627	4627	4627	4637	4637	4637	4637	4637	4648	4648	4648	4627	4627	4616	4616	4605	4594	4584	4584	4573	4562	4562	4562	4562	4573	4584	4584	4594	4605	4605	4616	4616	4616	4616	4616	4616	4605	4594	4584	4584	4573	4562	4552	4541	4541	4541	4541	4541	4541	4552	4562	4562	4562	4562	4562	4562	4562	4562	4562	4552	4552	4552	4552	4541	4541	4531	4541	4531	4541	4541	4541	4552	4562	4584	4594	4594	4605	4605	4616	4616	4616	4627	4616	4616	4616	4605	4605	4605	4605	4594	4594	4584	4584	4584	4573	4573	4573	4584	4584	4594	4605	4605	4627	4627	4637	4637	4648	4659	4670	4681	4693	4693	4693	4704	4715	4715	4715	4715	4738	4738	4738	4726	4715	4704	4693	4670	4659	4627	4594	0	0	0	0	0	0	0	0	0	0	0	0	0	0	6135	6272	6312	6332	6352	6414	6435	6499	6520	6542	6563	6585	6585	6607	6607	6607	6607	6585	6585	6585	6607	6585	6585	6542	6542	6542	6520	6499	6499	6477	6477	6456	6414	6352	6272	6212	6174	6116	6079	6041	0	0	0	0	0	0	2617	2610	2606	2606	2603	2596	2593	2586	2582	2579	2576	2572	2569	2569	2566	2562	2562	2562	2559	2556	2556	2556	2556	2552	2552	2552	2556	2556	2559	2559	2562	2566	2566	2569	2572	2572	2572	2572	2572	2572	2569	2566	2562	2562	2559	2556	2556	0	0	0	1916	1914	1916	1916	1914	1916	1916	1916	1918	1916	1918	0	0	0	0	0	0	0	0	2543	2543	2543	2543	2543	2543	2543	2543	2543	2543	2543	2543	2546	2546	2549	2552	2552	2556	2556	2559	2562	2562	2562	2562	2562	2562	2562	2566	2566	2569	2576	2582	2589	2599	2606	2613	2624	2631	2638	2645	2648	2655	2659	2662	2670	2673	2673	2677	2677	2681	2677	2677	2681	2681	2684	2688	2688	2691	2691	0	0	0	0	0	0	0	0	0	0	0	5240	5268	5296	5311	5325	5339	5354	5354	5339	5325	5296	5240	5131	5079	5053	5027	4989	4976	4951	4951	4939	4927	4902	4890	4866	4842	4818	4772	4738	4648	4605	4562	4521	4490	4470	4449	4420	4400	4380	4361	4342	4323	4313	4295	4285	4276	4276	4267	4258	4239	4212	4177	4150	4107	4073	4048	4015	3999	3983	3975	3967	3967	3967	3959	3959	3959	3951	3943	3951	3951	3959	3959	3967	3967	3967	3967	3959	3967	3967	3959	3959	3975	3983	3991	3983	3983	3983	3983	3983	3975	3975	3975	3991	4007	4040	4082	4124	0	4177	4212	4248	4295	4323	4342	4342	4342	4342	4332	4332	4332	4323	4323	4313	4304	4304	4285	4276	4267	4258	4248	4239	4230	4221	4203	4194	4177	4159	4150	4142	4133	4133	4124	4124	4116	4124	4133	4133	4142	4142	4159	4177	4185	4203	4221	4230	4230	4239	4248	4248	4258	4258	4248	4248	4239	4230	4221	4221	4203	4194	4177	4159	4150	4107	4099	4073	4057	4032	4007	3967	3935	3904	3866	3836	3799	3742	3713	3693	3672	3652	3632	3618	3598	3585	3560	3528	3460	3424	3389	3343	3304	3271	3239	3202	3186	3171	3166	3161	3151	3151	3146	3146	3146	3146	3141	3141	3136	3131	3126	3121	3116	3106	3106	3101	3101	3096	3096	3096	3101	3111	3116	3121	3126	3131	3141	3141	3146	3151	3151	3156	3156	3156	3156	3156	3156	3156	3156	3156	3156	3161	3166	3171	3181	3192	3202	3212	3218	3223	3228	3228	3228	3223	3212	3202	3197	3186	3176	3171	3151	3141	3131	3121	3111	3101	3092	3082	3072	3068	3058	3049	3044	3039	3035	3030	3030	3035	3035	3035	3039	3044	3044	3049	3044	3063	3058	3053	3049	3039	3035	3030	3021	3016	3002	2998	2993
4562	4573	4584	4594	4605	4605	4616	4627	4637	4637	4637	4648	4659	4659	4670	4670	4681	4681	4681	4681	4670	4670	4670	4670	4670	4659	4648	4648	4627	4627	4627	4627	4616	4616	4616	4616	4616	4616	4616	4627	4627	4616	4616	4616	4616	4616	4616	4605	4605	4594	4584	4573	4562	4552	4531	4531	4541	4531	4531	4541	4541	4562	4562	4573	4584	4584	4594	4594	4594	4605	4594	4584	4584	4573	4573	4562	4552	4541	4541	4541	4541	4541	4541	4552	4552	4562	4562	4562	4562	4562	4562	4562	4552	4552	4552	4552	4541	4541	4531	4531	4521	4521	4531	4531	4531	4541	4552	4562	4573	4594	4594	4605	4605	4616	4616	4605	4605	4605	4605	4594	4594	4594	4594	4584	4584	4573	4573	4573	4573	4562	4562	4573	4573	4584	4594	4605	4616	4627	4637	4648	4659	0	4670	4681	4693	4704	4704	4715	4715	4715	4726	4726	4715	4726	4738	4738	4726	4715	4704	4693	4681	4670	4648	4627	0	0	0	0	0	0	0	0	0	0	0	0	6097	6193	6212	6352	6373	6393	6414	6456	6456	6520	6520	6542	6563	6563	6563	6585	6563	6563	6563	6563	6563	6563	6563	6542	6542	6520	6499	6499	6499	6499	6477	6456	6456	6435	6414	6352	6272	6212	6154	6135	6079	6041	0	0	0	0	0	0	2617	2613	2610	2606	2603	2596	2589	2586	2582	2579	2572	2569	2566	2562	2559	2556	2556	2552	2549	2549	2549	2549	2549	2549	2549	2549	2552	2556	2559	2559	2562	2566	2569	2572	2576	2576	2579	2579	2579	2576	2572	2569	2569	2566	2562	2559	2556	2552	0	0	0	1914	1914	1916	1916	1916	1916	1918	1918	1920	1920	1922	0	0	0	0	0	0	0	2549	2549	2546	2546	2543	2546	2543	2543	2539	2539	2539	2539	2543	2543	2546	2549	2552	2552	2556	2556	2559	2559	2559	2562	2562	2562	2562	2566	2566	2569	2576	2582	2589	2596	2606	2613	2620	2631	2638	2641	2645	2648	2652	2659	2662	2666	2662	2666	2666	2670	2670	2673	2677	2677	2681	2684	2684	2688	2688	2691	0	0	0	0	0	0	0	0	0	0	5254	5268	5296	5311	5325	5339	5354	5354	5339	5339	5296	5268	5172	5131	5092	5066	5040	5001	4989	4976	4964	4951	4939	4914	4902	4866	4830	4795	4749	4659	4616	4562	4521	4480	4459	4429	4410	4380	4361	4342	4323	4304	4285	4267	4267	4267	4267	4258	4248	4230	4203	4177	4142	4107	4065	4040	4007	3991	3975	3967	3959	3951	3951	3943	3943	3935	3943	3943	3943	3951	3951	3959	3967	3967	3967	3967	3967	3967	3959	3959	3967	3983	3991	3999	3999	4007	4007	4015	4007	4007	4007	3999	4015	4032	4065	4099	4142	0	4177	4212	4248	4285	4313	4332	4332	4342	4342	4332	4332	4332	4332	4323	4323	4313	4304	4304	4285	4276	4267	4258	4248	4230	4221	4203	4185	4177	4159	4142	4142	4124	4116	4116	4116	4107	4107	4116	4124	4124	4133	4150	4168	4185	4203	4221	4221	4239	4248	4248	4258	4267	4267	4267	4267	4258	4258	4239	4239	4221	4212	4194	4185	4168	4159	4142	4116	4099	4073	4057	4024	3991	3967	3928	3897	3858	3829	3770	3749	3720	3693	3672	3652	3625	3598	3572	3540	3466	3430	3389	3343	3304	3265	3239	3197	3181	3171	3161	3156	3151	3146	3146	3146	3146	3141	3136	3136	3131	3126	3121	3116	3106	3096	3092	3092	3087	3087	3092	3092	3096	3101	3111	3116	3121	3131	3136	3141	3146	3146	3151	3151	3151	3156	3156	3156	3156	3156	3156	3161	3161	3166	3171	3176	3186	3197	3207	3218	3228	3233	3239	3239	3233	3228	3223	3212	3202	3192	3186	3176	3166	3151	3141	3136	3131	3121	3111	3101	3096	3092	3087	3077	3072	3063	3058	3053	3053	3053	3053	3053	3082	3082	3082	3082	3082	3082	3077	3077	3072	3063	3058	3053	3044	3035	3025	3016	3007
4552	4562	4573	4573	4594	4594	4605	4616	4616	4627	4627	4627	4648	4648	4648	4659	4659	4659	4670	4670	4670	4670	4659	4659	4659	4659	4648	4648	4627	4627	4627	4627	4616	4616	4616	4616	4616	4616	4605	4605	4605	4605	4605	4616	4616	4616	4605	4605	4594	4584	4573	4562	4531	4531	4510	4521	4510	4510	4521	4531	4531	4541	4552	4562	4573	4573	4584	4584	4584	4584	4584	4573	4573	4562	4552	4531	4531	4521	4531	4531	4531	4541	4541	4541	4552	4562	4562	4562	4562	4562	4562	4562	4552	4541	4541	4541	4541	4531	4521	4510	4500	4500	4510	4510	4521	4531	4541	4541	4562	4573	4584	4594	4594	4594	4594	4584	4584	4594	4584	4584	4584	4573	4573	4573	4573	4562	4562	4562	4552	4552	4552	4562	4573	4584	4594	4605	4616	4637	4648	4659	4670	4681	4693	4704	4704	4715	4715	4715	4715	4726	4726	4715	4715	4715	4726	4726	4726	4704	4704	4693	4681	4670	4659	4648	0	0	0	0	0	0	0	0	0	6116	6212	6212	6232	6252	6272	6352	6373	6393	6414	6456	6456	6499	6520	6520	6520	6542	6563	6542	6542	6542	6520	6499	6520	6499	6499	6499	6477	6477	6456	6456	6456	6456	6456	6435	6435	6414	6393	6332	6272	6212	6154	6116	6079	6041	6023	0	0	0	0	0	0	2613	2613	2610	2603	2596	2589	2586	2579	2576	2569	2566	2562	2556	2556	2552	2549	2546	2543	2543	2543	2543	2543	2543	2546	2549	2549	2556	2556	2559	2566	2566	2572	2576	2576	2579	2582	2582	2579	2576	2576	2572	2569	2566	2562	2562	2559	2556	0	0	0	1914	1916	1918	1918	1918	1918	1922	1920	1922	1922	1924	0	0	0	0	0	0	0	0	2552	2552	2549	2546	2546	2546	2543	2543	2539	2539	2539	2539	2543	2546	2549	2552	2552	2556	2559	2562	2562	2562	2562	2562	2562	2562	2566	2566	2569	2576	2582	2589	2593	2603	2610	2617	2624	2631	2638	2641	2641	2645	2648	2652	2655	2659	2662	2662	2666	2666	2673	2673	2673	2677	2684	2681	2684	2684	2688	0	0	0	0	0	0	0	0	0	0	5254	5282	5296	5311	5325	5339	5354	5354	5354	5339	5325	5282	5240	5172	5131	5105	5066	5040	5027	5001	4989	4976	4964	4939	4914	4890	4854	4818	4772	4670	4627	4573	4521	4480	4449	4420	4390	4361	4342	4323	4304	4285	4258	4258	4258	4258	4258	4248	4239	4221	4194	4168	4133	4099	4065	4032	4007	3983	3967	3959	3935	3935	3928	3928	3928	3920	3920	3920	3920	3935	3943	3951	3959	3959	3959	3959	3967	3959	3959	3959	3967	3991	3999	4015	4024	4024	4032	4040	4040	4032	4032	4040	4057	4073	4099	4133	0	4168	4194	4221	4258	4285	4313	4323	4332	4332	4342	4332	4332	4332	4332	4332	4332	4323	4313	4313	4304	4285	4276	4258	4248	4239	4221	4203	4185	4168	4150	4142	4124	4124	4116	4107	4099	4099	4099	4107	4107	4116	4124	4133	4150	4168	4185	4203	4212	4230	4239	4248	4258	4276	4276	4276	4276	4267	4276	4258	4248	4239	4230	4212	4203	4194	4185	4168	4159	4150	4116	4107	4073	4048	4024	3983	3951	3920	3889	3858	3829	3777	3742	3713	3686	3665	3632	3605	3560	3515	3436	3394	3348	3309	3265	3233	3192	3176	3166	3156	3156	3151	3146	3146	3146	3141	3141	3136	3131	3126	3121	3116	3111	3101	3092	3087	3082	3082	3077	3077	3082	3082	3092	3096	3106	3106	3116	3126	3131	3136	3141	3146	3146	3151	3156	3156	3156	3156	3156	3161	3161	3166	3166	3176	3181	3192	3202	3218	3223	3233	3239	3244	3244	3244	3233	3228	3218	3207	3197	3186	3181	3171	3156	3151	3146	3141	3136	3131	3126	3116	3111	3106	3101	3092	3087	3082	3077	3106	3106	3101	3106	3106	3106	3106	3106	3106	3101	3101	3101	3092	3087	3082	3072	3063	3058	3044	3035	3030
4541	4552	4562	4562	4573	4584	4584	4594	4594	4605	4616	4616	4616	4627	4637	4637	4637	4648	4648	4659	4659	4659	4659	4659	4659	4659	4659	4648	4637	4627	4627	4627	4616	4616	4616	4605	4605	4605	4605	4594	4594	4594	4594	4594	4594	4594	4584	4584	4573	4562	4552	4531	4531	4521	4500	4500	4500	4500	4510	4510	4521	4521	4541	4562	4573	4573	4573	4573	4573	4573	4562	4541	4541	4521	4521	4510	4510	4510	4510	4521	4521	4531	4541	4541	4562	4562	4562	4573	4573	4562	4562	4552	4552	4541	4541	4521	4521	4510	4500	4500	4490	4490	4500	4500	4510	4510	4521	4531	4541	4541	4562	4562	4562	4562	4573	4562	4562	4562	4562	4552	4552	4552	4552	4552	4552	4552	4552	4552	4552	4552	4552	4562	4573	4584	4605	4616	4627	4637	4648	4670	4681	4681	4693	4704	4715	4715	4715	4715	4715	4715	4715	4704	4704	4704	4704	4704	4704	4693	4681	4681	4670	4670	4670	4659	4693	0	0	0	0	0	0	0	6212	6212	6232	6232	6272	6292	6312	6352	6373	6393	6435	6456	6477	6499	6520	6499	6499	6499	6499	6499	6456	6456	6456	6435	6435	6435	6435	6435	6435	6435	6414	6414	6435	6435	6435	6435	6435	6414	6352	6312	6272	6193	6154	6116	6079	6060	6023	0	0	0	0	0	0	2620	2613	2613	2606	2599	2589	2582	2576	2572	2566	2562	2556	2552	2549	2546	2543	2539	2536	2536	2536	2536	2536	2536	2539	2543	2549	2552	2556	2559	2562	2569	2572	2576	2579	2579	2582	2582	2579	2579	2576	2572	2569	2566	2562	2559	2559	2556	0	0	0	1918	1920	1920	1920	1920	1922	1922	1924	1925	1925	1925	0	0	0	0	0	0	0	0	2559	2556	2552	2552	2549	2549	2546	2543	2539	2539	2539	2543	2543	2546	2549	2552	2556	2559	2562	2562	2566	2562	2562	2562	2562	2562	2562	2566	2569	2572	2579	2586	2593	2599	2610	2613	2620	2627	2631	2631	2634	2641	2645	2648	2652	2655	2659	2659	2662	2666	2670	2673	2673	2677	2677	2681	2684	2681	2684	2688	0	0	0	0	0	0	0	0	0	5268	5282	5296	5311	5325	5354	5368	5368	5354	5354	5325	5296	5268	5226	5158	5131	5105	5079	5053	5027	5014	5001	4976	4951	4927	4902	4878	4830	4783	4738	4637	4594	4541	4490	4459	4420	4380	4351	4332	4304	4285	4248	4248	4239	4248	4258	4258	4258	4248	4221	4194	4168	4133	4090	4057	4024	3991	3975	3959	3935	3920	3920	3912	3904	3904	3897	3897	3904	3912	3912	3928	3943	3943	3943	3943	3951	3951	3959	3951	3951	3975	3991	4007	4024	4032	4048	4057	4065	4073	4073	4073	4082	4090	4107	4133	0	4159	4185	4212	4230	4258	4285	4295	4313	4323	4332	4332	4332	4332	4332	4332	4332	4332	4323	4323	4313	4304	4304	4276	4267	4248	4239	4221	4203	4185	4168	4150	4133	4124	4116	4099	4099	4090	4082	4090	4090	4099	4107	4107	4124	4133	4150	4168	4194	4194	4212	4230	4239	4258	4258	4276	4276	4276	4276	4276	4267	4258	4248	4239	4230	4221	4212	4203	4194	4185	4177	4168	4159	4124	4107	4082	4048	4015	3983	3951	3920	3889	3874	3836	3770	3742	3706	3672	3638	3592	3547	3448	3394	3354	3309	3265	3233	3192	3176	3166	3156	3151	3146	3141	3141	3141	3141	3136	3131	3126	3126	3121	3111	3101	3096	3087	3082	3077	3072	3072	3072	3068	3072	3082	3087	3092	3096	3106	3111	3121	3131	3136	3141	3141	3151	3151	3156	3156	3156	3161	3161	3166	3171	3171	3176	3186	3197	3207	3218	3228	3233	3239	3244	3244	3239	3233	3223	3218	3202	3197	3186	3181	3176	3171	3156	3156	3156	3151	3146	3141	3136	3131	3131	3126	3141	3136	3131	3131	3126	3126	3126	3126	3131	3131	3136	3136	3131	3131	3131	3126	3121	3116	3111	3101	3092	3082	3072	3058	3053
4541	4541	4552	4562	4562	4573	4573	4584	4584	4584	4594	4605	4605	4616	4616	4627	4627	4627	4637	4648	4648	4648	4648	4648	4648	4648	4637	4637	4627	4616	4616	4616	4616	4616	4616	4605	4605	4605	4594	4584	4584	4584	4584	4584	4573	4573	4562	4562	4552	4541	4531	4521	4510	4500	4490	4490	4490	4480	4490	4500	4510	4510	4531	4541	4552	4552	4552	4552	4541	4541	4531	4521	4510	4490	4490	4490	4480	4490	4500	4500	4510	4521	4531	4541	4552	4562	4562	4562	4573	4573	4562	4552	4541	4531	4531	4521	4510	4500	4490	4490	4480	4480	4480	4490	4500	4500	4510	4521	4521	4531	4531	4531	4531	4541	4541	4541	4541	4541	4531	4531	4531	4531	4531	4531	4531	4531	4531	4541	4541	4552	4552	4562	4573	4584	4605	4616	4627	4637	4648	4670	4681	4681	4693	4704	4704	4704	4704	4704	4693	4681	4681	4670	4670	4670	4670	4670	4670	4670	4670	4659	4659	4670	4670	4670	0	0	0	0	0	0	0	6005	6079	6135	6154	6174	6212	6232	6272	6312	6352	6393	6414	6456	6477	6499	6499	6477	6456	6456	6435	6393	6373	6373	6373	6373	6373	6373	6393	6393	6393	6393	6393	6414	6435	6435	6435	6435	6414	6393	6393	6332	6252	6212	6154	6116	6097	6060	6041	0	0	0	0	0	0	2620	2617	2613	2610	2599	2589	2586	2576	2572	2566	2559	2552	2549	2543	2539	2536	2533	2526	2526	2526	2526	2530	2530	2533	2536	2543	2546	2552	2556	2562	2566	2569	2572	2576	2579	2582	2579	2579	2576	2572	2569	2566	2566	2562	2559	2556	2556	0	0	0	0	1924	1924	1924	1924	1925	1925	1927	1927	1927	1929	0	0	0	0	0	0	0	0	2566	2559	2559	2556	2552	2549	2549	2546	2543	2543	2543	2546	2546	2549	2556	2556	2559	2562	2566	2566	2566	2566	2566	2566	2566	2566	2566	2566	2569	2572	2582	2586	2593	2599	2606	2613	2617	2624	2627	2631	2631	2638	2641	2645	2648	2652	2655	2659	2659	2666	2666	2670	2673	2677	2677	2677	2681	2681	2684	2684	0	0	0	0	0	0	0	0	0	0	5311	5325	5325	5339	5368	5368	5368	5368	5354	5339	5311	5282	5254	5226	5172	5145	5118	5092	5066	5053	5027	5001	4976	4951	4927	4902	4866	4818	4772	4659	4605	4552	4510	4470	4420	4390	4351	4323	4304	4285	4248	4239	4248	4248	4258	4258	4248	4239	4221	4194	4159	4124	4090	4048	4015	3983	3959	3943	3920	3904	3897	3897	3881	3881	3881	3881	3889	3904	3912	3920	3935	3943	3943	3951	3959	3951	3951	3951	3951	3975	3999	4015	4024	4040	4065	4073	4099	4099	4107	4107	4116	4124	0	4142	4159	4177	4203	4221	4239	4267	4285	4295	4313	4323	4323	4323	4323	4332	4332	4332	4332	4332	4323	4323	4313	4313	4304	4276	4267	4258	4239	4221	4203	4185	4168	4150	4133	4116	4107	4099	4090	4082	4082	4082	4082	4090	4090	4099	4107	4124	4133	4159	4168	4185	4203	4212	4230	4239	4248	4267	4267	4276	4276	4276	4267	4267	4258	4248	4239	4230	4221	4212	4212	4203	4203	4194	4185	4177	4142	4124	4099	4073	4048	4015	3991	3959	3935	3904	3866	3836	3763	3727	3679	3625	3572	3454	3400	3354	3304	3260	3233	3186	3171	3161	3151	3146	3141	3141	3141	3141	3141	3136	3131	3126	3121	3116	3111	3101	3092	3082	3077	3072	3068	3063	3063	3063	3063	3072	3077	3087	3092	3096	3106	3116	3126	3131	3136	3141	3146	3151	3156	3156	3161	3161	3161	3166	3171	3176	3181	3186	3197	3207	3218	3228	3233	3239	3239	3239	3233	3228	3218	3212	3202	3192	3186	3176	3176	3171	3166	3161	3161	3156	3156	3161	3161	3161	3161	3161	3156	3156	3156	3151	3151	3151	3151	3151	3156	3156	3161	3156	3156	3156	3151	3151	3146	3141	3136	3126	3121	3106	3096	3082	3072
4541	4541	4552	4562	4562	4562	4573	4573	4573	4573	4573	4584	4584	4594	4594	4605	4605	4605	4627	4627	4594	4605	4605	4605	4616	4616	4616	4616	4605	4605	4605	4605	4605	4605	4605	4605	4605	4594	4584	4573	4573	4562	4562	4552	4552	4541	4521	4510	4510	4500	4480	4480	4470	4480	4470	4470	4480	4470	4480	4490	4490	4490	4500	4510	4521	4521	4531	4521	4521	4510	4500	4490	4480	4470	4459	4459	4459	4470	4480	4480	4490	4500	4510	4531	4531	4552	4562	4562	4562	4562	4552	4541	4531	4521	4510	4500	4490	4480	4470	4459	4459	4459	4470	4480	4490	4490	4490	4490	4490	4500	4510	4510	4510	4521	4510	4521	4510	4521	4510	4510	4510	4510	4521	4521	4521	4521	4521	4531	4541	4541	4552	4562	4573	4594	4605	4627	4637	4648	4659	4670	4681	4693	4693	4704	4704	4693	4681	4681	4670	4659	4659	4648	4648	4637	4648	4648	4648	4648	4648	4648	4659	4648	4659	4659	0	0	0	0	0	5661	0	5828	5950	6041	6079	6097	6135	6174	6212	6272	6312	6373	6414	6456	6456	6477	6499	6477	6456	6414	6373	6332	6312	6292	6292	6272	6292	6312	6312	6352	6352	6373	6373	6393	6393	6414	6414	6414	6393	6393	6352	6312	6252	6212	6154	6116	6097	6079	6060	0	0	0	0	0	0	2624	2620	2617	2613	2599	2596	2586	2579	2569	2566	2559	2552	2546	2539	2536	2530	2523	2520	2520	2520	2520	2523	2523	2530	2533	2536	2543	2549	2552	2559	2562	2566	2572	2576	2576	2579	2576	2572	2569	2566	2562	2559	2559	2559	2556	2552	0	0	0	1931	1931	1929	1929	1927	1929	1929	1929	1929	1931	1931	1933	0	0	0	0	0	0	0	0	2569	2566	2562	2562	2556	2556	2552	2549	2546	2549	2549	2549	2549	2556	2556	2559	2562	2566	2569	2569	2569	2569	2569	2569	2569	2566	2566	2569	2569	2576	2579	2589	2593	2599	2606	2613	2617	2624	2624	2627	2631	2634	2638	2641	2645	2648	2652	2655	2655	2662	2666	2666	2670	2673	2677	2673	2681	2681	2684	2681	0	0	0	0	0	0	0	0	0	0	5325	5339	5339	5354	5368	5383	5383	5383	5368	5354	5325	5311	5282	5254	5226	5185	5158	5131	5105	5092	5066	5040	5014	4989	4964	4927	4890	4854	4807	4749	4648	4594	4541	4490	4449	4400	4371	4332	4304	4285	4248	4248	4239	4258	4267	4258	4258	4239	4221	4194	4159	4116	4082	4040	3999	3975	3951	3920	3904	3889	3881	3874	3866	3866	3866	3866	3881	3889	3904	3912	3928	3935	3943	3951	3951	3951	3951	3943	3951	3975	3999	4015	4024	4048	4065	4090	0	4107	4116	4116	4124	4133	4142	4159	4168	4194	4203	4221	4248	4267	4276	4285	4295	4313	4313	4313	4313	4323	4323	4323	4323	4323	4323	4313	4313	4304	4295	4276	4267	4258	4239	4221	4203	4185	4168	4150	4133	4116	4107	4090	4082	4082	4073	4073	4082	4082	4090	4099	4107	4116	4133	4150	4159	4168	4185	4194	4212	4221	4239	4248	4258	4267	4267	4267	4267	4258	4258	4248	4239	4239	4230	4221	4221	4221	4212	4212	4203	4194	4185	4177	4142	4116	4099	4073	4048	4015	3999	3967	3935	3904	3866	3785	3734	3679	3618	3560	3424	3371	3309	3260	3228	3181	3171	3156	3151	3146	3141	3136	3136	3136	3136	3136	3126	3121	3121	3111	3106	3096	3087	3077	3068	3068	3058	3058	3058	3053	3053	3063	3072	3077	3077	3087	3096	3106	3116	3126	3136	3136	3146	3151	3156	3156	3161	3161	3166	3166	3171	3176	3181	3186	3202	3207	3218	3228	3228	3233	3233	3233	3228	3223	3212	3207	3192	3186	3181	3176	3171	3166	3161	3161	3166	3166	3166	3166	3171	3171	3171	3171	3171	3171	3171	3171	3171	3171	3176	3176	3181	3181	3181	3181	3181	3181	3181	3176	3166	3161	3156	3146	3141	3131	3116	3106	3092
4541	4552	4552	4562	4562	4573	4562	4562	4562	4562	4562	4562	4562	4573	4573	4541	4552	4562	4562	4562	4562	4573	4573	4584	4594	4584	4584	4594	4594	4594	4594	4594	4594	4594	4594	4594	4584	4584	4562	4562	4552	4541	4531	4521	4521	4500	4480	4470	4470	4459	4449	4439	4439	4439	4439	4439	4449	4449	4449	4459	4459	4459	4470	4480	4490	4490	4490	4490	4480	4480	4470	4470	4459	4449	4439	4439	4429	4439	4439	4449	4459	4470	4480	4500	4510	4521	4531	4531	4541	4541	4531	4531	4521	4500	4490	4470	4459	4449	4439	4439	4439	4439	4439	4459	4470	4459	4470	4470	4470	4470	4480	4490	4480	4480	4490	4490	4490	4490	4490	4480	4480	4490	4510	4510	4510	4510	4521	4521	4531	0	4552	4552	4573	4584	4616	4627	4637	4648	4670	4681	4681	4681	4693	4693	4681	4670	4659	4659	4637	4627	4627	4616	4605	4605	4616	4616	4616	4616	4616	4616	4627	4627	4648	4648	0	0	0	0	0	0	0	5726	5862	5987	6041	6079	6116	6154	6193	6232	6312	6373	6435	6477	6499	6520	6520	6499	6456	6414	6352	6312	6272	6232	6232	6232	6252	6272	6292	6312	6352	6352	6352	6393	6414	6414	6414	6414	6414	6414	6414	6352	6292	6212	6154	6135	6116	6041	6005	0	0	0	0	0	0	2627	2624	2620	2613	2603	2596	2586	2579	2572	2562	2559	2552	2543	2539	2533	2526	2520	2517	2517	2513	2517	2517	2520	2523	2526	2533	2539	2543	2549	2556	2559	2562	2569	2569	2572	2572	2572	2569	2562	2559	2556	2552	2549	2546	2543	0	0	0	1939	1937	1935	1935	1935	1933	1935	1933	1935	1935	1937	1937	1935	1937	0	0	0	0	0	0	0	2576	2569	2569	2566	2562	2559	2559	2556	2552	2552	2552	2556	2556	2559	2562	2566	2569	2572	2572	2576	2576	2572	2572	2572	2572	2572	2576	2576	2579	2582	2586	2593	2596	2603	2606	2610	2617	2620	2624	2627	2627	2631	2634	2638	2641	2645	2648	2652	2655	2659	2662	2662	2670	2673	2673	2673	2673	2673	2677	2677	0	0	0	0	0	0	0	0	0	0	5354	5368	5368	5383	5383	5398	5383	5383	5383	5368	5354	5339	5311	5282	5268	5240	5199	5172	5145	5131	5105	5079	5053	5027	4989	4964	4927	4890	4842	4795	4693	4637	4584	4541	4490	4439	4400	4361	4332	4304	4276	4258	4258	4267	4267	4276	4258	4239	4221	4194	4150	4116	4073	4032	3991	3959	3912	3904	3889	3874	3866	3851	3851	3851	3843	3858	3866	3881	3889	3904	3928	3935	3943	3951	3959	3959	3959	3951	3959	3983	3991	4015	4032	4048	4073	0	4090	4116	4124	4124	4133	4150	4159	4168	4177	4194	4212	4221	4239	4258	4267	4276	4285	4295	4304	4304	4304	4313	4313	4313	4313	4313	4313	4313	4304	4304	4295	4276	4267	4258	4239	4221	4203	4185	4168	4150	4133	4116	4099	4090	4082	4082	4073	4073	4073	4082	4082	4090	4099	4107	4116	4133	4142	4150	4159	4177	4185	4203	4212	4230	4239	4248	4248	4258	4258	4248	4248	4248	4239	4230	4230	4230	4221	4221	4221	4221	4212	4212	4203	4194	4185	4168	4142	4116	4099	4082	4057	4032	3999	3967	3935	3897	3799	3742	3679	3605	3454	3389	3320	3260	3223	3181	3171	3156	3151	3141	3141	3136	3136	3131	3131	3131	3126	3116	3116	3106	3101	3092	3082	3072	3068	3063	3058	3053	3053	3049	3049	3053	3063	3068	3072	3082	3092	3101	3111	3121	3131	3136	3141	3146	3151	3156	3161	3161	3166	3166	3171	3176	3181	3186	3197	3202	3212	3218	3223	3228	3228	3223	3223	3212	3202	3186	3181	3176	3171	3171	3166	3166	3166	3161	3166	3166	3166	3166	3171	3171	3176	3176	3176	3181	3181	3181	3186	3186	3192	3197	3202	3207	3207	3207	3207	3202	3202	3197	3192	3181	3171	3161	3151	3146	3131	3121	3111
4552	4562	4562	4562	4562	4562	4552	4552	4541	4541	4510	4510	4510	4510	4510	4510	4510	4521	4521	4521	4531	4531	4541	4541	4541	4552	4552	4552	4552	4562	4573	4573	4573	4573	4573	4573	4562	4562	4541	4531	4521	4510	4500	4480	4470	4459	4449	4439	4429	4420	4410	4410	4410	4410	4410	4410	4410	4420	4420	4429	4429	4439	4439	4449	4449	4459	4459	4459	4459	4449	4449	4439	4429	4420	4400	4410	4410	4410	4420	4439	4439	4439	4459	4470	4470	4490	4500	4500	4510	4521	4510	4510	4490	4480	4459	4449	4429	4420	4410	4410	4410	4410	4420	4439	4439	4449	4449	4449	4449	4449	4449	4459	4459	4459	4470	4459	4459	4470	4470	4459	4459	4480	4490	4490	4500	4500	4510	4521	4531	4531	4552	4562	4584	4605	4616	4627	4637	4648	4659	4670	4670	4670	4659	4659	4659	4648	4627	4616	4605	4594	4594	4584	4584	4584	4584	4584	4584	4584	4594	4584	4605	4605	4616	4627	4681	0	0	0	0	0	5644	0	5793	5915	5950	6023	6041	6097	6135	6174	6252	6332	6393	6477	6499	6499	6520	6499	6414	6352	6272	6232	6154	6154	6154	6154	6154	6174	6212	6272	6332	6352	6373	6393	6435	6435	6456	6456	6456	6456	6435	6352	6312	6232	6174	6154	6116	6023	0	0	0	0	0	0	0	0	2627	2624	2617	2613	2596	2589	2579	2572	2566	2556	2552	2543	2539	2533	2526	2520	2513	2513	2510	2510	2510	2510	2517	2520	2526	2533	2536	2543	2549	2552	2559	2562	2566	2569	2569	2566	2562	2556	2549	2549	2543	2536	2536	0	0	0	0	1944	1943	1943	1941	1941	1939	1939	1939	1939	1939	1941	1941	1939	1941	0	0	0	0	0	0	2582	2579	2576	2572	2572	2569	2566	2566	2562	2559	2559	2559	2562	2562	2566	2566	2569	2572	2576	2576	2579	2579	2582	2582	2582	2579	2579	2579	2579	2582	2586	2589	2593	2596	2603	2606	2613	2617	2620	2620	2624	2627	2627	2634	2638	2641	2641	2645	2648	2652	2655	2659	2662	2666	2670	2670	2673	2670	2673	2673	2673	0	0	0	0	0	0	0	0	0	0	5383	5383	5383	5398	5398	5398	5398	5398	5398	5383	5368	5339	5325	5311	5296	5268	5240	5199	5185	5158	5131	5105	5079	5053	5027	4989	4951	4914	4878	4842	4795	4693	4637	4594	4541	4490	4459	4410	4380	4342	4323	4295	4295	4285	4295	4285	4267	4248	4230	4194	4150	4116	4065	4024	3983	3951	3904	3889	3874	3858	3851	3843	3836	3843	3836	3843	3858	3874	3897	3904	3928	3935	3951	3967	3975	3967	3967	3967	3967	3983	3999	4015	4032	4048	4073	0	4090	4107	4116	4124	4133	4142	4150	4168	4177	4185	4203	4221	4230	4248	4258	4267	4276	4285	4285	4295	4295	4295	4304	4304	4304	4304	4304	4304	4304	4295	4295	4276	4267	4258	4239	4221	4212	4185	4177	4150	4133	4116	4107	4090	4082	4073	4073	4073	4073	4073	4082	4082	4090	4099	4107	4107	4124	4133	4133	4150	4159	4168	4185	4194	4212	4221	4230	4230	4239	4239	4239	4230	4230	4230	4230	4221	4221	4221	4221	4212	4212	4212	4212	4203	4203	4185	4177	4150	4133	4124	4107	4082	4057	4032	3999	3959	3912	3799	3734	3658	3579	3424	3343	3282	3233	3186	3166	3156	3146	3141	3136	3136	3131	3131	3131	3121	3121	3111	3106	3101	3092	3087	3072	3063	3058	3058	3053	3049	3049	3049	3049	3053	3063	3068	3072	3082	3087	3096	3111	3116	3126	3131	3136	3146	3151	3156	3156	3161	3166	3171	3171	3176	3181	3186	3192	3202	3207	3212	3218	3218	3218	3202	3202	3192	3186	3181	3176	3171	3171	3166	3166	3166	3166	3161	3166	3166	3166	3171	3171	3176	3176	3181	3181	3181	3186	0	3192	3197	3202	3207	3212	3218	3223	3223	3228	3228	3218	3212	3202	3197	3186	3181	3166	3156	3146	3131	3121
4562	4573	4573	4573	4562	4552	4541	4531	4510	4500	4490	4490	4490	4490	4490	4490	4500	4500	4510	4510	4510	4521	4521	4521	4531	4531	4531	4531	4531	4541	4541	4541	4552	4552	4541	4541	4531	4531	4521	4510	4490	4480	4459	4449	4449	4429	4429	4410	4400	4400	4390	4380	4390	4380	4380	4390	4400	4390	4390	4400	4400	4400	4400	4400	4400	4410	4420	4420	4420	4420	4410	4410	4400	4380	4380	4380	4380	4390	4400	4410	4410	4420	4429	4439	4449	4449	4449	4459	4449	4459	4470	4470	4470	4449	4439	4420	4400	4390	4380	4380	4380	4390	4400	4410	4420	4420	4429	4429	4429	4429	4439	4439	4439	4439	4449	4449	4449	4449	4449	4449	4459	4470	4470	4480	4490	4500	4510	4521	4531	4541	4562	4573	4594	4616	4627	4637	4648	4648	4648	4648	4648	4637	4627	4616	4616	4605	4584	4573	4562	4552	4552	4541	4541	4541	4541	4552	4552	4562	4562	4573	4573	4584	4605	4616	4693	4842	0	5001	0	5383	5549	5693	0	5828	5862	5915	5968	6005	6023	6079	6154	6232	6332	0	0	0	0	0	6393	6292	6193	6116	6060	6041	6041	6060	6079	0	0	0	0	0	0	0	0	0	0	0	6477	6477	6477	6435	6332	6272	6193	6174	6154	0	0	0	0	0	0	0	0	2631	2627	2624	2617	2613	2599	2589	2582	2572	2562	2559	2549	2543	2536	2530	2523	2517	2510	2507	2504	2504	2504	2507	2507	2513	2517	2523	2530	2536	2543	2546	2552	2559	2559	2562	2562	2559	2552	2549	2543	2530	2526	2523	0	0	0	0	1948	1948	1946	1946	1946	1946	1943	1944	1944	1944	1943	1944	1944	1944	1944	0	0	0	0	0	0	2586	2582	2579	2576	2576	2576	2572	2572	2569	2566	2566	2569	2569	2572	2572	2572	2576	2586	2586	2589	2589	2586	2589	2586	2586	2586	2582	2582	2586	2586	2589	2593	2596	2599	2603	2606	2610	2617	2620	2620	2624	2624	2627	2631	2634	2638	2641	2641	2648	2652	2655	2655	2659	2662	2666	2670	2670	2670	2673	2673	2673	0	0	0	0	0	0	0	0	0	0	5412	5412	5412	5412	5412	5412	5412	5398	5398	5383	5383	5368	5354	5325	5311	5296	5282	5268	5213	5185	5172	5145	5118	5092	5066	5027	5001	4964	4927	4878	4842	4795	4704	4648	4605	4562	4521	4480	4439	4410	4380	4351	4342	4332	4323	4323	4285	4267	4239	4203	4159	4116	4065	4024	3983	3951	3904	3881	3866	3851	3843	3836	3836	3829	3829	3843	3851	3874	3889	3912	3928	3943	3959	3975	3983	3983	3975	3975	3983	3991	4007	4024	4032	4040	4065	0	4090	4107	4107	4116	4133	4142	4150	4159	4168	4185	4194	4212	4221	4239	4248	4258	4267	4276	4276	4276	4285	4285	4285	4295	4295	4295	4295	4295	4295	4285	4285	4267	4258	4248	4239	4230	4212	4194	4177	4159	4142	4124	4107	4090	4082	4073	4073	4065	4065	4073	4073	4073	4082	4082	4082	4090	4099	4107	4107	4116	4133	4142	4150	4168	4177	4194	4194	4212	4212	4212	4221	4221	4221	4221	4221	4212	4212	4212	4212	4203	4203	4203	4203	4203	4203	4194	4194	4185	4177	4159	4142	4124	4107	4073	4048	4015	3967	3920	0	3727	3638	3472	3371	3298	3244	3186	3166	3156	3146	3141	3136	3131	3131	3126	3121	3116	3111	3101	3096	3087	3082	3072	3068	3058	3053	3053	3049	3049	3044	3049	3053	3053	3063	3068	3072	3082	3087	3101	3106	3116	3126	3131	3136	3146	3151	3156	3156	3161	3166	3166	3171	3176	3176	3181	3192	3197	3202	3197	3197	3197	3197	3197	3192	3186	3186	3181	3176	3176	3171	3171	3166	3166	3171	3171	3171	3171	3171	3176	3176	3181	3181	3181	3181	3186	3192	3192	3197	3202	3212	3218	3223	3228	3233	3233	3239	3239	3233	3218	3207	3202	3192	3181	3171	3161	3146	3136	3126
4573	4573	4573	4573	4562	4552	4531	4510	4500	4480	4480	4470	4470	4470	4470	4480	4480	4490	4490	4500	4500	4500	4510	4510	4510	4521	4521	4521	4521	4521	4531	4531	4531	4531	4531	4521	4510	4500	4500	4480	4459	4449	4429	4420	4410	4400	4400	4390	4380	4371	4361	4351	4361	4351	4361	4361	4361	4361	4361	4371	4361	4361	4361	4361	4371	4371	4380	4380	4390	4390	4390	4380	4371	4351	4351	4351	4361	4371	4371	4380	4390	4390	4410	4410	4420	4420	4429	4420	4429	4429	4429	4439	4439	4429	4410	4400	4380	4371	4361	4361	4361	4371	4380	4390	4400	4400	4410	4420	4420	4420	4420	4429	4420	4429	4429	4439	4439	4439	4449	4449	4449	4459	4470	0	4480	4490	4500	4510	4531	4552	4573	4594	4616	4627	4637	4637	4637	4627	4616	4616	4605	4584	4584	4573	4552	4552	4531	4521	4510	4500	4500	4490	4490	4500	4500	4500	4510	4510	4521	4541	4552	4573	4584	4605	4681	4818	0	4964	5131	5311	0	5612	0	0	5793	5828	5862	5880	5915	5950	6005	6079	6193	0	0	0	0	0	0	0	0	5968	5950	5950	0	0	0	0	0	0	0	0	0	0	0	0	0	0	0	0	0	0	0	6252	6193	6174	0	0	0	0	0	0	0	0	0	2620	2620	2617	2610	2606	2593	2582	2576	2569	2559	2552	2546	2536	2530	2526	2517	2513	2504	2501	2498	2498	2498	2494	2501	2501	2507	2513	2520	2526	2533	2539	2546	2549	2556	2556	2556	2552	2546	2536	2523	2517	2513	2504	0	0	0	0	1952	1952	1950	1950	1950	1950	1950	1950	1950	1948	1948	1948	1948	1948	1948	0	0	0	0	0	0	2586	2582	2582	2582	2579	2579	2579	2579	2576	2576	2576	2576	2586	2586	2586	2586	2586	2589	2593	2593	2593	2593	2593	2593	2593	2589	2589	2589	2589	2589	2593	2596	2599	2603	2606	2610	2613	2617	2620	2620	2624	2624	2627	2631	2634	2634	2638	2641	2645	2648	2652	2652	2655	2659	2662	2666	2666	2666	2670	2670	2670	0	0	0	0	0	0	0	0	0	5427	5427	5427	5427	5427	5427	5427	5427	5427	5412	5412	5398	5383	5368	5354	5339	5325	5311	5296	5282	5254	5213	5185	5172	5131	5118	5079	5040	5014	4976	4939	4890	4854	4807	4760	4670	4627	4594	4552	4510	4480	4459	4420	4410	4390	4380	4361	4342	4323	4258	4212	4159	4116	4065	4024	3983	3951	3897	3881	3866	3851	3843	3836	3829	3829	3836	3843	3851	3874	3889	3912	3943	3951	3967	3983	3991	3991	3991	3983	3991	3999	4015	4024	4032	4040	4065	0	4082	4099	4107	4107	4116	4124	4133	4150	4159	4168	4177	4194	4212	4221	4230	4239	4248	4258	4258	4258	4267	4267	4276	4276	4285	4285	4285	4285	4285	4285	4276	4267	4258	4248	4239	4230	4212	4194	4185	4168	4142	4133	4107	4099	4090	4082	4073	4073	4065	4065	4065	4065	4065	4065	4073	4073	4073	4082	4082	4090	4099	4107	4116	4133	4142	4159	4168	4185	4185	4194	4203	4203	4203	4203	4203	4203	4194	4194	4194	4194	4185	4185	4194	4185	4194	4194	4194	4194	4185	4185	4168	4150	4142	4116	4099	4065	4024	3983	3928	3792	0	3605	3509	3309	0	3192	3166	3156	3146	3141	3136	3131	3126	3121	3116	3106	3101	3096	3087	3082	3072	3068	3063	3053	3053	3049	3049	3049	3049	3049	3053	3053	3063	3068	3072	3082	3092	3101	3111	3116	3121	3131	3136	3146	3146	3151	3156	3156	3161	3166	3171	3171	3176	3181	3186	3186	3192	3192	3192	3192	3186	3186	3181	3181	3176	3176	3176	3176	3176	3171	3171	3176	3176	3176	3181	3176	3181	3181	3181	3181	3186	3186	3186	3186	3192	3197	3202	3207	3218	3223	3228	3233	3233	3233	3233	3233	3233	3212	3207	3197	3186	3176	3161	3151	3141	3131	3121
4573	4584	4584	4573	4562	4541	4531	4510	4480	4470	4449	4449	4449	4449	4459	4459	4470	4470	4480	4480	4490	4490	4500	4500	4500	4510	4510	4510	4510	4510	4521	4521	4521	4510	4510	4500	4490	4480	4449	4439	4420	4410	4400	4390	4380	4371	4371	4361	4351	4342	4332	4323	4323	4323	4323	4323	4323	4323	4313	4313	4313	4304	4304	4304	4304	4313	4323	4332	4342	4342	4342	4342	4332	4323	4313	4313	4323	4332	4342	4342	4351	4361	4380	4390	4390	4390	4400	4400	4400	4400	4420	4420	4420	4410	4390	4380	4371	4351	4351	4342	4351	4351	4361	4380	4380	4390	4400	4400	4400	4410	4410	4410	4410	4410	4420	4429	4429	4439	4429	4439	4449	4459	4459	0	4480	4490	4500	4521	4541	4552	4584	4594	4616	4627	4627	4627	4616	4605	4594	4573	4552	4541	4531	4510	4500	4490	4470	4459	4449	4439	4439	4439	4439	4439	4449	4449	4459	4459	4480	4500	4521	4541	4562	4573	4637	4749	4890	0	5040	5172	5325	0	0	0	0	5726	5743	5760	5793	0	5828	0	0	0	0	0	0	0	0	0	0	0	0	5845	0	0	0	0	0	0	0	0	0	0	0	0	0	0	0	0	0	0	0	0	0	0	0	0	0	0	0	0	0	0	0	2593	2589	2586	2582	2579	2572	2566	2559	2552	2546	2539	2536	2533	2523	2517	2510	2504	2498	2491	2491	2488	2488	2488	2488	2491	2494	2501	2507	2513	2523	2530	2536	2543	2546	2549	2546	2543	2536	2520	2513	2504	2498	2485	2473	0	0	0	1958	1960	1958	1958	1958	1958	1956	1956	1954	1954	1952	1952	1950	1950	1950	0	0	0	0	0	0	2582	2582	2582	2579	2582	2582	2582	2586	2586	2586	2586	2589	2589	2593	2593	2593	2593	2593	2593	2596	2596	2596	2596	2596	2596	2596	2593	2593	2593	2593	2596	2599	2603	2603	2606	2610	2613	2613	2617	2620	2620	2624	2627	2627	2631	2631	2634	2638	2641	2645	2648	2648	2652	2655	2659	2662	2662	2662	2666	2666	2666	0	0	0	0	0	0	0	0	0	5442	5442	5442	5442	5442	5442	5427	5427	5427	5412	5412	5412	5398	5398	5383	5368	5354	5354	5339	5311	5311	5282	5240	5213	5199	5158	5131	5105	5066	5027	4989	4951	4914	4878	4830	4783	4704	4659	4637	4594	4562	4531	4500	4480	4459	4439	4420	4380	4351	4276	4221	4177	4124	4073	4032	3983	3951	3897	3881	3866	3851	3836	3829	3829	3829	3829	3836	3858	3874	3904	3920	3951	3967	3983	3991	3999	4007	3999	3999	3999	4007	4007	4015	4024	4040	4057	4073	4082	0	4090	0	4107	0	4124	4124	4142	4150	4168	4185	4194	4203	4212	4221	4230	4239	4239	4248	4248	4248	4258	4258	4267	4267	4276	4276	4276	4276	4267	4258	4258	4248	4239	4230	4221	4203	4185	4168	4150	4133	4124	4107	4090	4082	4073	4065	4065	4057	4057	4057	4057	4057	4057	4057	4057	4057	4065	4065	4073	4082	4090	4107	4116	4133	4142	4150	4159	4168	4177	4177	4177	4185	4185	4177	4177	4177	4177	4177	4168	4168	4177	4177	4185	4185	4185	4194	4194	4194	4185	4185	4168	4150	4124	4099	4065	4032	3991	3928	3756	0	3412	3309	0	3192	3171	3156	3146	3141	3136	3131	3121	3116	3111	3101	3096	3087	3082	3072	3068	3063	3058	3053	3049	3049	3049	3049	3049	3053	3053	3058	3063	3072	3077	3082	3092	3101	3106	3116	3126	3131	3141	3146	3146	3151	3156	3161	3166	3166	3171	3176	3176	3181	3181	3181	3181	3181	3181	3181	3181	3181	3176	3176	3176	3176	3176	3176	3176	3176	3181	3181	3181	3186	3186	3186	3186	3186	3186	3192	3192	3192	3192	3192	3192	3202	3202	3207	3212	3223	3228	3233	3233	3233	3233	3228	3218	3207	3192	3181	3171	3156	3146	3136	3126	3116	3106
4584	4584	4584	4573	4552	4541	4521	4490	4470	4449	4429	4420	4420	4420	4439	4439	4449	4459	4470	4470	4480	4490	4490	4490	4500	4500	4500	4500	4500	4500	4500	4500	4500	4500	4490	4480	4459	4439	4429	4400	4390	4371	4361	4351	4342	4342	4332	4332	4323	4323	4295	4295	4295	4285	4285	4276	4276	4267	4276	4267	4258	4258	4258	4248	4258	4258	4267	4285	4295	4285	4295	4304	4295	4276	4267	4267	4276	4276	4295	4304	4304	4313	4342	4351	4371	4361	4371	4380	4371	4371	4390	4400	4400	4390	4371	4361	4351	4342	4342	4342	4342	4351	4361	4371	4380	4380	4390	4400	4400	4400	4400	4410	4410	4410	4410	4420	4420	4429	4429	0	4439	4449	4459	4470	0	4490	4500	4510	4541	4562	4573	4584	4605	4605	4605	4594	4573	4562	4541	4531	4500	4480	4459	4449	4429	4420	4410	4400	4390	4380	4380	4380	4380	4380	4390	4400	4410	4420	4439	4459	4490	4510	4531	4552	4616	4704	4818	0	0	5079	5213	5368	5534	5612	5628	5644	5661	5677	5693	5726	5760	5828	0	0	0	0	0	0	0	0	0	5743	5726	5726	0	0	0	0	0	0	0	0	0	0	0	0	0	0	0	0	0	0	0	0	0	0	0	0	0	2523	2536	2543	2552	2556	2552	2549	2552	2549	2549	2549	2546	2539	2536	2533	2526	2523	2520	2513	2510	2504	2501	2491	2485	2485	2479	2479	2476	2479	2482	2482	2488	0	2494	2504	2510	2517	2523	2530	2533	2536	2536	2533	2517	2510	2501	2488	2479	2469	0	2445	0	0	0	1966	1964	1964	1962	1964	1960	1960	1958	1956	1956	1956	1954	1952	0	0	0	0	0	0	0	2579	2579	2579	2579	2582	2582	2586	2586	2589	2589	2593	2593	2593	2596	2593	2593	2596	2596	2596	2596	2596	2599	2596	2599	2599	2596	2596	2596	2596	2596	2599	2599	2603	2603	2606	2610	2613	2617	2617	2620	2620	2624	2624	2627	2631	2631	2631	2634	2638	2641	2641	2645	2648	2652	2652	2655	2655	2659	2659	2662	0	0	0	0	0	0	0	0	0	0	5442	5442	5442	5442	5442	5442	5442	5442	5427	5427	5427	5412	5412	5398	5398	5398	5383	5383	5368	5354	5354	5325	5311	5296	5254	5226	5185	5158	5118	5079	5040	5001	4964	4927	4890	4842	4807	4772	4704	4670	4648	4616	4594	4562	4531	4500	4480	4429	4390	4351	4239	4185	4133	4082	4032	3991	3959	3904	3889	3866	3851	3843	3836	3836	3836	3843	3843	3866	3889	3912	3935	3959	3975	3991	0	4007	4015	4007	4007	4007	4007	4015	4024	4024	4032	4048	4057	4073	4073	4082	4090	4099	4107	4116	0	4124	4142	4159	4177	4185	4194	4203	4212	4221	4221	4221	4221	4230	4230	4230	4239	4248	4258	4258	4258	4267	4267	4267	4258	4258	4248	4248	4239	4221	4212	4194	4177	4168	4142	4133	4116	4099	4090	4082	4073	4065	4057	4057	4048	4048	4048	4048	4048	4040	4040	4040	4048	4057	4057	4065	4082	4090	4099	4116	4124	4133	4142	4150	4159	4159	4159	4159	4159	4159	4150	4150	4150	4150	4150	4150	4159	4168	4168	4177	4185	4185	4194	4194	4194	4194	4168	4150	4124	4099	4065	4024	3967	3777	3665	3406	0	3260	3192	3171	3156	3146	3141	3136	3126	3121	3111	3106	3096	3087	3082	3072	3063	3063	3053	3049	3049	3044	3049	3049	3053	3053	3053	3063	3068	3072	3082	3082	3092	3096	3106	3116	3121	3126	3131	3141	3146	3151	3156	3156	3161	3171	3171	3176	3176	3176	3176	3181	3181	3176	3181	3181	3181	3176	3176	3171	3171	3171	3176	3181	3181	3181	3181	3186	3186	3192	3192	3192	3192	3192	3197	3197	3197	3197	3197	3192	3197	3197	3197	3202	3207	3212	3218	3223	3223	3223	3223	3218	3202	3192	3181	3171	3156	3146	3136	3126	3116	3106	3101	3092
4584	4594	4584	4573	4541	4521	4500	4480	4449	4429	4410	4400	4400	4400	4410	4420	4429	4439	4449	4459	4470	4480	4480	4490	4490	4490	4490	4490	4490	4490	4490	4490	4480	4480	4470	4459	4439	4410	4400	4380	4371	4351	4342	4332	4323	4323	4304	4304	4285	4276	4258	4267	4258	4258	4258	4258	4248	4248	4230	4230	4230	4221	4221	4221	4221	4221	4230	4239	4239	4239	4239	4239	4239	4221	4212	4212	4221	4230	4239	4248	4258	4276	4295	4323	4332	4351	4342	4351	4351	4361	4361	4380	4371	4371	4361	4351	4342	4342	4332	4342	4342	4351	4361	4371	4380	4380	4390	4390	4400	4400	4400	4410	4410	4410	4420	4420	4429	4429	4439	4449	4459	4459	4470	4480	4490	4500	4510	4521	4541	4552	4562	4573	4584	4573	4573	4562	4552	4531	4521	4490	4470	4439	4429	4410	4390	4371	4361	4351	4351	4332	4332	4332	4323	4342	4342	4351	4371	4390	4410	4439	4470	4500	4521	4541	4594	4670	4760	0	0	4976	5118	5268	5442	5534	5581	5596	5612	5628	5644	5644	5661	5677	0	0	0	0	0	0	0	0	0	0	0	0	0	0	0	0	0	0	0	0	0	0	0	0	0	0	0	0	0	0	0	0	0	0	0	0	0	2469	2485	2494	2498	2510	2510	2513	2513	2513	2513	2517	2513	2513	2510	2507	2504	2501	2494	2494	2488	2485	2479	2473	2466	2466	2466	2463	2463	2466	2469	2469	2473	2482	2488	2494	0	2501	2510	2513	2520	2523	2523	2510	2504	2498	2488	2476	2463	2451	2442	2433	2421	0	0	1970	1968	1968	1966	1966	1964	1962	1960	1958	1958	1956	1956	1956	0	0	0	0	0	0	2572	2576	2579	2579	2579	2582	2586	2586	2589	2589	2593	2593	2596	2596	2599	2596	2596	2596	2596	2599	2599	2599	2603	2599	2603	2603	2603	2603	2599	2599	2599	2599	2603	2606	2606	2606	2610	2613	2617	2617	2620	2620	2624	2624	2627	2627	2631	2631	2634	2634	2638	2638	2641	2641	2645	2648	2652	2652	2655	2655	2659	0	0	0	0	0	0	0	0	0	0	5457	5457	5442	5442	5442	5442	5442	5427	5427	5427	5427	5412	5412	5412	5412	5398	5398	5398	5398	5383	5383	5368	5354	5339	5325	5311	5254	5226	5185	5145	5105	5066	5027	4989	4939	4902	4878	4842	4795	4738	4715	4693	4659	4616	4573	4552	4510	4459	4420	4371	4258	4194	4150	4090	4048	4007	3967	3943	3897	3881	3866	3858	3851	3851	3851	3858	3858	3881	3897	3928	3951	3975	0	3991	4007	4015	4032	4032	4015	4015	4015	4015	4024	4024	4024	4040	4048	4057	4065	4065	4073	4082	4090	4099	4116	4124	0	4142	4159	4177	4185	4194	4194	4203	4203	4203	4203	4203	4203	4212	4221	4230	4239	4239	4248	4258	4258	4258	4258	4258	4258	4258	4248	4239	4221	4212	4194	4177	4159	4142	4124	4116	4099	4090	4082	4065	4057	4048	4048	4040	4040	4040	4032	4032	4032	4032	4032	4040	4040	4048	4057	4065	4073	4082	4099	4107	4116	4124	4133	4133	4142	4142	4133	4133	4133	4133	4133	4124	4124	4133	4142	4150	4159	4168	4177	4177	4194	4194	4194	4194	4177	4168	4142	4116	4090	4040	3991	3904	3665	3406	0	3260	0	3171	3156	3146	3141	3136	3126	3121	3111	3101	3092	3082	3077	3068	3058	3053	3053	3049	3049	3044	3049	3053	3053	3058	3063	3068	3072	3077	3082	3087	3092	3101	3111	3116	3121	3126	3131	3136	3146	3151	3156	3161	3166	3171	3171	3176	3176	3181	3176	3176	3181	3176	3176	3176	3171	3171	3166	3166	3166	3171	3171	3176	3181	3186	3192	3192	3197	3202	3202	3202	3197	3197	3202	3202	3202	3197	3197	3197	3197	3197	3202	3202	3207	3207	3207	3207	3207	3207	3197	3192	3181	3171	3156	3146	3136	3121	3116	3106	3101	3092	3082	3077
4594	4584	4573	4562	4531	4510	4480	4449	4429	4400	4380	4380	4380	4380	4390	4400	4410	4420	4429	4439	4449	4459	4470	4480	4480	4480	4480	4480	4480	4470	4470	4470	4459	4449	4439	4429	4410	4390	4380	4351	4342	4323	4313	4304	4304	4295	4285	4276	4267	4258	4248	4239	4239	4239	4239	4230	4221	4221	4212	4212	4203	4203	4194	4203	4194	4194	4203	4194	4194	4194	4194	4194	4185	4177	4177	4177	4177	4185	4212	4221	4230	4248	4267	4295	4313	4323	4332	4323	4332	4332	4351	4351	4361	4351	4351	4342	4342	4332	4332	4342	4342	4351	4361	4371	4380	4380	4390	4400	4400	4410	4410	4420	4410	4420	4429	4429	4439	4439	4459	4449	4470	4480	4480	4490	4500	4490	4500	0	4521	4531	4541	4541	4552	4552	4552	4541	4531	4521	4490	4470	4439	4420	4390	4371	4351	4342	4332	4323	4295	4285	4285	4285	4285	4295	4304	4313	4332	4351	4390	4420	4449	4470	4490	4510	4562	4605	4681	0	4866	0	4989	5145	5325	5442	5503	5534	5549	5581	5596	5596	5612	5644	0	0	0	0	0	0	0	0	0	0	0	0	0	0	0	0	0	0	0	0	0	0	0	0	2380	0	0	0	0	0	0	0	0	0	0	0	0	2445	2457	2460	2466	2476	2479	2479	2482	2482	2482	2485	2485	2485	2485	2482	2479	2473	2469	2463	2454	2451	2445	2442	2442	2445	2445	2445	2448	2451	2454	2457	2460	2469	2476	2485	2491	2498	2501	0	2507	2510	2504	2498	2491	2485	2473	2460	2448	2439	2430	2421	2412	2403	0	0	1970	1968	1968	1966	1964	1962	1962	1960	1958	1956	0	0	0	0	0	0	0	0	2569	2572	2576	2579	2579	2582	2586	2589	2593	2593	2596	2596	2599	2596	2599	2599	2599	2599	2603	2603	2603	2606	2606	2606	2606	2606	2606	2603	2603	2603	2603	2603	2606	2606	2606	2610	2610	2613	2617	2620	2620	2620	2624	2624	2627	2627	2631	2631	2631	2634	2634	2638	2638	2638	2645	2645	2648	2648	2652	2652	0	0	0	0	0	0	0	0	0	0	0	5457	5457	5457	5457	5457	5457	5442	5442	5427	5427	5427	5412	5412	5412	5412	5412	5412	5412	5412	5412	5412	5398	5398	5398	5383	5354	5339	5311	5240	5199	5158	5118	5079	5040	4989	4951	4914	4878	4842	4818	4783	4726	4693	4659	4616	4584	4541	4490	4449	4400	4276	4212	4159	4107	4065	4024	3983	3951	3935	3897	3881	3874	3866	3866	3866	3874	3881	3897	3912	3935	3959	0	3983	3999	4015	4024	4040	4040	4032	4032	4024	4024	4024	4024	4024	4032	4040	4048	4048	4048	4057	4065	4082	4090	4099	4116	0	4133	4150	4159	4168	4177	4185	4185	4185	4185	4185	4185	4194	4203	4212	4221	0	4230	0	4248	4248	4258	4267	4267	4267	4258	4258	4248	4239	4221	4212	4194	4177	4159	4142	4124	4116	4099	4082	4073	4065	4048	4040	4040	4032	4032	4024	4024	4024	4024	4024	4024	4024	4032	4040	4040	4057	4065	4073	4082	4099	4099	4107	4107	4116	4116	4116	4116	4107	4107	4107	4107	4107	4116	4116	4133	4142	4150	4159	4168	4185	4185	4194	4194	4185	4168	4150	4124	4099	4057	4015	3928	3679	3547	3304	3249	3186	3166	3156	3146	3141	3131	3126	3116	3111	3101	3092	3082	3072	3068	3058	3053	3049	3049	3044	3049	3053	3053	3058	3063	3068	3072	3077	3082	3087	3092	3096	3101	3111	3116	3121	3126	3136	3141	3146	3156	3161	3161	3166	3176	3176	3181	3176	3176	3176	3176	3176	3171	3171	3171	3166	3166	3161	3161	3161	3166	3171	3176	3181	3186	3192	3202	3202	3207	3207	3207	3207	3207	3207	3207	3207	3207	3202	3197	3202	3197	3197	3202	3202	3202	3202	3202	3192	3181	3176	3166	3156	3146	3131	3121	3111	3101	3096	3087	3082	3072	3063	3063
4594	4584	4573	4552	4521	4500	4470	4429	4390	4380	4371	4351	4361	4361	4361	4380	4380	4400	4410	4420	4429	4439	4449	4459	4470	4470	4470	4470	4459	4459	4449	4449	4439	4429	4420	4400	4380	4371	4351	4332	4323	4304	4304	4295	4285	4285	4267	4258	4258	4239	4230	4230	4221	4221	4221	4203	4203	4194	4194	4185	4185	4185	4177	4185	4177	4177	4177	4185	4177	4177	4168	4168	4168	4159	4159	4150	4159	4168	4177	4194	4212	4221	4248	4267	4285	4295	4304	4313	4313	4313	4332	4342	4342	4342	4332	4332	4332	4332	4332	4342	4342	4342	4351	4361	4371	4380	4390	4400	4400	4400	4410	4420	4420	4429	4439	4449	4449	4459	4470	4470	4480	4480	4480	4490	4490	4490	4490	4500	4500	4510	4521	4521	4521	4531	4531	4521	4510	4490	4470	4449	4420	4400	4371	4351	4332	4313	4295	4285	4267	4258	4258	4258	4258	4267	4285	4295	4313	4342	4371	4400	4439	4459	4480	4500	4541	4594	4648	4726	0	0	0	0	5254	5368	5427	5472	5488	5518	5518	5549	5549	0	0	0	0	0	0	0	0	0	0	0	0	0	0	0	0	0	0	0	0	0	0	0	2383	2377	2372	0	0	0	2349	2355	2360	2363	2380	2392	0	2406	0	0	0	2442	2445	2448	2448	2448	2451	2451	2451	2454	2454	2454	2454	0	2445	2439	2436	2430	2424	2418	2418	2415	2415	2418	2421	2424	2427	2433	2436	2442	2445	2454	2460	2469	2476	2482	2488	2494	2498	2498	2491	2485	2476	2469	2460	2448	2439	2430	2421	2415	2406	2400	0	0	1970	1968	1968	1964	1962	1960	1958	1956	1956	1954	0	0	0	0	0	0	0	0	0	2576	2576	2579	2582	2586	2589	2593	2599	2599	2599	2599	2599	2603	2603	2603	2603	2606	2606	2606	2610	2610	2610	2610	2610	2610	2606	2610	2606	2606	2606	2606	2606	2610	2610	2610	2613	2617	2617	2620	2620	2620	2624	2627	2631	2631	2631	2634	2634	2634	2634	2638	2638	2638	2641	2645	2648	2648	2648	2648	2652	0	0	0	0	0	0	0	0	0	5442	5457	5457	5457	5457	5457	5442	5442	5442	5427	5427	5427	5427	5427	5427	5427	5427	5427	5427	5427	5442	5442	5427	5442	5442	5427	5412	5398	5368	5339	5268	5226	5172	5118	5079	5040	4989	4951	4914	4878	4842	4818	4795	4726	4693	4648	4616	4562	4510	4470	4410	4285	4230	4177	4124	4082	4040	3999	3967	3951	3935	3904	3889	3889	3889	3889	3889	3897	3912	3928	3951	3967	0	3991	4007	4024	4032	4040	4040	4040	4032	4032	4024	4024	4024	4024	4032	4032	4040	4040	4040	4048	4057	4065	4073	4090	4107	4124	0	4142	4150	4159	4168	4168	4177	4177	4168	4168	4168	4177	4185	4194	4212	4212	4230	0	4239	4248	4258	4267	4267	4276	4267	4267	4267	4248	4239	4221	4212	4194	4177	4159	4142	4124	4107	4090	4073	4065	4048	4040	4032	4032	4024	4024	4015	4015	4015	4015	4015	4015	4024	4024	4032	4040	4048	4057	4065	4073	4082	4082	4090	4090	4090	4090	4090	4090	4090	4090	4090	4099	4107	4116	4124	0	4133	4150	4159	4168	4177	4185	4185	4185	4168	4150	4133	4099	4065	4024	3943	0	0	3293	3244	3186	3161	3156	3146	3141	3131	3126	3116	3111	3101	3092	3082	3077	3068	3063	3058	3053	3053	3053	3053	3058	3063	3063	3068	3072	3072	3082	3087	3092	3096	3096	3106	3111	3116	3121	3131	3136	3146	3146	3156	3161	3166	3171	3176	3176	3176	3181	3181	3176	3176	3176	3171	3166	3166	3161	3161	3156	3151	3151	3156	3161	3171	3176	3186	3192	3202	3207	3212	3218	3218	3218	3218	3218	3218	3212	3212	3207	3202	3202	3197	3192	3192	3192	3186	3181	3181	3171	3161	3151	3146	3136	3121	3111	3096	3092	3082	3077	3068	3063	3053	3053	3044
4594	4584	4573	4541	4510	4490	4449	4429	4380	4371	4351	4351	4342	4342	4351	4361	4371	4380	4390	4410	4420	4439	4449	4459	4459	4470	4470	4459	4449	4449	4439	4429	4420	4410	4400	4380	4361	4351	4332	4323	4304	4295	4285	4276	4276	4267	4258	4258	4239	4230	4221	4212	4212	4212	4203	4203	4194	4177	4177	4185	4177	4177	4177	4177	4168	4177	4177	4177	4168	4168	4168	4168	4159	4150	4150	4150	4150	4159	4185	4194	4203	4212	4239	4267	4276	4295	4295	4304	4304	4304	4313	4323	4332	4332	4332	4332	4332	4332	4342	4342	4342	4342	4351	4351	4361	4371	4390	4400	4400	4410	4420	4429	4439	4449	4449	4459	4470	4480	4500	4490	4490	4490	4490	4490	4480	4480	4459	4480	4480	4480	4490	4500	4490	4500	4500	4500	4490	4459	4449	4420	4400	4380	4351	4323	4304	4285	4267	4267	4258	4248	4239	4239	4239	4248	4258	4276	4295	4323	4361	4390	4420	4439	4470	4480	4521	4562	4627	4693	0	0	0	0	0	5296	5383	5412	5457	5472	5488	5503	5534	0	0	0	0	0	0	0	0	0	0	0	0	0	0	0	0	0	0	0	0	0	0	2389	2380	2374	2363	2357	2352	0	2343	2349	2355	2360	0	0	0	0	0	0	2424	2424	2424	2427	2427	2427	2424	2424	2424	2424	2424	2424	2421	2418	2415	2409	2403	2398	2392	2389	2386	2386	2389	2395	2398	2400	2409	2415	2421	2424	2430	2439	2448	2454	2463	2469	2476	2482	2482	2482	2476	2473	2463	2460	2451	2439	2430	2421	2412	2406	2400	2398	0	0	1968	1964	1962	1960	1958	1956	1956	1952	1952	1952	1950	1950	1950	0	0	0	0	0	0	2576	2579	2582	2586	2586	2593	2596	2603	2606	2610	2610	2610	2613	2617	2613	2613	2613	2613	2613	2617	2617	2617	2617	2613	2613	2610	2610	2610	2606	2606	2610	2610	2610	2610	2610	2613	2617	2620	2620	2624	2624	2624	2627	2631	2634	2634	2634	2634	2638	2638	2638	2638	2641	2641	2645	2645	2648	2648	2648	2652	0	0	0	0	0	0	0	0	0	5442	5442	5442	5442	5442	5442	5442	5442	5442	5427	5427	5427	5427	5427	5427	5427	5427	5442	5442	5457	5457	5457	5457	5472	5472	5472	5457	5442	5427	5412	5383	5282	5226	5185	5118	5066	5027	4989	4951	4914	4878	4842	4818	4760	4715	4681	4637	4584	4531	4480	4429	4361	4248	4185	4133	4090	4057	4015	3983	3967	3943	3928	3912	3904	3904	3904	3904	3912	3928	3943	3959	0	3975	3991	4007	4015	4032	4032	4040	4032	4032	4024	4015	4015	4015	4024	4024	4024	4032	4032	4032	4040	4048	4057	4073	4082	4099	4116	0	4133	4142	4150	4159	4159	4159	4159	4159	4159	4159	4159	4177	4185	4194	4203	4221	4230	0	4248	4258	4267	4276	4285	4276	4276	4276	4267	4248	4239	4221	4203	4185	4177	4150	4133	4116	4099	4082	4065	4057	4040	4032	4032	4024	4015	4015	4015	4007	4007	4015	4015	4015	4015	4024	4032	4032	4040	4048	4057	4065	4073	4073	4082	4082	4073	4073	4073	4073	4073	4082	4082	4090	4099	4107	4116	0	4133	4142	4150	4168	4168	4177	4168	4159	4150	4133	4107	4073	4040	0	3645	3365	3276	3239	3181	3166	3151	3141	3141	3131	3126	3121	3111	3101	3096	3087	3082	3077	3072	3068	3068	3068	3068	3068	3068	3072	3077	3077	3082	3082	3092	3092	3096	3096	3101	3106	3111	3116	3121	3131	3136	3146	3151	3161	3171	3171	3181	3181	3186	3186	3186	3181	3181	3176	3176	3166	3161	3161	3156	3151	3151	3146	3146	3146	3156	3161	3171	3181	3186	3197	3202	3207	3212	3212	3212	3218	3212	3218	3212	3212	3207	3202	3197	3192	3186	3181	3176	3171	3166	3161	3151	3146	3131	3121	3111	3096	3087	3077	3072	3063	3058	3053	3049	3039	3035	3035
4605	4594	4562	4531	4500	4480	4449	4390	4371	4361	4342	4332	4332	4332	4332	4342	4351	4361	4380	4390	4410	4420	4429	4439	4449	4449	4449	4449	4439	4429	4420	4410	4400	4390	4371	4361	4351	4332	4313	4304	4295	4285	4276	4267	4267	4258	4248	4239	4239	4230	4212	4212	4212	4203	4203	4185	4177	4177	4177	4177	4168	4168	4168	4177	4168	4168	4177	4177	4177	4185	4177	4177	4168	4159	4159	4159	4168	4177	4185	4212	4221	4230	4258	4276	4285	4295	4304	4304	4304	4304	4323	4323	4332	4332	4332	4342	4332	4332	4332	4342	4342	4342	4342	4351	4361	4361	4371	4380	4400	4410	4420	4439	4449	4470	4490	4500	4510	4521	4541	4531	4521	4510	4500	4480	4449	4449	4439	4439	4449	4449	4459	4459	4459	4459	4470	4470	4449	4449	4429	4410	4390	4371	4342	4313	4295	4276	4258	4248	4239	4230	4221	4221	4221	4230	0	4248	4267	4285	4323	4351	4380	4400	4410	4420	4449	4480	4510	4562	4637	0	0	0	0	0	5226	5282	5339	5383	5412	0	0	0	0	0	0	0	0	0	0	0	0	0	0	0	0	0	0	0	0	0	0	0	2395	2386	2377	2360	2357	2352	2349	2346	2341	2346	2352	2357	2366	2372	2383	2389	2398	2403	2403	2403	2403	2400	2398	2398	2398	2398	2395	2398	2398	2398	2395	2392	2389	2383	2377	2372	2366	2363	2360	2363	2363	2372	2377	2380	2389	2395	2403	2409	2415	2424	2430	2439	2445	2454	2460	2469	2469	2469	2460	2460	2454	2451	2442	2433	2424	2406	2398	2395	2392	2392	1970	1966	1964	1962	1958	1956	1954	1954	1952	1948	1950	1948	1946	1946	1948	0	0	0	0	0	0	2576	2579	2582	2586	2589	2596	2603	2610	2613	2613	2617	2620	2620	2624	2624	2624	2624	2624	2624	2624	2624	2624	2620	2620	2617	2613	2613	2610	2610	2610	2610	2610	2610	2613	2613	2617	2620	2620	2624	2624	2627	2627	2631	2634	2638	2638	2638	2638	2638	2638	2641	2638	2641	2641	2645	2645	2648	2648	2648	2652	0	0	0	0	0	0	0	0	0	5442	5442	5427	5442	5427	5442	5427	5427	5442	5412	5412	5412	5427	5427	5427	5442	5442	5442	5457	5457	5472	5488	5488	5503	5503	5518	5503	5503	5488	5472	5442	5398	5311	5254	5185	5131	5079	5040	4989	4951	4914	4878	4854	4818	4749	4704	4648	4605	4541	4490	4429	4371	4248	4194	4150	4099	4065	4032	3999	3975	3959	3943	3935	3920	3920	3920	3928	3928	3935	3951	0	3967	3983	3999	4007	4015	4024	4024	4032	4024	4024	4015	4015	4015	4007	4015	4015	4015	4024	4024	4024	4032	4040	4048	4057	4073	4090	4107	4124	4133	0	4142	4150	4150	4159	4150	4150	4150	4150	4159	4168	4177	4185	4203	4221	4230	0	4248	4267	4276	4285	4285	4285	4295	4285	4276	4267	4248	4239	4221	4203	4185	4159	4142	4124	4099	4090	4073	4057	4048	4040	4032	4024	4015	4015	4015	4007	4007	4007	4015	4015	4015	4024	4024	4032	4032	4040	4048	4048	4057	4057	4065	4065	4065	4065	4065	4065	4065	4065	4073	4082	4082	4099	4099	4116	4124	4133	0	4150	0	4159	4159	4150	4142	4124	4107	4082	4032	3959	3625	3337	3244	3218	3171	3161	3156	3146	3141	3131	3126	3121	3116	3111	3106	3096	3092	3087	3087	3082	3082	3077	3082	3082	3082	3096	3101	3096	3096	3096	3096	3096	3096	3096	3101	3101	3106	3116	3121	3131	3141	3146	3156	3166	3171	3176	3181	3192	3192	3192	3186	3186	3176	3176	3171	3166	3161	3156	3151	3146	3141	3136	3136	3141	3151	3151	3161	3171	3176	3186	3192	3202	3202	3202	3202	3207	3202	3202	3202	3202	3202	3192	3192	3181	3181	3166	3166	3156	3151	3141	3131	3121	3111	3096	3087	3077	3068	3058	3053	3044	3044	3035	3030	3025	3025	3021
0	0	4552	4521	4480	4449	4420	4371	4361	4351	4332	4323	4304	4304	4304	4323	4332	4332	4351	4361	4371	4400	4410	4420	4429	4429	4429	4429	4420	4410	4400	4390	4380	4371	4351	4342	4332	4323	4304	4285	4276	4267	4267	4267	4248	4248	4239	4230	4230	4212	4203	4203	4203	4194	4185	4185	4177	4177	4168	4168	4168	4168	4168	4168	4168	4177	4177	4177	4177	4177	4177	4177	4168	4159	4168	4168	4177	4185	4203	4221	4239	4248	4258	4285	4295	4295	4295	4304	4304	4304	4313	4323	4323	4332	4332	4332	4332	4332	4332	4332	4332	4332	4332	4332	4342	4351	4351	4361	4371	4380	4400	4420	4449	4470	4490	4510	4521	4531	4541	4531	4521	4500	4480	4449	4429	4420	4410	4410	4410	4410	4420	4420	4420	4429	4439	4439	4429	4420	4410	4390	4380	4351	4323	4304	4285	4258	4248	4230	4212	4212	4203	4203	4203	4212	4212	4230	0	4258	4276	4304	4332	4351	4361	4371	4380	4390	4400	4439	4500	4605	4738	4866	0	4989	5092	5158	5226	5268	0	0	0	0	0	0	0	0	0	0	0	0	0	2418	2418	2421	2418	2421	2421	2421	2418	2412	2403	2395	2389	2380	2363	2357	2352	2349	2346	2341	2338	2343	2349	2355	2360	2366	2372	2377	2380	2386	2386	2383	2380	2380	2377	2377	2372	2372	2372	2372	2372	2372	2366	2363	2363	2360	2355	2349	2346	2346	2346	2346	2349	2355	2360	2366	2372	2380	2386	2395	2400	2409	2418	2421	2430	2439	2445	2451	2454	2454	2451	2448	2439	2436	2430	2415	2409	2400	2395	2392	0	1974	1970	1966	1964	1960	1954	1954	1950	1948	1946	1946	1944	1946	1944	1944	1944	0	0	0	0	0	0	0	2579	2586	2586	2593	2599	2610	2617	2617	2624	2627	0	2631	2634	2634	2634	2634	2631	2631	2631	2627	2627	2624	2620	2620	2617	2613	2613	2613	2613	2613	2613	2613	2617	2617	2617	2624	2624	2627	2627	2627	2631	2634	2638	2638	2638	2638	2638	2638	2638	2638	2638	2638	2641	2645	2645	2648	2648	2648	2652	0	0	0	0	0	0	0	0	0	5427	5427	5427	5427	5427	5427	5427	5427	5427	5412	5412	5412	5427	5427	5427	5442	5442	5457	5457	5472	5488	5488	5503	5518	5534	5549	5549	5549	5549	5534	5503	5472	5427	5383	5268	5213	5158	5105	5053	5014	4964	4927	4890	4854	4830	4738	4681	4616	4552	4490	4429	4371	4258	4203	4159	4107	4073	4040	4015	3991	3975	3959	3943	3943	3935	3943	3943	3943	3943	3951	3959	3967	3983	3991	3999	4007	4015	4015	4024	4015	4007	4007	3999	4007	4007	3999	4007	4007	4015	4015	4024	4024	4032	4040	4048	4065	4082	4099	4116	0	4133	4142	0	4150	4150	4150	4150	4150	4150	4150	4168	4177	4185	4203	4212	0	4230	4258	4276	4285	4295	4295	4295	4304	4304	4285	4276	4258	4248	4230	4212	4203	4177	4150	4133	4116	4099	4082	4065	4057	4040	4032	4024	4024	4024	4024	4024	4024	4024	4024	4024	4015	4024	4024	4032	4032	4040	4040	4048	4048	4057	4057	4057	4057	4057	4057	4057	4057	4057	4065	4073	4073	4082	4090	4099	4116	4116	4124	4133	4142	4142	4142	4133	4124	4107	4090	4073	4032	3785	0	3315	3228	3207	3171	3166	3156	3146	3141	3136	3131	3126	3121	3121	3111	3111	3106	3101	3096	3096	3096	3111	3111	3111	3111	3111	3111	3111	3111	3106	3101	3101	3101	3101	3101	3106	3111	3116	3121	3131	3141	3151	3161	3171	3176	3181	3192	3197	3197	3192	3192	3186	3181	3176	3171	3161	3156	3151	3146	3141	3136	3131	3131	3131	3141	3141	3151	3156	3166	3171	3181	3192	3186	3186	3192	3192	3192	3186	3186	3186	3186	3181	3176	3161	3161	3156	3146	3141	3131	3121	3111	3101	3092	3082	3072	3063	3053	3049	3039	3035	3030	3030	3025	3021	3016	3012
0	0	0	0	0	4429	4380	4351	4351	4332	4323	4313	4295	4295	4304	4304	4323	4313	4332	4342	4351	4371	4390	4400	4400	4410	4410	4410	4400	4390	4380	4371	4361	4342	4332	4323	4313	4304	4295	4285	4276	4267	4258	4258	4239	4239	4230	4221	4212	4203	4194	4194	4185	4185	4177	4177	4168	4168	4159	4168	4168	4168	4168	4168	4168	4168	4177	4177	4177	4177	4177	4177	4177	4168	4177	4177	4177	4203	4212	4230	4248	4258	4267	4285	4295	4295	4295	4295	4304	4295	4304	4323	4323	4332	4332	4332	4332	4332	4323	4323	4323	4323	4323	4323	4323	4332	4332	4342	4342	4351	4361	4390	4410	4439	4459	4480	4490	4500	4500	4500	4490	4439	4429	4410	4400	4390	4380	4380	4380	4380	4380	4390	4400	4400	4410	4410	4400	4400	4390	4380	4361	4342	4313	4295	4267	4248	4230	4221	4203	4185	4177	4177	4185	4194	4203	4212	4230	4248	4267	0	4285	4304	4313	4323	4313	4323	0	4342	4380	4480	4605	4726	4842	4939	0	5014	5079	5131	0	0	0	0	0	0	0	0	0	0	0	0	2412	2415	2415	2415	2415	2415	2415	2415	2409	2406	2398	2389	2380	2372	2357	2349	2346	2343	2338	2338	2335	2341	2343	2349	2352	2355	2360	2366	2369	2372	2372	2369	2369	2366	2363	2360	2357	2360	2357	2357	2355	2352	2352	2349	2343	2341	2338	2335	2332	2332	2332	2335	2338	2343	2349	2352	2360	2369	2372	2380	2389	2395	2403	2406	2412	2424	2430	2424	2427	2427	2427	2427	2430	2430	2418	2400	2392	2386	2377	0	0	1976	1970	1966	1964	1958	1956	1952	1948	1944	1944	1941	1943	1941	1943	1941	1943	1943	0	0	0	0	0	0	0	2586	2593	2599	2610	0	2620	2624	2627	2634	2638	2641	2645	2645	2645	2641	2638	2638	2634	2634	2631	2627	2624	2620	2617	2617	2613	2613	2613	2613	2617	2617	2617	2617	2620	2624	2627	2627	2631	2631	2631	2634	2638	2638	2638	2638	2638	2638	2638	2638	2638	2638	2641	2641	2645	2645	2648	2648	2652	0	0	0	0	0	0	0	0	0	5412	5412	5412	5412	5412	5427	5427	5427	5427	5412	5412	5412	5427	5427	5427	5442	5442	5457	5472	5472	5488	5503	5518	5534	5549	5565	5581	5581	5581	5581	5565	5534	5503	5457	5412	5296	5240	5185	5131	5079	5040	4989	4951	4914	4866	4818	4704	4637	4562	4500	4429	4371	4258	4212	4159	4124	4090	4057	4032	4007	3991	3975	3967	3959	3959	3959	3959	3959	3959	3967	3967	3975	3991	3999	3999	3999	4007	4007	4007	3999	3999	3991	3991	3991	3991	3991	3999	3999	4007	4007	4015	4015	4024	4032	4048	4065	4073	4099	4116	4124	4133	0	4142	4150	0	4150	4150	4150	4150	4159	4168	4177	4194	4203	0	4221	4239	4258	4276	4295	4304	4304	4313	4313	4313	4304	4285	4267	4258	4248	4230	4203	4185	4168	4142	4124	4107	4090	4073	4065	4057	4048	4040	4040	4032	4032	4032	4040	4032	4032	4032	4032	4032	4032	4032	4032	4040	4040	4040	4048	4048	4048	4057	4057	4057	4057	4057	4057	4057	4057	4065	4073	4073	4082	4090	4099	4107	4107	4116	4124	4124	4124	4124	4116	4099	4082	4065	4032	3967	0	0	0	3176	3166	3161	3156	3146	3146	3141	3136	3136	3131	3126	3121	3121	3116	3131	3131	3131	3131	3131	3126	3126	3126	3126	3126	3121	3116	3111	3111	3106	3106	3101	3101	3101	3106	3111	3121	3131	3141	3156	3161	3171	3176	3186	3192	3197	3197	3197	3192	3186	3181	3176	3171	3161	3156	3151	3146	3141	3131	3126	3126	3126	3131	3131	3141	3146	3156	3161	3166	3171	3171	3171	3171	3171	3171	3171	3171	3171	3166	3166	3156	3146	3141	3141	3131	3126	3116	3111	3101	3092	3082	3072	3068	3058	3053	3044	3039	3035	3030	3025	3021	3016	3016	3012
0	0	0	0	0	4400	4351	4342	4323	4313	4304	4295	4285	4285	4285	4285	4295	4295	4304	4313	4332	4351	4361	4371	4380	4380	4380	4380	4371	4371	4361	4351	4342	4332	4313	4304	4295	4295	4285	4276	4267	4258	4248	4230	4230	4221	4221	4212	4203	4194	4194	4185	4185	4177	4168	4168	4168	4159	4159	4168	4168	4177	4177	4168	4168	4177	4185	4185	4185	4185	4185	4185	4185	4185	4185	4194	4212	4221	4239	4258	4258	4276	4285	4285	4295	4285	4285	4285	4285	4295	4295	4304	4313	4313	4323	4323	4313	4313	4323	4313	4313	4304	4304	4304	4304	4313	4304	4313	0	4332	4342	4351	4380	4400	4420	4439	4449	4459	4459	4459	4449	4420	4400	4380	4371	4371	4361	4361	4361	4361	4361	4361	4371	4380	4380	4390	4390	4380	4371	4361	4342	4323	4295	4276	4248	4230	4221	4203	4185	4177	4168	4168	4177	4177	4185	4194	4212	4230	4239	4248	4267	4276	4276	4276	4267	4267	4285	4323	0	4410	4521	4637	4749	4830	4890	4964	0	0	0	0	0	0	0	0	0	0	0	0	0	2409	2409	2409	2409	2409	2409	2406	2406	2406	2403	2398	2389	2380	2372	2366	2352	2343	2341	2335	2332	2330	2330	2330	2335	2341	2343	2349	2355	2357	2363	2366	2363	2360	2360	2357	2357	2355	2352	2352	2352	2349	2346	2343	2341	2338	2332	2330	2327	2324	2321	2321	2321	2327	2330	2332	2338	2343	2349	2355	2363	2369	2377	2383	2377	2377	2383	2392	2400	2409	2409	2415	2415	2415	2418	2421	2406	2386	2363	0	0	0	0	1974	1970	1966	1962	1958	1954	1948	1944	1943	1941	1941	1939	1941	1941	1941	1939	1941	0	0	0	0	0	0	0	0	0	2606	0	2620	2627	2638	2641	2645	2648	2655	2655	2655	2652	2652	2645	2645	2641	2638	2634	2631	2627	2620	2620	2617	2617	2617	2617	2617	2617	2620	2620	2620	2624	2627	2631	2631	2631	2631	2634	2634	2638	2638	2638	2638	2638	2638	2638	2638	2638	2638	2638	2641	2641	2641	2645	2645	2648	0	0	0	0	0	0	0	0	0	5398	5398	5412	5412	5412	5412	5427	5427	5427	5412	5412	5412	5427	5427	5442	5442	5457	5457	5472	5488	5488	5503	5518	5534	5549	5565	5581	5596	5596	5596	5596	5565	5549	5518	5472	5427	5325	5268	5226	5172	5131	5079	5027	4976	4927	4866	4726	4648	4573	4500	4420	4371	4267	4212	4168	4133	4099	4065	4040	4024	3999	3983	3983	3975	3967	3967	3967	3967	3967	3975	3975	3983	3991	3991	3991	3999	3999	3999	3991	3983	3983	3975	3975	3983	3983	3983	3983	3999	3999	3999	4007	4015	4024	4032	4040	4057	4082	4090	4107	4124	0	4142	4150	4150	4159	4159	4159	4159	4168	4168	4177	4185	4203	0	4212	4230	4248	4267	4285	4304	4304	4313	4323	4332	4332	4323	4304	4276	4276	4258	4239	4221	4194	4177	4150	4142	4116	4099	4090	4082	4065	4057	4057	4057	4057	4057	4057	4057	4057	4057	4057	4048	4057	4048	4048	4048	4048	4048	4048	4048	4057	4057	4057	4057	4057	4057	4057	4057	4057	4057	4057	4065	4073	4073	4073	4090	4090	4099	4099	4107	4107	4116	4107	4099	4090	4073	4057	4032	3951	0	0	3207	3186	3166	3166	3156	3151	3146	3141	3141	3136	3141	3141	3141	3141	3141	3141	3146	3146	3146	3146	3146	3146	3141	3141	3136	3131	3126	3121	3116	3111	3111	3106	3106	3106	3106	3111	3121	3126	3141	3151	3166	3171	3181	3186	3192	3197	3197	3192	3192	3186	3181	3176	3171	3166	3161	3151	3146	3141	3136	3126	3121	3121	3126	3131	3136	3141	3141	3151	3156	3161	3161	3156	3156	3161	3156	3156	3151	3151	3151	3146	3141	3136	3131	3126	3121	3116	3111	3101	3092	3087	3077	3072	3063	3053	3049	3044	3035	3035	3030	3025	3021	3016	3012	3012
0	0	0	0	0	4351	4332	4323	4304	4295	4285	4276	4267	4267	4267	4267	4276	4285	4285	4295	4304	4323	4332	4342	4351	4351	4361	4351	4351	4342	4332	4323	4323	4313	4304	4295	4285	4276	4276	4267	4258	4248	4239	4221	4221	4203	4203	4194	4185	4177	4177	4168	4168	4168	4168	4168	4168	4159	4159	4168	4168	4168	4168	4177	4177	4185	4185	4194	4194	4185	4194	4194	4203	4203	4212	4230	4239	4248	4258	4276	4285	4285	4285	4285	4276	4276	4276	4276	4267	4276	4276	4285	4295	4295	4304	4304	4304	4295	4295	4295	4295	4285	4285	4276	4276	4276	4285	4285	4295	4304	4323	4342	0	4361	4371	4390	4400	4410	4420	4410	4390	4380	4361	4351	4351	4342	4342	4342	4342	4342	4342	4351	4351	4351	4361	4361	4361	4361	4351	4342	4323	4304	4285	4258	4239	4221	4212	4194	4185	4177	4168	4168	4168	4168	4168	4177	4194	4203	4212	4221	4230	4230	4230	4230	4230	4221	4248	4276	0	4361	4459	4562	4659	4738	4807	4878	4927	0	0	0	0	0	0	0	0	0	0	0	0	2406	2403	2403	2403	2400	0	2400	2398	2398	2395	2389	2383	2372	2355	2346	2338	2332	2330	2324	2324	2321	2321	2324	2327	2332	2338	2341	2346	2352	2355	2357	2357	2355	2352	2352	2352	2349	2346	2346	2343	2341	2338	2332	2327	2324	2321	2319	2316	2313	2311	2311	2313	2316	2319	2324	2330	2335	2341	2338	2343	2352	2357	2363	2366	2369	2372	2380	2389	2398	2400	2403	2406	2406	2412	2412	2398	0	2346	0	0	0	1981	1972	1968	1966	1960	1958	1952	1948	1943	1941	1939	1937	1937	1937	1935	1937	1939	1939	0	0	0	0	0	0	0	0	0	0	0	2631	2641	2652	2655	2655	2662	2662	2662	2662	2659	2655	2652	2645	2645	2641	2634	2631	2624	2620	2620	2617	2617	2617	2617	2617	2620	2624	2624	2624	2627	2631	2631	2634	2634	2634	2634	2638	2638	2638	2634	2634	2634	2634	2634	2634	2634	2634	2638	2638	2638	2638	2641	2641	2645	0	0	0	0	0	0	0	0	0	5398	5398	5398	5398	5398	5412	5412	5427	5427	5412	5412	5427	5427	5442	5442	5442	5457	5457	5472	5472	5488	5503	5518	5534	5534	5549	5565	5596	5596	5612	5596	5596	5581	5565	5549	5503	5457	5412	5311	5268	5226	5172	5105	5053	5001	4927	4760	4681	4584	4510	4429	4361	4267	4221	4177	4142	4116	4082	4057	4032	4015	3999	3991	3991	3983	3983	3983	3983	3975	3975	3983	3983	3983	3991	3991	3991	3991	3983	3975	3967	3967	3959	3959	3967	3975	3975	3983	3983	3999	3999	4007	4007	4024	4032	4048	4057	4073	4099	4116	0	4133	4142	4150	4159	4168	4177	4168	4177	4177	0	4185	0	4203	4212	4221	4239	4267	4276	4295	4313	4313	4323	4323	4332	4332	4332	4323	4295	4276	4267	4248	4221	4194	4177	4159	4142	4133	4116	4107	4090	4090	4082	4073	4073	4082	4073	4082	4082	4082	4082	4082	4082	4082	4073	4082	4073	4073	4073	4073	4073	4073	4073	4073	4065	4065	4057	4057	4057	4057	4057	4065	4065	4073	4073	4073	4073	4082	4082	4090	4099	4099	4099	4090	4090	4073	4065	4057	4048	3991	0	0	3197	3171	3166	3166	3156	3151	3151	3146	3146	3146	3151	3146	3151	3151	3151	3156	3161	3161	3161	3161	3161	3161	3161	3156	3146	3141	3136	3131	3121	3116	3116	3111	3111	3111	3111	3116	3121	3131	3146	3156	3171	3176	3181	3192	3197	3202	3202	3202	3192	3192	3186	3181	3176	3166	3161	3156	3151	3141	3136	3126	3126	3121	3126	3121	3126	3131	3136	3141	3146	3146	3151	3151	3146	3151	3146	3141	3141	3136	3136	3131	3126	3126	3121	3116	3111	3111	3106	3101	3096	3087	3082	3077	3068	3063	3053	3049	3044	3035	3030	3025	3021	3021	3016	3012
0	0	0	0	0	4313	4304	4295	4285	4276	4267	4258	4258	4258	4248	4248	4258	4267	4276	4285	4295	4304	4313	4313	4323	4332	4332	4332	4323	4323	4313	4304	4304	4295	4285	4276	4276	4258	4248	4248	4239	4230	4221	4203	4203	4194	4185	4177	4177	4168	4159	4159	4150	4142	4150	4150	4150	4150	4150	4159	4159	4168	4168	4177	4185	4185	4194	4203	4212	4212	4221	4230	4230	4239	4258	4267	4276	4285	4295	4304	4304	4295	4285	4285	4276	4267	4258	4267	4258	4258	4258	4267	4276	4285	4285	4285	4285	4285	4276	4276	4267	4258	4248	4248	4258	4258	4258	4258	4267	4276	4285	4304	4323	4332	4351	4361	4371	4380	4380	4361	4342	4342	4332	4323	4313	4323	4313	4323	4323	4323	4323	4332	4332	4332	4332	4332	4332	4323	4323	4304	4295	4285	4258	4248	4230	4212	4203	4194	4177	4168	4168	4168	4159	4150	4159	4159	4168	4168	4177	4177	4177	4177	4185	4185	4177	4185	4212	4248	4323	0	4410	4500	4594	4659	4726	4795	4854	4902	4927	0	0	0	0	0	0	0	0	0	2406	2400	2395	2395	2395	2395	2389	2389	2386	2383	2383	2377	2369	2352	2343	2335	2327	2324	2321	2316	2316	2313	2316	2319	2321	2327	2332	2332	2338	2341	2346	2349	2349	2346	2346	2346	2343	2341	2341	2338	2335	2332	2327	2321	2319	2313	2311	2308	2305	2305	2303	2305	0	2311	2313	2313	2319	2321	2327	2332	2338	2343	2349	2355	2357	2357	2360	2372	2380	2389	2392	2395	2400	2400	2406	2406	0	0	0	0	0	0	1980	1972	1966	1964	1962	1956	1950	1946	1943	1939	1937	1937	1935	1937	1935	1935	1937	1935	1935	0	0	0	0	0	0	0	0	0	0	0	2655	2659	2662	2666	2666	2670	2666	2662	2662	2655	2655	2645	2645	2638	2634	2627	2624	2620	2617	2617	2617	2617	2617	2620	2624	2624	2627	2627	2631	2631	2634	2634	2638	2634	2634	2638	2638	2634	2634	2634	2631	2627	2627	2627	2627	2631	2631	2634	2634	2634	2634	2638	2641	2645	0	0	0	0	0	0	0	0	5383	5383	5398	5398	5398	5412	5412	5412	5427	5412	5412	5427	5427	5442	5442	5442	5457	5457	5472	5472	5488	5488	5503	5518	5518	5549	5565	5581	5596	5612	5612	5612	5612	5596	5596	5565	5534	5503	5442	5354	5311	5254	5199	5145	5079	5014	4927	4726	4616	4521	4439	4371	4267	4221	4185	4150	4124	4090	4065	4048	4024	4015	3999	3991	3991	3991	3983	3983	3983	3983	3983	3983	3983	3991	3983	3983	3975	3967	3959	3951	3951	3943	3951	3951	3959	3959	3975	3983	3991	3999	4007	4015	4024	4040	4048	4065	4082	4107	0	4124	4142	4150	4168	4177	4185	4185	4194	4194	4194	4194	4194	4203	4221	4221	4239	4258	4276	4295	4304	4323	4332	4332	4342	4351	4351	4342	4323	4304	4285	4267	4248	4230	4203	4185	4168	4150	4142	4124	4116	4116	4107	4099	4107	4099	4107	4107	4107	4116	4116	4116	4116	4116	4116	4116	4107	4107	4099	4099	4099	4099	4099	4099	4090	4090	4082	4082	4073	4065	4065	4065	4065	4065	4073	4073	4073	4073	4073	4082	4082	4082	4090	4090	4082	4073	4057	4057	4048	4024	4007	0	0	3207	3176	3171	3171	3161	3156	3151	3151	3151	3151	3151	3151	3156	3156	3161	3166	3171	3171	3176	3176	3176	3171	3171	3166	3161	3151	3146	3136	3131	3126	3121	3116	3116	3121	3116	3121	3131	3136	3151	3161	3171	3181	3186	3197	3202	3202	3207	3202	3202	3197	3192	3186	3181	3176	3166	3161	3151	3146	3136	3131	3126	3121	3121	3121	3121	3126	3131	3131	3136	3141	3141	3141	3141	3141	3136	3136	3131	3131	3131	3126	3121	3121	3121	3116	3116	3111	3111	3106	3101	3096	3092	3082	3077	3072	3063	3053	3049	3039	3035	3030	3025	3021	3016	3016
0	0	0	0	0	0	4248	4248	4239	4230	4230	4221	4212	4212	4230	4230	4230	4248	4258	4267	4276	4276	4285	4295	4295	4304	4304	4304	4304	4304	4295	4295	4285	4276	4276	4258	4239	4239	4230	4212	4203	4203	4203	4194	4185	4185	4177	4159	4150	4150	4142	4133	4124	4133	4124	4133	4133	4133	4133	4142	4142	4150	4150	4159	4168	4185	4194	4203	4221	4230	4239	4248	4258	4267	4276	4285	4295	4295	4304	4304	4295	4295	4285	4276	4258	4248	4248	4248	4239	4239	4239	4248	4258	4258	4267	4267	4267	4258	4258	4239	4230	4230	4230	4230	4239	4239	4230	4239	4248	4248	4267	4276	4295	4304	4313	4332	4332	4342	4332	4323	4313	4304	4295	4295	4295	4304	4304	4304	4313	4313	4323	4323	4323	4323	4313	4304	4304	4295	4295	4276	4267	4258	4239	4230	4221	4203	4203	4194	4194	4168	4168	4159	4159	4150	4142	4133	4133	4133	4133	4133	4133	4142	4142	4133	4142	4142	4168	4203	4276	0	4361	4449	4531	4605	4681	4749	4818	4878	4890	4866	4830	0	0	0	0	0	0	2409	2403	2398	2392	2392	2389	2386	2383	2377	2374	2372	2369	2366	2352	2343	2335	2327	2321	2319	2316	2313	2313	2311	2311	2313	2316	2321	2324	2327	2330	2332	2338	2341	2343	2341	2341	2341	2338	2335	2332	2330	2327	2321	2319	2313	2308	2305	2303	2300	2297	2294	2294	2297	2300	2305	2311	2313	0	2319	2321	2330	2332	2338	2343	2343	2346	2349	2349	2360	2369	2374	2383	2386	2392	2395	0	0	0	0	2332	2316	2294	0	1978	1970	1966	1962	1960	1956	1950	1946	1943	1941	1937	1935	1935	1935	1935	1931	1933	1933	1933	1933	0	0	0	0	0	0	0	0	0	0	0	2670	2673	2673	2673	2673	2670	2666	2662	2659	2652	2645	2638	2634	2631	2624	2620	2617	2613	2613	2613	2617	2620	2620	2624	2627	2627	2631	2631	2634	2634	2638	2638	2638	2634	2634	2634	2634	2627	2627	2624	2620	2624	2620	2624	2624	2627	2627	2631	2627	2631	2634	2634	2638	0	0	0	0	0	0	0	0	0	5383	5383	5398	5398	5398	5412	5412	5427	5412	5412	5427	5427	5442	5442	5442	5442	5457	5457	5457	5472	5472	5488	5503	5503	5518	5534	5549	5581	5596	5612	5612	5628	5612	5612	5612	5581	5565	5518	5472	5442	5354	5282	5226	5172	5092	5001	4890	4659	4552	4459	4380	4276	4230	4194	4159	4124	4099	4073	4057	4032	4024	4007	3999	3999	3991	3991	3983	3983	3983	3983	3983	3983	3983	3975	3967	3967	3951	3943	3935	3935	3928	3935	3943	3943	3951	3967	3975	3991	3999	4015	4024	4032	4048	4065	4082	4099	0	4116	4133	4150	4168	4177	4194	4203	4212	4212	4212	4212	4221	4221	4221	4230	4239	4258	4267	4285	4304	4323	4332	4332	4342	4351	4351	4351	4342	4323	4313	4285	4267	4248	4221	4203	4185	4168	4159	4150	4133	4133	4124	4124	4116	4116	4124	4124	4133	4133	4142	4142	4150	4150	4150	4142	4142	4142	4133	4133	4133	4124	4124	4124	4124	4116	4107	4107	4099	4090	4090	4082	4073	4073	4073	4073	4073	4073	4073	4073	4073	4073	4073	4073	4073	4073	4048	4032	4024	4015	3999	3983	0	0	3223	3186	3181	3176	3166	3156	3151	3151	3151	3151	3156	3156	3161	3161	3166	3171	3176	3181	3186	3186	3186	3181	3181	3171	3166	3161	3151	3146	3136	3131	3131	3126	3126	3126	3126	3131	3131	3141	3156	3161	3176	3181	3192	3197	3202	3207	3207	3207	3207	3202	3197	3192	3186	3181	3176	3166	3161	3156	3146	3136	3131	3126	3121	3121	3121	3121	3126	3126	3131	3131	3131	3131	3126	3131	3131	3131	3126	3126	3126	3126	3121	3121	3116	3116	3116	3116	3116	3116	3106	3106	3101	3096	3087	3077	3072	3063	3053	3044	3039	3030	3025	3021	3016	3016
0	0	0	0	0	0	4203	4194	4194	4185	4177	4177	4168	4168	4177	4177	4194	4203	4203	4221	4230	4248	4267	4267	4276	4276	4276	4276	4276	4276	4276	4276	4267	4267	4248	4239	4221	4212	4203	4194	4185	4177	4177	4168	4168	4159	4150	4142	4133	4124	4116	4116	4107	4107	4107	4107	4116	4116	4116	4116	4116	4124	4133	4133	4150	4168	4185	4203	4212	4221	4230	4248	4258	4267	4276	4285	4285	4295	4285	4285	4276	4276	4267	4258	4248	4230	4230	4221	4221	4212	4221	4221	4230	4230	4239	4239	4239	4230	4230	4221	4221	4221	4221	4221	4221	4221	4221	4230	4230	4239	4248	4258	4267	4285	4285	4304	4304	4304	4295	4285	4276	4276	4276	4276	4276	4285	4285	4295	4295	4304	4304	4304	4304	4295	4285	4276	4276	4267	4258	4248	4239	4230	4212	4203	4194	4194	4185	4185	4177	4168	4159	4150	4142	4133	4124	4116	4116	4107	4107	4107	4099	4099	4099	4099	4099	4107	4124	4159	4239	4313	0	4400	4490	4573	4659	4738	4807	4878	4890	4878	4866	0	0	0	0	0	0	0	2395	2389	2383	2380	2377	2374	2369	2366	2360	2357	2355	2346	2341	2332	2327	2321	2316	2313	2313	2311	2308	2308	2308	2311	2311	2316	2319	2321	2324	2327	2330	2335	2335	2335	2332	2332	2330	2327	2324	2321	2319	2311	2308	2305	2300	2289	2289	2289	2289	2289	2292	2294	2297	2303	2305	2311	2313	0	2319	2324	2327	2330	2335	2338	2338	2338	2341	2349	2360	2369	2372	2377	2383	2392	0	0	0	2346	2330	2313	2164	0	0	1970	1966	1962	1960	1956	1952	1946	1943	1941	1939	1935	1935	1933	1931	1933	1933	1929	0	1931	1933	0	0	0	0	0	0	0	0	0	0	2677	2677	2677	2673	2673	2666	2666	2659	2655	2648	2638	2634	2627	2620	2617	2613	2613	2610	2613	2613	2613	2620	2624	2624	2631	2631	2634	2634	2638	2638	2641	2641	2638	2638	2634	2631	2627	2624	2620	2620	2617	2613	2613	2613	2617	2620	2624	2624	2624	2627	2627	2627	2631	0	0	0	0	0	0	0	0	0	5383	5383	5383	5398	5398	5412	5412	5427	5412	5412	5427	5427	5442	5442	5442	5442	5457	5457	5457	5457	5472	5472	5488	5488	5503	5518	5534	5549	5581	5596	5612	5612	5628	5628	5628	5612	5596	5565	5549	5518	5472	5368	5311	5254	5172	5079	4976	4726	4605	4500	4400	4342	4239	4203	4168	4133	4107	4082	4065	4040	4024	4015	4007	3999	3999	3991	3991	3983	3983	3983	3983	3983	3983	3975	3967	3959	3943	3935	3928	3928	3920	3928	3935	3943	3951	3959	3975	3991	4007	4015	4032	4048	4065	4082	0	4099	4116	4142	4159	4177	4194	4203	4221	4230	4230	4239	4239	4239	4239	4239	4248	4248	4258	4267	4276	4295	4304	4323	4332	4332	4342	4342	4351	4342	4332	4313	4285	4276	4258	4239	4212	4194	4177	4168	4150	4150	4142	4133	4133	4133	4133	4142	4142	4150	4159	4159	4168	4168	4177	4177	4177	4177	4168	4168	4168	4159	4159	4150	4150	4150	4142	4142	4133	4124	4116	4116	4107	4099	4090	4090	4082	4082	4073	4073	4073	4073	4073	4065	4065	4057	4048	4040	4032	4015	3999	3991	3975	3967	0	0	3239	3192	3186	3181	3166	3161	3156	3151	3151	3156	3156	3156	3156	3161	3171	3176	3181	3186	3192	3192	3192	3192	3186	3176	3171	3166	3156	3151	3146	3136	3136	3136	3131	3131	3131	3131	3141	3146	3156	3166	3176	3186	3192	3197	3207	3212	3212	3212	3212	3212	3207	3202	3197	3197	3186	3176	3171	3161	3156	3146	3141	3136	3136	3131	3126	3126	3126	3126	3126	3126	3121	3121	3121	3121	3121	3121	3121	3126	3126	3126	3126	3126	3126	3126	3121	3126	3126	3126	3121	3116	3116	3111	3101	3092	3082	3072	3058	3053	3044	3035	3030	3021	3016	3012
0	0	0	0	0	0	0	4142	4142	4142	4133	4133	4124	4124	4124	4133	4142	4150	4159	4177	4194	4203	4221	4221	4239	4239	4239	4248	4248	4248	4248	4248	4248	4248	4230	4212	4203	4185	4168	4168	4159	4159	4159	4150	4142	4142	4133	4124	4116	4107	4099	4099	4090	4090	4090	4082	4082	4082	4082	4082	4082	4082	4090	4099	4116	4133	4150	4177	4185	4203	4221	4239	4239	4248	4258	4258	4258	4267	4267	4267	4258	4248	4239	4239	4221	4212	4203	4203	4194	4194	4194	4203	4203	4212	4212	4212	4212	4203	4203	4203	4203	4203	4203	4203	4203	4212	4212	4221	4230	4230	4239	4248	4258	4267	4267	4276	4276	4276	4267	4267	4258	4248	4258	4248	4258	4258	4267	4276	4285	4295	4295	4295	4285	4276	4258	4258	4239	4230	4221	4212	4203	4194	4185	4185	4177	4177	4177	4168	4168	4168	4159	4150	4133	4124	4116	4107	4099	4099	4090	4082	4082	4073	4073	4073	4073	4082	4099	4133	4203	4276	0	4361	4449	4541	4637	4726	4807	4878	4890	4878	4878	0	0	0	0	0	0	0	0	2374	2369	2366	2360	2357	2352	2346	2338	2338	2335	2332	2327	2321	2319	2316	2311	2311	2308	2305	2305	2305	2305	2308	2308	2311	2313	2316	2316	2321	2324	2327	2327	2327	2327	2324	2321	2319	2316	2305	2300	2297	2294	2289	2287	2284	2284	2284	2287	2287	2289	2292	2294	2297	2303	2305	2311	2313	2316	2321	0	2327	2330	2330	2332	0	2335	2343	2352	2360	2366	2369	2380	2386	0	0	2392	2349	2324	2311	0	0	0	1972	1968	1964	1960	1956	1952	1948	1944	1941	1939	1935	1933	1933	1931	1931	1929	1929	1929	1929	0	0	0	0	0	0	0	0	0	0	0	2681	2677	2673	2673	2670	2666	2659	2652	2648	2634	2631	2624	2617	2613	2610	2610	2606	2610	2610	2613	2617	2620	2624	2631	2634	2634	2638	2641	2641	2645	2641	2641	2641	2638	2634	2631	2627	2620	2617	2613	2606	2606	2606	2606	2610	2613	2617	2617	2613	2617	2617	2617	2620	0	0	0	0	0	0	0	0	0	0	0	5383	5398	5398	5412	5412	5412	5427	5412	5427	5427	5427	5427	5427	5427	5427	5442	5442	5442	5457	5457	5472	5472	5488	5503	5518	5549	5565	5581	5596	5612	5628	5628	5628	5628	5612	5596	5581	5565	5518	5503	5383	5339	5268	5172	5066	4927	4648	4531	4420	4351	4258	4212	4168	4142	4116	4090	4065	4048	4032	4015	4007	3999	3999	3999	3991	3991	3983	3983	3983	3983	3975	3975	3959	3951	3943	3935	3920	3920	3920	3928	3935	3943	3951	3959	3975	3999	4015	4032	4048	4065	0	4090	4107	4133	4150	4168	4194	4212	4221	4239	4248	4258	4258	4267	4258	4267	4258	4267	4267	4267	4267	4276	4285	4295	4304	4323	4323	4323	4323	4332	4332	4332	4323	4304	4276	4267	4239	4230	4203	4185	4168	4159	4150	4142	4133	4133	4133	4142	4142	4150	4159	4168	4177	4177	4194	4194	4203	4203	4203	4203	4203	4194	4194	4185	4185	4177	4177	4168	4159	4159	4150	4150	4142	4133	4124	4116	4107	4107	4099	4090	4090	4082	4073	4065	4057	4057	4048	4040	4040	4024	4007	3991	3975	3959	3951	3935	3777	0	3255	3192	3186	3181	3166	3161	3156	3151	3151	3151	3151	3156	3156	3161	3166	3171	3176	3181	3192	3192	3192	3186	3186	3181	3176	3171	3161	3151	3146	3141	3141	3136	3136	3136	3136	3141	3141	3151	3161	3171	3176	3186	3197	3202	3207	3212	3218	3218	3218	3218	3218	3212	3212	3202	3197	3192	3181	3171	3166	3156	3151	3146	3146	3141	3141	3136	3136	3136	3136	3131	3131	3126	3126	3126	3126	3126	3126	3126	3131	3136	3136	3136	3136	3141	3136	3141	3141	3141	3141	3136	3136	3126	3121	3111	3096	3082	3072	3058	3049	3039	3030	3021	3016	3007
