0	0	0	0	0	0	0	0	0	0	0	0	0	0	0	0	0	0	0	0	0	0	2324	2330	2332	2332	2338	2338	2341	2346	2346	2352	2352	2355	2357	2360	2360	2366	2366	2369	2369	2372	2372	2377	2377	2380	2383	2386	2386	2389	2389	2389	2389	2389	2386	2389	2389	2386	2392	2392	2398	2398	2400	2409	2412	2421	2430	2436	2445	2454	2460	2469	2476	2482	2488	2491	2494	2498	2501	2507	2507	2510	2513	2513	2520	2520	2520	2517	2517	2513	2513	2513	2510	2510	2510	2513	2520	2526	2533	2536	2539	2543	2546	2543	2543	2539	2539	2536	2536	2533	2533	2536	2533	2536	2536	2533	2536	2536	2536	2539	2539	2539	2543	2546	2543	2546	0	0	0	0	0	0	0	0	0	0	0	0	0	0	0	0	0	0	0	0	0	1023	1023	1024	1025	1026	0	1027	1026	1026	1026	1025	1025	1024	1024	1023	1022	1021	1022	1022	1022	1022	1022	1023	1023	1023	1024	1024	1024	1024	1024	1024	1023	1023	1023	1023	1023	1023	1024	1024	1025	1025	1026	1026	1026	1027	1027	1028	1028	1029	1029	1031	1032	1033	1034	1035	1036	1038	1040	1041	0	1044	1045	1047	1049	1051	1053	1054	1055	1056	1058	1059	1059	1060	1061	1062	1062	1063	1063	1064	1064	1064	1064	1066	1066	1065	1065	1064	1064	1063	1060	1060	1058	1057	1056	1056	1055	1054	1054	1053	1053	1053	1053	1053	1054	1053	1054	1054	1054	1054	1054	1053	1053	1053	1053	1051	1050	1050	1050	1051	1051	1051	1052	1053	1054	1055	1056	0	1058	1059	1060	1062	1063	1064	1064	1065	1066	1067	1067	1067	1068	1068	1069	1070	1071	1072	1073	1070	1074	1071	1071	1072	1073	1074	1074	1075	1075	1076	1077	1078	0	1080	1080	1082	1084	1085	1086	1088	1091	1093	1096	1101	0	1117	0	1135	1139	1143	1149	1153	1154	1154	1157	0	0	0	0	0	0	0	0	0	0	0	0	0	0	0	0	0	0	0	0	0	0	0	0	0	0	0	3645	3658	3665	3665	3672	3672	3679	3686	3693	3700	3693	3693	3693	3686	3693	3693	3686	3693	3693	3700	3720	3734	3763	3777	3792	3799	3814	3821	3829	3829	3829	3829	3836	3843	3836	3829	3829	3829	3829	3836	3836	3843	3851	3858	3874	3889	3904	3928	3935	3943	3959	3967	3983	3991	4007	4024	4032	4048	4073	4090	4099	4099	4099	4099	4099	4099	4090	4082	4082	4082	4082	4082	4082	4090	4090	4099	4099	4107	4116	4124	4142	4150	4168	4177	4194	4212	4221	4230	4239	4248	4267	4276	4285	4304	4304	4313	4332	4342	4342	4351	4342	4342	4332	4332	4323	4313	4304	4295	4295	4285	4285	4276	4276	4276	4276	4285	4295	4304	4323	4332	4351	4371	4400	4410	4429	4439	4459	4470	4480	4480	4490	4500	4510	4521	4531	4552	4562	4573	4584	4594	4605	4605	4616	4616	4616	4627	4616	4627	4637	4637	4648	4670	4681	4693	4715	4738	4760	4807	4830	4842	4866	4878	4890	4902	4914	4927	4951	4964	5001	5014	5014	5027	5040	5040	5040	5040	5040	5053	5040	5053	5053	5066	5079	5079	5092	5105	5145	5158	5199	5226	5282	5311	5339	5383	5412	5442	5472	5488	5503	5518	5534	5565	5581	5596	5644	5677	5743	5810	5880	5933	5987	6060	0	6135	6193	6212	6232	6174	6154	6116	6079	6023	5987	5933	5915	5915	5915	5897	5880	5880	5880	5880	5880	5880	5897	5915	5933	5950	5968	5987	6005	6023	6041	6060	6097	6116	6154	6193	6232	6292	6352	6435	6520	6585	6674	6766	6836	6908	6981	7005	7056	7106	0	7158	7210	7236	7263	7263	7263	7236	7184	7106	7056	6956	6860	6789	6720	6652	6607	6520	6499	6499	6520	6542	6563	6607	6652	6742	6812	6883	6932	7005	7030	7030	7005	7005	6956	6932	6908	6860	6836	6812	6836	6836	6836	6860	6860
0	0	0	0	0	0	0	0	0	0	0	0	0	0	0	0	0	0	0	0	0	2319	2324	2327	2327	2332	2332	2335	2338	2341	2343	2346	2349	2352	2352	2357	2357	2360	2360	2363	2366	2369	2372	2374	2377	2380	2383	2386	2389	2392	2389	2392	2389	2389	2389	2389	2386	2389	2389	2392	2395	2398	2400	2403	2406	2415	2424	2430	2439	2448	2457	2466	2476	2485	2491	2494	2498	2504	2510	2513	2517	2520	2523	2523	2526	2526	2526	2526	2523	2520	2520	2517	2517	2513	2510	2513	2520	2526	2530	2533	2536	2539	2543	2543	2543	2539	2539	2536	2536	2536	2536	2533	2536	2536	2533	2536	2536	2536	2539	2539	2543	2543	2546	2549	2549	2549	2552	0	0	0	0	0	0	0	0	0	0	0	0	0	0	0	0	1026	1025	1024	1023	1023	1024	1024	1024	1025	1026	0	1026	1026	1026	1026	1025	1025	1025	1024	1023	1023	1023	1024	1024	1024	1024	1024	1025	1025	1024	1024	1025	1024	1024	1024	1024	1023	1023	1024	1024	1024	1024	1025	1025	1026	1027	1027	1027	1028	1028	1029	1029	1030	1031	1032	1033	1034	1035	1036	1038	1039	1041	0	1043	1044	1046	1048	1050	1051	1053	1054	1055	1056	1058	1058	1059	1059	1060	1060	1061	1062	1062	1062	1062	1063	1063	1063	1063	1062	1062	1060	1060	1059	1057	1056	1055	1054	1054	1053	1053	1051	1051	1051	1051	1051	1051	1051	1053	1053	1053	1053	1054	1053	1053	1053	1053	1052	1051	1051	1050	1050	1050	1050	1050	1051	1052	1053	1053	1054	1055	1057	0	1058	1059	1060	1061	1062	1063	1064	1064	1065	1066	1066	1067	1066	1067	1067	1067	1067	1067	1067	1067	1067	1067	1067	1067	1068	1068	1069	1069	1070	1071	1073	1074	1075	1077	1079	1080	1081	0	1084	1085	1086	1088	1090	0	1098	0	0	1141	0	1149	1154	1155	1155	1156	0	0	0	0	0	0	0	0	0	0	0	0	0	0	0	0	0	0	0	0	0	0	0	0	0	0	0	0	0	3658	3658	3665	3672	3679	3686	3693	3700	3693	3700	3700	3693	3693	3693	3693	3700	3700	3713	3727	3749	3770	3792	3799	3814	3821	3829	3829	3829	3829	3829	3836	3843	3836	3829	3836	3829	3836	3836	3851	3851	3858	3874	3889	3897	3912	3935	3943	3959	3959	3975	3983	3999	4007	4015	4015	4040	4065	4082	4090	4099	4090	4099	4099	4099	4099	4090	4082	4082	4082	4082	4082	4082	4090	4090	4099	4107	4107	4116	4133	4150	4168	4185	4203	4221	4239	4239	4248	4258	4267	4276	4285	4295	4304	4313	4323	4332	4342	4342	4342	4332	4332	4332	4313	4313	4304	4295	4285	4285	4285	4276	4276	4276	4285	4285	4295	4304	4323	4332	4342	4371	4380	4400	4410	4429	4439	4449	4459	4470	4480	4490	4500	4510	4531	4552	4562	4573	4584	4594	4605	4616	4616	4627	4627	4627	4627	4637	4648	4659	4670	4693	4704	4749	4772	4795	4818	4842	4854	4866	4878	4890	4914	4927	4939	4951	4964	4989	5001	5014	5027	5040	5040	5053	5066	5066	5053	5066	5066	5066	5079	5092	5105	5118	5145	5172	5199	5240	5268	5311	5354	5383	5412	5457	5472	5503	5518	5534	5549	5549	5581	5612	5628	5628	5677	5726	5793	5862	5933	5987	6041	0	6116	6174	6232	6252	6252	6193	6154	6116	6097	6023	5968	5933	5897	5897	5897	5880	5880	5862	5862	5862	5897	5897	5897	5915	5933	5950	5968	5987	6005	6023	6041	6060	6097	6154	6193	6232	6292	6373	6456	6542	6652	6742	6860	6956	0	7056	7106	7158	7184	7210	7263	7290	7290	7317	7344	7317	7290	7263	7210	7158	7081	6981	6908	6836	6766	6697	6629	6585	6563	6542	6563	6585	6629	6652	6697	6789	6860	6932	7005	7030	7056	7056	7030	7005	6981	6956	6908	6860	6836	6836	6812	6836	6836	6860	6860
0	0	0	0	0	0	0	0	0	0	0	0	0	0	0	0	2308	2305	2311	2313	2313	2316	2319	2321	2324	2327	2330	2332	2335	2335	2338	2341	2343	2343	2346	2349	2352	2355	2355	2360	2363	2366	2369	2374	2377	2380	2383	2389	2392	2392	2392	2392	2395	2395	2395	2392	2400	2398	2400	2400	2400	2398	2400	2403	2406	2412	2418	2427	2433	2445	2457	2469	2482	2491	2498	2504	2510	2510	2517	2520	2526	2526	2526	2530	2533	2533	2533	2533	2530	2523	2523	2520	2520	2513	2513	2513	2517	2523	2526	2530	2533	2536	2536	2539	2539	2539	2539	2536	2536	2536	2536	2536	2536	2536	2536	2536	2539	2539	2539	2543	2543	2546	2549	2549	2552	2552	2556	0	0	0	0	0	0	0	0	0	0	0	0	0	0	0	0	1027	1026	1024	1024	1023	1023	1023	1023	1024	1025	1025	0	1026	1026	1026	1025	1026	1025	1026	1025	1025	1025	1025	1026	1026	1026	1026	1026	1026	1025	1025	1025	1025	1025	1024	1024	1024	1024	1024	1024	1025	1025	1026	1026	1027	1027	1028	1029	1029	1030	1030	1031	1032	1032	1033	1034	1035	1036	1038	1038	1040	1041	0	1043	1045	1047	1049	1050	1052	1053	1054	1055	1056	1057	1058	1058	1059	1059	1059	1060	1060	1060	1060	1060	1060	1060	1060	1060	1060	1058	1058	1056	1055	1054	1054	1053	1051	1050	1049	1049	1049	1048	1048	1049	1049	1049	1050	1051	1052	1052	1052	1053	1053	1052	1052	1051	1050	1050	1050	1049	1049	1049	1049	1049	1050	1051	1051	1052	1053	1054	1055	1057	1058	1059	0	1060	1062	1062	1063	1063	1063	1064	1064	1064	1064	1065	1065	1064	1064	1064	1064	1063	1063	1062	1062	1062	1062	1063	1063	1064	1064	1066	1066	1068	1070	1071	1074	1075	1076	1078	1080	1080	1081	1082	1085	0	1087	0	0	0	1150	1153	0	0	1158	1158	0	0	0	0	0	0	0	0	0	0	0	0	0	0	0	0	0	0	0	0	0	0	0	0	0	0	0	0	0	3652	3658	3665	3672	3679	3686	3693	3700	3700	3700	3700	3700	3700	3700	3700	3700	3706	3713	3734	3763	3785	3799	3806	3814	3829	3829	3836	3829	3829	3829	3836	3843	3836	3836	3836	3836	3843	3843	3858	3866	3874	3881	3897	3912	3928	3943	3959	3975	3967	3983	3991	3999	4007	4015	4015	4032	4057	4073	4082	4082	4090	4090	4099	4099	4099	4090	4082	4090	4082	4082	4082	4082	4082	4090	4099	4107	4107	4116	4133	4159	4177	4194	4221	4239	4248	4248	4258	4267	4276	4276	4285	4295	4295	4304	4323	4323	4332	4332	4332	4332	4332	4332	4323	4313	4304	4295	4295	4295	4285	4276	4276	4276	4285	4285	4295	4295	4313	4323	4342	4361	4371	4390	4400	4410	4420	4439	4449	4449	4470	4480	4500	4510	4531	4552	4562	4584	4594	4605	4616	4616	4627	4627	4627	4637	4637	4648	4670	4693	4704	4738	4760	4783	4795	4818	4842	4866	4878	4890	4902	4914	4927	4939	4939	4951	4964	4989	5001	5014	5027	5040	5053	5053	5079	5079	5079	5079	5092	5105	5118	5131	5158	5185	5213	5240	5282	5311	5354	5398	5427	5472	5488	5518	5549	5565	5581	5596	5612	5612	5628	5661	5677	5677	5710	5776	5845	5915	5987	6041	0	6097	6154	6212	6252	6272	6272	6252	6174	6135	6097	6023	5968	5933	5897	5897	5897	5880	5880	5880	5880	5880	5897	5897	5915	5915	5933	5950	5968	6005	6023	6023	6060	6079	6135	6154	6232	6292	6373	6456	6585	6697	6836	0	6956	7056	7184	7263	7317	7371	7371	7371	7399	7399	7399	7399	7371	7344	7344	7290	7236	7184	7106	7005	6932	6860	6789	6720	6674	6607	6585	6563	6585	6607	6629	6697	6742	6812	6932	6981	7030	7081	7081	7106	7056	7030	7005	6956	6908	6883	6836	6836	6836	6836	6860	6860	6860
0	0	0	0	0	0	0	0	0	0	0	0	0	0	0	0	2311	2308	2308	2308	2313	2313	2316	2319	2324	2324	2330	2332	2332	2335	2338	2338	2341	2341	2343	2346	2349	2352	2352	2355	2357	2363	2366	2372	2377	2380	2386	2389	2392	2398	2398	2409	2409	2409	2409	2406	2406	2403	2403	2403	2400	2400	2403	2403	2403	2412	2415	2424	2433	2445	2460	2473	2488	2498	2504	2507	2513	2520	2523	2526	2530	2533	2530	2533	2536	2536	2536	2536	2530	2526	2526	2520	2520	2513	2513	2513	2513	2520	2523	2526	2526	2530	2533	2536	2536	2539	2539	2536	2536	2539	2539	2539	2539	2536	2539	2539	2539	2543	2546	2546	2549	2549	2552	2552	2556	2559	2559	0	0	0	0	0	0	0	0	0	0	0	0	0	0	0	0	0	1026	1025	1024	1024	1023	1023	1023	1024	1024	1025	1026	1026	1026	1026	1026	1027	1027	1027	1027	1027	1027	1027	1028	1027	1027	1027	1027	1027	1026	1026	1026	1025	1025	1025	1024	1024	1024	1025	1025	1025	1026	1026	1027	1028	1029	1029	1030	1031	1031	1032	1033	1033	1034	1034	1035	1036	1038	1039	0	1040	1041	1043	1044	1046	1047	1049	1050	1052	1053	1054	1055	1056	1056	1057	1057	1058	1058	1058	1058	1058	1058	1058	1058	1056	0	1056	1056	1055	1055	1054	1054	1053	1051	1050	1049	1048	1047	1046	1046	1045	1045	1045	1045	1045	1046	1047	1049	1050	1050	1050	1051	1051	1051	1051	1050	1050	1049	1049	1048	1048	1048	1048	1049	1049	1050	1050	1051	1053	1053	1054	1056	1056	1058	1059	1059	1059	1060	1061	1062	1062	1062	1063	1063	1063	1063	1063	1063	1062	1062	1060	1060	1059	1059	1058	1058	1057	1058	1058	1058	1059	1060	1061	1062	1064	1067	1069	1070	1072	1073	1073	1075	1074	1073	1075	1078	0	0	0	1099	1106	0	0	0	1157	0	0	0	0	0	0	0	0	0	0	0	0	0	0	0	0	0	0	0	0	0	0	0	0	0	0	0	0	0	0	0	3665	3672	3672	3679	3693	3693	3700	3700	3700	3700	3700	3706	3700	3700	3706	3713	3720	3742	3770	3792	3806	3806	3821	3829	3843	3843	3836	3829	3829	3836	3843	3843	3836	3843	3843	3851	3858	3866	3874	3881	3897	3904	3928	3943	3959	3975	3983	3991	3999	4007	4015	4007	4015	4015	4032	4057	4065	4073	4082	4090	4090	4099	4099	4099	4090	4082	4082	4082	4082	4082	4082	4082	4090	4090	4099	4107	4107	4133	4159	4177	4203	4221	4239	4248	4258	4258	4267	4276	4276	4285	4285	4295	4295	4313	4323	4332	4332	4323	4323	4323	4323	4313	4313	4304	4295	4295	4285	4276	4276	4276	4276	4285	4285	4295	4295	4313	4323	4332	4342	4361	4371	4380	4400	4410	4420	4429	4439	4459	4480	4500	4510	4531	4552	4562	4584	4594	4605	4616	4627	4627	4627	4637	4637	4648	4659	4670	4693	4715	4738	4772	4795	4818	4830	4854	4878	4890	4902	4914	4927	4927	4939	4939	4951	4964	4976	4989	5014	5027	5040	5053	5066	5079	5105	5105	5118	5131	5145	5158	5172	5213	5226	5268	5296	5339	5383	5412	5472	5503	5534	5549	5581	5596	5628	5644	5661	5661	5677	5693	5710	5726	5726	5760	5828	5897	5968	6023	0	6079	6135	6193	6252	6292	6312	6292	6292	6193	6135	6060	5987	5950	5897	5880	5880	5880	5880	5880	5880	5880	5880	5897	5897	5915	5915	5933	5950	5968	5987	6005	6041	6041	6079	6154	6174	6272	6373	6520	6629	6766	0	6932	7081	7236	7344	7455	7540	7540	7569	7540	7512	7512	7483	7455	7427	7399	7371	7344	7263	7236	7184	7106	7030	6932	6883	6812	6742	6674	6629	6563	6563	6585	6585	6629	6697	6766	6860	6932	7005	7081	7106	7132	7132	7081	7056	7005	6956	6932	6883	6860	6836	6836	6860	6860	6860	6883
0	0	0	0	0	0	0	0	0	0	0	0	0	0	0	0	2313	2313	2311	2313	2316	2316	2316	2321	2324	2324	2330	2330	2332	2332	2335	2338	2338	2341	2343	2343	2346	2346	2349	2355	2357	2360	2366	2372	2377	2380	2392	2400	2406	2412	2412	2415	2418	2418	2415	2412	2409	2409	2406	2403	2400	2400	2400	2400	2403	2406	2415	2424	2433	2448	2463	2479	2491	2504	2513	2520	2523	2526	2533	2533	2536	2536	2536	2536	2536	2536	2533	2530	2530	2523	2520	2520	2517	2510	2510	2510	2513	2517	2520	2520	2523	2526	2530	2533	2536	2539	2539	2539	2543	2543	2543	2543	2546	2543	2543	2546	2546	2549	2552	2552	2556	2559	2559	2562	2559	2566	0	0	0	0	0	0	0	0	0	0	0	0	0	0	0	0	0	0	0	0	0	1023	1023	1022	1023	1024	1024	1025	1025	1026	1027	1027	1027	1028	1028	1029	1029	1029	1029	1029	1029	1029	1029	1029	1028	1028	1027	1027	1026	1026	1025	1025	1025	1025	1025	1025	1026	1026	1027	1027	1028	1029	1030	1031	1032	1032	1033	1033	1034	1035	1035	1036	0	1038	1038	1039	1040	1041	1043	1044	1045	1046	1048	1050	1051	1053	1054	1054	1054	1055	1056	1056	1056	1056	1056	1056	1056	1057	1056	1055	1055	1054	1054	1054	1053	1053	1052	1051	1051	1050	1049	1047	1046	1045	1044	1043	1043	1043	1042	1042	1042	1043	1043	1044	1046	1047	1047	1048	1049	1049	1049	1049	1049	1047	1047	1047	1046	1046	1046	1046	1047	1047	1048	1049	1050	1051	1052	1052	1053	1054	1055	1056	1057	1058	1058	1059	1060	1060	1060	1061	1061	1061	1061	1060	1060	1059	1059	1058	1057	1056	1055	1055	1055	1054	1054	1054	1055	1055	1056	1057	1058	1060	1063	1065	1067	1068	1069	1069	1070	1070	1069	1067	1067	1066	1063	1062	1062	1060	1060	0	0	0	0	0	0	0	0	0	0	0	0	0	0	0	0	0	0	0	0	0	0	0	0	0	0	0	0	0	0	0	0	0	0	3672	3679	3679	3686	3693	3700	3706	3700	3700	3706	3706	3706	3706	3706	3706	3720	3734	3749	3777	3806	3814	3821	3829	3843	3851	3851	3843	3843	3836	3843	3851	3851	3851	3851	3851	3858	3874	3881	3889	3904	3912	3920	3935	3951	3959	3975	3983	3999	3999	4007	4015	4015	4024	4015	4032	4057	4065	4065	4073	4082	4082	4090	4099	4090	4090	4082	4090	4082	4082	4082	4082	4082	4082	4090	4099	4099	4107	4124	4150	4168	4194	4212	4239	4248	4258	4258	4267	4267	4267	4276	4285	4285	4295	4304	4323	4323	4323	4323	4323	4323	4313	4313	4304	4295	4285	4285	4285	4276	4276	4276	4276	4276	4285	4285	4295	4304	4313	4323	4332	4351	4361	4371	4380	4390	4410	4420	4439	4449	4470	4490	4510	4531	4552	4573	4584	4605	4616	4627	4627	4627	4637	4637	4637	4648	4659	4670	4693	4715	4738	4772	4795	4818	4842	4854	4878	4890	4902	4914	4927	4927	4939	4939	4951	4951	4976	4989	5001	5014	5040	5053	5079	5092	5105	5118	5145	5158	5185	5199	5240	5268	5296	5325	5368	5398	5442	5488	5534	5565	5581	5596	5628	5644	5661	5693	5710	5710	5726	5743	5760	5776	5776	5793	5862	5915	5968	6041	0	6097	6154	6252	6312	6393	6414	0	6352	6292	6193	6041	5968	5933	5915	5880	5880	5880	5880	5880	5880	5880	5880	5897	5897	5915	5933	5933	5950	5968	6005	6023	6041	6060	6116	6154	6193	6292	6393	6542	6674	0	6908	7081	7263	7427	7569	7687	7778	7778	7747	7687	7628	7569	7512	7427	7399	7344	7317	7263	7210	7184	7132	7081	7005	6932	6860	6789	6720	6652	6585	6542	6520	6520	6520	6563	6629	6720	6812	6883	6956	7030	7081	7106	7106	7056	7030	6981	6956	6932	6883	6860	6860	6860	6860	6860	6860	6883
0	0	0	0	0	0	0	0	0	0	0	0	0	0	0	0	2316	2313	2316	2313	2319	2316	2321	2321	2324	2324	2330	2330	2332	2335	2335	2335	2338	2338	2341	2343	2346	2349	2349	2352	2355	2363	2369	2374	2383	2389	2395	2403	2409	2415	2418	2418	2421	2421	2421	2415	2412	2412	2409	2406	2403	2400	2400	2400	2400	2406	2412	2424	2433	2448	2466	2485	2501	2517	2523	2526	2533	2536	2536	2539	2539	2539	2536	2536	2536	2536	2533	2530	2526	2520	2517	2517	2513	2510	2510	2510	2510	2513	2513	2517	2520	2523	0	2533	2536	2539	2543	2546	2546	2546	2549	2549	2552	2552	2552	2556	2556	2556	2559	2562	2562	2566	2569	2569	2572	0	0	0	0	0	0	0	0	0	0	0	0	0	0	0	0	0	0	0	0	0	0	1024	1023	1023	1024	1024	1024	1025	1027	1028	1028	0	1029	1030	1031	1031	1031	1031	1031	1031	1031	1031	1031	1030	1030	1029	1028	1028	1027	1027	1027	1026	1026	1026	1026	1026	1027	1027	1028	1028	1029	0	1031	1032	1033	1033	1034	1034	1035	1036	1037	1038	1039	1039	1040	1041	1043	1043	1044	1045	1046	1047	1049	1050	1052	1053	1054	1054	1055	1055	1056	1056	1056	1056	1056	1056	1056	1055	1054	1054	1053	1053	1051	1051	1051	1050	1050	1049	1048	1047	1046	1045	1044	1043	1041	1040	1040	1039	1039	1039	1039	1039	1041	0	1043	1044	1045	1045	1046	1047	1047	1046	1046	1046	1045	1045	1045	1045	1044	1045	1045	1045	1046	1046	1047	1049	1050	1051	1051	1053	1054	1055	1055	1056	1056	1057	1058	1059	1059	1059	1059	1059	1059	1058	1058	1057	1055	1055	1054	1053	1053	1051	1051	1051	1052	1052	1052	1053	1053	1054	1055	1057	1059	1061	1062	1063	1064	1065	1066	1066	1064	1063	1063	1062	1062	1061	1060	1059	1060	0	1060	0	0	1093	1094	0	1113	0	0	0	0	0	0	0	0	0	0	0	0	0	0	0	0	0	0	0	0	0	0	0	0	0	0	0	0	0	3693	3693	3706	3706	3706	3706	3706	3706	3713	3713	3706	3713	3720	3734	3756	3785	3806	3814	3821	3836	3851	3858	3858	3858	3851	3843	3851	3858	3858	3851	3851	3858	3874	3881	3889	3897	3912	3920	3928	3943	3951	3967	3975	3983	3999	4007	4015	4024	4032	4024	4024	4032	4040	4057	4065	4073	4073	4082	4090	4090	4090	4090	4082	4090	4082	4082	4082	4082	4082	4082	4090	4099	4099	4107	4116	4142	4159	4185	4203	4230	4239	4248	4248	4258	4267	4267	4276	4276	4276	4285	4295	4313	4313	4313	4313	4313	4313	4313	4304	4295	4295	4276	4276	4276	4267	4267	4267	4267	4276	4276	4285	4285	4295	4304	4313	4323	4332	4342	4351	4361	4380	4400	4410	4429	4449	4470	4490	4521	4541	4562	4573	4594	4605	4605	4616	4627	4616	4627	4627	4637	4648	4659	4670	4693	4715	4738	4772	4795	4818	4842	4854	4878	4890	4902	4902	4914	4914	4927	4927	4939	4951	4964	4976	4989	5014	5027	5040	5066	5092	5105	5118	5145	5172	5199	5226	5282	5311	5354	5398	5427	5472	5518	5549	5581	5612	5628	5644	5661	5693	5710	5726	5743	5760	5776	5776	5793	5793	5810	5828	5897	5933	5987	0	6041	6174	6193	6414	6477	6563	6585	6563	6542	0	0	6252	5987	5950	5933	5897	5897	5880	5880	5880	5880	5880	5897	5897	5915	5915	5933	5950	5950	5968	6005	6023	6041	6079	6116	6174	6232	6312	6435	6563	6742	0	6956	7210	7427	7628	7778	7902	7966	7934	7871	7747	7628	7540	7427	7371	7317	7210	7158	7158	7132	7106	7056	6981	6908	6836	6766	6697	6629	6585	6520	6477	6435	6435	6435	6499	6563	6652	6766	6836	6908	6981	7030	7056	7056	7005	7005	6956	6932	6932	6883	6883	6860	6860	6883	6883	6883	6883
0	0	0	0	0	0	0	0	0	0	0	0	0	0	0	0	2319	2316	2319	2319	2319	2321	2324	2324	2327	2327	2330	2332	2332	2335	2335	2338	2338	2338	2343	2343	2349	2352	2355	2357	2363	2366	2372	2377	2386	2392	2398	2406	2412	2418	2421	2424	2424	2424	2424	2418	2415	2412	2409	2406	2403	2400	2398	2398	2400	2403	2409	2418	2430	2448	2466	2488	2504	2523	2533	2536	2539	2543	2543	2546	2546	2543	2539	2533	2533	2530	2523	2520	2517	2510	2507	2504	2504	2501	2504	2504	2504	2507	2513	0	2520	2523	2530	0	2536	2543	2546	2549	2552	2556	2556	2559	2559	2562	2562	2566	2566	2566	2569	2572	2572	2576	2579	2582	0	0	0	0	0	0	0	0	0	0	0	0	0	0	0	0	0	0	1032	1029	1027	1026	1025	1024	1024	1025	1025	1026	1027	1027	1028	1030	1031	1031	1031	1032	1033	1033	1033	1033	1033	1033	1033	1033	1032	1032	1031	1031	1030	1029	1028	1028	1027	1027	1027	1027	1027	1027	1027	1028	1028	1029	1030	1031	1032	1034	1034	1035	1036	1037	1038	1039	1040	1040	1041	1042	1043	1044	1044	1045	1046	1047	1048	1049	1050	1052	1053	1054	1054	1055	1055	1055	1056	1055	1055	1055	1055	1055	1055	1054	1053	1052	1051	1051	1050	1049	1049	1048	1047	1046	1046	1045	1044	1043	1041	1040	1039	1038	1036	1035	1035	1035	1036	1036	1038	1039	1041	1042	1043	1044	0	1045	1045	1045	1045	1044	1044	1044	1043	1043	1041	1041	1042	1043	1044	1044	1045	1046	1048	1049	1050	1051	1053	1054	1054	1055	1055	1056	1056	1057	1058	1058	1058	1058	1057	1056	1055	1054	1054	1052	1051	1051	1050	1050	1050	1049	1050	1050	1050	1051	1051	1052	1053	1054	1056	1057	1058	1059	1060	1061	1062	1061	1060	1060	1059	1058	1058	1058	1057	1057	1058	1059	1059	1060	0	1065	1069	1066	1070	0	0	1080	0	0	0	0	0	0	0	0	0	0	0	0	0	0	0	0	0	0	0	0	0	0	0	0	0	0	0	3700	3706	3713	3713	3713	3713	3713	3713	3713	3713	3720	3727	3734	3763	3785	3814	3821	3829	3851	3858	3858	3858	3866	3858	3851	3858	3866	3866	3858	3858	3866	3874	3889	3897	3912	3920	3920	3935	3943	3951	3967	3983	3991	3991	4007	4015	4024	4032	4024	4024	4024	4040	4048	4057	4065	4065	4073	4082	4082	4082	4082	4082	4082	4082	4082	4082	4082	4073	4073	4082	4090	4099	4107	4116	4133	4150	4177	4194	4212	4230	4230	4239	4248	4248	4258	4267	4267	4267	4276	4295	4304	4304	4313	4304	4304	4304	4304	4295	4285	4285	4276	4267	4267	4267	4258	4258	4258	4267	4276	4276	4285	4285	4295	4304	4313	4323	4332	4342	4351	4361	4380	4400	4420	4449	4470	4490	4521	4541	4562	4573	4594	4605	4605	4616	4616	4616	4616	4627	4627	4637	4648	4670	4693	4715	4738	4760	4783	4807	4830	4842	4854	4878	4878	4890	4902	4902	4914	4914	4914	4927	4951	4964	4976	5001	5014	5027	5053	5079	5092	5118	5131	5172	5185	5226	5282	5325	5368	5412	5472	5503	5534	5581	5612	5628	5661	5677	5693	5726	5726	5760	5776	5793	5793	5810	5810	5828	5828	5845	5897	5950	6005	0	6097	6272	6393	6697	6766	6883	6908	6908	0	0	0	0	0	5968	5950	5915	5915	5915	5897	5880	5897	5897	5915	5915	5933	5933	5933	5950	5950	5968	5987	6023	6079	6097	6135	6193	6252	6332	6435	6585	0	0	7030	7290	7540	7778	7902	8031	8063	7966	7871	7687	7540	7455	7317	7158	7132	7081	7030	7005	7005	6956	6932	6883	6812	6766	6674	6629	6563	6520	6456	6414	6373	6373	6373	6435	6499	6585	6674	6766	6836	6908	6956	7005	7005	6981	6956	6932	6908	6883	6883	6883	6883	6883	6883	6883	6908	6908
0	0	0	0	0	0	0	0	0	0	0	0	0	0	0	0	2324	2321	2321	2321	2321	2324	2327	2330	2332	2330	2332	2335	2335	2335	2341	2341	2341	2343	2349	2352	2352	2357	2360	2363	2369	2374	2380	2386	2392	2398	2403	2409	2415	2418	2424	2424	2424	2424	2424	2421	2418	2415	2412	2406	2403	2400	2400	2400	2403	2403	2409	2418	2430	2451	2473	2491	2510	2533	2536	2543	2546	2546	2546	2549	2546	2543	2536	2533	2526	2523	2517	2513	2507	2504	2498	2494	2494	2494	2498	2501	2504	2507	2513	2517	2520	0	2530	0	2539	2543	2549	2552	2556	2559	2562	2566	2569	2572	2572	2576	2576	2579	2579	2582	2586	2589	2589	2593	0	0	0	0	0	0	0	0	0	0	0	0	0	0	0	0	0	0	1032	1029	1028	1027	1027	1027	1028	1028	1027	1029	1029	1030	1032	1033	1034	1034	1034	1034	1035	1035	1035	1034	1034	1034	1034	1034	1034	1033	1033	1032	1031	1030	1029	1029	1028	1028	1028	1027	1028	1028	1028	1028	1029	1031	1032	1033	1034	1036	1037	1038	1039	1040	1041	1041	1043	1043	1044	1045	1045	1046	1047	1047	1049	1049	1050	1051	1053	1053	1054	1055	1055	1055	1055	1055	1055	1055	1055	1055	1055	1054	1054	1053	1052	1051	1050	1050	1049	1048	1047	1046	1046	1045	1044	1043	1041	1040	1039	1038	1035	1034	1033	1033	1033	1033	1033	1034	1035	1036	1038	1039	1041	1042	1043	1044	1044	1044	1043	1041	1041	1041	1041	1040	1040	1040	1041	1041	1043	1043	1044	1045	1046	1047	1049	1050	1051	1053	1053	1054	1054	1055	1056	1056	1056	1056	1056	1056	1055	1055	1054	1053	1051	1050	1049	1049	1048	1048	1048	1048	1049	1049	1049	1050	1050	1051	1051	1053	1054	1055	1055	1056	1056	1056	1057	1057	1056	1055	1055	1055	1056	1056	1056	1056	1057	1058	1058	1059	1059	1060	1060	1061	1063	1064	0	0	0	0	0	1054	1053	1052	0	0	0	0	0	0	0	0	0	0	0	0	0	0	0	0	0	0	0	0	0	0	0	0	0	0	0	0	0	3720	3720	3720	3734	3749	3770	3792	3814	3829	3836	3851	3866	3866	3874	3874	3866	3866	3866	3874	3874	3874	3874	3874	3881	3889	3904	3912	3920	3928	3935	3951	3959	3967	3983	3991	3991	3999	4015	4024	4024	4024	4024	4015	4032	4040	4048	4048	4057	4065	4065	4073	4082	4082	4082	4082	4082	4082	4082	4073	4073	4073	4082	4090	4090	4107	4116	4124	4142	4159	4177	4203	4221	4221	4230	4230	4239	4248	4248	4258	4248	4258	4285	4295	4304	4304	4295	4295	4295	4295	4285	4285	4267	4267	4258	4258	4248	4248	4248	4258	4258	4267	4276	4276	4285	4285	4295	4304	4313	4323	4332	4351	4361	4390	4410	4429	4449	4480	4500	4521	4552	4562	4573	4594	4605	4605	4605	4616	4616	4616	4616	4627	4637	4648	4670	4681	4715	4726	4749	4772	4795	4818	4830	4854	4866	4866	4878	4878	4890	4890	4902	4902	4914	4939	4951	4964	4976	5001	5014	5053	5079	5092	5118	5131	5172	5185	5240	5282	5325	5368	5412	5457	5488	5534	5565	5596	5628	5644	5677	5693	5710	5743	5776	5793	5810	5810	5810	5828	5828	5828	5845	5897	5950	5987	0	6097	6292	6414	6720	0	0	0	0	0	0	0	0	0	5987	5968	5933	5915	5915	5915	5897	5915	5915	5915	5933	5933	5950	5950	5950	5950	5968	5987	6023	6060	6097	6135	6193	6232	6332	6435	6585	0	0	7081	7399	7628	7839	7998	8163	8097	7966	7808	7628	7483	7344	7106	7056	7005	6956	6908	6883	6860	6836	6812	6789	6720	6652	6607	6563	6499	6456	6414	6373	6312	6332	6352	0	6435	6520	6607	6697	6766	6836	6883	6932	6932	6932	6908	6908	6883	6883	6883	6883	6883	6883	6908	6908	6932	6932
0	0	0	0	0	0	0	0	0	0	0	0	0	0	0	0	2324	2324	2324	2327	2330	2330	2332	2335	2338	2343	2343	2346	2346	2346	2346	2346	2346	2349	2349	2355	2357	2363	2366	2369	2374	2377	2383	2389	2395	2400	2403	2409	2415	2418	2421	2424	2424	2424	2421	2421	2415	2415	2412	2409	2403	2400	2400	2400	2403	2406	2412	2424	2436	2454	2476	2498	2517	2533	2543	2546	2549	2549	2549	2546	2543	2539	2533	2526	2520	2513	2510	2504	2498	2491	2488	2488	2488	2491	2494	2498	2501	2507	2513	2517	0	2523	2530	2533	2543	2549	2552	2559	2562	2569	2572	2576	2576	2579	2582	2586	2589	2589	2593	2593	2596	2596	2603	2603	2606	2610	2620	0	0	0	0	0	0	0	0	0	0	0	0	0	0	0	0	1032	1031	1029	1029	1030	1030	1031	1031	1032	1032	1033	1033	1034	1035	1035	1035	1036	1036	1036	1037	1036	1036	1036	1036	1035	1035	1034	1034	1033	1032	1032	1031	1030	1030	1029	1029	1029	1029	1029	1029	1030	1031	1033	1034	1035	1037	1038	1040	1041	1042	1043	1044	1045	1045	1046	1047	1047	1048	1049	1050	1050	1051	1052	1053	1053	1054	1055	1055	1056	1056	1056	1056	1055	1055	1055	1055	1055	1055	1054	1054	1053	1052	1051	1050	1049	1048	1047	1046	1045	1044	1043	1041	1041	1039	1038	1037	1034	1033	1032	1032	1031	1031	1031	1031	1032	1033	1034	1036	1037	1038	1040	1039	1040	1040	1040	1040	1040	1040	1040	1040	1040	1039	1039	1040	1040	1041	1042	1043	1045	1045	1046	1047	1049	1051	1051	1053	1053	1054	1055	1055	1056	1056	1056	1056	1055	1054	1054	1053	1051	1050	1049	1048	1047	1047	1047	1047	1048	1048	1049	1050	1050	1050	1050	1051	1051	1051	1053	1053	1053	1053	1053	1053	1053	1053	1053	1053	1053	1054	1054	1055	1055	1055	1056	1057	1058	1058	1058	1059	1059	1059	1059	1059	0	0	1056	1054	0	1051	1050	1049	1049	0	1049	0	0	0	0	0	0	0	0	0	0	0	0	0	0	0	0	0	0	0	0	0	0	0	0	0	0	0	0	3734	3749	3777	3799	3821	3829	3836	3858	3866	3874	3881	3874	3874	3874	3881	3881	3881	3874	3874	3881	3889	3897	3904	3912	3928	3935	3943	3951	3959	3959	3975	3983	3991	3999	4007	4015	4024	4015	4024	4015	4024	4032	4040	4048	4057	4057	4065	4073	4073	4073	4082	4082	4082	4082	4082	4073	4073	4082	4082	4090	4090	4107	4116	4133	4142	4159	4177	4194	4212	4212	4212	4212	4221	4239	4239	4248	4239	4248	4267	4285	4295	4295	4295	4285	4295	4285	4276	4267	4258	4248	4248	4248	4239	4239	4239	4248	4248	4258	4267	4267	4276	4285	4295	4304	4313	4323	4342	4351	4380	4400	4420	4439	4459	4480	4500	4531	4552	4562	4573	4584	4594	4605	4616	4616	4616	4616	4616	4616	4627	4648	4659	4670	4693	4715	4738	4760	4783	4795	4818	4830	4842	4854	4866	4866	4878	4878	4878	4890	4902	4927	4939	4964	4989	5001	5014	5053	5066	5092	5131	5145	5172	5199	5240	5268	5311	5354	5398	5442	5457	5503	5534	5581	5612	5628	5661	5677	5710	5726	5760	5776	5793	5810	5793	5810	5793	5793	5810	5862	5915	5950	0	6060	6252	0	0	0	0	0	6956	0	0	0	0	0	6005	5968	5933	5933	5915	5915	5915	5915	5933	5933	5933	5950	5950	5950	5968	5968	5968	5987	6023	6060	6097	6135	6212	6252	6332	6456	6607	0	0	0	0	0	0	7839	7934	7902	7778	7628	7455	7290	7081	7005	0	0	6836	6789	6742	6720	6720	6697	6652	6629	6585	6542	6499	6456	6393	6373	6292	6272	6272	6332	0	6414	6456	6542	6607	6697	6766	6812	6860	6883	6860	6860	6860	6860	6860	6860	6883	6883	6908	6908	6932	6932	6956
0	0	0	0	0	0	0	0	0	0	0	0	0	0	0	0	2330	2330	2332	2332	2343	2346	2349	2352	2355	2352	2352	2355	2352	2352	2355	2352	2352	2355	2357	2360	2363	2366	2369	2372	2377	2383	2386	2392	2395	2400	2403	2409	2412	2418	2418	2421	2418	2418	2415	2412	2412	2409	2406	2400	2400	2398	2398	2398	2403	2406	2412	2424	2439	2457	2479	2498	2517	2533	2543	2546	2546	2549	2546	2543	2539	2533	2526	2520	2513	2507	2501	2494	2491	2485	2482	2482	2485	2491	2494	2498	2504	2507	2513	0	2520	2526	2533	2539	2546	2552	2559	2566	2569	2576	2579	2586	2586	2589	2593	2596	2599	2599	2599	2603	2603	2606	2610	2610	2613	2620	2624	2631	2638	2638	0	0	0	0	0	0	0	0	0	0	0	0	0	0	0	0	1031	1032	1032	1033	1033	1033	1034	1035	1036	1036	1037	1037	1037	1038	1039	1039	1040	1039	1038	1038	1038	1037	1036	1035	1035	1034	1033	1032	1032	1032	1031	1031	1031	1030	1030	1031	1031	1031	1032	1034	1035	1036	1038	1040	1042	1043	1045	1046	1046	1047	1049	1049	1050	1051	1051	1052	1053	1053	1054	1054	1055	1055	1056	1057	1057	1057	1057	1057	1056	1056	1056	1055	1055	1055	1054	1054	1054	1053	1052	1051	1050	1048	1047	1046	1045	1044	1043	1041	1040	1039	1038	1036	1034	1032	1031	1031	1030	1029	1028	1029	1029	1030	1031	1032	1033	1034	1035	1037	1039	1039	1040	1040	1039	1039	1039	1040	1039	1039	1039	1039	1039	1039	1040	1041	1043	1043	1045	1045	1046	1048	1049	1050	1051	1052	1053	1054	1055	1055	1055	1055	1054	1054	1053	1051	1051	1049	1049	1047	1047	1046	1046	1047	1047	1047	1048	1049	1049	1049	1049	1050	1050	1050	1050	1050	1050	1050	1050	1050	1050	1050	1050	1050	1050	1050	1051	1052	1053	1053	1054	1055	1055	1056	1056	1055	1056	1057	1058	1057	1056	1056	1054	1054	1054	0	0	1049	1047	1047	1046	1047	0	0	0	0	0	0	0	0	0	0	0	0	0	0	0	0	0	0	0	0	0	0	0	0	0	0	0	0	3742	3756	3785	3806	3821	3836	3843	3858	0	3874	3881	3889	3889	3889	3889	3889	3889	3881	3881	3889	3889	3897	3904	3920	3928	3935	3943	3943	3951	3959	3975	3975	3991	3999	4007	4007	4015	4015	4015	4007	4024	4024	4032	4040	4048	4048	4057	4065	4073	4073	4073	4082	4082	4082	4082	4082	4082	4082	4090	4090	4099	4116	4124	4142	4142	4159	4177	4194	4203	4203	4203	4203	4221	4230	4239	4239	4230	4248	4267	4285	4295	4295	4295	4285	4285	4285	4267	4267	4258	4248	4239	4230	4230	4221	4221	4212	4230	4239	4248	4258	4267	4276	4295	4304	4313	4332	4351	4371	4380	4410	4429	4449	4470	4490	4510	4541	4552	4562	4573	4584	4594	4605	4605	4616	4616	4616	4616	4616	4627	4637	4648	4670	4681	4704	4726	4738	4760	4783	4795	4818	4830	4830	4842	4854	4866	4866	4878	4890	4902	4927	4939	4964	4989	5001	5027	5053	5079	5105	5131	5145	5172	5185	5213	5254	5282	5325	5354	5398	5412	5457	5488	5534	5581	5596	5612	5644	5661	5693	5726	5743	5760	5760	5760	5743	5743	5726	5743	5793	5828	5880	5987	0	6193	0	0	0	6860	0	6812	6720	0	0	6079	6023	6005	5968	5950	5933	5915	5933	5933	5933	5933	5933	5933	5950	5950	5968	5968	5968	5968	6005	6041	6060	6097	6135	6193	6232	6312	6414	6542	6674	0	0	0	0	0	7540	7628	7569	7483	7371	0	7005	6956	6883	6836	6789	6742	6697	6652	6607	6607	6585	6563	6542	6499	6456	6435	6393	6352	6272	6252	6232	6232	6292	6352	0	6414	6477	6563	6629	6674	6742	6766	6789	6812	6812	6812	6812	6836	6860	6883	6908	6908	6932	6932	6956	6981
0	0	0	0	0	0	0	0	0	0	0	0	0	0	0	0	0	0	0	0	2355	2357	2360	2363	2363	2363	2366	2363	2363	2363	2360	2363	2360	2363	2366	2369	2372	2374	2377	2380	2383	2386	2389	2395	2398	2400	2406	2412	2415	2415	2418	2415	2412	2412	2412	2406	2403	2403	2400	2395	2395	2392	2392	2395	2400	2403	2415	2424	2436	2457	2476	2494	2513	2526	2536	2539	2543	2543	2539	2536	2533	2526	2520	2510	2504	2494	2491	2485	2482	2476	2476	2482	2485	2491	2498	2501	2504	2510	0	2520	2526	2526	2536	2543	2552	2559	2569	2572	2579	2586	2589	2593	2596	2599	2603	2606	2610	2610	2610	2610	2613	2613	2617	2620	2620	2624	0	2631	2638	2638	0	0	0	0	0	0	0	0	0	0	0	0	0	0	0	1032	1031	1032	1033	1034	1035	1035	1035	0	1036	1037	1038	1038	1038	0	1040	1043	1044	1043	1043	1041	1041	1040	1038	1036	1035	1035	1034	1033	1033	1033	1033	1032	1032	1032	1032	1032	1032	1033	1034	1035	1036	1038	1040	1042	1044	1045	1047	1048	1049	1050	1051	1053	1054	1054	1055	1055	1056	1056	1057	1058	1058	1058	1059	1059	1059	1059	1059	1058	1058	1057	1056	1056	1055	1055	1055	1054	1054	1053	1052	1051	1050	1049	1047	1046	1045	1044	1042	1041	1039	1038	1036	1035	1033	1031	1031	1029	1029	1028	1028	1027	1028	1029	1030	1032	1032	1034	1035	1037	1038	1039	1039	1039	1039	1039	1039	1039	1039	1039	1038	1038	1039	1039	1039	1040	1041	1042	1043	1044	1045	1047	1048	1049	1050	1051	1052	1053	1054	1054	1054	1054	1053	1052	1051	1050	1049	1047	1047	1046	1046	1045	1045	1046	1046	1046	1047	1047	1048	1048	1049	1048	1048	1047	1047	1047	1046	1046	1046	1046	1046	1046	1047	1047	1047	1048	1049	1050	1050	1051	1051	1052	1053	1054	1054	1053	1054	1054	1054	1055	1054	1054	1053	1053	1051	1050	0	0	0	1045	1045	1045	1045	1046	0	0	0	0	0	0	0	0	0	0	0	0	0	0	0	0	0	0	0	0	0	0	0	0	0	0	0	0	0	0	3829	3829	3836	0	3866	3874	3881	3889	3889	3889	3889	3897	3897	3889	3889	3889	3897	3897	3904	3912	3920	3928	3935	3943	3951	3959	3967	3975	3983	3991	3999	4007	4015	4015	4007	4007	4015	4015	4024	4032	4040	4040	4048	4065	4065	4073	4073	4082	4082	4090	4090	4090	4099	4099	4107	4107	4116	4124	4133	4142	4150	4159	4177	4185	4203	4203	4203	4203	4221	4230	4239	4239	4239	4248	4267	4285	4285	4295	4285	4295	4285	4285	4267	4258	4239	4230	4221	4212	4203	4194	4194	4203	4212	4230	4239	4248	4267	4276	4295	4304	4323	4342	4351	4371	4390	4410	4429	4459	4480	4500	4521	4531	4552	4562	4573	4584	4594	4605	4605	4605	4605	4605	4616	4616	4616	4637	4648	4659	4670	4693	4704	4726	4749	4772	4783	4807	4818	4830	4842	4854	4854	4866	4878	4890	4902	4927	4951	4964	4989	5014	5040	5066	5092	5105	5131	5145	5172	5185	5213	5226	5254	5282	5311	5325	5339	5383	5412	5457	5503	5534	5565	5581	5612	5628	5677	5693	5710	5710	5677	5677	5677	5677	5677	5710	5710	5760	5845	6023	0	0	0	6697	6742	6742	6652	0	0	6174	6041	6005	5987	5968	5950	5933	5933	5933	5933	5933	5933	5933	5950	5950	5950	5968	5968	5968	5968	6005	6023	6060	6097	6135	6193	6212	6292	6373	6477	6585	6766	0	0	0	0	7290	7317	7290	7236	0	6956	6860	6836	6789	6742	6697	6652	6607	6563	6542	6499	6499	6477	6456	6435	6393	6352	6332	6252	6212	6212	6193	6193	6232	6292	6352	0	6414	6499	6563	6629	6674	6720	6742	6742	6766	6766	6789	6812	6836	6860	6883	6908	6932	6956	6956	6981
0	0	0	0	0	0	0	0	0	0	0	0	0	0	0	0	0	0	0	0	0	2369	2372	2374	2374	2374	2374	2374	2372	2369	2369	2369	2369	2369	2372	2374	2374	2377	2380	2386	2386	2392	2395	2398	2400	2403	2409	2412	2415	2415	2415	2415	2412	2409	2406	2403	2398	2398	2395	2392	2389	2389	2389	2392	2398	2403	2409	2421	2436	2451	2469	2488	2501	2517	2523	2533	2533	2533	2530	2526	2523	2517	2507	2501	2494	2488	2485	2479	2473	2473	2473	2479	2485	2491	2498	0	2504	2507	2517	2523	2526	2533	2539	2546	2556	2566	2572	2579	2586	2593	2599	2599	2606	2610	2610	2613	2617	2617	2620	2620	2620	2620	2620	2624	2624	2624	2627	2631	2638	2638	2638	2641	0	0	0	0	0	0	0	0	0	0	0	0	0	0	0	1034	1035	1035	1036	1036	1037	1037	1038	1039	1039	1040	1040	1042	1045	1047	1049	1050	1050	1049	1049	1045	1043	1041	1039	1037	1036	1035	1034	1034	1034	1034	1034	1033	1033	1034	1035	1035	1035	1037	1039	1040	1043	1044	1046	1047	1049	1050	1051	1053	1054	1055	1056	1057	1058	1058	1059	1059	1059	1060	1060	1060	1060	1061	1061	1061	1060	1059	1059	1058	1058	1057	1056	1056	1056	1055	1055	1053	1053	1052	1050	1049	1047	1046	1044	1043	1041	1039	1038	1036	1035	1033	1032	1031	1029	1028	1027	1027	1027	1027	1028	1029	1031	1031	1032	1034	1035	1036	1038	1038	1038	1039	1038	1038	1038	1039	1038	1039	1038	1038	1038	1039	1039	1040	1040	1041	1042	1043	1045	1046	1047	1048	1049	1050	1051	1052	1053	1053	1053	1052	1051	1050	1050	1048	1047	1046	1045	1045	1045	1045	1044	1045	1045	1046	1046	1047	1047	1047	1046	1046	1046	1045	1045	1044	1044	1043	1043	1043	1043	1044	1044	1044	1045	1046	1047	1048	1048	1048	1049	1050	1051	1051	1051	1051	1052	1053	1053	1053	1053	1053	1052	1051	1050	1049	1047	1047	0	1045	1045	1044	1044	1045	0	0	0	0	0	0	0	0	0	0	0	0	0	0	0	0	0	0	0	0	0	0	0	0	0	0	0	0	0	0	0	3836	3843	3858	0	3874	3889	3889	3889	3897	3897	3904	3897	3897	3897	3897	3897	3897	3904	3912	3920	3920	3928	3935	3943	3951	3959	3967	3975	3983	3991	3999	4007	4007	3999	3991	3999	4007	4015	4024	4024	4032	4048	4057	4065	4065	4073	4082	4082	4090	4099	4099	4107	4107	4116	4124	4133	4133	4142	4150	4159	4168	4177	4185	4194	4203	4194	4203	4212	4230	4239	4239	4239	4258	4276	4295	4295	4304	4295	4295	4295	4285	4267	4248	4239	4221	4212	4203	4194	4185	4185	4194	4203	4221	4230	4248	4258	4276	4285	4313	4323	4342	4361	4380	4410	4429	4449	4470	4490	4510	4531	4541	4552	4562	4573	4584	4594	4605	4605	4605	4605	4605	4605	4616	4616	4627	4637	4648	4670	4681	4704	4726	4738	4760	4772	4795	4807	4818	4830	4842	4854	4866	4878	4890	4914	4927	4951	4976	5001	5027	5053	5079	5092	5105	5118	5131	5158	5172	5185	5199	5213	5226	5240	5268	5282	5296	5339	5368	5412	5457	5488	5518	5549	5565	5612	5612	5628	5628	5628	5612	5612	5612	5612	5644	5644	5661	5710	5862	5950	0	6154	0	0	0	6352	6352	6174	6116	6005	5987	5968	5950	5933	5933	5933	5933	5933	5933	5933	5933	5933	5950	5968	5968	5968	5968	5968	5987	6023	6060	6079	6116	6174	6193	6252	6332	6373	6456	6629	0	0	0	0	7030	7081	7056	0	0	6789	6766	6720	6674	6652	6629	6585	6542	6477	6435	6435	6414	6393	6393	6373	6332	6292	6292	6232	6193	6193	6174	6193	6212	6272	6312	6393	0	6435	6520	6563	6629	6674	6674	6697	6720	6720	6742	6789	6812	6860	6883	6932	6956	6956	6981	6981
0	0	0	0	0	0	0	0	0	0	0	0	0	0	0	0	0	0	0	0	2377	2380	2383	2383	2386	2386	2386	2383	2383	2380	2377	2374	2372	2374	2374	2377	2380	2383	2386	2389	2392	2395	2398	2400	2403	2406	2409	2412	2412	2415	2412	2412	2409	2406	2403	2400	2398	2395	2392	2389	2386	2386	2389	2392	2398	2403	2412	2421	2433	2451	2463	2479	2491	2501	2513	2517	2520	2520	2517	2513	2510	2504	2501	2491	2485	2482	2476	2473	2469	2469	2476	2482	2488	2494	0	2501	2504	2513	2520	2523	2530	2536	2546	2552	2559	2569	2576	2586	2593	2599	2603	2606	2610	2613	2617	2617	2620	2620	2624	2624	2624	2624	2624	2624	2624	2627	2627	2631	2638	2634	2634	0	0	0	0	0	0	0	0	0	0	0	0	0	0	0	1034	1035	1036	1038	1038	1038	1039	1040	1040	1040	1041	1043	1044	1047	1051	1054	1056	1056	1057	1056	1055	1054	1050	1044	1042	1040	1038	1036	1035	1035	1035	1035	1035	1035	1035	1036	1037	1038	1039	1041	1041	1043	1045	1047	1048	1050	1051	1053	1054	1056	1057	1058	1058	1059	1059	1060	1060	1061	1062	1062	1062	1062	1063	1063	1063	1063	1062	1060	1060	1060	1060	1059	1058	1057	1057	1056	1056	1055	1053	1052	1051	1049	1047	1046	1044	1042	1040	1039	1037	1035	1032	1031	1030	1029	1028	1027	1027	1027	1027	1027	1028	1029	1030	1032	1032	1034	1035	1036	1038	1038	1038	1039	1038	1038	1038	1038	1038	1038	1038	1038	1038	1038	1039	1040	1040	1041	1042	1043	1044	1045	1046	1047	1047	1049	1050	1051	1051	1051	1051	1051	1050	1049	1048	1047	1046	1045	1045	1044	1044	1044	1044	1044	1045	1045	1045	1046	1046	1046	1045	1045	1044	1043	1043	1041	1041	1041	1040	1040	1041	1041	1042	1042	1043	1044	1045	1046	1047	1047	1047	1048	1049	1049	1050	1050	1051	1051	1051	1051	1051	1051	1051	1050	1049	1048	1047	1045	1045	1044	1043	1044	1044	1043	1044	1045	0	0	0	0	0	0	0	0	0	0	0	0	0	0	0	0	0	0	0	0	0	0	0	0	0	0	0	0	0	0	3843	3858	0	3874	3881	3889	3897	3897	3889	3897	3897	3897	3889	3889	3897	3889	3897	3904	3904	3912	3920	3920	3935	3943	3951	3959	3967	3975	3983	3991	3999	3991	3983	3983	3991	3999	3999	4007	4015	4032	4040	4048	4057	4065	4073	4082	4090	4099	4107	4107	4116	4124	4124	4133	4142	4150	4150	4159	4159	4168	4177	4194	4194	4203	4194	4203	4221	4230	4248	4248	4258	4267	4295	4313	4313	4313	4313	4304	4304	4285	4276	4258	4230	4221	4203	4194	4185	4177	4185	4185	4203	4221	4230	4239	4258	4276	4295	4313	4332	4351	4361	4390	4410	4439	4459	4480	4500	4521	4541	4552	4552	4573	4573	4584	4594	4594	4605	4605	4605	4605	4616	4616	4616	4627	4637	4648	4659	4681	4704	4715	4738	4760	4772	4795	4807	4818	4830	4842	4854	4866	4890	4902	4927	4939	4964	4989	5027	5040	5066	5079	5092	5105	5118	5131	5145	5158	5158	5172	5185	5185	5199	5213	5226	5226	5254	5282	5339	5383	5412	5457	5472	5503	5518	5534	5549	5565	5549	5549	5534	5549	5565	5565	5581	5581	5612	5743	5828	6005	6060	0	6116	6154	6193	6212	6097	6079	5987	5987	5968	5950	5933	5933	5933	5933	5933	5933	5933	5933	5933	5950	5950	5950	5950	5950	5968	5987	6005	6041	6060	6097	6135	6174	6212	6252	6292	6312	6456	6585	6674	6742	6789	6812	6836	6836	6836	6766	6697	6674	6629	6607	6585	6563	6520	6499	6414	6393	6373	6373	6352	6332	6312	6292	6272	6232	6212	6193	6154	6154	6154	6193	6252	6292	6373	6414	0	6477	6520	6563	6607	6629	6629	6674	6697	6720	6766	6789	6860	6883	6932	6956	6981	6981	7005
0	0	0	0	0	0	0	0	0	0	0	0	0	0	0	0	0	0	0	0	0	2392	2395	2398	2395	2398	2398	2395	2392	2389	2386	2383	2380	2380	2380	2383	2386	2386	2389	2392	2395	2398	2400	2403	2406	2409	2412	2412	2412	2412	2412	2412	2409	2406	2400	2398	2395	2395	2392	2389	2389	2389	2389	2395	2400	2406	2415	2421	2433	2448	2460	2473	2482	2491	2498	2501	2504	2507	2504	2504	2501	2498	2491	2488	2482	2476	2473	2469	2469	2473	2476	2482	2488	0	2498	2504	2507	2517	2520	2530	2536	2543	2546	2556	2562	2572	2582	2589	2596	2599	2606	2610	2613	2617	2620	2620	2624	2624	2624	2627	2624	2624	2627	2627	2631	2627	2631	2631	2634	2634	2634	2638	0	0	0	0	0	0	0	0	0	0	0	0	0	0	0	1037	1038	1039	1040	1040	1041	1041	1042	0	0	1045	1047	1051	1056	1060	1062	1063	1064	1063	0	1060	0	1053	1046	1044	1041	1039	1038	1038	1038	1038	1040	1040	1039	1041	1041	1041	1044	1046	1049	1050	1051	1054	1055	1057	1058	1059	1059	1060	1061	1062	1063	1063	1063	1063	1064	1064	1064	1065	1064	1064	1064	1065	1064	1064	1063	1063	1062	1062	1061	1060	1059	1058	1058	1058	1057	1056	1054	1052	1050	1049	1047	1045	1043	1041	1039	1037	1036	1034	1032	1031	1029	1028	1027	1027	1026	1026	1026	1026	1027	1028	1030	1032	1033	1034	1035	1036	1038	1038	1038	1038	1038	1038	1038	1038	1039	1038	1038	1038	1038	1039	1039	1039	1040	1040	1041	1041	1043	1044	1045	1046	1046	1048	1049	1050	1050	1050	1050	1049	1049	1047	1047	1046	1045	1044	1044	1043	1043	1043	1043	1044	1044	1044	1045	1045	1045	1044	1044	1043	1042	1041	1040	1039	1039	1038	1038	1037	1037	1038	1039	1039	1040	1041	1043	1044	1045	1045	1046	1046	1047	1047	1047	1047	1048	1049	1049	1049	1050	1049	1049	1049	1047	1046	1045	1045	1044	1042	1042	1042	1043	1043	1044	0	0	1047	0	0	0	0	0	0	0	0	0	0	0	0	0	0	0	0	0	0	0	0	0	0	0	0	0	0	0	0	3836	3851	3866	3866	3881	3881	3889	3889	3889	3897	3897	3889	3889	3881	3881	3881	3889	3889	3897	3904	3904	3912	3920	3928	3935	3951	3959	3967	3975	3983	3983	3975	3967	3975	3983	3983	3991	3999	4007	4024	4032	4048	4057	4065	4073	4082	4090	4099	4107	4116	4124	4133	4142	4150	4159	4159	4168	4168	4177	4177	4194	4203	4203	4203	4203	4212	4221	4239	4258	4258	4276	4285	4304	4332	4332	4342	4342	4342	4332	4313	4295	4267	4239	4221	4203	4194	4194	4177	4185	4185	4203	4221	4230	4239	4258	4276	4295	4313	4332	4351	4371	4400	4420	4449	4470	4490	4510	4531	4541	4552	4562	4573	4573	4584	4594	4594	4605	4605	4605	4605	4616	4616	4627	4637	4637	4648	4670	4681	4704	4715	4738	4760	4772	4795	4818	4830	4842	4854	4866	4878	4890	4914	4939	4964	4989	5014	5040	5066	5079	5092	5105	5105	5118	5118	5131	5131	5145	5145	5158	5145	5158	5158	5158	5185	5199	5226	5254	5311	5354	5398	5398	5427	5457	5457	5472	5472	5488	5488	5488	5488	5503	5503	5518	5518	5565	0	5743	5862	5933	5987	6023	6060	6097	6097	6023	6005	5968	5968	5968	5950	5933	5933	5933	5933	5933	5933	5933	5933	5933	5950	5950	5950	5950	5950	5950	5968	5987	6023	6060	6079	6116	6154	6193	6212	6252	6292	6393	6499	6563	6629	6652	6674	6697	6720	6720	6697	6629	6607	6607	6585	6563	6542	6520	6477	6435	6393	6373	6352	6352	6332	6312	6312	6292	6272	6212	6193	6174	6174	6193	6212	6272	6312	6373	0	6435	6477	6520	6563	6585	6607	6629	6674	6697	6720	6742	6789	6860	6908	6956	6981	7005	7005	7030
0	0	0	0	0	0	0	0	0	0	0	0	0	0	0	0	0	0	0	0	2406	2406	2406	2406	2406	2406	2406	2406	2400	2398	2392	2392	2389	2386	2386	2386	2389	2392	2395	2398	2400	2403	2403	2406	2409	2412	2412	2415	2415	2415	2412	2412	2409	2406	2400	2398	2395	2395	2392	2389	2389	2389	2392	2395	2400	2409	2415	2424	2433	2442	2454	2460	2469	2476	2482	2488	2491	2491	2491	2491	2491	2488	2485	2479	2476	2473	2473	2469	2469	2473	2479	2485	0	2491	2498	2504	2513	2520	2523	2533	2539	2546	2552	2559	2566	2576	2582	2589	2596	2603	2610	2610	2617	2617	2620	2624	2624	2627	2627	2627	2627	2627	2627	2631	2631	2631	2631	2634	2638	2638	2638	2641	0	0	0	0	0	0	0	0	0	2677	2677	2677	2677	0	0	1039	1040	1041	1042	1042	1043	0	0	0	0	0	0	0	0	1067	1069	1070	1071	1070	1069	0	0	0	0	1051	1045	1044	1041	1041	1041	1043	1044	1046	1046	1048	1049	1050	1052	0	1063	1064	1065	1066	1067	1067	1068	1069	1070	1070	1070	1070	1070	1070	1069	1068	1068	1068	1068	1068	1068	1067	1067	1067	1067	1066	1065	1064	1063	1063	1063	1062	1061	1060	1059	1059	1058	1057	1055	1051	1050	1048	1046	1044	1042	1040	1039	1036	1035	1032	1031	1029	1028	1028	1027	1026	1026	1025	1025	1026	1027	1028	1030	1031	1032	1034	1035	1036	1037	1038	1038	1038	1038	1038	1038	1038	1038	1038	1038	1038	1038	1038	1038	1038	1039	1039	1040	1041	1042	1043	1044	1045	1046	1047	1047	1048	1049	1049	1048	1047	1047	1046	1046	1045	1044	1043	1043	1043	1043	1043	1043	1043	1043	1044	1044	1043	1043	1043	1041	1041	1040	1039	1038	1036	1036	1035	1034	1034	1034	1034	1036	1036	1038	1038	1040	1041	1042	1043	1044	1044	1045	1046	1045	1046	1046	1046	1046	1046	1046	1047	1046	1045	1046	1045	1044	1043	1043	1041	1041	1041	1042	1042	1043	1044	1046	0	0	1052	0	0	0	0	0	0	0	0	0	0	0	0	0	0	0	0	0	0	0	0	0	0	0	0	0	0	0	0	3851	3858	3866	3874	3881	3881	3881	3889	3889	3881	3881	3874	3874	3874	3881	3881	3889	3889	3897	3897	3912	3920	3928	3935	3943	3951	3959	3967	3959	3967	3959	3959	3975	3975	3991	3999	4007	4024	4032	4048	4057	4065	4073	4082	4099	4107	4116	4124	4142	4150	4150	4159	4168	4177	4185	4185	4185	4194	4203	4212	4212	4212	4203	4212	4230	4248	4258	4276	4295	4323	4342	4361	4371	4361	4361	4361	4351	4332	4313	4285	4258	4230	4221	4203	4194	4185	4185	4194	4212	4221	4239	4248	4267	4285	4304	4323	4342	4361	4380	4400	4429	4449	4480	4490	4510	4531	4541	4562	4562	4573	4573	4584	4594	4605	4605	4605	4605	4605	4616	4616	4627	4637	4637	4648	4670	4681	4704	4715	4738	4760	4783	4807	4818	4842	4854	4866	4878	4890	4902	4927	4951	4976	5001	5027	5040	5066	5079	5092	5092	5105	5105	5105	5105	5118	5118	5118	5118	5105	5118	5118	5105	5118	5131	5158	5185	5226	5254	5282	5325	5339	5368	5383	5398	5412	5412	5427	5427	5427	5457	5457	5472	5488	5488	5503	5549	5596	5644	5845	5897	5950	6005	6005	5987	5968	5950	5950	5950	5933	5915	5915	5915	5933	5933	5933	5933	5933	5933	5933	5933	5933	5933	5933	5933	5950	5950	5987	6023	6060	6079	6116	6154	6193	6232	6272	6332	6435	6499	6542	6563	6585	6629	6629	6652	6652	6607	6585	6585	6585	6563	6542	6499	6477	6414	6393	6373	6373	6373	6352	6332	6312	6292	6292	6272	6212	6193	6212	6212	6252	6272	6332	6373	0	6435	6477	6520	6542	6563	6607	6629	6674	6697	6720	6766	6812	6860	6932	6981	6981	7005	7005	7030
0	0	0	0	0	0	0	0	0	0	0	0	0	0	0	0	0	0	2415	2415	2412	2415	2412	2412	2415	2418	2415	2418	2412	2409	2403	2400	2398	2395	2395	2395	2395	2398	2398	2400	2403	2406	2406	2409	2412	2412	2415	2415	2415	2415	2412	2412	2409	2406	2400	2398	2398	2395	2395	2392	2392	2395	2395	2398	2403	2409	2415	2424	2430	2439	2445	2454	2457	2463	2469	2473	2476	2479	2479	2479	2482	2479	2476	2473	2473	2469	2469	2469	2473	2476	2482	0	2491	2494	2504	2510	2517	2523	2530	2536	2543	2549	2556	2562	2572	2579	2586	2593	2596	2603	2610	2610	2617	2617	2620	2620	2624	2624	2624	2627	2627	2627	2631	2627	2627	2627	2627	2631	2634	2634	2638	2641	0	0	0	0	0	0	0	0	2677	2677	2677	2677	2681	2681	2684	0	0	0	1043	1043	1044	0	0	0	0	0	0	0	0	1070	1073	1075	1076	1077	1077	1073	1070	1066	1062	0	0	1051	0	1045	1046	0	0	1051	0	1058	1063	1067	0	0	1077	1078	1080	1080	1081	1080	1080	1080	1081	1081	1080	1080	1079	1079	1078	1077	1077	1075	1075	1075	1074	1071	1071	1070	1070	1068	1067	1066	1065	1064	1064	1063	1062	1061	1060	1059	1058	1057	1053	1051	1049	1047	1045	1043	1041	1040	1038	1036	1035	1032	1031	1029	1028	1027	1026	1025	1025	1025	1025	1026	1027	1028	1030	1031	1033	1034	1035	1036	1037	1038	1037	1037	1038	1038	1038	1038	1038	1038	1038	1037	1038	1038	1037	1038	1038	1038	1039	1040	1041	1042	1043	1044	1045	1046	1046	1046	1047	1047	1047	1046	1046	1045	1044	1044	1043	1043	1042	1042	1043	1043	1042	1043	1043	1042	1042	1041	1041	1041	1040	1039	1038	1036	1035	1034	1034	1033	1032	1031	1031	1032	1033	1033	1034	1035	1036	1039	1040	1041	1042	1043	1043	1043	1044	1043	1044	1044	1044	1044	1044	1044	1044	1044	1044	1044	1043	1042	1041	1040	1040	1041	1041	1041	1042	1044	1045	1047	0	1051	0	1057	0	0	0	0	0	0	0	0	0	0	0	0	0	0	0	0	0	0	0	0	0	0	0	0	0	0	0	0	3858	3866	3874	3874	3874	3881	3874	3874	3866	3866	3866	3866	3874	3874	3881	3889	3889	3897	3904	3912	3920	3928	3935	3935	3951	3951	3951	3951	3959	3959	3975	3983	3991	3999	4007	4024	4032	4048	4057	4065	4082	4090	4099	4116	4124	4133	4142	4159	4159	4168	4177	4185	4194	4203	4203	4203	4221	4221	4221	4221	4212	4221	4248	4267	4285	4304	4323	4342	4371	4390	4390	4390	4390	4380	4380	4351	4323	4295	4267	4248	4230	4212	4203	4185	4194	4203	4212	4230	4239	4248	4267	4285	4304	4323	4342	4361	4390	4410	4429	4449	4480	4490	4510	4531	4552	4562	4573	4573	4584	4584	4594	4605	4605	4605	4605	4616	4616	4627	4627	4637	4648	4659	4670	4693	4715	4726	4749	4772	4795	4807	4830	4842	4854	4866	4878	4890	4914	4927	4951	4964	4989	5014	5027	5053	5066	5079	5092	5092	5092	5092	5092	5079	5079	5079	5079	5066	5066	5066	5053	5066	5079	5092	5105	5145	5172	5213	5240	5268	5282	5311	5325	5354	5368	5383	5383	5398	5412	5427	5442	5442	5457	5488	5518	5581	5628	5693	5760	5810	5862	5880	5915	5933	5950	5950	5933	5915	5915	5915	5915	5915	5915	5933	5915	5933	5933	5933	5933	5933	5933	5933	5933	5950	5950	5968	5987	6023	6041	6079	6135	6174	6212	6272	6332	6393	6435	6499	6542	6585	6607	6607	6629	6629	6607	6607	6585	6563	6563	6542	6499	6456	6435	6414	6393	6373	6373	6352	6352	6332	6332	6312	6292	6252	6232	6252	6252	6272	6312	0	6373	6414	6456	6499	6542	6563	6585	6607	6629	6674	6697	6742	6789	6836	6883	6956	6981	7005	7030	7030	7056
0	0	0	0	0	0	0	0	0	0	0	0	0	0	0	0	0	2418	2418	2418	2418	2418	2418	2418	2421	2421	2424	2424	2421	2418	2415	2409	2403	2400	2400	2400	2400	2400	2403	2403	2406	2406	2409	2409	2412	2415	2415	2418	2418	2415	2415	2412	2409	2409	2406	2403	2398	2398	2398	2398	2398	2398	2400	2403	2409	2412	2415	2421	2427	2433	2436	2442	2448	2451	2454	2460	2463	2463	2469	2473	2473	2473	2473	2469	2469	2469	2469	2473	2476	2479	2482	2485	2494	2501	2510	2513	2523	2530	2536	2543	2549	2556	2559	2566	2576	2582	2589	2593	2599	2603	2610	2613	2613	2617	2617	2620	2620	2624	2624	2624	2627	2627	2627	2627	2627	2627	2627	2631	2631	2634	2638	2641	2645	2648	0	0	0	0	0	2677	2677	2677	2677	2677	2677	2681	2684	2684	2688	0	0	0	0	0	0	0	0	0	0	0	0	0	1080	1082	1083	1083	1083	1082	1080	1076	0	0	0	1057	1054	1051	1051	1053	0	0	0	0	1076	1081	1084	0	0	0	0	1093	1092	1093	1092	1091	1091	1091	1090	1088	1088	1088	1087	1086	1085	1084	1083	1082	1081	1080	1078	1077	1074	1072	1070	1068	1067	1067	1066	1066	1064	1062	1061	1060	1059	1056	1052	1050	1048	1046	1044	1043	1041	1039	1037	1035	1034	1032	1030	1029	1027	1026	1026	1025	1025	1024	1025	1025	1026	1028	1029	1031	1032	1034	1035	1036	1036	1037	1036	1037	1037	1037	1037	1038	1037	1037	1036	1036	1036	1036	1036	1036	1037	1037	1038	1039	1040	1041	1041	1043	1044	1044	1045	1045	1046	1046	1045	1045	1045	1044	1044	1043	1043	1043	1043	1043	1042	1042	1042	1042	1041	1041	1041	1040	1040	1039	1038	1037	1036	1035	1033	1033	1032	1031	1030	1029	1029	1029	1030	1031	1031	1033	1033	1035	1036	1038	1039	1040	1040	1041	1041	1041	1041	1041	1041	1041	1041	1043	1042	1042	1042	1042	1041	1041	1040	1040	1040	1040	1040	1041	1041	1043	1045	1047	0	1050	1053	1056	1059	1064	0	0	0	0	0	0	0	0	0	0	0	0	0	0	0	0	0	0	0	0	0	0	0	0	0	0	0	3858	3866	3866	3866	3874	3866	3866	3858	3858	3858	3866	3866	3866	3874	3881	3881	3889	3897	3904	3912	3920	3928	3928	3943	3951	3951	3951	3951	3967	3975	3983	3991	4007	4007	4032	4040	4057	4057	4073	4082	4099	4107	4124	4124	4142	4150	4159	4168	4177	4185	4194	4203	4203	4212	4212	4221	4230	4230	4221	4230	4239	4258	4285	4295	4313	4332	4351	4390	4400	4410	4410	4410	4410	4400	4371	4342	4313	4285	4267	4248	4221	4212	4203	4203	4212	4230	4239	4248	4258	4276	4295	4313	4332	4351	4371	4390	4420	4439	4459	4480	4500	4521	4531	4552	4562	4573	4584	4584	4594	4605	4605	4605	4616	4616	4616	4627	4627	4637	4648	4659	4670	4681	4704	4715	4738	4760	4783	4807	4830	4842	4854	4878	4890	4890	4902	4914	4927	4951	4976	4989	5014	5027	5040	5053	5066	5066	5066	5066	5066	5053	5053	5053	5053	5040	5027	5027	5014	5014	5027	5027	5040	5053	5079	5105	5131	5172	5199	5226	5240	5268	5296	5311	5339	5354	5368	5383	5398	5412	5427	5442	5457	5503	5549	5612	5661	5726	5776	5810	5862	5897	5915	5915	5915	5915	5897	5897	5897	5897	5915	5915	5915	5915	5933	5933	5933	5915	5915	5933	5915	5933	5933	5933	5950	5968	6005	6041	6079	6135	6174	6212	6272	6332	6414	6456	6520	6585	6607	6629	6674	6652	6652	6629	6629	6607	6563	6542	6542	6499	6477	6435	6414	6393	6393	6393	6373	6373	6352	6332	6332	6312	6312	6272	6292	6292	6312	0	6352	6414	6456	6477	6520	6563	6585	6607	6607	6652	6674	6720	6742	6812	6860	6908	6981	7005	7030	7030	7030	7056
0	0	0	0	0	0	0	0	0	0	0	0	0	0	0	0	2421	2421	2421	2424	2421	2421	2424	2424	2427	2430	2430	2430	2430	2427	2424	2418	2409	2406	2406	2406	2403	2406	2406	2406	2409	2409	2412	2412	2412	2415	2418	2418	2418	2418	2418	2415	2412	2412	2406	2406	2403	2403	2403	2403	2403	2403	2406	2409	2415	2418	2421	2424	2427	2430	2430	2436	2436	2442	2445	2448	2451	2454	2460	2460	2466	2469	2466	2469	2469	2473	2476	2476	2479	2482	2485	2491	2501	2507	2510	2520	2526	2536	2543	2546	2552	2559	2566	2569	2576	2582	2589	2596	2599	2606	2606	2610	2613	2617	2617	2620	2620	2624	2624	2624	2627	2627	2627	2627	2627	2627	2627	2631	2631	2631	2634	2638	2645	2645	2655	2659	2662	2670	2670	2673	2673	2673	2677	2677	2677	2681	2684	2684	2688	2688	0	0	0	0	0	0	0	0	0	0	0	0	0	1088	1088	1089	1088	1087	1084	1081	1074	0	1066	0	0	1058	1057	1060	0	0	0	1083	0	1090	1093	1096	0	1102	1106	1107	1107	1104	1103	1103	1102	1102	1101	1099	1098	1097	1096	1094	1094	1092	1091	1090	1089	1087	1085	1082	1081	1079	1074	1072	1070	1073	1071	1068	1066	1064	1062	1060	1058	1053	1051	1049	1046	1045	1043	1041	1040	1038	1036	1035	1034	1031	1030	1028	1027	1027	1026	1025	1024	1024	1024	1025	1026	1027	1029	1030	1032	1033	1034	1035	1036	1036	1036	1036	1036	1036	1036	1036	1036	1036	1035	1035	1035	1035	1035	1035	1035	1036	1037	1038	1039	1039	1041	1041	1042	1043	1044	1045	1045	1045	1045	1045	1044	1044	1043	1043	1042	1042	1042	1042	1041	1041	1041	1041	1041	1040	1040	1039	1038	1038	1036	1035	1034	1033	1032	1032	1030	1029	1028	1027	1027	1027	1028	1028	1029	1030	1031	1032	1034	1036	1038	1038	1038	1039	1039	1039	1039	1039	1039	1039	1040	1040	1040	1041	1041	1040	1040	1039	1039	1039	1039	1039	1039	1040	1041	1043	1045	1047	0	1050	1053	1056	1059	1063	1068	1072	0	0	0	0	0	0	0	0	0	0	0	0	0	0	0	0	0	0	0	0	0	0	0	0	0	0	0	3866	3866	3866	3866	3866	3858	3851	3858	3858	3858	3866	3874	3881	3881	3889	3897	3904	3912	3920	3928	3935	3943	3951	3951	3959	3959	3967	3975	3983	3991	4007	4015	4032	4048	4057	4065	4082	4090	4099	4107	4124	4133	4142	4150	4168	4159	4168	4168	4177	4185	4194	4203	4212	4221	4221	4221	4221	4230	4239	4267	4285	4304	4313	4332	4361	4400	4420	4429	4429	4429	4429	4420	4390	4361	4332	4304	4276	4258	4239	4230	4212	4221	4230	4239	4248	4258	4267	4285	4304	4323	4342	4361	4380	4400	4420	4439	4470	4490	4500	4521	4531	4552	4573	4573	4584	4594	4594	4605	4616	4616	4616	4616	4627	4627	4637	4648	4659	4670	4681	4693	4715	4726	4749	4772	4795	4818	4842	4854	4866	4890	4902	4902	4914	4927	4939	4951	4976	4976	5001	5014	5027	5027	5040	5040	5040	5027	5040	5040	5027	5027	5014	5001	5001	4989	4989	4976	4976	4989	5001	5001	5027	5053	5092	5105	5145	5172	5199	5226	5254	5282	5311	5325	5354	5368	5383	5383	5398	5412	5442	5472	5503	5565	5612	5677	5726	5776	5828	5862	5880	5897	5915	5897	5897	5897	5897	5897	5915	5915	5915	5915	5933	5933	5933	5915	5915	5915	5915	5915	5915	5933	5933	5950	5987	6023	6060	6116	6154	6212	6292	6373	6477	6542	6607	6674	6720	6766	6766	6742	6697	6652	6652	6585	6563	6542	6520	6499	6477	6435	6435	6414	6414	6393	6393	6373	6393	6373	6373	6373	6352	6332	6312	6332	6332	6373	6393	6435	6477	6520	6563	6585	6607	6629	6629	6674	6697	6742	6789	6836	6883	6932	7005	7030	7056	7056	7056	7056
0	0	0	0	0	0	0	0	0	0	0	0	0	0	0	0	2418	2421	2418	2421	2421	2424	2424	2427	2430	2436	2436	2436	2436	2433	2427	2427	2415	2412	2412	2409	2409	2409	2406	2406	2409	2409	2409	2409	2412	2412	2415	2418	2418	2418	2418	2418	2415	2415	2412	2412	2409	2409	2409	2412	2412	2412	2415	2415	2418	2421	2424	2427	2427	2430	2430	2430	2433	2433	2436	2442	2442	2445	2448	2454	2457	2463	2463	2466	2469	2473	2479	2482	2485	2491	2498	2501	2507	2513	2520	2526	2533	2539	2546	2549	2556	2562	2569	2576	2579	2586	2593	2596	2599	2603	2606	2610	2613	2617	2617	2620	2620	2620	2624	2624	2627	2627	2627	2627	2627	2627	2627	2627	2627	2627	2631	2634	2641	2645	2648	2655	2659	2662	2666	2670	2670	2673	2673	2673	2677	2681	2684	2684	2684	2688	0	0	0	0	0	0	0	0	0	0	0	0	0	1091	1091	1090	1090	1089	1087	1085	1080	1074	1070	0	1066	1063	1064	1067	0	0	0	1087	1097	1103	1107	1107	1113	1114	1114	1115	1114	1113	1112	1112	1111	1110	1110	1109	1107	1107	1106	1105	1104	1102	1099	1098	1097	1094	1093	1090	1095	1091	1088	1085	1082	1077	1074	1071	1068	1065	1063	1060	1058	1051	1049	1047	1045	1043	1041	1040	1039	1037	1036	1035	1034	1032	1030	1029	1027	1027	1026	1025	1024	1024	1024	1025	1026	1027	1028	1030	1032	1033	1034	1035	1035	1035	1036	1035	1035	1036	1035	1035	1035	1034	1034	1034	1034	1034	1033	1034	1034	1035	1036	1037	1038	1039	1040	1040	1041	1042	1043	1043	1044	1044	1044	1044	1043	1043	1043	1043	1043	1042	1042	1043	1042	1042	1041	1041	1040	1039	1039	1038	1037	1036	1035	1034	1033	1032	1031	1029	1029	1028	1027	1026	1025	1025	1026	1026	1027	0	1028	1030	1032	1034	1035	1036	1036	1036	1036	1036	1037	1037	1037	1038	1038	1039	1039	1039	1039	1039	1039	1038	1038	1038	1038	1038	1039	1040	1041	1043	1045	1047	0	1050	1053	1056	1059	1063	1067	1072	1075	0	0	0	0	0	0	0	0	0	0	0	0	0	0	0	0	0	0	0	0	0	0	0	0	0	0	0	3858	3858	3858	3858	3851	3851	3851	3851	3858	3866	3874	3881	3881	3889	3897	3904	3912	3920	3928	3935	3943	3951	3951	3959	3959	3967	3983	3991	3999	4007	4024	4040	4057	4065	4073	4090	4099	4107	4116	4124	4133	4142	4142	4150	4150	4159	4168	4168	4177	4185	4194	4203	4212	4221	4221	4221	4221	4239	4267	4285	4304	4323	4342	4371	4410	4429	4439	4439	4439	4439	4429	4400	4380	4351	4323	4295	4276	4258	4248	4230	4239	4248	4258	4267	4276	4285	4295	4323	4332	4351	4371	4390	4410	4429	4449	4470	4490	4510	4521	4541	4552	4573	4584	4594	4594	4605	4616	4616	4627	4627	4627	4637	4637	4648	4659	4659	4670	4693	4704	4726	4738	4760	4783	4807	4830	4854	4866	4890	4902	4914	4914	4914	4927	4939	4951	4976	4976	4989	5001	5014	5014	5027	5027	5027	5014	5014	5014	5014	5014	5001	4989	4976	4964	4964	4964	4951	4964	4964	4976	4989	5014	5040	5079	5105	5131	5172	5199	5226	5268	5282	5311	5325	5354	5368	5383	5398	5412	5427	5457	5503	5549	5596	5644	5710	5760	5810	5845	5880	5897	5915	5915	5915	5915	5915	5915	5915	5915	5933	5933	5933	5933	5933	5933	5915	5915	5915	5915	5915	5915	5933	5950	5987	6041	6079	6116	6154	6252	6352	6499	6585	6674	6766	6860	0	6908	6932	6883	6789	6720	6674	6607	6563	6542	6542	6520	6477	6456	6456	6435	6435	6414	6414	6414	6414	6393	6414	6393	6393	6373	6373	6393	6373	6414	6435	6477	6520	6563	6585	6607	6629	6652	6674	6720	6742	6766	6812	6860	6908	6956	7030	7056	7056	7056	7081	7081
0	0	0	0	0	0	0	0	0	0	0	0	0	0	0	2406	2409	2406	2409	2412	2412	2415	2418	2424	2430	2433	2436	2436	2439	2436	2430	2430	2424	2415	2415	2412	2412	2409	2406	2406	2406	2406	2406	2406	2409	2409	2412	2415	2415	2418	2418	2418	2418	2418	2418	2418	2418	2418	2418	2418	2418	2421	2421	2424	2427	2427	2430	2433	2433	2433	2430	2430	2433	2430	2433	2436	2436	2442	2445	2448	2454	2463	2466	2473	2476	2479	2485	2488	2494	2498	2501	2507	2510	2517	2523	2530	2536	2543	2549	2556	2562	2569	2572	2579	2582	2589	2593	2596	2599	2603	2606	2610	2613	2617	2617	2620	2620	2620	2620	2624	2624	2627	2627	2627	2627	2627	2624	2627	2627	2627	2631	2631	2638	2641	2645	2652	2659	2662	2662	2666	2670	2670	2673	2673	2673	2681	2681	2684	2684	2684	0	0	0	0	0	0	0	0	0	0	0	0	0	0	1093	1093	1091	1089	1088	1085	1082	1076	1073	1071	1070	1068	1070	1074	0	0	0	1097	1107	1114	1117	1117	1117	1118	1119	1119	1120	1120	1118	1118	1118	1118	1118	1117	1116	1115	1115	1112	1111	1110	1109	1107	1110	1108	1106	1101	1099	1096	1093	1090	1087	1084	1077	1073	1069	1066	1062	1059	1056	1050	1047	1045	1043	1041	1040	1039	1038	1036	1035	1035	1034	1032	1031	1029	1028	1028	1027	1026	1025	1025	1025	1025	1027	1027	1029	1030	1032	1033	1034	1034	1035	1035	1034	1034	1034	1035	1034	1034	1033	1033	1033	1032	1032	1032	1032	1033	1033	1034	1035	1035	1036	1038	1039	1039	1040	1041	1041	1043	1043	1043	1043	1043	1043	1043	1043	1042	1043	1043	1043	1043	1043	1041	1041	1040	1040	1039	1038	1037	1036	1035	1034	1033	1032	1030	1029	1028	1027	1026	1025	1024	1023	1023	1023	1024	1024	1025	1026	1029	0	1031	1033	1033	1033	1034	1034	1034	1034	1035	1035	1036	1036	1036	1037	1037	1037	1037	1037	1037	1037	1037	1037	1038	1038	1039	1041	1044	1045	0	1047	1050	1054	1056	1060	1064	1068	1071	0	1079	1083	0	0	0	0	0	0	0	0	0	0	0	0	0	0	0	0	0	0	0	0	0	0	0	0	0	0	0	3851	3843	3851	3843	3851	3858	3858	3866	3874	3881	3881	3889	3904	3912	3920	3920	3928	3935	3943	3951	3959	3959	3967	3975	3983	3999	4007	4015	4032	4048	4057	4073	4082	4090	4099	4107	4116	4124	4133	4142	4142	4142	4142	4150	4159	4159	4168	4168	4185	4194	4203	4221	4221	4221	4221	4239	4267	4285	4304	4313	4342	4380	4410	4429	4439	4439	4449	4449	4439	4420	4390	4361	4332	4304	4285	4276	4258	4248	4258	4267	4276	4285	4295	4304	4313	4323	4342	4361	4380	4400	4420	4439	4459	4480	4500	4510	4531	4541	4562	4573	4594	4605	4605	4616	4627	4627	4637	4637	4637	4637	4648	4659	4659	4670	4681	4693	4715	4726	4749	4772	4795	4818	4830	4854	4878	4890	4902	4914	4914	4927	4939	4939	4951	4964	4964	4976	4976	4989	5001	5001	5001	5001	5001	5001	5014	5014	5001	5001	4989	4976	4964	4964	4951	4951	4951	4964	4951	4976	4989	5014	5040	5066	5105	5131	5172	5199	5240	5268	5296	5325	5354	5383	5398	5398	5427	5442	5488	5518	5565	5612	5661	5726	5776	5828	5862	5897	5915	5915	5915	5915	5915	5915	5933	5933	5950	5933	5933	5950	5950	5950	5933	5915	5915	5915	5915	5915	5915	5933	5950	5987	6041	6079	6154	6212	6292	6456	6629	6742	0	6836	6981	7081	7106	0	7184	7056	6789	6720	6629	6563	6542	6542	6520	6499	6477	6456	6456	6456	6435	6435	6435	6435	6435	6456	6435	6435	6414	6435	6414	6414	6435	6456	6520	6563	6585	6629	6652	6652	6674	6697	6742	6789	6812	6836	6908	6932	6981	7030	7081	7081	7081	7081	7081
0	0	0	0	0	0	0	0	0	0	0	0	0	0	0	0	0	0	2389	2395	2398	2403	2406	2415	2424	2430	2436	2439	2436	2436	2433	2430	2427	2418	2415	2412	2412	2409	2406	2406	2406	2403	2403	2403	2403	2406	2409	2412	2415	2415	2418	2418	2418	2421	2421	2421	2421	2421	2424	2424	2427	2427	2427	2430	2433	2433	2436	2436	2436	2433	2436	2433	2436	2433	2436	2436	2439	2439	2448	2454	2463	2469	2476	2482	2485	2491	2494	2501	2504	2507	2510	2513	2517	2523	2526	2533	2539	2549	2552	2559	2566	2569	2576	2582	2586	2589	2593	2596	2599	2603	2606	2610	2613	2617	2617	2617	2620	2617	2620	2620	2624	2624	2627	2627	2627	2624	2624	2624	2624	2624	2627	2631	2638	2641	2648	2648	2655	2659	2659	2666	2666	2670	2670	2673	2677	2677	2681	2681	2684	2684	0	0	0	0	0	0	0	0	0	0	0	0	0	0	0	0	1091	1090	1088	1085	1082	1077	1074	1073	1073	1071	1074	1081	0	0	0	0	1113	0	1120	1121	1121	1122	1123	1124	1124	1125	1124	1124	1124	1124	1122	1122	1121	1120	1123	1122	1121	1119	1117	1115	1114	1112	1109	1104	1102	1100	1097	1094	1091	1087	1083	1074	1070	1065	1061	1057	1050	1047	1045	1043	1041	1040	1039	1038	1037	1036	1036	1035	1035	1034	1032	1031	1030	1029	1028	1027	1026	1025	1025	1026	1027	1027	1028	1029	1031	1032	1033	1033	1034	1034	1033	1033	1033	1033	1033	1033	1032	1032	1031	1031	1031	1031	1031	1031	1032	1032	1033	1034	1035	1036	1038	1038	1039	1040	1041	1041	1042	1043	1043	1043	1043	1043	1043	1043	1043	1043	1043	1043	1043	1041	1041	1040	1039	1038	1037	1036	1035	1034	1033	1032	1030	1029	1028	1027	1026	1025	1023	1021	1021	1020	1021	1021	1021	1021	1024	1025	1028	1029	1029	1030	1031	1031	1031	1032	1032	1033	1033	1034	1034	1034	1035	1035	1035	1035	1035	1036	1036	1036	1036	1037	1038	1040	1042	1043	1046	0	1048	1051	1054	1057	1061	1064	1069	1072	1075	1078	1082	0	1087	0	0	0	0	0	0	0	0	0	0	0	0	0	0	0	0	0	0	0	0	0	0	0	0	0	0	3843	3843	3851	3851	3851	3866	3874	3874	3881	3889	3897	3912	3920	3920	3928	3935	3943	3943	3951	3959	3967	3975	3983	3999	3999	4007	4024	4040	4057	4065	4082	4090	4107	4107	4116	4116	4124	4133	4133	4133	4133	4142	4142	4142	4150	4150	4168	4168	4185	4203	4221	4212	4212	4221	4239	4267	4285	4295	4313	4332	4371	4400	4420	4429	4429	4439	4439	4429	4410	4380	4361	4332	4313	4295	4285	4267	4258	4258	4267	4276	4285	4295	4304	4323	4332	4351	4380	4400	4420	4429	4449	4470	4490	4510	4521	4541	4552	4573	4584	4594	4605	4616	4627	4627	4637	4637	4637	4648	4648	4659	4659	4670	4670	4681	4693	4715	4738	4749	4772	4783	4807	4830	4854	4878	4890	4902	4902	4914	4914	4927	4927	4939	4951	4951	4951	4951	4964	4964	4976	4989	4989	4989	5001	5001	5014	5014	5001	4989	4989	4976	4964	4951	4951	4951	4951	4951	4964	4976	5001	5014	5053	5079	5105	5145	5185	5213	5254	5282	5325	5354	5383	5398	5412	5442	5472	5503	5534	5596	5661	5693	5760	5810	5845	5897	5897	5915	5933	5933	5933	5933	5933	5933	5933	5950	5950	5950	5968	5950	5950	5950	5950	5933	5915	5915	5915	5915	5933	5950	5987	6041	6079	6174	6252	6352	6563	6742	0	6932	7056	7210	7371	7427	7455	7483	7290	0	0	6652	6542	6563	6542	6542	6520	6499	6477	6477	6477	6456	6456	6456	6456	6456	6477	6477	6477	6456	6456	6456	6456	6477	6499	6520	6585	6607	6652	6674	6697	6720	6742	6766	6812	6836	6860	6932	6981	7005	7056	7081	7081	7081	7081	7081
0	0	0	0	0	0	0	0	0	0	0	0	0	0	0	0	0	0	2377	2380	2386	2392	2398	2406	2415	2424	2430	2433	2433	2433	2430	2430	2427	2418	2415	2412	2409	2409	2406	2403	2403	2400	2400	2400	2403	2403	2406	2409	2412	2415	2418	2418	2418	2421	2421	2421	2424	2424	2427	2430	2430	2430	2433	2436	2436	2439	2439	2442	2439	2439	2439	2439	2439	2439	2439	2439	2439	2445	2451	2460	2469	2479	2485	2491	2494	2501	2507	2510	2513	2517	2520	2520	2523	2526	2533	2539	2546	2552	2559	2562	2569	2576	2582	2586	2589	2593	2596	2596	2599	2603	2606	2610	2613	2613	2617	2617	2617	2617	2620	2620	2620	2620	2620	2620	2624	2624	2624	2620	2624	2624	2627	2631	2634	2641	2645	2648	2652	2655	2659	2662	2662	2666	2670	2670	2673	2677	2677	2681	2681	2684	2688	2691	2695	2699	2706	2710	0	0	0	0	0	0	0	0	0	0	0	0	0	0	0	1080	1077	1078	1078	1078	0	1082	1089	0	0	1110	0	1118	1122	1123	1124	1124	1126	1126	1127	1128	1128	1128	1128	1128	1128	1128	1127	1126	1126	1124	1122	1121	1119	1118	1115	1114	1112	1110	1107	1102	1100	1097	1094	1090	1085	1075	1070	1065	1060	1056	1048	1045	1043	1040	1039	1038	1037	1036	1036	1036	1035	1035	1035	1035	1034	1033	1032	1031	1029	1028	1027	1027	1026	1026	1027	1028	1028	1029	1031	1031	1032	1032	1033	1032	1032	1032	1031	1032	1031	1031	1031	1029	1029	1029	1029	1029	1029	1029	1030	1031	1032	1033	1034	1035	1036	1037	1038	1039	1040	1041	1042	1043	1043	1043	1043	1043	1043	1043	1043	1043	1043	1042	1042	1041	1040	1040	1039	1038	1036	1035	1034	1033	1032	1031	1029	1028	1027	1026	1025	1023	1021	1020	1019	1019	1019	1019	1019	1019	1021	1023	1024	1026	1027	1027	1028	1028	1028	1029	1029	1030	1031	1031	1032	1032	1033	1033	1033	1033	1034	1034	1034	1035	1035	1036	1038	1039	1042	1044	1046	0	1049	1051	1055	1058	1061	1066	1068	1072	1075	1078	1081	0	1085	1089	0	0	0	0	0	0	0	0	0	0	0	0	0	0	0	0	0	0	0	0	0	0	0	0	0	0	0	3843	3851	3858	3866	3874	3881	3889	3904	3912	3912	3920	3928	3928	3935	3943	3951	3959	3967	3975	3983	3991	3999	4007	4015	4032	4048	4065	4073	4082	4090	4107	4107	4116	4116	4124	4124	4124	4133	4133	4133	4133	4142	4142	4150	4159	4168	4185	4194	4212	4212	4221	4221	4239	4267	4285	4295	4313	4323	4351	4390	4400	4410	4420	4420	4429	4420	4400	4371	4351	4332	4313	4295	4276	4267	4258	4258	4267	4276	4295	4304	4323	4332	4351	4371	4400	4420	4439	4449	4470	4490	4500	4521	4531	4541	4552	4573	4584	4605	4616	4616	4627	4637	4648	4648	4648	4659	4659	4670	4670	4670	4681	4693	4704	4715	4738	4760	4772	4783	4807	4830	4842	4866	4878	4890	4902	4902	4902	4902	4914	4914	4914	4914	4927	4927	4927	4939	4951	4964	4964	4989	5001	5001	5014	5014	5014	5001	5001	4989	4976	4964	4964	4951	4951	4951	4964	4976	4989	5014	5027	5053	5092	5131	5158	5199	5240	5268	5311	5354	5383	5398	5427	5457	5488	5518	5581	5628	5693	5743	5793	5828	5880	5915	5933	5950	5950	5933	5933	5933	5933	5950	5950	5950	5950	5968	5968	5968	5968	5950	5950	5933	5915	5915	5897	5915	5933	5950	5987	6041	6079	6135	6252	6373	6607	0	0	0	7263	7483	7657	7747	7839	7871	7628	0	0	6697	6563	6542	6563	6542	6520	6499	6499	6499	6499	6499	6499	6499	6499	6499	6520	6520	6499	6499	6499	6499	6477	6499	6520	6563	6607	6652	6674	6697	6720	6766	6766	6860	6883	6883	6932	6956	7005	7030	7056	7081	7081	7056	7056	7081
0	0	0	0	0	0	0	0	0	0	0	0	0	0	0	0	0	0	2366	2369	2374	2380	2389	2400	2409	2418	2424	2427	2430	2427	2427	2424	2424	2415	2412	2409	2409	2406	2403	2400	2400	2398	2398	2398	2400	2400	2403	2406	2409	2412	2415	2418	2418	2421	2421	2424	2424	2424	2430	2430	2433	2433	2433	2436	2439	2439	2442	2445	2442	2442	2442	2442	2445	2442	2445	2445	2448	2451	2463	2469	2479	2485	2494	2501	2504	2510	2517	2523	2523	2526	2530	2530	2533	2530	2536	2539	2549	2556	2562	2569	2576	2582	2586	2589	2593	2593	2596	2599	2603	2603	2606	2610	2613	2613	2613	2613	2617	2617	2617	2617	2620	2620	2620	2620	2620	2620	2620	2620	2620	2620	2624	2631	2631	2638	2641	2645	2648	2652	2655	2659	2659	2662	2666	2666	2673	2673	2677	2677	2681	2681	2684	2691	2691	2695	2703	2706	0	0	0	0	0	0	0	0	0	0	0	0	0	0	0	1084	1082	1082	1083	1085	1086	1090	1096	1102	0	1115	0	1121	1124	1125	1125	1126	1126	1127	1127	1128	1128	1128	1128	1128	1128	1128	1128	1126	1126	1124	1123	1122	1121	1119	1117	1115	1114	1111	1109	1104	1102	1099	1096	1092	1087	1076	1070	1064	1059	1050	1046	1043	1040	1039	1038	1036	1035	1035	1035	1035	1035	1035	1035	1035	1034	1034	1033	1032	1031	1030	1029	1028	1027	1027	1028	1028	1028	1029	1029	1030	1030	1031	1031	1031	1031	1030	1029	1029	1029	1029	1028	1028	1027	1027	1027	1027	1028	1028	1029	1029	1031	1032	1033	1033	1035	1036	1037	1038	1039	1040	1042	1042	1043	1043	1043	1043	1043	1043	1043	1043	1042	1042	1042	1041	1040	1040	1039	1037	1036	1035	1034	1032	1031	1029	1028	1027	1026	1025	1024	1022	1020	1019	1018	1017	1017	1016	1016	1016	1018	1019	1020	1023	1023	1024	1025	1025	1026	1026	1027	1028	1029	1029	1030	1030	1031	1031	1032	1032	1032	1033	1033	1033	1034	1035	1038	1039	1042	1044	0	1047	1050	1053	1056	1059	1063	1066	1070	1073	1075	1078	1081	0	1084	1087	1090	1093	1095	0	0	0	0	0	0	0	0	0	0	0	0	0	0	0	0	0	0	0	0	0	0	0	0	0	0	3858	3874	3881	3889	3897	3904	3912	3920	3928	3928	3935	3943	3943	3951	3959	3967	3975	3975	3991	3999	4015	4024	4040	4048	4065	4073	4082	4090	4099	4107	4116	4116	4124	4124	4124	4124	4124	4124	4133	4124	4133	4150	4150	4168	4177	4185	4212	4221	4212	4230	4239	4267	4285	4295	4304	4323	4342	4371	4380	4390	4400	4400	4400	4390	4371	4351	4332	4313	4295	4285	4267	4267	4258	4267	4276	4285	4295	4313	4332	4351	4371	4390	4420	4439	4459	4480	4480	4500	4521	4531	4541	4552	4562	4573	4594	4605	4616	4627	4637	4648	4648	4659	4659	4670	4670	4681	4681	4681	4693	4693	4715	4726	4738	4760	4772	4783	4807	4818	4842	4854	4866	4878	4878	4878	4890	4878	4890	4890	4890	4890	4890	4902	4914	4927	4939	4951	4951	4976	4989	5001	5014	5027	5027	5027	5014	5001	5001	4989	4976	4964	4964	4964	4964	4976	4976	5001	5027	5040	5079	5118	5145	5199	5240	5268	5311	5354	5383	5412	5427	5472	5503	5549	5612	5677	5726	5793	5828	5862	5897	5915	5950	5950	5950	5950	5933	5933	5933	5950	5950	5950	5968	5968	5968	5968	5968	5968	5950	5933	5933	5915	5915	5915	5933	5950	5968	6023	6041	6135	6252	6393	0	0	0	7236	7483	7778	8031	8130	8231	8266	7934	0	0	6766	6629	6607	6585	6563	6542	6520	6520	6520	6542	6542	6542	6542	6542	6542	6563	6563	6563	6542	6542	6520	6520	6520	6542	6563	6629	6674	6697	6789	6812	6860	6860	6908	6932	6932	6956	6981	7005	7030	7056	7056	7056	7056	7056	7081
0	0	0	0	0	0	0	0	0	0	0	0	0	0	0	0	0	2355	2357	2369	0	2374	2383	2392	2400	2409	2415	2418	2421	2418	2418	2418	2412	2409	2406	2406	2406	2403	2400	2398	2398	2395	2395	2395	2398	2398	2400	2406	2409	2412	2412	2415	2418	2421	2421	2424	2424	2427	2430	2433	2433	2436	2436	2439	2439	2445	2445	2448	2448	2448	2448	2451	2451	2454	2454	2454	2454	2463	2466	2476	2485	2494	2498	2504	2510	2513	2520	2526	2530	2530	2533	2533	2533	2536	2539	2546	2552	2559	2566	2572	2579	2582	2589	2593	2593	2596	2599	2599	2603	2603	2606	2610	2610	2610	2613	2613	2613	2613	2613	2613	2617	2617	2620	2617	2617	2617	2620	2617	2620	2624	2624	2627	2631	2634	2638	2641	2645	2648	2652	2655	2659	2659	2662	2666	2670	2673	2673	2677	2677	2681	2684	2688	2695	2695	2699	2703	2706	2714	0	0	0	0	0	0	0	0	0	0	0	0	0	0	1089	1089	1091	1093	1094	1099	1103	0	0	0	1119	1124	1126	1126	1127	1127	1127	1126	1126	1126	1127	1127	1127	1128	1128	1128	1127	1126	1126	1124	1123	1122	1121	1119	1117	1115	1114	1112	1110	1108	1103	1100	1098	1093	1088	1076	1070	1064	1059	1049	1045	1041	1039	1038	1036	1035	1035	1035	1035	1035	1035	1035	1035	1035	1035	1035	1034	1033	1033	1032	1031	1029	1029	1028	1028	1028	1028	1028	1028	1029	1028	1028	1028	1028	1028	1028	1028	1027	1027	1027	1027	1026	1026	1026	1027	1026	1027	1027	1027	1028	1029	1031	1032	1032	1034	1035	1036	1037	1039	1040	1041	1042	1043	1043	1043	1043	1043	1043	1043	1042	1042	1042	1041	1041	1040	1039	1038	1036	1035	1034	1033	1032	1030	1028	1027	1026	1025	1024	1022	1020	1019	1018	1016	1016	1015	1015	1015	1015	1015	1016	1017	1019	1020	1021	1021	1023	1024	1025	1025	1026	1027	1028	1028	1029	1029	1029	1029	1029	1030	1031	1031	1032	1032	1034	1036	1039	1041	1044	0	1047	1051	1054	1057	1060	1064	1067	1070	1073	1075	1077	1080	1082	0	1086	1088	1091	1094	1096	0	0	0	0	0	0	0	0	0	0	0	0	0	0	0	0	0	0	0	0	0	0	0	0	0	0	3889	3897	3904	3912	3920	3928	3928	3928	3935	3935	3943	3943	3951	3967	3967	3975	3983	3999	3999	4007	4024	4032	4040	4057	4065	4073	4082	4099	4107	4116	4116	4124	4116	4124	4124	4124	4124	4124	4133	4142	4150	4168	4177	4177	4194	4212	4221	4221	4239	4258	4267	4285	4295	4304	4313	4332	4351	4361	4371	4371	4371	4361	4361	4351	4332	4313	4295	4285	4276	4258	4258	4258	4267	4276	4285	4304	4323	4351	4371	4390	4420	4439	4470	4490	4500	4510	4521	4531	4541	4552	4562	4562	4584	4594	4605	4616	4637	4648	4659	4659	4670	4670	4670	4681	4681	4681	4693	4693	4704	4715	4726	4738	4749	4772	4783	4795	4807	4830	4842	4854	4854	4866	4866	4866	4866	4866	4866	4866	4878	4878	4878	4890	4902	4927	4939	4951	4964	4989	5001	5027	5040	5040	5040	5040	5040	5027	5014	5001	5001	4989	4989	4989	4989	5001	5014	5027	5053	5079	5118	5158	5199	5226	5268	5311	5354	5383	5412	5442	5472	5518	5565	5628	5693	5760	5810	5845	5862	5897	5915	5933	5950	5933	5950	5933	5933	5933	5933	5933	5950	5950	5950	5968	5968	5968	5950	5950	5933	5933	5915	5915	5915	5933	5950	5968	6023	6041	6116	6212	6393	0	0	7056	7344	7657	7998	8301	0	8479	8589	8301	0	0	6860	6720	6697	6629	6607	6563	6563	6542	6563	6585	6585	6585	6585	6585	6585	6607	6607	6585	6585	6563	6563	6563	6563	6585	6674	6742	6789	6836	6860	6883	6908	6932	6956	6981	6981	6981	7005	7030	7030	7056	7056	7056	7056	7056	7056
0	0	0	0	0	0	0	0	0	0	0	0	0	0	2332	2335	2338	2343	2349	2360	2366	2372	0	2383	2392	2400	2406	2409	2412	2409	2409	2409	2406	2403	2400	2400	2400	2400	2398	2395	2395	2392	2392	2395	2395	2398	2400	2403	2406	2412	2415	2418	2418	2421	2421	2424	2427	2427	2430	2433	2436	2436	2439	2442	2442	2445	2448	2451	2454	2454	2454	2460	2460	2463	2463	2463	2469	2473	2479	2485	2491	2501	2504	2510	2513	2520	2523	2530	2530	2533	2533	2536	2536	2539	2543	2546	2556	2559	2569	2576	2582	2586	2593	2596	2596	2596	2599	2603	2603	2603	2606	2610	2610	2610	2610	2610	2610	2610	2610	2610	2613	2613	2613	2613	2617	2617	2617	2617	2620	2624	2624	2627	2631	2634	2638	2641	2645	2645	2648	2652	2655	2659	2662	2666	2670	2673	2677	2673	2681	2681	2684	2688	2695	2695	2703	2703	2706	2710	2714	0	0	0	0	0	0	0	0	0	0	0	0	0	0	0	1099	1102	1102	1106	1109	1114	1119	0	1124	1127	1128	1128	1127	1126	1126	1125	1125	1126	1126	1126	1126	1127	1127	1126	1126	1125	1124	1123	1122	1121	1119	1118	1117	1115	1114	1111	1110	1105	1102	1100	1098	1093	1088	1084	1070	1064	1059	1047	1043	1039	1038	1036	1035	1034	1034	1034	1034	1035	1035	1035	1036	1036	1036	1036	1036	1036	1034	1033	1032	1031	1030	1029	1029	1029	1028	1028	1028	1028	1027	1027	1027	1027	1026	1026	1026	1026	1026	1025	1025	1025	1025	1025	1025	1026	1026	1026	1026	1027	1028	1029	1030	1031	1032	1033	1035	1036	1038	1039	1040	1041	1041	1043	1043	1043	1043	1043	1042	1042	1041	1041	1041	1040	1040	1039	1038	1036	1035	1034	1032	1031	1029	1027	1026	1025	1024	1023	1020	1019	1018	1016	1015	1014	1014	1013	1013	1013	1013	1014	1015	1016	1018	1019	1019	1020	1021	1023	1024	1025	1026	1026	1027	1027	1027	1028	1028	1028	1028	1029	1029	1031	1032	1033	1035	1038	1041	1044	0	1047	1051	1056	1059	1062	1066	1068	1071	1074	1076	1078	1080	1081	1084	0	1087	1089	1091	1094	1098	0	0	0	0	0	0	0	0	0	0	0	0	0	0	0	0	0	0	0	0	0	0	0	0	0	0	0	3912	3920	3928	3928	3935	3935	3943	3951	3951	3951	3959	3967	3967	3975	3983	3991	3999	4007	4015	4032	4040	4048	4065	4073	4082	4090	4099	4107	4107	4116	4116	4124	4124	4124	4124	4124	4133	4150	4159	4177	4177	4194	4203	4221	4230	4230	4248	4258	4276	4285	4295	4304	4304	4323	4342	4351	4351	4351	4342	4342	4332	4323	4313	4295	4285	4276	4267	4258	4258	4258	4276	4285	4295	4323	4342	4371	4390	4410	4439	4470	4490	4510	4521	4531	4541	4552	4562	4562	4573	4573	4584	4594	4616	4627	4637	4648	4659	4670	4670	4681	4681	4681	4693	4693	4693	4704	4704	4715	4726	4738	4749	4760	4783	4795	4807	4818	4830	4842	4842	4842	4842	4854	4842	4854	4854	4854	4854	4866	4866	4878	4890	4914	4927	4939	4964	4989	5014	5040	5053	5066	5079	5079	5079	5079	5066	5040	5040	5027	5027	5014	5014	5027	5027	5053	5066	5092	5131	5158	5199	5240	5282	5311	5354	5398	5427	5442	5488	5518	5565	5644	5710	5776	5810	5845	5862	5897	5915	5915	5933	5933	5933	5933	5915	5915	5915	5915	5933	5933	5933	5950	5950	5950	5950	5933	5933	5915	5915	5915	5915	5933	5933	5950	6005	6023	6079	6174	6352	6697	0	7030	7371	7717	8097	0	8443	8665	8741	8443	0	0	0	6812	6742	6697	6629	6607	6585	6585	6607	6607	6629	6607	6607	6607	6629	6629	6629	6629	6629	6629	6629	6607	6652	6697	6742	6812	6883	6908	6932	6956	6981	7005	7005	7005	6981	7005	7005	7030	7030	7030	7030	7056	7030	7056	7056
0	0	0	0	0	0	0	0	0	0	0	0	0	0	2330	2332	2335	2338	2343	2352	2357	2366	2377	2383	0	2392	2395	2400	2400	2400	2400	2398	2395	2395	2395	2395	2395	2395	2392	2392	2392	2392	2392	2395	2398	2398	2400	2403	2406	2409	2415	2415	2418	2421	2421	2424	2427	2427	2433	2433	2436	2436	2439	2442	2445	2448	2451	2457	2457	2460	2466	2469	2469	2469	2473	2476	2479	2482	2485	2491	2498	2504	2510	2517	2520	2523	2523	2530	2533	2533	2533	2533	2536	2539	2546	2552	2556	2562	2569	2579	2582	2586	2593	2596	2596	2599	2599	2599	2603	2603	2606	2606	2606	2606	2606	2606	2606	2606	2606	2606	2606	2606	2610	2606	2610	2613	2617	2617	2620	2624	2627	2627	2631	2634	2638	2638	2641	2645	2648	2652	2655	2659	2662	2666	2670	2673	2677	2677	2677	2681	2684	2688	2691	2699	2703	2703	2706	2714	2714	0	0	0	0	0	0	0	0	0	0	0	0	0	0	1115	1108	1117	1118	1117	1119	1121	1122	0	1126	1128	1127	1127	1126	1126	1125	1124	1124	1124	1124	1125	1125	1126	1126	1125	1124	1124	1123	1122	1121	1119	1118	1117	1115	1114	1112	1110	1109	1104	1101	1099	1097	1093	1088	1077	1071	1064	1051	1046	1041	1038	1036	1035	1034	1034	1033	1033	1034	1035	1035	1036	1036	1036	1037	1038	1038	1037	1035	1035	1034	1033	1032	1031	1030	1029	1029	1028	1027	1027	1026	1025	1025	1025	1024	1024	1024	1024	1024	1024	1024	1024	1024	1024	1024	1025	1025	1025	1026	1027	1027	1028	1029	1030	1031	1032	1033	1035	1036	1038	1039	1040	1041	1042	1042	1042	1042	1042	1041	1041	1041	1041	1040	1040	1039	1039	1037	1036	1034	1033	1031	1030	1028	1026	1025	1023	1021	1020	1019	1018	1017	1016	1014	1013	1013	1012	1012	1012	1012	1013	1014	1015	1016	1017	1018	1019	1020	1021	1022	1023	1024	1025	1025	1026	1026	1026	1026	1026	1027	1028	1028	1029	1030	1031	1034	1037	1040	1043	0	1047	1052	1056	1060	1064	1067	1070	1072	1074	1076	1078	1079	1081	1083	0	1085	1087	1090	1093	1097	1100	1103	0	0	0	0	0	0	0	0	0	0	0	0	0	0	0	0	0	0	0	0	0	0	0	0	0	0	3935	3943	3943	3943	3943	3943	3951	3951	3951	3959	3959	3967	3975	3983	3983	3991	4007	4015	4024	4032	4048	4057	4065	4073	4082	4090	4099	4107	4116	4116	4124	4124	4133	4133	4142	4150	4168	4168	4185	4203	4212	4221	4239	4248	4248	4258	4267	4276	4285	4295	4304	4304	4313	4332	4332	4332	4332	4332	4323	4313	4304	4295	4285	4276	4267	4258	4258	4267	4276	4285	4295	4313	4332	4361	4380	4410	4429	4459	4490	4510	4531	4541	4552	4552	4562	4573	4573	4584	4584	4594	4605	4616	4627	4648	4648	4659	4670	4681	4681	4681	4693	4693	4693	4704	4704	4704	4715	4726	4738	4749	4760	4772	4795	4807	4818	4818	4830	4830	4818	4830	4830	4830	4842	4842	4842	4842	4854	4866	4878	4890	4902	4914	4939	4964	4989	5014	5053	5079	5092	5105	5118	5118	5118	5105	5092	5079	5066	5066	5053	5053	5053	5066	5066	5092	5105	5145	5172	5213	5254	5282	5325	5354	5398	5427	5457	5503	5534	5596	5661	5743	5793	5845	5862	5880	5915	5915	5915	5933	5933	5915	5915	5897	5915	5897	5897	5897	5915	5915	5933	5933	5933	5933	5933	5915	5915	5915	5897	5897	5915	5915	5950	5968	5987	6023	6116	6292	6585	0	0	7290	7657	8031	0	8443	8703	8741	8741	8063	0	0	6956	6883	6789	6720	6674	6629	6607	6629	6652	6674	6652	6652	6652	6652	6674	6674	6652	6652	6629	6652	6652	6697	6742	6789	6883	6956	6981	7005	7030	7030	7030	7030	7005	7005	7005	7005	7030	7030	7030	7030	7030	7030	7030	7030
0	0	0	0	0	0	0	0	0	0	0	0	0	0	2330	2332	2332	2335	2338	2346	2352	2360	2369	2374	2380	2386	2386	2389	2389	2389	2389	2386	2386	2386	2386	2386	2386	2389	2389	2389	2389	2389	2392	2395	2398	2400	2403	2406	2409	2409	2412	2415	2418	2418	2421	2421	2424	2427	2430	2433	2433	2436	2442	2445	2448	2451	2454	2457	2463	2466	2469	2473	2476	2479	2482	2482	2485	2488	2491	2498	2504	2510	2513	2520	2523	2523	2526	2530	2533	2533	2533	2536	2536	2539	2546	2552	2556	2562	2569	2576	2582	2586	2593	2593	2593	2596	2599	2599	2603	2603	2603	2603	2603	2603	2603	2603	2599	2599	2599	2596	2603	2603	2603	2603	2606	2613	2613	2617	2620	2624	2627	2631	2634	2638	2641	2641	2645	2645	2648	2652	2659	2659	2662	2666	2670	2673	2677	2677	2681	2681	2684	2691	2695	2699	2703	2703	2706	2714	2714	0	0	0	0	0	0	0	0	0	0	0	0	0	1125	1124	1124	1124	1125	1124	1125	1125	1126	0	1128	1128	1126	1126	1125	1124	1124	1123	1122	1123	1123	1124	1124	1124	1124	1124	1123	1122	1121	1120	1119	1117	1116	1115	1114	1112	1110	1109	1107	1103	1100	1098	1095	1091	1087	1076	1069	1063	1056	1045	1040	1036	1035	1035	1034	1033	1033	1033	1034	1035	1036	1036	1036	1037	1038	1038	1039	1038	1038	1037	1035	1034	1033	1032	1031	1030	1029	1028	1027	1026	1025	1024	1023	1023	1023	1022	1022	1022	1022	1022	1023	1023	1023	1024	1024	1025	1025	1025	1026	1026	1027	0	1028	1029	1030	1031	1033	1034	1035	1037	1039	1040	1040	1041	1041	1041	1041	1041	1041	1040	1040	1040	1039	1039	1039	1038	1037	1035	1034	1032	1031	1029	1027	1025	1024	1023	1020	1019	1018	1017	1015	1014	1013	1013	1012	1012	1012	1011	1012	1012	1012	1014	1015	1015	1016	1017	1018	1019	1021	1021	1023	1023	1024	1024	1025	1025	1025	1025	1026	1026	1027	1028	1029	1030	1033	1035	1038	1041	0	1046	1051	1056	1060	1064	1068	1071	1073	1075	1076	1077	1078	1080	1082	1084	0	1087	1090	1092	1095	1099	1102	1106	0	0	0	0	0	0	0	0	0	0	0	0	0	0	0	0	0	0	0	0	0	0	0	0	0	0	0	3943	3935	3943	3943	3951	3943	3951	3951	3951	3959	3967	3975	3983	3991	3999	4007	4015	4024	4032	4040	4057	4065	4073	4082	4090	4099	4107	4116	4116	4124	4133	4142	4142	4159	4177	4185	4203	4212	4230	4239	4258	4258	4258	4267	4276	4276	4295	4295	4295	4295	4304	4313	4313	4313	4313	4304	4304	4295	4285	4276	4267	4267	4258	4258	4267	4276	4285	4295	4304	4323	4351	4371	4400	4420	4449	4470	4510	4531	4552	4552	4562	4562	4573	4584	4584	4584	4594	4594	4605	4616	4637	4637	4648	4659	4670	4670	4681	4681	4693	4693	4693	4704	4704	4715	4715	4726	4738	4749	4760	4772	4783	4795	4807	4818	4818	4807	4818	4818	4818	4818	4830	4830	4830	4842	4854	4866	4878	4890	4914	4927	4939	4964	5001	5040	5079	5092	5118	5145	5158	5158	5158	5145	5131	5118	5118	5105	5092	5092	5092	5092	5105	5118	5145	5172	5199	5226	5254	5282	5325	5368	5398	5427	5457	5503	5549	5612	5677	5776	5828	5862	5897	5915	5933	5915	5933	5915	5915	5915	5897	5897	5897	5880	5880	5880	5897	5897	5915	5915	5915	5915	5915	5897	5897	5897	5897	5880	5897	5897	5915	5950	5950	5987	6060	6212	6499	0	0	7132	7483	7902	8336	0	8665	8703	8703	8163	7808	7512	7263	7005	6883	6789	6720	6674	6652	6674	6697	6720	6720	6697	6697	6674	6674	6652	6652	6652	6652	6652	6674	6742	6789	6860	6932	7005	7056	7056	7081	7081	7081	7056	7056	7030	7030	7030	7030	7030	7030	7030	7030	7030	7030	7030
0	0	0	0	0	0	0	0	0	0	0	0	0	2330	2330	2330	2332	2332	2335	2341	2346	2355	2360	2369	2369	2374	2377	2380	2377	2377	2377	2377	2377	2377	2377	2377	2383	2383	2386	2386	2389	2392	2395	2398	2400	2403	2406	2409	2412	2412	2415	2418	2418	2421	2421	2421	2424	2427	2430	2433	2436	2439	2442	2445	2448	2451	2457	2460	2466	2469	2473	2479	2482	2485	2491	2494	2491	2494	2501	2504	2510	2513	2517	2523	2523	2526	2526	2530	2530	2530	2533	2533	2536	2539	2546	2549	2552	2559	2566	2572	2576	2582	2589	2589	2589	2593	2596	2596	2599	2599	2603	2603	2603	2599	2599	2596	2596	2593	2589	2593	2593	2593	2596	2596	2603	2610	2613	2617	2620	2624	2627	2631	2638	2641	2641	2645	2648	2652	2652	2655	2659	2662	2666	2670	2673	2677	2681	2681	2681	2684	2688	2691	2695	2699	2703	2703	2706	2710	2714	0	0	0	0	0	0	0	0	0	0	0	0	0	1132	1131	1130	1131	1131	1130	1130	1129	1129	0	1128	1127	1125	1124	1124	1123	1121	1121	1121	1121	1121	1122	1122	1122	1121	1121	1121	1120	1119	1117	1116	1115	1114	1112	1111	1110	1108	1107	1103	1101	1098	1096	1093	1089	1085	1073	1066	1060	1048	1044	1040	1036	1035	1035	1034	1033	1033	1033	1034	1035	1036	1037	1037	1038	1038	1039	1039	1039	1039	1038	1036	1035	1034	1033	1032	1030	1029	1028	1027	1025	1024	1023	1022	1021	1021	1020	1020	1020	1021	1021	1021	1023	1023	1024	1024	1025	1025	1026	1026	1026	1027	0	1028	0	1029	1031	1032	1033	1035	1036	1038	1039	1040	1040	1041	1041	1041	1041	1040	1040	1039	1039	1039	1038	1038	1037	1036	1035	1033	1032	1030	1028	1026	1024	1023	1020	1018	1018	1017	1015	1014	1014	1013	1012	1011	1011	1011	1011	1012	1012	1012	1013	1014	1015	1016	1016	1017	1018	1019	1021	1022	1022	1023	1024	1024	1024	1025	1025	1026	1026	1026	1027	1028	1029	1032	1034	1037	1039	1044	0	1050	1055	1059	1063	1067	1070	1073	1075	1076	1077	1078	1079	1081	1082	1085	0	1088	1090	1093	1097	1101	1104	1104	0	0	0	0	0	0	0	0	0	0	0	0	0	0	0	0	0	0	0	0	0	0	0	0	0	0	3943	3935	3943	3943	3943	3951	3951	3951	3951	3959	3967	3967	3983	3983	3991	3999	4007	4015	4024	4040	4048	4057	4065	4073	4082	4090	4107	4107	4116	4124	4133	4142	4150	4159	4177	4194	4212	4230	4230	4239	4258	4258	4258	4267	4276	4276	4285	4285	4285	4285	4285	4295	4295	4295	4295	4285	4276	4276	4267	4267	4267	4258	4258	4267	4276	4295	4304	4313	4323	4342	4361	4390	4420	4439	4470	4490	4521	4552	4573	4573	4584	4584	4594	4594	4594	4594	4594	4605	4616	4627	4637	4637	4648	4659	4670	4670	4681	4681	4681	4693	4693	4704	4704	4715	4715	4726	4749	4760	4772	4783	4783	4795	4807	4807	4807	4807	4807	4807	4807	4807	4807	4818	4818	4830	4842	4866	4878	4890	4914	4927	4939	4976	5014	5053	5092	5118	5145	5172	5185	5199	5185	5185	5172	5158	5158	5145	5131	5131	5131	5131	5131	5145	5172	5185	5213	5254	5282	5311	5339	5368	5412	5442	5472	5518	5565	5628	5710	5776	0	5897	5933	5933	5950	5933	5915	5915	5897	5880	5880	5880	5880	5862	5862	5862	5880	5880	5897	5897	5897	5897	5897	5897	5880	5880	5880	5862	5880	5880	5880	5897	5915	5933	6005	6154	6393	6674	0	0	7317	7747	8231	0	8589	8589	8627	8231	7966	7687	0	7263	6981	6860	6766	6766	6720	6720	6742	6742	6720	6720	6720	6697	6674	6652	6652	6652	6652	6674	6697	6766	6836	6908	7005	7081	7106	7106	7106	7132	7106	7106	7081	7056	7030	7030	7030	7030	7030	7030	7030	7005	7005	7005
0	0	0	0	0	0	0	0	0	0	0	0	0	2330	2330	2332	2332	2332	2335	2338	2343	2349	2357	2360	2363	2366	2366	2369	2366	2366	2369	2366	2369	2369	2372	2374	2374	2380	2383	2386	2389	2392	2398	2400	2406	2409	2409	2412	2415	2415	2418	2418	2421	2421	2421	2421	2424	2427	2430	2433	2436	2439	2442	2445	2448	2454	2457	2463	2466	2473	2479	2482	2485	2488	2491	2498	2498	2501	2504	2510	2517	2520	2520	2523	2526	2526	2526	2526	2530	2530	2533	2536	2533	2536	2543	2549	2552	2559	2566	2569	2572	2579	2582	2582	2586	2589	2593	2596	2596	2599	2599	2599	2596	2596	2596	2593	2589	2589	2586	2586	2589	2589	2593	2589	2596	2606	2613	2617	2620	2624	2627	2634	2641	2645	2648	2648	2652	2652	2655	2659	2662	2666	2670	2673	2677	2681	2684	2684	2684	2688	2691	2695	2695	2699	2699	2703	2706	2710	2714	0	0	0	0	0	0	0	0	0	0	0	0	0	1134	1134	1133	1133	1133	1133	1131	1130	1130	0	1127	1126	1124	1122	1122	1122	1120	1119	1119	1119	1119	1119	1119	1119	1119	1119	1118	1117	1116	1115	1114	1112	1112	1110	1109	1108	1107	1104	1101	1099	1096	1093	1090	1085	1075	1069	1063	0	1046	1043	1039	1036	1035	1035	1034	1034	1034	1034	1034	1035	1036	1038	1038	1038	1039	1039	1040	1039	1039	1038	1038	1036	1035	1033	1032	1030	1029	1027	1026	1024	1023	1022	1021	1020	1020	1019	1019	1019	1020	1020	1021	1022	1023	1024	1024	1025	1025	1026	1026	1026	1027	1027	1028	0	1029	1030	1031	1033	1034	1036	1037	1038	1039	1040	1040	1040	1040	1040	1040	1039	1038	1038	1038	1037	1037	1036	1035	1034	1033	1031	1029	1027	1025	1023	1022	1019	1017	1017	1015	1015	1014	1013	1012	1011	1011	1011	1011	1011	1011	1012	1012	1013	1014	1014	1015	1016	1017	1018	1019	1020	1021	1021	1022	1023	1024	1024	1025	1025	1026	1026	1026	1027	1028	1029	1031	1033	1035	1038	1042	0	1047	1053	1057	1061	1065	1069	1072	1075	1075	1076	1077	1077	1078	1081	1083	1086	0	1090	1092	1095	1099	1102	1103	0	0	0	0	0	0	0	0	0	0	0	0	0	0	0	0	0	0	0	0	0	0	0	0	0	0	0	3935	3935	3943	3943	3951	3943	3943	3943	3951	3959	3959	3967	3975	3983	3991	3999	4007	4015	4024	4040	4048	4057	4065	4073	4082	4099	4107	4116	4124	4133	4142	4150	4168	4185	4194	4221	4230	4230	4239	4258	4258	4248	4267	4267	4267	4267	4276	4276	4276	4276	4276	4276	4285	4276	4276	4267	4258	4258	4258	4267	4267	4267	4276	4295	4313	4332	4342	4351	4361	4390	4420	4439	4459	4490	4510	4541	4562	4594	4594	4594	4594	4605	4605	4605	4605	4605	4616	4627	4627	4627	4637	4648	4648	4659	4670	4670	4681	4681	4693	4693	4704	4715	4715	4726	4726	4749	4760	4772	4783	4783	4795	4795	4807	4807	4795	4795	4795	4795	4795	4795	4807	4818	4830	4842	4854	4878	4902	4914	4927	4939	4976	5014	5053	5105	5131	5158	5199	5213	5226	5226	5226	5213	5199	5185	5185	5172	5172	5172	5172	5172	5185	5199	5226	5240	5268	5296	5311	5354	5383	5427	5442	5488	5518	5581	5644	5710	5793	0	5915	5933	5950	5950	5933	5915	5897	5897	5880	5880	5862	5862	5845	5845	5845	5862	5862	5862	5862	5880	5880	5880	5862	5862	5862	5862	5862	5862	5862	5862	5862	5880	5897	5933	6060	6272	6542	0	6812	7158	7598	8130	0	8479	8552	8515	8336	8130	7839	7687	7512	7344	6981	6883	6812	6742	6766	6742	6766	6742	6720	6697	6697	6674	6652	6629	6652	6652	6697	6720	6812	6860	6956	7030	7106	7158	7158	7158	7158	7158	7132	7106	7081	7056	7056	7056	7030	7030	7030	7030	7005	7005	7005
0	0	0	0	0	0	0	0	0	0	0	0	2335	2330	2330	2330	2332	2332	2335	2338	2341	2346	2352	2355	2357	2357	2357	2357	2357	2357	2357	2357	2360	2360	2366	2369	2372	2377	2380	2386	2392	2395	2400	2406	2409	2412	2415	2415	2418	2418	2418	2421	2421	2418	2421	2421	2424	2424	2427	2430	2433	2439	2442	2448	2451	2454	2460	2466	2469	2476	2482	2485	2488	2491	2494	2498	2501	2507	2510	2510	2517	2517	2520	2523	2523	2523	2526	2526	2526	2530	2530	2533	2533	2536	2543	2546	2549	2556	2562	2566	2572	2576	2576	2579	2582	2586	2589	2589	2593	2593	2596	2596	2593	2596	2593	2589	2586	2582	2582	2582	2586	2589	2589	2589	2596	2606	2613	2620	2624	2627	2631	2638	2645	2648	2652	2652	2655	2655	2659	2662	2670	2670	2673	2677	2681	2684	2688	2688	2688	2688	2691	2695	2699	2695	2699	2703	2706	2714	2717	0	0	0	0	0	0	0	0	0	0	0	0	0	1135	1135	1134	1134	1134	1134	1133	1130	1129	0	1125	1124	1122	1122	1121	1119	1119	1118	1117	1117	1117	1117	1117	1117	1116	1115	1115	1114	1114	1112	1110	1110	1109	1108	1106	1106	1102	1101	1098	1095	1091	1088	1084	1075	1070	1064	1059	1055	1045	1041	1038	1036	1035	1035	1034	1034	1034	1034	1035	1036	1037	1037	1038	1039	1039	1039	1039	1039	1039	1038	1038	1036	1035	1034	1032	1031	1029	1027	1025	1024	1023	1021	1020	1019	1019	1019	1018	1019	1019	1020	0	1021	1023	1024	1024	1025	1025	1026	1026	1026	1026	1027	1027	1028	1029	0	1031	1032	1034	1035	1036	1038	1038	1039	1040	1040	1040	1039	1039	1038	1038	1037	1036	1036	1036	1035	1034	1033	1032	1030	1028	1026	1024	1022	1019	1018	1017	1016	1015	1014	1013	1013	1012	1012	1011	1011	1011	1011	1011	1012	1012	1013	1014	1014	1015	1016	1017	1017	1018	1019	1021	1021	1022	1023	1024	1024	1025	1025	1026	1026	1027	1027	1028	1028	1030	1032	1034	1035	1040	1044	0	1049	1054	1058	1062	1066	1070	1073	1074	1075	1075	1077	1077	1079	1082	1084	0	1087	1091	1094	1097	1100	1101	1103	0	0	0	0	0	0	0	0	0	0	0	0	0	0	0	0	0	0	0	0	0	0	0	0	0	0	0	3935	3935	3943	3943	3943	3935	3943	3943	3943	3951	3959	3967	3975	3983	3991	3999	4007	4015	4032	4040	4048	4057	4065	4082	4090	4099	4116	4124	4133	4142	4159	4177	4194	4203	4221	4230	4230	4239	4248	4248	4258	4258	4258	4258	4258	4258	4258	4258	4258	4258	4267	4267	4267	4258	4258	4248	4258	4258	4267	4276	4285	4295	4313	4332	4361	4380	4380	4400	4420	4449	4480	4500	4521	4541	4573	4584	4605	4605	4605	4616	4616	4616	4616	4605	4616	4627	4627	4627	4637	4637	4637	4648	4659	4670	4670	4681	4681	4693	4693	4704	4715	4715	4726	4738	4749	4760	4772	4783	4783	4795	4795	4807	4807	4795	4795	4795	4795	4795	4807	4818	4830	4842	4854	4854	4878	4902	4914	4927	4939	4964	5001	5053	5092	5131	5158	5199	5226	5240	5240	5240	5240	5226	5226	5213	5213	5213	5213	5199	5213	5213	5226	5254	5268	5296	5311	5325	5354	5398	5427	5457	5488	5518	5581	5644	5726	5810	0	5915	5968	5968	5987	5968	5950	5933	5915	5897	5880	5862	5862	5845	5828	5828	5845	5845	5845	5845	5862	5862	5845	5845	5845	5845	5845	5845	5845	5845	5845	5828	5845	5845	5880	6005	6193	6414	0	0	7005	7427	7871	8301	8407	8407	8407	8301	8197	7998	7778	7598	7427	7030	6932	6860	6766	6766	6766	6766	6742	6720	6697	6674	6652	6629	6629	6652	6674	6697	6766	6836	6932	7005	7081	7132	7158	7184	7210	7184	7184	7158	7132	7106	7081	7081	7081	7056	7030	7030	7030	7030	7005	7030
