2124	2124	2124	2124	2124	2127	2127	2129	2131	2131	2133	2138	2138	2138	2140	2138	2136	2136	2133	2129	2122	2117	2102	2095	2088	2084	2080	2077	2077	2075	2077	2077	2077	2077	2080	2082	2082	2084	2084	2084	2084	2086	2088	2091	2093	2097	2099	2102	2106	2111	2113	2115	2115	2115	2115	2115	2113	2111	2108	2106	2102	2095	2093	2088	2084	2080	2077	2075	2073	2073	2069	2066	2066	2066	2066	2069	2071	2071	2075	2080	2084	2093	2102	2106	2115	2120	2122	2124	2124	2127	2124	2124	2122	2122	2120	2117	2117	2113	2113	2113	2113	2111	2108	2108	2106	2104	2102	2097	2095	2095	2095	2093	2093	2093	2095	2099	2102	2106	2113	2120	2127	2131	2138	2145	2150	0	2157	2161	2166	2166	2164	2161	2157	2154	2147	2140	2133	2127	2120	2113	2113	2106	2102	2097	2093	2086	2082	2080	2077	2073	2073	2073	2071	2071	2071	2073	2071	2073	2075	2077	2077	2080	2080	2082	2082	2075	2073	2066	2060	2054	2051	2043	2043	2041	2041	2039	2039	2041	2043	2043	2045	2047	2047	2049	2051	2051	2051	2054	2056	2056	2051	2051	2049	2047	2047	2049	2049	2045	2039	2035	2032	2028	2024	2022	2012	2012	2012	2016	2018	0	2026	2032	2039	2045	2049	2051	2054	2058	2060	2060	2056	2056	2054	2056	2060	2060	2064	2066	0	2071	2075	2077	2082	2088	2091	2093	2095	2097	2099	2099	2102	2102	2102	2102	2099	2099	2099	2099	2099	2097	2097	2097	2097	2095	2095	2095	2095	2095	2097	2097	2097	2099	2099	2099	2097	2093	2093	2093	2091	2091	2091	2088	2088	2086	2086	2084	2082	2077	2073	2073	2071	2071	2071	2071	2071	2075	2075	2077	2077	2080	2080	2080	2080	2080	2077	2075	2073	2073	2071	2069	2069	2071	2071	2073	2077	2082	2086	2093	2099	2106	2111	2115	2117	2120	2124	2127	2129	2129	2129	2122	2122	2117	2115	2111	2108	2106	2106	2106	2108	2111	2113	2115	2120	2124	2129	2131	2136	2138	2140	2143	2143	2145	2143	2143	2140	2138	2138	2136	2136	2136	2136	2136	2138	2140	2140	2143	2143	2145	2145	2145	2147	2145	2145	2145	2145	2147	2147	2145	2145	2143	2138	2136	2133	2133	2131	2129	2129	2129	2129	2129	2131	2131	2131	2133	2133	2136	2138	2138	2140	2138	2140	2140	2140	2140	2140	2136	2133	2131	2127	2122	2120	2117	2115	2113	2111	2108	2106	2104	2102	2097	2095	2091	2088	2086	2084	2082	2082	2080	2077	2077	2077	2077	2077	2082	2082	2084	2086	2088	2088	2091	2093	2093	2095	2095	2093	2093	2095	2095	2095	2095	2095	2093	2095	2095	2095	2097	2097	2097	2099	2102	2102	2102	2104	2104	2106	2108	2108	2111	2111	2113	2115	2115	2113	2115	2115	2115	2115	2115	2115	2117	2117	2120	2120	2120	2120	2120	2120	2122	2120	2117	2115	2115	2113	2111	2106	2104	2099	0	0	0	1562	1559	1558	1557	1557	1553	1552	1551	1548	1546	1545	1541	1539	1536	1534	1530	1529	1528	1528	1527	1527	1527	1526	1527	1527	1527	1527	1527	1527	1528	1529	1530	1529	1527	1527	1524	1522	1518	1516	1513	1510	1507	1503	1500	1498	1495	1493	1491	1488	1485	1484	1484	1484	1484	1485	1489	1492	1498	1502	1506	1510	1514	1518	1521	0	1524	1527	1527	1527	1527	1526	1524	1524	1523	1522	1522	1521	1521	1520	1517	1516	1514	1510	1508	1503	1500	1498	1494	1492	1486	1485	1484	1485	1484	1483	1483	1482	1481	1480	1479	1476	1474	1471	1467	1463	1460	1456	1448	1445	1442	1438	1435	1432	1427	1424	1420	1416	1413	1406	1404	1400	1397	1394	1390	1388	1384	1380	1375	1366	1362	1357	1352	1348	1345	1342	1339	1337	1334	1332	1325	1322	1319	1315	1311	1307	1302	1299	1295	1292	1288	1285	1284	1282	1281	1279	1279	1279	1276	1275	1273	1270	1266	1254	1248	1242	1236	1233	1233	1229	1227	1222	1221	1219	1217	1216	1215	1214	1212	1211	1208	1205	1204	1202	1199	1197	1194	0	0	0	0	0	0	0	0	0	0	0	0	0	0	0	916	915	913	911	908	905	902	897	894	891	888	886	884	882	881	879	878	878	877	876	875	874	873	872
2108	2111	2113	2115	2115	2120	2120	2122	2124	2124	2129	2131	2136	2138	2138	2140	2140	2138	2138	2136	2129	2124	2117	2102	2093	2088	2082	2077	2075	2073	2073	2073	2073	2073	2075	2077	2077	2080	2080	2080	2082	2084	2086	2088	2091	2093	2097	2102	2106	2108	2113	2115	2115	2115	2115	2115	2115	2113	2111	2108	2106	2102	2097	2093	2091	2086	2084	2082	2080	2077	2077	2075	2073	2073	2073	2075	2075	2077	2082	2084	2091	2097	2106	2111	2117	2122	2124	2124	2124	2127	2124	2122	2122	2122	2117	2117	2115	2115	2113	2115	2115	2115	2115	2115	2113	2113	2111	2108	2104	2104	2102	2099	2099	2102	2102	2106	2108	2113	2115	2122	2129	2133	2138	2143	2147	2152	0	2157	2161	2159	2157	2152	2147	2143	2136	2131	2122	2117	2111	2106	2102	2097	2095	2091	2084	2082	2080	2077	2073	2073	2071	2069	2066	2069	2066	2069	2069	2069	2071	2071	2073	2075	2075	2075	2073	2069	2066	2060	2056	2049	2045	2039	2037	2037	2035	2035	2035	2037	2039	2041	2041	2043	2043	2045	2047	2047	2047	2049	2047	2049	2047	2045	2043	2041	2041	2045	2045	2039	2032	2028	2026	2022	2020	2010	2006	2004	2006	2008	2012	2020	2026	0	2035	2039	2043	2047	2049	2051	2054	2054	2049	2047	2047	2049	2054	2056	2058	2060	2066	2069	2073	0	2080	2082	2084	2088	2093	2095	2097	2097	2099	2097	2097	2097	2097	2097	2097	2097	2097	2097	2097	2095	2095	2093	2093	2093	2093	2093	2095	2095	2095	2095	2095	2095	2095	2093	2093	2091	2091	2088	2088	2086	2086	2084	2082	2082	2080	2077	2073	2071	2069	2069	2069	2069	2071	2071	2073	2075	2075	2077	2077	2077	2075	2075	2073	2071	2069	2069	2066	2064	2066	2064	2069	2071	2075	2080	2086	2091	2097	2104	2108	2113	2115	2117	2120	2122	2122	2122	2122	2122	2120	2115	2113	2111	2108	2106	2106	2108	2111	2113	2115	2117	2122	2127	2131	2136	2138	2140	2143	2145	2145	2145	2145	2143	2143	2140	2138	2136	2136	2136	2136	2136	2138	2138	2140	2140	2143	2143	2143	2143	2143	2145	2143	2145	2145	2145	2145	2145	2143	2140	2138	2136	2133	2131	2129	2127	2127	2127	2124	2124	2127	2127	2127	2127	2127	2129	2131	2131	2133	2133	2136	2136	2138	2138	2138	2136	2133	2131	2129	2124	2122	2120	2117	2115	2113	2111	2108	2106	2104	2099	2097	2093	2091	2088	2086	2084	2082	2080	2077	2080	2077	2077	2080	2080	2080	2082	2084	2084	2086	2086	2088	2088	2091	2088	2091	2091	2093	2093	2093	2093	2095	2095	2095	2095	2097	2097	2097	2099	2099	2099	2102	2102	2102	2102	2104	2104	2104	2106	2106	2108	2111	2111	2111	2111	2113	2113	2115	2115	2117	2117	2120	2120	2120	2120	2122	2122	2120	2120	2120	2115	2115	2115	2113	2113	2108	0	0	0	0	0	1568	1564	1562	1559	1558	1556	1554	1553	1551	1548	1546	1543	1541	1537	1535	1530	1528	1528	1527	1527	1527	1526	1527	1527	1528	1529	1528	1529	1530	1531	1533	1533	1531	1530	1530	1528	1526	1522	1520	1516	1514	1510	1509	1507	1502	1501	1499	1497	1493	1491	1490	1490	1489	1490	1490	1493	1497	1501	1506	1510	1514	1517	0	1521	1523	1527	1528	1529	1529	1529	1528	1527	1526	1526	1526	1524	1524	1524	1523	1522	1520	1517	1515	1512	1508	1505	1500	1497	1493	1488	1486	1485	1485	1483	1483	1482	1481	1481	1480	1479	1475	1473	1470	1468	1464	1460	1457	1448	1446	1442	1439	1436	1432	1427	1424	1420	1417	1413	1407	1405	1401	1399	1395	1393	1389	1385	1381	1376	1365	1362	1356	1352	1348	1346	1343	1340	1338	1335	1331	1325	1321	1318	1314	1310	1305	1301	1296	1293	1287	1285	1284	1282	1280	1279	1278	1278	1276	1275	1273	1270	1267	1263	1256	1252	1247	1244	1240	1236	1232	1229	1226	1220	1219	1217	1216	1215	1213	1212	1209	1207	1205	1202	1199	1197	1192	1189	1188	1187	1185	1184	0	0	0	0	0	0	0	0	0	0	918	915	915	913	911	909	906	903	900	894	891	889	886	884	883	881	880	878	878	876	876	875	874	873	873
2095	2097	2102	2106	2108	2111	2115	2117	2120	2122	2124	2129	2131	2136	2136	2138	2138	2136	2133	2131	2127	2122	2115	2099	2093	2086	2080	2077	2073	2073	2069	2069	2071	2071	2071	2071	2073	2075	2075	2077	2080	2080	2082	2084	2088	2093	2095	2099	2104	2108	2113	2115	2117	2117	2117	2117	2115	2115	2113	2108	2106	2104	2099	2097	2095	2093	2091	2088	2088	2086	2084	2082	2082	2082	2082	2082	2084	2084	2086	2091	2095	2102	2108	2113	2117	2122	2124	2122	2124	2124	2124	2122	2122	2120	2117	2115	2115	2117	2117	2120	2120	2120	2120	2122	2122	2120	2122	2117	2115	2113	2111	2106	2108	2108	2108	2111	2113	2115	2120	2124	2129	2133	2138	2143	2145	2147	2152	2152	2150	2147	2145	2140	2133	2129	2122	2117	2111	2106	2102	2097	2095	2091	2088	2082	2082	2077	2075	2073	2071	2069	2069	2066	2066	2066	2064	2066	2066	2069	2069	2069	2069	2071	2071	2071	2066	2064	2060	2056	2049	2045	2035	2035	2032	2032	2032	2030	2032	2032	2035	2035	2039	2039	2039	2041	2043	2043	2041	2043	2043	2041	2041	2039	2037	2035	2037	2041	2039	2037	2030	2024	2020	2018	2016	2002	2000	2000	2002	2004	2008	2016	2024	0	2030	2037	2039	2043	2045	2047	2049	2045	2043	2043	2045	2045	2049	2054	2056	2060	2062	2066	2071	2075	0	2080	2084	2086	2091	2093	2095	2095	2095	2095	2095	2095	2095	2095	2095	2095	2095	2095	2095	2093	2093	2093	2091	2091	2091	2091	2091	2093	2093	2093	2093	2093	2093	2091	2088	2088	2086	2086	2084	2084	2082	2082	2080	2077	2075	2073	2071	2069	2066	2066	2066	2069	2069	2071	2071	2073	2073	2073	2073	2073	2073	2071	2069	2066	2064	2064	2062	2064	2062	2064	2064	2069	2071	2077	2084	2088	2095	2099	2106	2106	2111	2113	2115	2117	2117	2117	2117	2115	2117	2115	2113	2111	2111	2108	2111	2111	2115	2115	2117	2120	2127	2131	2133	2138	2140	2143	2145	2145	2147	2145	2145	2143	2140	2138	2138	2136	2136	2136	2133	2133	2136	2136	2138	2138	2138	2140	2138	2140	2140	2140	2140	2140	2140	2143	2140	2140	2138	2136	2133	2131	2129	2129	2127	2124	2124	2124	2122	2122	2122	2120	2122	2122	2122	2124	2124	2124	2127	2129	2129	2131	2133	2133	2133	2133	2133	2131	2129	2124	2124	2122	2120	2115	2115	2113	2111	2108	2104	2099	2097	2095	2091	2088	2086	2084	2084	2082	2080	2080	2080	2080	2082	2082	2082	2082	2084	2084	2084	2084	2086	2084	2086	2086	2086	2088	2091	2091	2091	2093	2093	2095	2095	2097	2099	2099	2099	2099	2099	2099	2099	2099	2099	2099	2099	2102	2102	2104	2104	2106	2106	2106	2108	2108	2111	2113	2113	2115	2117	2120	2120	2120	2120	2120	2120	2117	2117	2117	2115	2117	2115	2115	2113	2113	2111	0	0	0	0	0	1573	1568	1565	1562	1560	1558	1557	1556	1552	1551	1547	1545	1541	1539	1535	1530	1528	1527	1527	1526	1526	1526	1527	1528	1529	1530	1530	1533	1534	1535	1536	1536	1535	1535	1533	1531	1529	1527	1523	1521	1518	1516	1514	1513	1510	1508	1507	1502	1500	1497	1495	1494	1494	1494	1494	1497	1500	1505	1508	1512	1516	0	1520	1523	1526	1527	1529	1530	1530	1530	1529	1528	1528	1527	1528	1527	1528	1527	1527	1526	1524	1522	1520	1517	1513	1508	1505	1501	1497	1493	1488	1488	1485	1484	1483	1482	1481	1480	1479	1479	1475	1473	1471	1468	1464	1461	1457	1449	1447	1443	1439	1436	1433	1428	1424	1421	1418	1415	1412	1406	1403	1400	1398	1395	1392	1388	1382	1378	1372	1362	1357	1353	1349	1346	1343	1340	1338	1335	1331	1324	1321	1317	1314	1307	1302	1299	1295	1291	1285	1284	1283	1280	1279	1278	1277	1275	1274	1273	1270	1270	1268	1266	1262	1256	1252	1248	1244	1239	1235	1230	1226	1219	1217	1216	1214	1213	1211	1210	1208	1205	1203	1199	1198	1195	1189	1188	1186	1184	1183	1182	1182	0	0	0	0	0	0	0	919	918	917	915	914	912	910	908	906	903	900	895	892	889	887	884	883	881	878	877	877	876	875	874	873	872	872
2088	2091	2093	2099	2102	2104	2106	2108	2111	2113	2115	2120	2124	2129	2131	2131	2133	2133	2131	2129	2122	2115	2102	2097	2088	2084	2077	2073	2071	2069	2066	2066	2066	2066	2066	2069	2069	2071	2073	2073	2075	2075	2080	2084	2086	2091	2093	2099	2104	2108	2111	2115	2115	2115	2115	2115	2115	2113	2111	2108	2106	2106	2104	2099	2097	2095	2095	2093	2093	2091	2088	2088	2088	2088	2088	2088	2088	2091	2091	2095	2097	2104	2108	2115	2117	2120	2122	2124	2122	2122	2122	2120	2120	2117	2117	2115	2115	2117	2120	2122	2122	2124	2127	2127	2129	2129	2127	2124	2124	2122	2120	2117	2115	2113	2113	2115	2117	2120	2122	2124	2129	2131	2136	2138	2140	2143	2143	2140	2138	2136	2129	2124	2120	2115	2113	2108	2102	2099	2095	2091	2088	2086	2084	2080	2077	2075	2073	2071	2071	2069	2069	2066	2066	2064	2064	2064	2064	2066	2066	2066	2066	2066	2069	2066	2064	2058	2054	2047	2043	2035	2030	2028	2028	2026	2028	2028	2028	2030	2032	2032	2035	2035	2037	2037	2037	2039	2037	2037	2039	2037	2037	2035	2037	2035	2032	2039	2039	2035	2030	2024	2020	2018	2014	2004	2000	2000	2002	2004	2008	2014	2022	2028	0	2032	2037	2039	2041	2043	2045	2041	2039	2039	2041	2041	2045	2049	2054	2058	2060	2066	2071	2075	0	2080	2082	2084	2088	2091	2093	2093	2093	2093	2093	2093	2093	2093	2093	2093	2093	2093	2093	2091	2091	2088	2088	2088	2088	2088	2091	2091	2093	2093	2093	2093	2091	2091	2086	2086	2084	2084	2082	2082	2080	2077	2077	2075	2075	2071	2069	2069	2066	2064	2066	2066	2066	2069	2069	2071	2071	2071	2071	2071	2069	2069	2066	2064	2062	2060	2060	2060	2062	2062	2064	2069	2071	2077	2082	2086	2093	2099	2102	2104	2108	2111	2113	2113	2115	2115	2115	2115	2117	2115	2115	2113	2113	2113	2115	2115	2120	2120	2122	2124	2129	2133	2138	2143	2143	2145	2147	2147	2147	2147	2145	2140	2140	2138	2138	2133	2133	2133	2133	2133	2133	2133	2136	2133	2133	2133	2133	2133	2133	2136	2136	2136	2136	2138	2138	2136	2136	2133	2129	2127	2127	2124	2122	2122	2120	2117	2120	2117	2117	2115	2117	2115	2115	2115	2117	2120	2122	2122	2124	2127	2129	2129	2131	2131	2131	2131	2129	2124	2122	2120	2117	2115	2113	2108	2106	2104	2102	2099	2095	2093	2091	2088	2086	2084	2084	2082	2082	2082	2080	2080	2082	2082	2082	2082	2084	2082	2082	2080	2082	2082	2082	2084	2082	2084	2086	2086	2088	2088	2091	2093	2095	2095	2095	2097	2099	2099	2097	2099	2099	2097	2097	2097	2099	2099	2099	2099	2102	2102	2102	2104	2106	2106	2108	2111	2113	2113	2115	2115	2117	2113	2115	2115	2115	2117	2115	2115	2115	2115	2113	2115	2113	2113	0	0	0	0	0	0	0	1572	1568	1564	1563	1560	1558	1557	1554	1551	1548	1546	1541	1539	1535	1529	1527	1526	1526	1526	1526	1526	1527	1528	1530	1531	1533	1534	1535	1537	1539	1539	1539	1537	1536	1535	1533	1530	1528	1526	1523	1521	1520	1517	1516	1515	1513	1510	1508	1503	1501	1500	1499	1499	1499	1501	1503	1507	1512	1515	1517	0	1521	1524	1527	1528	1529	1529	1530	1530	1529	1528	1528	1529	1528	1529	1529	1530	1529	1529	1529	1527	1524	1521	1518	1514	1510	1506	1501	1497	1493	1489	1486	1485	1484	1483	1482	1481	1480	1478	1476	1474	1471	1469	1466	1462	1458	1455	1447	1444	1440	1437	1433	1431	1426	1423	1419	1416	1413	1411	1406	1403	1400	1397	1394	1389	1384	1380	1373	1362	1358	1354	1349	1346	1343	1340	1337	1334	1330	1323	1320	1315	1312	1307	1301	1296	1293	1287	1284	1283	1281	1279	1277	1276	1275	1274	1273	1273	1271	1270	1268	1266	1264	1262	1255	1251	1248	1242	1236	1232	1226	1217	1214	1212	1211	1210	1208	1205	1203	1201	1198	1194	1190	1187	1185	1184	1182	1182	1181	1180	1181	1181	1180	0	0	0	0	0	0	0	915	914	913	911	910	908	906	903	901	896	892	890	887	885	883	880	878	876	875	875	874	873	872	871	871
2084	2086	2088	2093	2095	2097	2099	2102	2104	2106	2108	2113	2115	2120	2122	2127	2127	2127	2124	2122	2120	2113	2097	2093	2086	2082	2075	2073	2069	2066	2064	2064	2064	2062	2062	2064	2066	2066	2069	2069	2069	2073	2075	2080	2082	2088	2091	2095	2102	2106	2108	2111	2113	2113	2113	2111	2111	2111	2108	2106	2106	2104	2102	2097	2097	2095	2095	2093	2093	2093	2093	2091	2091	2091	2091	2091	2091	2091	2093	2095	2099	2104	2108	2111	2115	2117	2117	2120	2120	2120	2117	2117	2115	2115	2115	2115	2115	2117	2120	2122	2127	2129	2131	2133	2136	2136	2136	2133	2131	2129	2127	2124	2122	2117	2117	2117	2120	2120	2122	2124	2127	2129	2133	2136	2133	2131	2131	2129	2124	2122	2115	2111	2106	2104	2102	2097	2095	2093	2091	2084	2084	2082	2080	2077	2075	2075	2073	2071	2069	2069	2069	2069	2066	2064	2064	2064	2064	2064	2064	2064	2062	2064	2062	2062	2058	2051	2047	2043	2039	2030	2028	2026	2024	2026	2024	2024	2026	2028	2030	2030	2032	2032	2035	2035	2037	2037	2037	2037	2037	2037	2037	2037	2037	2035	2037	2039	2041	2035	2030	2026	2022	2018	2014	2006	2004	2004	2004	2006	2008	2014	2022	0	2028	2032	2037	2039	2039	2041	2041	2037	2037	2037	2039	2041	2045	2047	2051	2056	2060	2064	2069	2073	2077	2080	0	2084	2086	2088	2091	2093	2093	2093	2093	2091	2091	2093	2093	2093	2091	2091	2088	2088	2088	2086	2086	2088	2086	2088	2088	2088	2091	2091	2091	2091	2091	2088	2088	2086	2084	2084	2082	2082	2080	2077	2075	2075	2075	2071	2066	2066	2066	2064	2064	2066	2066	2069	2069	2069	2069	2069	2069	2066	2066	2066	2064	2062	2060	2060	2060	2060	2060	2062	2064	2066	2071	2075	2080	2086	2093	2095	2099	2104	2104	2106	2108	2111	2111	2111	2111	2113	2115	2115	2115	2115	2115	2117	2117	2122	2122	2124	2124	2127	2131	2136	2140	2143	2145	2145	2147	2147	2147	2145	2143	2140	2138	2138	2133	2133	2131	2129	2129	2129	2129	2129	2129	2131	2131	2131	2129	2131	2131	2133	2131	2131	2129	2129	2129	2127	2127	2122	2117	2115	2117	2115	2113	2113	2111	2108	2111	2108	2111	2111	2111	2108	2111	2111	2113	2115	2115	2117	2120	2122	2124	2127	2129	2129	2127	2127	2124	2120	2117	2113	2111	2108	2106	2104	2102	2099	2097	2095	2093	2091	2088	2088	2086	2084	2084	2082	2082	2082	2082	2082	2082	2082	2082	2082	2080	2077	2077	2077	2077	2077	2077	2077	2080	2080	2082	2084	2086	2086	2088	2088	2093	2095	2097	2097	2097	2099	2097	2097	2097	2097	2097	2097	2097	2097	2097	2097	2097	2099	2102	2104	2104	2104	2106	2108	2108	2106	2106	2106	2106	2106	2108	2108	2108	2108	2108	2111	2111	2108	2113	2111	0	0	0	0	1619	1613	0	0	0	1575	1572	1569	1565	1562	1560	1558	1556	1553	1549	1545	1541	1537	1534	1527	1526	1524	1523	1523	1524	1526	1527	1528	1530	1533	1534	1535	1536	1539	1540	1540	1540	1540	1539	1537	1536	1534	1531	1529	1527	1526	1524	1522	1521	1520	1517	1515	1513	1510	1506	1505	1503	1503	1503	1503	1506	1509	1513	1515	0	1520	1521	1524	1527	1528	1529	1530	1530	1529	1528	1528	1528	1529	1529	1530	1531	1531	1533	1533	1531	1530	1528	1526	1523	1518	1515	1510	1507	1501	1498	1494	1491	1489	1489	1486	1486	1486	1484	1484	1482	1480	1476	1474	1470	1466	1461	1458	1450	1446	1442	1439	1435	1431	1427	1424	1420	1417	1415	1412	1410	1405	1402	1399	1395	1391	1384	1379	1374	1363	1359	1353	1348	1346	1342	1339	1337	1333	1329	1321	1318	1314	1310	1305	1301	1296	1293	1287	1285	1283	1280	1279	1278	1276	1275	1274	1273	1272	1271	1270	1269	1268	1266	1263	1261	1254	1250	1243	1238	1232	1220	1216	1212	1210	1208	1205	1202	1199	1197	1194	1189	1187	1184	1182	1182	1181	1179	1179	1179	1179	1180	1180	1180	0	0	0	0	0	0	914	914	913	912	911	910	908	906	904	901	896	893	890	887	885	882	878	876	875	874	873	872	871	870	870	869
2077	2082	2084	2086	2091	2093	2095	2097	2097	2097	2102	2104	2106	2111	2113	2115	2115	2117	2115	2113	2111	2099	2095	2091	2084	2077	2073	2069	2066	2064	2064	2062	2062	2060	2060	2060	2062	2064	2064	2064	2066	2071	2073	2077	2080	2084	2091	2093	2099	2102	2104	2108	2108	2108	2106	2106	2106	2106	2104	2104	2102	2099	2097	2095	2093	2093	2093	2091	2091	2091	2091	2091	2091	2091	2088	2088	2088	2088	2091	2093	2097	2099	2104	2106	2108	2111	2113	2113	2113	2113	2113	2113	2111	2111	2111	2113	2113	2115	2117	2122	2127	2129	2131	2136	2138	2138	2138	2136	2133	2131	2129	2127	2124	2120	2117	2115	2117	2117	2117	2120	2122	2124	2124	2124	2124	2122	2120	2117	2111	2108	2104	2099	2097	2095	2093	2086	2086	2086	2084	2084	2084	2082	2082	2077	2077	2075	2073	2073	2071	2071	2069	2069	2066	2066	2066	2064	2064	2062	2064	2062	2060	2060	2058	2056	2051	2047	2043	2039	2030	2028	2026	2024	2024	2024	2022	2024	2026	2026	2028	2030	2030	2032	2032	2035	2037	2037	2037	2037	2037	2039	2037	2039	2037	2039	2039	2043	2043	2039	2035	2028	2026	2022	2018	2008	2006	2006	2006	2008	2012	2018	2024	0	2028	2032	2039	2039	2039	2041	2039	2037	2035	2035	2037	2041	2045	2047	2051	2056	2060	2064	2069	2073	0	2080	2082	2084	2088	2088	2091	2091	2093	2093	2091	2091	2091	2091	2091	2091	2091	2091	2088	2088	2086	2086	2084	2084	2086	2086	2088	2088	2091	2091	2091	2091	2091	2091	2088	2086	2086	2084	2084	2082	2082	2080	2075	2075	2075	2071	2069	2066	2066	2064	2066	2066	2066	2066	2069	2066	2066	2066	2066	2066	2064	2062	2062	2060	2060	2060	2060	2060	2060	2062	2064	2069	2073	2075	2080	2086	2091	2095	2099	2102	2102	2104	2106	2106	2108	2106	2108	2111	2115	2115	2115	2117	2120	2122	2122	2124	2124	2129	2129	2131	2136	2140	2140	2143	2145	2145	2145	2145	2145	2143	2140	2138	2136	2133	2131	2131	2129	2129	2129	2129	2127	2127	2127	2127	2127	2127	2127	2129	2129	2129	2127	2127	2127	2122	2122	2120	2117	2113	2111	2106	2104	2104	2102	2102	2099	2099	2099	2102	2102	2102	2102	2104	2106	2106	2108	2108	2111	2113	2115	2117	2117	2120	2122	2124	2122	2122	2117	2113	2113	2108	2104	2102	2099	2097	2095	2093	2091	2091	2088	2088	2086	2084	2084	2084	2084	2084	2082	2082	2082	2082	2082	2082	2080	2080	2077	2075	2073	2073	2073	2073	2073	2073	2073	2075	2077	2080	2080	2082	2084	2086	2091	2093	2095	2095	2097	2097	2097	2097	2097	2097	2095	2095	2095	2095	2095	2095	2097	2097	2097	2099	2102	2093	2091	2093	2095	2095	2095	2097	2095	2095	2095	2097	2097	2097	2097	2099	2102	2104	2106	0	0	0	0	1622	1619	1614	1606	1600	1593	1586	1575	1572	1568	1564	1562	1559	1557	1553	1548	1546	1541	1537	1534	1526	1523	1522	1522	1522	1523	1524	1526	1528	1529	1533	1534	1536	1537	1539	1540	1540	1540	1540	1540	1539	1537	1535	1534	1531	1530	1529	1528	1527	1524	1523	1522	1520	1517	1515	1513	1510	1508	1507	1507	1508	1509	1513	1514	1516	0	1520	1522	1524	1527	1528	1529	1529	1529	1529	1529	1528	1529	1529	1530	1531	1533	1534	1535	1535	1535	1533	1531	1530	1528	1524	1522	1516	1513	1508	1505	1502	1499	1497	1495	1494	1493	1493	1492	1491	1490	1488	1484	1482	1478	1473	1468	1463	1458	1448	1445	1440	1436	1433	1429	1426	1423	1419	1417	1415	1412	1406	1404	1400	1396	1391	1385	1381	1374	1364	1359	1353	1348	1345	1341	1338	1335	1331	1324	1320	1316	1313	1308	1302	1299	1295	1292	1290	1286	1284	1282	1280	1279	1277	1276	1275	1274	1274	1272	1271	1270	1268	1266	1264	1262	1254	1250	1243	1236	0	1218	1213	1209	1206	1204	1202	1199	1196	1193	1187	1185	1183	1180	1179	1179	1177	1177	1178	1178	1179	1179	1179	1179	0	0	0	0	0	0	0	0	0	911	910	910	908	906	904	902	899	894	891	887	885	882	877	875	874	873	872	871	870	869	868	868
2077	2080	2082	2084	2086	2088	2091	2091	2091	2091	2095	2097	2099	2104	2106	2106	2108	2106	2106	2104	2097	2095	2088	2084	2080	2075	2071	2069	2064	2062	2060	2060	2058	2058	2058	2060	2058	2060	2062	2062	2064	2066	2069	2073	2080	2082	2086	2091	2097	2099	2104	2104	2104	2104	2104	2102	2102	2099	2099	2097	2097	2095	2093	2091	2091	2091	2088	2088	2091	2088	2091	2088	2088	2086	2086	2086	2086	2086	2088	2091	2093	2095	2097	2099	2102	2104	2106	2106	2106	2106	2106	2106	2106	2106	2104	2106	2108	2111	2115	2120	2124	2129	2133	2136	2138	2138	2138	2136	2133	2131	2129	2127	2122	2115	2113	2113	2113	2111	2113	2113	2115	2115	2117	2117	2115	2111	2106	2104	2099	2097	2095	2084	2084	2084	2082	2082	2082	2084	2084	2084	2084	2084	2082	2080	2075	2075	2073	2073	2073	2071	2071	2069	2069	2066	2066	2064	2064	2062	2060	2062	2058	2056	2056	2054	2049	2043	2039	2030	2028	2026	2026	2022	2022	2022	2024	2024	2026	2026	2028	2030	2030	2032	2035	2037	2037	2039	2039	2039	2039	2039	2039	2041	2041	2041	2043	2047	2047	2043	2039	2032	2030	2026	2024	2020	2014	2010	2012	2014	2016	2022	0	2028	2032	2037	2039	2041	2041	2041	2041	2037	2037	2037	2039	2041	2045	2049	2051	2058	2062	2064	2071	0	2075	2080	2084	2086	2088	2088	2091	2091	2093	2093	2091	2091	2091	2091	2091	2091	2091	2088	2088	2088	2086	2086	2084	2084	2084	2086	2086	2086	2088	2091	2091	2093	2093	2091	2091	2091	2088	2088	2086	2084	2082	2080	2080	2077	2075	2075	2071	2069	2069	2069	2066	2066	2066	2066	2066	2066	2066	2066	2064	2064	2064	2062	2062	2060	2060	2060	2060	2062	2062	2064	2066	2069	2073	2075	2080	2084	2088	2093	2095	2097	2099	2102	2104	2104	2106	2104	2106	2108	2111	2115	2115	2120	2122	2122	2124	2124	2127	2127	2129	2129	2131	2133	2138	2138	2140	2140	2140	2140	2140	2140	2136	2133	2131	2131	2131	2127	2127	2127	2127	2124	2122	2122	2124	2122	2124	2122	2124	2124	2124	2124	2124	2122	2120	2117	2115	2113	2108	2104	2102	2097	2095	2093	2093	2091	2088	2088	2091	2095	2095	2095	2097	2099	2102	2102	2104	2104	2106	2108	2108	2111	2113	2115	2117	2117	2115	2113	2108	2106	2102	2099	2095	2093	2091	2088	2086	2086	2084	2084	2084	2084	2082	2082	2082	2082	2082	2082	2082	2082	2082	2080	2080	2080	2080	2077	2075	2069	2069	2069	2069	2069	2069	2071	2069	2073	2075	2077	2077	2080	2082	2084	2086	2091	2091	2093	2093	2093	2093	2093	2093	2093	2091	2091	2091	2091	2091	2091	2091	2084	2084	2084	2082	2082	2080	2080	2082	2082	2082	2082	2080	2080	2082	2082	2082	2082	2084	2084	2086	2086	0	0	0	0	0	1621	1619	1615	1609	1602	1596	1591	1584	1575	1572	1567	1565	1563	1559	1554	1551	1546	1542	1537	1533	1526	1523	1521	1521	1521	1522	1523	1524	1527	1528	1530	1534	1536	1539	1539	1541	1541	1541	1540	1539	1540	1539	1537	1535	1534	1533	1531	1530	1529	1528	1527	1524	1523	1521	1517	1516	1514	1512	1510	1510	1510	1512	1513	0	1515	1517	1521	1523	1524	1527	1527	1529	1529	1528	1528	1528	1528	1529	1529	1530	1531	0	1534	1535	1536	1537	1536	1535	1534	1533	1530	1528	1524	1520	1515	1513	1509	1506	1505	1502	1502	1501	1501	1501	1500	1498	1495	1493	1490	1486	1480	1474	1469	1462	1457	1447	1442	1438	1435	1431	1427	1424	1421	1418	1416	1413	1407	1404	1400	1396	1391	1386	1381	1375	1369	1359	1353	1348	1344	1340	1338	1334	1329	1321	1316	1313	1310	1306	1301	1299	1296	1294	1291	1290	1286	1284	1282	1280	1279	1278	1276	1275	1274	1274	1272	1270	1269	1267	1264	1262	1254	1249	1242	1235	1229	1217	1212	1208	1205	1202	1199	1197	1194	1187	1184	1182	1179	1178	1177	1176	1175	1176	1176	1177	1177	1178	1179	1179	1179	0	0	0	0	0	0	912	0	911	910	908	907	906	904	902	900	894	891	888	885	882	876	874	872	871	870	870	868	867	866	866
2077	2080	2082	2084	2084	2086	2086	2088	2086	2088	2091	2093	2093	2095	2097	2097	2097	2099	2097	2093	2091	2086	2084	2080	2077	2073	2069	2066	2064	2060	2060	2058	2058	2056	2056	2056	2058	2060	2058	2060	2062	2064	2066	2073	2075	2082	2084	2091	2095	2097	2099	2102	2102	2102	2099	2099	2097	2097	2095	2093	2091	2088	2086	2086	2086	2086	2086	2088	2088	2086	2088	2086	2086	2086	2086	2086	2084	2084	2084	2086	2088	2093	2095	2095	2097	2099	2099	2102	2102	2099	2102	2099	2099	2102	2102	2102	2104	2108	2111	2115	2120	2127	2129	2131	2133	2133	2133	2133	2129	2127	2124	2120	2113	2111	2108	2106	2106	2108	2108	2108	2108	2108	2108	2108	2106	2099	2086	2084	2080	2080	2077	2075	2077	2075	2077	2080	2080	2082	2082	2084	2082	2082	2082	2080	2077	2077	2075	2075	2073	2071	2071	2069	2069	2066	2066	2066	2064	2064	2062	2060	2060	2058	2056	2051	2047	2043	2039	2035	2028	2026	2024	2024	2022	2024	2024	2026	2026	2028	2028	2030	2032	2035	2035	2037	2039	2041	2041	2041	2041	2043	2045	2045	2043	2045	2047	2049	2049	2047	2043	2039	2035	2030	2028	2026	2020	2018	2018	2020	2020	2022	2026	2032	2037	2039	2041	2041	2043	2045	2045	2039	2039	2039	2041	2045	2049	2051	2058	2060	2064	0	2069	2073	2077	2082	2084	2086	2086	2088	2091	2091	2091	2091	2088	2088	2091	2088	2088	2088	2088	2088	2088	2088	2086	2084	2084	2084	2084	2086	2086	2088	2088	2091	2093	2093	2093	2093	2093	2091	2091	2088	2088	2086	2084	2082	2082	2080	2080	2077	2077	2073	2073	2071	2071	2069	2069	2069	2069	2069	2066	2064	2062	2062	2060	2060	2060	2060	2060	2060	2062	2064	2064	2064	2069	2071	2073	2075	2077	2084	2086	2091	2093	2095	2095	2099	2099	2102	2104	2102	2104	2106	2111	2113	2115	2117	2120	2120	2122	2122	2124	2124	2124	2127	2127	2129	2133	2133	2133	2136	2136	2138	2136	2136	2133	2131	2129	2129	2129	2127	2124	2124	2122	2122	2122	2122	2122	2122	2120	2120	2117	2120	2122	2122	2120	2117	2115	2111	2111	2106	2102	2099	2093	2091	2088	2086	2084	2082	2084	2084	2086	2086	2091	2091	2093	2095	2097	2099	2099	2102	2104	2104	2104	2106	2108	2111	2111	2111	2108	2106	2099	2097	2093	2088	2086	2084	2082	2080	2080	2080	2080	2080	2077	2077	2077	2077	2080	2080	2080	2082	2082	2080	2080	2080	2077	2077	2075	2075	2066	2064	2062	2062	2064	2064	2062	2062	2064	2064	2066	2069	2069	2071	2073	2075	2080	2084	2084	2086	2086	2088	2088	2088	2086	2086	2086	2084	2084	2075	2073	2075	2075	2077	2077	2075	2073	2073	2071	2071	2073	2073	2071	2069	2071	2066	2066	2069	2066	2066	2066	2066	2071	0	0	0	0	0	0	1621	1619	1615	1611	1605	1600	1593	1588	1583	1574	1570	1567	1564	1560	1557	1552	1547	1542	1537	1534	1527	1523	1522	1521	1521	1521	1522	1524	1526	1529	1531	1534	1535	1537	1539	1541	1541	1541	1541	1541	1540	1539	1537	1536	1535	1535	1533	1533	1530	1530	1529	1527	1526	1523	1521	1517	1516	1514	1513	1513	1512	1513	1514	1515	1516	1518	1521	1523	1524	1526	1527	1528	1528	1527	1528	1527	1527	1528	1529	0	1531	1533	1535	1536	1537	1539	1537	1537	1536	1535	1533	1531	1529	1526	1522	1517	1516	1514	1512	1510	1509	1508	1509	1509	1508	1506	1506	1503	1498	1493	1489	1483	1476	1469	1462	1456	1445	1440	1436	1432	1428	1424	1421	1418	1416	1413	1407	1403	1399	1395	1391	1386	1381	1375	1364	1359	1352	1346	1342	1338	1335	1329	1322	1319	1315	1312	1309	1305	1302	1300	1297	1295	1295	1292	1290	1287	1284	1283	1281	1279	1278	1276	1275	1275	1273	1270	1269	1266	1263	1261	1253	1247	1240	1234	1228	1216	1211	1207	1204	1202	1198	1195	1192	1186	1183	1181	1178	1176	1175	1175	1175	1174	1175	1175	1177	1177	1178	1178	1179	0	0	0	0	0	0	911	910	0	909	908	907	906	904	902	900	894	891	887	884	881	875	873	871	870	869	868	867	866	865	865
2077	2077	2082	2082	2082	2084	2084	2084	2086	2084	2086	2086	2088	2088	2088	2088	2088	2086	2086	2084	2082	2077	2075	2073	2071	2069	2066	2064	2062	2058	2058	2056	2056	2054	2054	2056	2056	2056	2058	2060	2060	2064	2066	2073	2075	2082	2084	2088	2093	2095	2097	2099	2099	2097	2097	2095	2095	2093	2091	2088	2086	2086	2086	2084	2082	2082	2084	2084	2086	2086	2086	2086	2084	2084	2084	2084	2084	2082	2082	2084	2086	2088	2091	2091	2093	2095	2095	2095	2093	2095	2095	2095	2095	2095	2095	2097	2102	2104	2106	2111	2115	2122	2124	2127	2129	2129	2129	2127	2124	2120	2117	2111	2106	2104	2102	2099	2099	2102	2102	2102	2102	2102	2091	2088	2086	2080	2080	2075	2073	2071	2071	2071	2071	2071	2073	2075	2077	2080	2082	2082	2082	2084	2082	2084	2080	2077	2075	2075	2075	2073	2073	2071	2069	2069	2066	2066	2064	2064	2062	2060	2058	2058	2054	2051	2049	2043	2039	2037	2030	2028	2028	2026	2026	2026	2026	2028	2028	2030	2030	2032	2035	2037	2037	2039	2041	2043	2043	2043	2045	2045	2047	2049	2047	2049	2051	2054	2054	2051	2047	2043	2041	2037	2037	2032	2028	2026	2026	2026	2028	2028	2035	2039	2041	2043	2043	2045	2045	2045	2047	2043	2043	2043	2045	2049	2054	2058	2060	0	2064	2069	2073	2075	2080	2084	2084	2086	2088	2088	2088	2091	2091	2088	2088	2088	2088	2088	2088	2088	2088	2088	2088	2088	2086	2086	2086	2084	2086	2086	2086	2088	2091	2091	2093	2093	2093	2095	2095	2095	2093	2093	2091	2091	2088	2086	2084	2086	2084	2082	2082	2080	2080	2077	2075	2073	2071	2071	2069	2066	2064	2062	2062	2060	2060	2060	2060	2060	2060	2062	2062	2064	2064	2066	2069	2071	2073	2075	2077	2082	2086	2088	2091	2091	2093	2095	2097	2099	2097	2099	2099	2102	2106	2108	2111	2113	2115	2117	2117	2120	2120	2120	2122	2120	2122	2124	2127	2127	2129	2129	2129	2131	2131	2131	2129	2124	2127	2127	2124	2124	2122	2122	2120	2120	2120	2117	2117	2117	2115	2115	2115	2115	2115	2115	2115	2113	2111	2108	2106	2104	2099	2095	2091	2086	2084	2082	2080	2080	2077	2080	2082	2084	2086	2088	2091	2093	2095	2097	2097	2097	2099	2102	2102	2102	2104	2106	2104	2104	2104	2099	2093	2088	2086	2084	2080	2080	2077	2075	2075	2073	2073	2075	2073	2073	2073	2073	2075	2075	2077	2077	2080	2077	2077	2075	2075	2073	2071	2071	2062	2060	2060	2058	2058	2058	2058	2058	2056	2058	2058	2060	2058	2062	2062	2064	2066	2069	2071	2073	2073	2073	2073	2073	2071	2071	2056	2056	2056	2056	2058	2060	2060	2064	2064	2062	2058	2058	2056	2054	2056	2056	2054	2054	2051	2049	2049	2047	2047	2045	2043	2041	0	0	0	0	0	0	0	1619	1618	1615	1611	1606	1602	1597	1591	1584	1577	1573	1569	1565	1562	1558	1553	1548	1543	1539	1535	1531	1526	1524	1523	1522	1523	1524	1526	1527	1529	1530	1534	1535	1537	1539	1540	1540	1540	1540	1540	1539	1539	1537	1537	1536	1536	1535	1534	1533	1531	1529	1528	1527	1524	1521	1518	1517	1516	1515	1514	1513	1514	1514	1515	1517	1520	1521	1522	1524	1526	1527	1528	1528	1528	1527	1528	1528	1528	1529	1530	1533	1534	1535	1536	1539	1540	1540	1539	1537	1537	1536	1534	1533	1530	1527	1526	1524	1521	1520	1518	1517	1517	1517	1516	1516	1515	1515	1513	1508	1507	1494	1488	1480	1472	1463	1457	1444	1440	1436	1433	1428	1423	1420	1417	1415	1412	1405	1402	1398	1394	1389	1384	1380	1374	1362	1357	1350	1344	1339	1336	1332	1329	1321	1319	1315	1313	1309	1307	1303	1301	1299	1298	1296	1295	1293	1291	1288	1286	1283	1281	1279	1277	1276	1275	1273	1270	1268	1266	1262	1255	1251	1245	1239	1232	1226	1216	1211	1207	1204	1201	1198	1194	1192	1184	1182	1179	1177	1175	1174	1173	1172	1173	1173	1175	1176	1177	1177	1177	1178	0	0	0	0	0	0	910	910	909	908	907	907	905	904	902	900	894	891	887	884	877	875	872	870	868	868	867	866	865	864	863
2077	2080	2082	2082	2082	2084	2082	2082	2084	2082	2082	2084	2084	2084	2082	2080	2080	2075	2075	2073	2071	2069	2066	2064	2064	2062	2060	2060	2058	2056	2056	2054	2054	2054	2054	2056	2056	2058	2058	2060	2062	2064	2066	2071	2075	2077	2082	2086	2091	2093	2097	2097	2097	2095	2093	2091	2091	2088	2084	2082	2082	2080	2080	2080	2080	2080	2082	2082	2084	2084	2084	2082	2082	2084	2082	2082	2080	2080	2080	2082	2084	2084	2086	2086	2088	2088	2088	2088	2088	2088	2091	2091	2091	2088	2091	2095	2097	2099	2104	2108	2113	2115	2120	2122	2122	2122	2122	2120	2115	2106	2104	2102	2099	2097	2093	2091	2093	2088	2086	2086	2086	2086	2084	2082	2080	2075	2071	2066	2064	2064	2064	2064	2064	2066	2069	2071	2073	2077	2077	2080	2082	2082	2082	2084	2080	2077	2077	2075	2075	2075	2073	2071	2071	2071	2069	2066	2064	2064	2062	2060	2058	2056	2054	2051	2049	2047	2043	2041	2039	2032	2032	2030	2030	2030	2030	2030	2030	2030	2032	2035	2037	2039	2041	2043	2043	2043	2045	2045	2047	2049	2049	2051	2051	2054	2054	2056	2058	2056	2051	2051	2047	2045	2043	2041	2037	2037	2035	2035	2035	2037	2039	2043	2045	2045	2045	2045	2045	2047	2049	2043	2045	2047	2049	2051	0	2058	2062	2064	2069	2073	2075	2080	2084	2086	2088	2088	2091	2091	2091	2091	2091	2088	2088	2088	2088	2088	2088	2091	2088	2091	2091	2091	2088	2088	2086	2086	2086	2086	2088	2091	2091	2093	2095	2095	2097	2097	2097	2097	2097	2095	2095	2095	2093	2091	2091	2091	2091	2091	2088	2086	2086	2084	2077	2075	2071	2071	2069	2064	2064	2060	2060	2058	2058	2058	2060	2060	2062	2064	2064	2066	2066	2069	2071	2071	2073	2075	2075	2080	2082	2086	2088	2088	2088	2093	2093	2093	2093	2093	2095	2095	2099	2102	2104	2108	2111	2113	2113	2115	2115	2115	2115	2113	2115	2115	2117	2117	2120	2122	2122	2124	2124	2124	2124	2122	2122	2122	2122	2122	2120	2120	2117	2117	2115	2115	2113	2113	2113	2111	2111	2113	2113	2113	2111	2108	2106	2104	2102	2099	2095	2093	2088	2084	2082	2077	2077	2077	2075	2075	2080	2082	2084	2086	2086	2091	2093	2093	2095	2095	2095	2097	2097	2097	2099	2099	2099	2097	2097	2093	2088	2084	2082	2080	2075	2075	2073	2071	2073	2071	2071	2071	2069	2069	2071	2069	2069	2071	2071	2073	2075	2075	2073	2071	2071	2069	2069	2062	2058	2054	2054	2054	2051	2051	2049	2049	2049	2049	2049	2049	2049	2049	2051	2051	2054	2056	2058	2058	2060	2058	2043	2041	2041	2041	2041	2043	2043	2043	2045	2045	2047	2045	2045	2043	2041	2039	2039	2037	2037	2035	2035	2032	2032	2030	2030	2028	2026	2024	2020	0	0	0	0	0	0	0	0	1621	1618	1617	1613	1607	1602	1597	1592	1587	1583	1574	1570	1567	1563	1559	1556	1549	1546	1541	1537	1535	1531	1527	1526	1526	1526	1527	1528	1529	1530	1531	1534	1535	1536	1537	1539	1539	1540	1539	1540	1539	1539	1539	1539	1537	1537	1537	1536	1535	1534	1533	1530	1528	1527	1524	1522	1520	1518	1517	1516	1516	1516	1516	1517	1518	1521	1522	1524	1526	1527	1528	1529	1529	1529	1529	1529	1529	1530	1530	1531	1533	1535	1536	1537	1540	1540	1541	1540	1540	1540	1539	1537	1535	1534	1533	1530	1530	1528	1526	1526	1526	1524	1524	1524	1523	1522	1521	1518	1517	1514	1501	0	1484	1474	1464	1457	1444	1440	1436	1431	1427	1422	1419	1416	1413	1410	1403	1399	1395	1391	1386	1382	1378	1370	1361	1355	1349	1343	1339	1335	1331	1328	1321	1319	1316	1313	1310	1307	1305	1303	1301	1301	1299	1297	1295	1294	1292	1288	1286	1283	1281	1279	1277	1275	1273	1270	1267	1264	1261	1254	1250	1243	1238	1232	1226	1216	1211	1208	1205	1202	1199	1195	1192	1184	1182	1179	1177	1175	1174	1173	1172	1172	1173	1175	1176	1176	1177	1176	0	1178	0	0	0	0	0	0	907	907	907	907	906	904	904	902	900	894	890	887	883	876	873	871	868	867	866	865	865	864	863	863
2082	2084	2084	2082	2082	2082	2082	2082	2082	2082	2082	2082	2080	2077	2075	2073	2071	2069	2066	2064	2062	2062	2060	2060	2058	2058	2056	2058	2056	2056	2056	2054	2054	2054	2056	2056	2056	2058	2060	2062	2062	2064	2066	2071	2073	2077	2080	2084	2088	2091	2093	2093	2091	2091	2088	2086	2086	2080	2077	2077	2077	2075	2073	2073	2073	2073	2075	2077	2077	2080	2080	2080	2080	2080	2080	2077	2077	2075	2077	2077	2077	2080	2080	2080	2080	2082	2082	2082	2082	2082	2084	2084	2084	2084	2086	2088	2091	2095	2099	2104	2106	2113	2115	2117	2115	2113	2113	2111	2102	2099	2097	2095	2093	2082	2082	2080	2080	2082	2080	2082	2080	2077	2075	2073	2071	2069	2064	2062	2060	2058	2060	2058	2060	2062	2064	2066	2069	2073	2075	2077	2077	2080	2080	2080	2080	2077	2077	2075	2075	2073	2073	2073	2071	2071	2069	2066	2066	2066	2064	2062	2060	2058	2056	2054	2051	2047	2045	2043	2041	2037	2035	2032	2032	2032	2030	2030	2032	2032	2035	2037	2037	2039	2041	2043	2045	2047	2047	2049	2049	2051	2054	2056	2056	2056	2058	2058	2060	2058	2056	2054	2051	2051	2049	2047	2043	2043	2041	2041	2041	2041	2045	2047	2047	2047	2047	2047	2047	2047	2049	2047	2045	2047	2049	2051	2056	2060	2064	2069	2071	2075	2080	2082	2086	2088	2088	2088	2088	2088	2088	2091	2088	2088	2088	2088	2088	2088	2088	2091	2091	2091	2091	2091	2091	2091	2088	2088	2088	2091	2091	2091	2093	2093	2095	2097	2097	2097	2097	2097	2097	2099	2099	2097	2097	2097	2095	2095	2097	2095	2093	2091	2088	2088	2084	2077	2071	2069	2066	2064	2060	2058	2058	2058	2058	2058	2060	2062	2062	2064	2064	2066	2066	2069	2069	2071	2073	2073	2073	2077	2082	2084	2086	2086	2086	2088	2088	2088	2088	2088	2088	2091	2093	2095	2099	2102	2106	2106	2108	2111	2113	2113	2113	2111	2111	2111	2111	2111	2113	2113	2115	2117	2117	2120	2120	2117	2117	2120	2120	2117	2117	2117	2115	2113	2111	2111	2111	2108	2108	2108	2108	2108	2111	2111	2108	2106	2104	2102	2099	2095	2093	2088	2084	2082	2080	2077	2075	2075	2075	2075	2077	2080	2084	2084	2086	2088	2091	2091	2093	2093	2093	2095	2093	2093	2095	2093	2093	2091	2091	2088	2084	2077	2077	2073	2073	2071	2071	2069	2069	2069	2066	2066	2066	2066	2064	2066	2066	2066	2066	2069	2071	2069	2066	2066	2064	2062	2060	2056	2051	2049	2047	2047	2045	2045	2043	2041	2041	2041	2041	2039	2039	2041	2041	2043	2043	2045	2037	2037	2037	2035	2035	2032	2032	2032	2032	2032	2032	2032	2032	2032	2030	2032	2030	2022	2020	2018	2016	2016	2016	2014	2014	2014	2012	2010	2010	2008	2006	2002	1996	1991	1983	1978	0	0	0	0	0	1621	1618	1615	1611	1607	1602	1598	1593	1589	1586	1577	1574	1569	1564	1560	1557	1551	1547	1543	1541	1540	1536	1534	1530	1529	1529	1530	1530	1531	1533	1533	1534	1535	1536	1537	1537	1539	1539	1539	1539	1539	1539	1539	1539	1539	1539	1539	1539	1537	1536	1535	1533	1530	1528	1526	1524	1522	1521	1520	1518	1518	1518	1518	1518	1521	1522	1523	1524	1527	1528	1529	1530	1531	1531	1530	1530	1531	1531	1531	1534	1535	1536	1537	1539	1540	1541	1541	1541	1541	1541	1541	1540	1539	1537	1536	1536	1535	1533	1533	1531	1531	1530	1530	1530	1529	1528	1527	1526	1522	1520	1513	1497	1486	1475	0	1455	1442	1438	1434	1429	1425	1421	1417	1414	1411	1404	1400	1396	1389	1385	1382	1378	1373	1368	1360	1354	1349	1344	1339	1335	1331	1329	1322	1320	1317	1315	1312	1309	1307	1305	1305	1303	1301	1300	1299	1296	1295	1293	1288	1284	1283	1280	1278	1276	1273	1270	1266	1263	1259	1251	1247	1242	1235	1230	1226	1217	1213	1210	1206	1203	1200	1197	1193	1186	1182	1179	1177	1175	1175	1173	1173	1173	1173	1174	1175	1176	1176	1175	0	0	0	0	0	0	0	0	906	905	905	905	905	903	903	902	900	894	890	886	883	876	873	870	868	867	866	865	864	863	863	863
2082	2082	2084	2082	2082	2082	2082	2080	2080	2080	2077	2077	2077	2073	2071	2069	2064	2062	2060	2058	2056	2056	2054	2054	2051	2051	2054	2054	2056	2056	2056	2056	2054	2056	2056	2058	2058	2060	2060	2062	2064	2066	2066	2071	2073	2075	2077	2080	2084	2086	2086	2086	2086	2084	2082	2077	2075	2073	2071	2069	2069	2066	2064	2064	2064	2064	2064	2069	2073	2073	2073	2075	2075	2075	2077	2073	2073	2073	2073	2073	2075	2075	2073	2075	2075	2075	2075	2075	2075	2075	2075	2077	2077	2077	2080	2082	2084	2088	2091	2093	2099	2104	2106	2106	2106	2104	2104	2099	2095	2084	2080	2080	2077	2075	2075	2075	2075	2075	2075	2075	2075	2073	2071	2066	2064	2062	2060	2056	2056	2054	2054	2054	2054	2056	2058	2062	2064	2069	2071	2073	2075	2075	2075	2075	2075	2075	2075	2073	2073	2071	2073	2071	2071	2071	2069	2069	2069	2066	2066	2064	2062	2060	2058	2056	2054	2049	2047	2045	2043	2039	2037	2035	2032	2032	2035	2032	2032	2035	2035	2037	2039	2041	2043	2045	2047	2049	2049	2051	2054	2056	2056	2056	2058	2058	2058	2060	2060	2060	2058	2056	2054	2054	2051	2051	2049	2047	2047	2045	2045	2045	2047	2049	2049	2049	2049	2049	2047	2049	2049	2049	2047	2047	2049	2054	2056	2060	2064	2069	2071	2073	2077	2082	2082	2084	2086	2086	2086	2086	2086	2086	2084	2084	2084	2086	2086	2086	2086	2088	2088	2088	2091	2091	2091	2091	2088	2088	2088	2088	2088	2091	2093	2093	2095	2097	2097	2099	2099	2099	2099	2102	2099	2099	2099	2099	2099	2099	2099	2097	2095	2093	2091	2088	2077	2075	2071	2066	2064	2062	2060	2058	2058	2058	2058	2060	2062	2064	2064	2064	2066	2066	2069	2069	2071	2071	2073	2073	2073	2075	2077	2080	2080	2082	2082	2084	2084	2084	2086	2084	2084	2084	2086	2088	2091	2093	2097	2099	2102	2104	2106	2106	2108	2106	2106	2104	2104	2106	2106	2108	2108	2111	2113	2113	2113	2115	2115	2115	2115	2115	2115	2113	2113	2108	2106	2106	2104	2106	2104	2104	2104	2106	2106	2106	2106	2104	2102	2099	2097	2095	2091	2088	2084	2080	2077	2077	2075	2075	2073	2073	2077	2080	2082	2084	2084	2086	2088	2091	2091	2091	2091	2091	2088	2091	2088	2088	2086	2084	2084	2082	2077	2073	2073	2071	2069	2069	2066	2066	2066	2066	2064	2062	2062	2060	2062	2060	2062	2062	2062	2062	2064	2062	2062	2060	2058	2054	2054	2049	2045	2041	2039	2039	2037	2039	2037	2035	2032	2032	2032	2030	2030	2030	2024	2024	2026	2026	2026	2026	2028	2028	2026	2026	2024	2026	2026	2024	2024	2022	2024	2022	2018	2014	2012	2006	2006	2002	2000	1998	1996	1998	1996	1996	1993	1991	1991	1989	1985	1981	1976	1972	0	0	0	0	0	0	0	1619	1618	1615	1610	1606	1602	1598	1594	1591	1587	1582	1575	1572	1568	1563	1558	1554	1551	1548	1546	1542	1541	1539	1537	1535	1534	1534	1534	1534	1534	1535	1535	1536	1537	1537	1537	1537	1537	1537	1537	1539	1539	1540	1540	1540	1540	1541	1540	1540	1539	1537	1535	1534	1530	1529	1527	1524	1523	1522	1521	1521	1521	1521	1521	1523	1523	1524	1527	1529	1530	1530	1533	1533	1533	1533	1533	1533	1534	1534	1535	1536	1537	1539	1540	1541	1541	1542	1541	1542	1542	1542	1541	1541	1541	1539	1539	1539	1539	1537	1537	1536	1536	1536	1535	1535	1533	1533	1530	1528	1524	1518	1508	1488	1475	1463	1448	1440	1436	1432	1427	1424	1419	1415	1411	1403	1399	1395	1391	1387	1383	1380	1375	1371	1367	1359	1354	1349	1344	1339	1336	1332	1329	1326	1321	1318	1315	1314	1312	1310	1308	1307	1306	1304	1302	1301	1300	1297	1295	1293	1287	1284	1282	1279	1277	1274	1270	1266	1262	1258	1250	1245	1240	1235	1229	1226	1218	1214	1211	1208	1205	1202	1198	1194	1191	1184	1182	1179	1177	1176	1175	1174	1174	1173	1174	1174	1174	1174	1174	1175	1173	0	0	0	0	0	0	905	904	904	903	903	902	902	900	899	893	889	886	882	875	873	870	868	866	866	865	864	863	863	863
2082	2082	2082	2082	2080	2080	2080	2080	2077	2075	2075	2071	2071	2066	2064	2062	2058	2056	2054	2049	2047	2047	2045	2045	2045	2045	2047	2054	2054	2054	2056	2056	2056	2056	2058	2060	2060	2062	2062	2064	2066	2066	2066	2069	2071	2073	2075	2077	2077	2080	2080	2080	2080	2077	2073	2073	2071	2066	2064	2062	2060	2058	2058	2056	2056	2056	2058	2062	2064	2069	2069	2071	2071	2071	2073	2071	2071	2071	2071	2071	2071	2071	2071	2071	2071	2071	2069	2069	2069	2069	2069	2071	2069	2071	2073	2075	2077	2080	2082	2086	2091	2093	2097	2097	2086	2086	2086	2084	2080	2075	2075	2075	2073	2071	2071	2071	2071	2071	2071	2069	2069	2066	2064	2060	2058	2056	2054	2051	2049	2049	2047	2047	2049	0	2054	2058	0	2062	2066	0	2069	2071	2071	2071	2071	2071	2071	2071	2071	2071	2071	2069	2071	2069	2069	2066	2066	2066	2066	2066	2064	2062	2060	2058	2056	2054	2051	2047	2045	2043	2041	2039	2037	2035	2035	2032	2032	2035	2035	2037	2039	2039	2043	2045	2047	2049	2051	2051	2054	2056	2058	2058	2058	2060	2060	2060	2060	2060	2058	2058	2056	2054	2054	2051	2049	2049	2047	2047	2047	2045	2049	2049	2049	2051	2049	2049	2049	2049	2049	2049	2045	2047	0	2051	2056	2058	2062	2064	2066	2069	2073	2075	2077	2082	2080	2082	2082	2082	2082	2082	2082	2080	2080	2080	2082	2084	2082	2082	2084	2086	2088	2091	2088	2088	2088	2088	2088	2088	2091	2091	2091	2093	2095	2097	2097	2099	2099	2102	2099	2102	2102	2102	2102	2097	2097	2097	2095	2093	2091	2088	2086	2084	2077	2073	2066	2062	2062	2060	2058	2058	2058	2058	2060	2062	2064	2064	2066	2066	2069	2069	2071	2069	2069	2071	2071	2071	2069	2071	2073	2075	2075	2077	2077	2080	2082	2080	2080	2077	2077	2077	2077	2080	2082	2084	2088	2093	2095	2099	2099	2099	2102	2102	2099	2099	2102	2102	2102	2102	2104	2104	2106	2108	2111	2111	2113	2113	2113	2113	2111	2108	2106	2104	2102	2102	2099	2099	2102	2099	2099	2099	2102	2102	2102	2099	2097	2097	2095	2093	2091	2086	2082	2080	2077	2077	2077	2075	2073	2075	2077	2082	2082	2082	2084	2086	2086	2088	2088	2088	2086	2084	2084	2084	2082	2082	2080	2077	2077	2075	2071	2066	2066	2066	2066	2064	2064	2064	2062	2062	2062	2060	2060	2058	2058	2058	2058	2058	2058	2060	2060	2058	2056	2051	2049	2047	2045	2043	2039	2037	2035	2032	2032	2032	2030	2028	2028	2026	2022	2020	2020	2018	2018	2018	2018	2020	2020	2022	2022	2020	2020	2020	2020	2018	2018	2018	2018	2016	2014	2010	2006	2002	1998	1993	1987	1985	1983	1981	1980	1980	1980	1978	1976	1976	1974	1972	1970	1968	1964	1960	1952	1948	1943	1937	1933	1931	1927	0	0	0	1609	1605	1601	1597	1592	1589	1586	1583	1575	1573	1569	1565	1562	1559	1556	1553	1551	1548	1547	1543	1542	1541	1539	1539	1537	1537	1537	1537	0	1539	1539	1539	1539	1539	1539	1539	1539	1539	1540	1540	1541	1542	1543	1543	1543	1543	1542	1541	1539	1536	1534	1531	1529	1527	1524	1523	1522	1522	1522	1522	1523	1524	1524	1527	1528	1530	1531	1533	1534	1534	1534	1534	1534	1535	1535	1535	1536	1539	1540	1540	1541	1542	1543	1543	1542	1542	1543	1543	1543	1542	1542	1542	1542	1542	1541	1541	1541	1541	1540	1540	1540	1539	1537	1536	1535	1531	1529	1522	0	1489	0	1463	1447	1438	1434	1429	1425	1421	1417	1412	1409	1402	1397	1394	1390	1386	1382	1379	1375	1370	1367	1359	1355	1349	1345	1340	1336	1332	1329	1326	1321	1320	1317	1315	1314	1312	1310	1309	1307	1306	1305	1303	1301	1300	1296	1294	1289	1285	1283	1281	1279	1275	1270	1266	1262	1258	1249	1244	1239	1234	1230	1226	1222	1216	1213	1210	1207	1203	1199	1197	1193	1190	1184	1181	1179	1178	1176	1175	1174	1174	1174	1173	1172	1172	1171	1171	0	0	0	0	0	0	0	0	0	902	902	902	900	900	900	898	893	889	885	882	875	872	870	868	867	866	865	864	863	863	862
2082	2082	2080	2077	2077	2077	2075	2075	2073	2073	2071	2066	2064	2062	2058	2056	2051	2049	2047	2043	2041	2039	2039	2039	2037	2039	2041	2045	2049	2051	2051	2054	2054	2056	2058	2060	2060	2064	2064	2064	2064	2066	2066	2066	2066	2069	2071	2073	2073	2075	2075	2075	2073	2069	2066	2064	2062	2058	2058	2056	2051	2051	2049	2051	2051	2049	2051	2056	2060	2062	2064	2066	2069	2069	2071	2069	2069	2069	2069	2069	2069	2069	2066	2066	2064	2064	2064	2062	2062	2064	2064	2064	2064	2064	2066	0	2069	2073	0	2077	2075	2077	2080	2080	2077	2077	2077	2077	2075	2073	2073	2071	2071	2069	2069	2069	2069	2069	2069	2066	2062	2060	2060	2056	2051	2049	2047	2045	2043	2041	2041	2043	2045	2047	2049	2054	2056	2058	2062	2064	2066	2066	2066	2066	2066	2066	2066	2066	2069	2069	2069	2066	2066	2066	2066	2066	2064	2066	2066	2064	2064	2064	2062	2058	2058	2054	2051	2049	2047	2043	2043	2039	2037	2035	2035	2032	2032	2032	2035	2035	2037	2039	2041	2043	2047	2047	2049	2051	2054	2056	2058	2056	2058	2058	2058	2060	2060	2060	2060	2058	2056	2056	2056	2054	2051	2049	2049	2049	2049	2047	2049	2051	2051	2051	2049	2049	2047	2047	2049	2047	2045	2045	2047	2051	2056	2058	2060	2062	2064	2069	2069	2071	2073	2073	2077	2077	2077	2077	2077	2080	2077	2077	2077	2077	2080	2080	2082	2082	2082	2084	2086	2088	2088	2088	2088	2088	2088	2088	2088	2088	2088	2093	2093	2095	2097	2097	2095	2097	2097	2099	2099	2099	2099	2095	2095	2093	2091	2088	2086	2084	2082	2075	2071	2066	2062	2060	2058	2058	2056	2056	2058	2058	2060	2062	2064	2066	2066	2066	2069	2069	2069	2069	2069	2069	2069	2069	2069	2069	2071	2071	2073	2073	2075	2075	2075	2077	2075	2073	2073	2073	2071	2073	2075	2077	2080	2084	2088	2091	2093	2095	2097	2095	2095	2095	2095	2097	2097	2097	2099	2102	2104	2106	2108	2108	2113	2111	2111	2111	2106	2106	2104	2102	2099	2097	2097	2095	2095	2097	2093	2095	2095	2097	2097	2095	2095	2095	2095	2095	2093	2091	2086	2086	2082	2080	2080	2080	2077	2077	2080	2082	2082	2084	2084	2086	2086	2086	2084	2084	2082	2082	2080	2077	2075	2073	2073	2071	2069	2069	2066	2062	2062	2062	2062	2062	2062	2062	2060	2060	2058	2058	2056	2056	2056	2054	2054	2054	2054	2054	2054	2054	2047	2045	2043	2041	2039	2037	2035	2030	2028	2028	2028	2028	2022	2022	2020	2018	2018	2016	2016	2014	2014	2014	2014	2016	2014	2016	2016	2016	2016	2016	2014	2014	2012	2012	2008	2006	2004	2000	1996	1989	1983	1980	1976	1972	1970	1966	1966	1964	1964	1964	1962	1962	1960	1960	1958	1956	1954	1948	1944	1943	1939	1933	1931	1927	1925	1925	0	0	0	0	0	1593	1589	1587	1584	1582	1575	1574	1572	1568	1565	1564	1560	1559	1557	1557	1554	1552	1551	1548	1547	1546	1545	1543	1543	1542	1541	1541	1541	1541	1540	1540	1540	1540	1540	1541	1542	1542	1543	1545	1546	1546	1547	1547	1546	1545	1543	1541	1539	1536	1534	1531	1530	1528	1527	1527	1527	1527	1527	1527	1527	1529	1530	1531	1533	1534	1534	1536	1535	1536	1536	1537	1537	1539	1540	1541	1541	1542	1542	1543	1543	1543	1543	1543	1543	1543	1543	1545	1545	1545	1543	1543	1543	1543	1543	1543	1543	1543	1542	1542	1541	1540	1539	1535	1531	1526	1517	1492	1479	1466	1446	1437	1433	1428	1425	1421	1417	1413	1409	1402	1397	1393	1389	1385	1382	1379	1375	1370	1366	1359	1355	1350	1346	1341	1337	1333	1329	1327	1324	1321	1319	1316	1315	1314	1312	1311	1310	1308	1307	1305	1302	1301	1298	1295	1289	1286	1284	1281	1279	1275	1271	1266	1262	1258	1249	1243	1239	1234	1230	1227	1223	1217	1215	1212	1209	1205	1202	1199	1196	1193	1189	1183	1181	1179	1177	1177	1175	1175	1173	1172	1172	1171	1170	1170	1170	0	0	0	0	0	0	900	900	899	900	900	899	899	898	895	892	889	886	883	876	873	870	868	867	866	865	864	863	863	863
2080	2077	2075	2075	2073	2073	2073	2071	2069	2069	2064	2062	2060	2056	2051	2049	2047	2043	2041	2037	2032	2032	2030	2030	2030	2030	2032	2039	2043	2045	2049	2051	2054	2056	2060	2062	2062	2064	2064	2064	2064	2064	2064	2064	2064	2064	2066	2069	2069	2069	2069	2069	2064	2060	2058	2056	2054	2051	2049	2047	2045	2045	2043	2043	2043	2045	2047	2051	2056	2058	2062	2064	2064	2066	2069	2069	2069	2069	2066	2066	2066	2066	2064	2062	2062	2060	2058	2058	2058	2058	2058	2060	2058	2060	2062	2062	2058	2060	2060	2064	2066	2069	2071	2073	2073	2073	2073	2073	2073	2071	2071	2071	2069	2069	2069	2066	2066	2066	2066	2062	2060	2056	2054	2051	2049	2045	2043	2041	2037	2037	2037	2037	2037	2041	2043	2047	2049	2054	2056	2058	2060	2062	2062	2062	2062	2062	2062	2062	2064	2064	2064	2064	2064	2064	2064	2064	2062	2062	2064	2064	2064	2062	2062	2060	2060	2056	2054	2051	2049	2045	2043	2039	2035	2032	2032	2030	2030	2030	2030	2032	2035	2037	2039	2041	2043	2045	2047	2049	2051	2054	2056	2056	2056	2056	2058	2058	2060	2058	2058	2058	2056	2056	2056	2056	2056	2054	2054	2054	2051	2049	2051	2054	2054	2054	2049	2049	2047	2047	2049	2045	2043	2043	2047	2049	2051	2054	0	2058	2062	2064	2066	2066	2069	2071	2073	2073	2075	2075	2075	2077	2077	2077	2075	2077	2077	2077	2077	2080	2080	2082	2084	2086	2086	2086	2086	2086	2086	2086	2086	2086	2088	2088	2086	2088	2088	2091	2091	2091	2091	2093	2093	2093	2091	2088	2086	2086	2084	2082	2077	2077	2075	2071	2066	2062	2060	2058	2056	2056	2056	2056	2058	2060	2060	2064	2064	2066	2066	2066	2066	2066	2066	2066	2066	2066	2066	2066	2066	2066	2066	2069	2069	2071	2071	2073	2073	2073	2071	2069	2066	2064	2064	2064	2066	2069	2071	2075	2077	2082	2084	2086	2088	2088	2091	2091	2091	2093	2093	2095	2097	2099	2102	2102	2106	2106	2108	2108	2108	2108	2104	2102	2102	2097	2095	2095	2093	2093	2091	2091	2091	2091	2091	2091	2093	2093	2093	2093	2093	2093	2093	2091	2088	2086	2086	2084	2084	2084	2080	2080	2082	2082	2084	2084	2084	2084	2082	2080	2080	2077	2075	2073	2069	2069	2069	2066	2064	2064	2062	2062	2060	2060	2060	2060	2060	2060	2060	2060	2060	2058	2056	2054	2054	2054	2051	2051	2051	2049	2049	2049	2049	2043	2043	2041	2039	2037	2035	2032	2032	2026	2024	2022	2022	2020	2020	2018	2016	2016	2016	2012	2014	2012	2012	2010	2012	2012	2012	2012	2014	2012	2012	2012	2010	2008	2004	2002	2002	1998	1993	1987	1983	1978	1974	1970	1966	1960	1958	1956	1956	1954	1954	1952	1950	1950	1952	1952	1952	1948	1944	1944	1941	1941	1937	1933	1931	1927	1925	1924	0	0	0	0	0	0	1586	1583	1580	1575	1575	1573	1572	1569	1569	1568	1567	1565	1564	1563	1562	1560	1557	1554	1553	1552	1551	1549	1547	1546	1545	1545	1545	1545	1543	1542	1542	1542	1542	1543	1543	1545	1546	1547	1548	1549	1551	1551	1551	1551	1548	1547	1545	1542	1540	1537	1536	1535	1533	1531	1530	1530	1530	1530	1530	1530	1531	1533	1533	1534	1535	1536	1536	1536	1537	1537	1539	1540	1541	1542	1542	1543	1543	1545	1545	1545	1545	1543	1543	1545	1545	1545	1546	1545	1546	1547	1547	1546	1546	1546	1546	1546	1545	1545	1543	1542	1540	1537	1534	1528	1520	1494	1481	1467	1446	1438	1434	1428	1424	1421	1417	1413	1409	1402	1397	1393	1389	1385	1382	1380	1375	1371	1367	1361	1356	1352	1347	1342	1338	1334	1330	1328	1326	1322	1321	1318	1317	1315	1314	1314	1311	1309	1308	1306	1304	1301	1298	1295	1291	1286	1284	1281	1279	1275	1270	1266	1262	1259	1250	1244	1239	1235	1231	1227	1224	1218	1216	1213	1211	1208	1205	1202	1199	1195	1192	1185	1183	1181	1179	1177	1176	1175	1173	1171	1171	1170	1169	0	0	0	0	0	0	0	0	897	898	898	898	898	897	898	897	894	892	889	887	883	876	874	871	870	868	866	866	864	863	863	863
2077	2075	2073	2071	2071	2069	2069	2066	2062	2060	2060	2058	2054	2051	2047	2043	2041	2037	2032	2030	2026	2024	2022	2022	2024	2024	2028	2030	2035	2043	2045	2049	2054	2056	2060	2062	2064	2064	2066	2066	2066	2064	2062	2062	2062	2062	2062	2064	2064	2064	2060	2058	2056	2051	2047	2047	2045	2043	2041	2041	2037	2039	2039	2039	2039	2039	2043	2047	2051	2056	2058	2060	2064	2066	2066	2066	2066	2066	2066	2064	2064	2062	2060	2060	2058	2056	2054	2054	2054	2054	2054	2051	2049	2049	2051	2051	2051	2054	2056	2058	2060	2064	2066	2069	2069	2071	2071	2071	2071	2071	2071	2071	2071	2069	2069	2066	2066	2064	2062	2058	2054	2051	2045	2043	2039	2032	2032	2032	2028	2028	2028	2030	2030	2035	2037	2039	2043	2047	2051	2054	2054	2056	2056	2058	2058	2058	2060	2060	2060	2062	2062	2062	2060	2060	2060	2060	2060	2062	2062	2062	2062	2062	2062	2060	2060	2058	2054	2051	2049	2045	2043	2039	2035	2032	2030	2028	2028	2028	2030	2030	2030	2035	2037	2041	2041	2043	2045	2047	2049	2051	2054	2054	2054	2054	2056	2058	2058	2058	2058	2058	2058	2058	2060	2058	2058	2056	2056	2056	2056	2054	2054	2056	2054	2054	2051	2049	2047	2047	2047	2045	2041	2041	2043	2045	2047	2049	2054	2056	2056	2060	2062	2060	2064	2066	2069	2069	2071	2073	2073	2075	2075	2075	2075	2077	2075	2075	2077	2077	2077	2080	2082	2082	2086	2086	2082	2082	2082	2084	2080	2080	2080	2080	2080	2082	2080	2082	2082	2082	2082	2082	2084	2084	2084	2080	2077	2075	2075	2073	2071	2066	2064	2062	2060	2058	2054	2051	2051	2049	2051	2054	2056	2058	2060	2062	2064	2064	2066	2064	2064	2064	2064	2062	2062	2062	2062	2062	2062	2062	2064	2064	2066	2066	2069	2069	2069	2064	2064	2062	2058	2058	2056	2054	2056	2058	2060	2064	2069	2073	2075	2080	2082	2082	2086	2086	2088	2088	2091	2093	2095	2097	2099	2102	2104	2104	2106	2106	2106	2106	2104	2099	2099	2097	2095	2091	2091	2091	2091	2086	2086	2086	2088	2088	2088	2088	2088	2091	2091	2093	2093	2093	2093	2093	2091	2091	2086	2086	2084	2084	2084	2084	2084	2082	2082	2080	2077	2075	2073	2069	2064	2062	2060	2060	2058	2058	2056	2056	2056	2056	2056	2058	2058	2058	2060	2060	2060	2060	2060	2058	2056	2054	2054	2051	2051	2049	2049	2047	2047	2045	2047	2043	2041	2039	2037	2035	2032	2030	2030	2026	2026	2024	2022	2020	2018	2018	2016	2014	2014	2012	2012	2012	2010	2010	2012	2012	2012	2012	2012	2012	2010	2008	2006	2002	2000	1996	1993	1989	1985	1981	1976	1970	1964	1960	1956	1952	1946	1946	1944	1946	1946	1944	1946	1946	1946	1944	1941	1943	1941	1941	1937	1937	1935	1931	1929	1927	1925	1924	1922	0	0	0	0	0	1579	1578	1577	1574	1574	1573	1572	1572	1572	1570	1570	1569	1569	1568	1568	1565	1564	1562	1559	1557	1557	1554	1553	1551	1549	1549	1548	1548	1547	1546	1545	1545	1546	1546	1547	1548	1549	1551	1552	1553	0	1554	1556	1553	1553	1551	1549	1547	1546	1542	1541	1539	1537	1536	1536	1535	1535	1534	1533	1533	1534	1533	1534	1534	1535	1536	1536	1536	1537	1537	1539	1540	1542	1543	1543	1545	1546	1546	1546	1546	1545	1545	1545	1545	1546	1546	1547	1546	1547	1548	1548	1547	1547	1547	1547	1547	1547	1546	1546	1543	1542	1540	1537	1531	1522	0	1488	1472	1457	1438	1433	1429	1424	1421	1417	1414	1410	1402	1398	1394	1390	1386	1383	1381	1377	1372	1368	1364	1358	1353	1348	1341	1338	1334	1331	1329	1327	1325	1321	1320	1319	1317	1316	1314	1313	1311	1309	1307	1304	1301	1298	1294	1287	1284	1282	1280	1277	1274	1270	1266	1262	1258	1249	1245	1239	1235	1232	1228	1225	1221	1216	1214	1212	1209	1206	1203	1200	1197	1193	1190	1185	1182	1179	1178	1176	1175	1172	1172	1170	1169	1169	1168	1167	1167	0	0	0	0	0	0	0	895	896	896	896	896	896	894	892	889	887	884	880	876	873	871	870	868	866	865	865	863	863
2075	2073	2069	2069	2064	2064	2062	2058	2058	2056	2054	2051	2049	2045	2041	2037	2032	2030	2026	2024	2022	2020	2016	2016	2016	2020	2022	2024	2030	2037	2043	2047	2051	2056	2060	2064	2066	2066	2066	2064	2064	2064	2062	2060	2060	2060	2058	2060	2056	2054	2054	2049	2045	2043	2039	2039	2037	2035	2032	2032	2032	2032	2032	2035	2035	2037	2039	2043	2047	2051	2056	2058	2062	2064	2066	2064	2064	2064	2064	2064	2062	2060	2058	2058	2056	2054	2051	2045	2045	2045	2045	2047	2047	2047	2047	2049	2049	2051	2051	2054	2058	2060	2062	2066	2069	2069	2071	2071	2073	2073	2073	2073	2073	2071	2069	2066	2064	2060	2056	2051	2045	2041	2037	2035	2032	2026	2028	2024	2024	2024	2024	2024	2026	2028	2030	2032	2037	2041	2045	2047	2049	2051	2051	2051	2054	2056	2056	2056	2056	2058	2058	2058	2058	2058	2058	2056	2058	2058	2058	2058	2060	2060	2058	2058	2058	2056	2054	2051	2049	2045	2043	2035	2035	2030	2030	2028	2028	2028	2028	2028	2030	2032	2035	2037	2039	2041	2043	2045	2047	2049	2051	2051	2054	2054	2054	2058	2058	2058	2058	2058	2058	2058	2060	2060	2060	2060	2058	2058	2058	2056	2056	2056	2056	2056	2051	2051	2047	2047	2045	2043	2039	2039	2041	2043	2045	2045	2047	2054	2054	2056	2058	2058	2060	2062	2064	2066	2069	2071	2073	2073	2075	2075	2075	2075	2075	2075	2077	2077	2077	2077	2080	2082	2084	2080	2080	2077	2077	2077	2075	2075	2075	2073	2071	2071	2069	2071	2069	2066	2066	2064	2064	2066	2066	2064	2060	2060	2058	2058	2056	2056	2056	2054	2054	2051	2049	2047	2047	2047	2049	2051	2054	2056	2058	2062	2062	2064	2062	2060	2060	2060	2058	2058	2058	2058	2060	2058	2060	2060	2060	2060	2062	2062	2064	2062	2060	2058	2056	2051	2047	2045	2043	2045	2047	2051	2056	2058	2062	2066	0	2071	2073	2075	2080	2082	2084	2086	2088	2091	2093	2095	2097	2099	0	2104	2104	2104	2104	2104	2102	2099	2097	2095	2093	2091	2091	2088	2086	2084	2084	2084	2086	2084	2084	2084	2086	2088	2091	2093	2093	2093	2093	2093	2093	2091	2091	2088	2086	2084	2084	2082	2082	2080	2077	2073	2071	2069	2064	2060	2058	2056	2051	2049	2047	2047	2047	2047	2049	2049	2051	2054	2056	2058	2060	2060	2060	2060	2060	2060	2058	2056	2054	2054	2054	2051	2049	2047	2047	2047	2047	2043	2041	2041	2039	2037	2039	2039	2035	2032	2030	2026	2026	2022	2020	2020	2018	2016	2014	2014	2014	2014	2014	2012	2014	2014	2014	2012	2012	2012	2010	2008	2004	2000	1996	1991	1985	1983	1978	1974	1968	1962	1956	1952	1948	1944	1939	1939	1939	1939	1941	1941	1943	1941	1941	1941	1939	1939	1937	1937	1935	1935	1933	1931	1927	1925	1925	1924	1924	0	0	0	0	0	1572	1572	1570	1570	1570	1570	1572	1570	1572	1573	1572	1572	1572	1573	1572	1570	1569	1568	1565	1564	1563	1560	1559	1557	1556	1554	1553	1553	1551	1549	1549	1549	1548	1548	1549	1549	1551	1552	1554	1556	1557	1558	1559	1559	1558	1556	1553	1551	1549	1548	1546	1545	1543	1542	1541	1540	1539	1537	1536	1535	1535	1535	1535	1535	1536	1536	1536	1536	1536	1539	1539	1541	1542	1545	1546	1546	1547	1547	1547	1547	1547	1546	1547	1546	1547	1547	1547	1548	1548	1549	1548	1549	1549	1549	1548	1549	1549	1548	1548	1547	1546	1545	1542	1536	1528	1520	1507	0	0	1441	1434	1431	1425	1422	1419	1415	1411	1407	1399	1395	1391	1388	1385	1382	1378	1375	1371	1367	1361	1355	1349	1342	1338	1334	1332	1329	1328	1326	1324	1321	1321	1319	1317	1315	1313	1311	1309	1307	1303	1300	1296	1292	1285	1283	1280	1278	1275	1273	1268	1266	1262	1258	1250	1245	1240	1235	1232	1229	1225	1221	1217	1215	1212	1210	1208	1205	1202	1198	1195	1192	1186	1184	1181	1179	1177	1175	1173	1172	1170	1169	1168	1167	1166	0	0	0	0	0	0	0	892	893	894	894	894	894	894	893	892	890	887	885	882	876	874	872	870	869	867	866	865	864	863
2071	2069	2064	2062	2060	2058	2056	2051	2051	2049	2045	2043	2041	2037	2035	2030	2028	2024	2020	2018	2016	2014	2014	2014	2014	2014	2018	2022	2028	2035	2041	2047	2051	2058	2060	2064	2066	2066	2066	2064	2064	2062	2060	2058	2056	2056	2056	2051	2051	2047	2045	2041	2039	2035	2030	2028	2028	2026	2026	2026	2024	2026	2028	2028	2030	2032	2037	2041	2045	2049	2054	2058	2060	2062	2062	2064	2062	2062	2062	2060	2060	2058	2056	2054	2051	2049	2047	2043	2043	2045	2045	2045	2045	2047	2047	2047	2047	2049	2049	2051	2056	2058	2062	2064	2066	2069	2073	2075	2077	2075	2075	2075	2073	2071	2069	2066	2062	2058	2051	2045	2039	2035	2028	2024	2022	2020	2018	2020	2018	2018	2018	2018	2020	2022	2026	2028	2030	2035	2039	2043	2045	2047	2047	2049	2051	2051	2054	2054	2054	2054	2056	2056	2056	2056	2054	2054	2054	2054	2056	2056	2056	2056	2056	2058	2056	2054	2054	2049	2047	2043	2041	2039	2032	2032	2028	2028	2028	2028	2028	2028	2030	2030	2032	2035	2039	2041	2041	2045	2047	2049	2051	2051	2054	2051	2054	2056	2060	2060	2060	2058	2058	2060	2062	2062	2060	2060	2060	2060	2060	2058	2058	2058	2058	2056	2054	2049	2049	2047	2043	2039	2037	2037	2039	2039	2043	2041	2045	2047	2049	2054	2054	2056	2056	2058	2060	2064	2066	2069	2069	2073	2075	2075	2073	2075	2073	2075	2075	2077	2077	2075	2075	2077	2077	2077	2075	2075	2073	2073	2071	2071	2069	2066	2066	2062	2060	2056	2054	2051	2051	2047	2047	2047	2047	2045	2043	2045	2045	2047	2047	2047	2047	2047	2045	2047	2045	2045	2043	2043	2045	2049	2051	2054	2058	2060	2060	2060	2058	2058	2056	2054	2054	2054	2054	2054	2054	2056	2056	2056	2056	2058	2058	2058	2058	2056	2056	2051	2047	2041	2039	2037	2037	2039	2039	2043	2045	2049	2056	2058	2064	2066	2071	2075	2077	2080	0	2084	0	2088	2091	2093	2097	2099	2099	2102	2102	2102	2102	2099	2099	2097	2095	2093	2091	2088	2088	2086	2086	2082	2082	2082	2082	2082	2082	2082	2084	2084	2086	2088	2091	2093	2093	2093	2091	2088	2088	2086	2084	2082	2080	2080	2077	2073	2071	2069	2064	2062	2060	2054	2049	2047	2045	2041	2041	2039	2039	2039	2039	2043	2045	2047	2051	2054	2058	2058	2062	2062	2062	2062	2060	2058	2058	2056	2056	2054	2054	2051	2051	2049	2049	2047	2051	2047	2047	2047	2045	2043	2041	2037	2035	2032	2030	2026	2024	2022	2022	2020	2020	2018	2018	2018	2016	2016	2016	2016	2016	2016	2014	2012	2008	2006	2004	1996	1991	1985	1981	1976	1970	1964	1958	1952	1946	1943	1939	1935	1935	1933	1933	1935	1937	1937	1937	1937	1939	1939	1937	1937	1935	1935	1933	1933	1931	1929	1927	1925	1924	1925	1924	0	0	0	0	1567	1568	1568	1568	1568	1569	1570	1570	1570	1572	1573	1573	1574	1574	1574	1575	1574	1573	1572	1570	1569	1568	1567	1564	1562	1562	1559	1559	1557	1556	1554	1553	1553	1552	1552	1552	1553	1554	1556	1557	1558	1559	1562	1563	1563	1562	1562	1558	1556	1554	1554	1552	1551	1549	1547	1547	1546	1545	1542	1540	1539	1537	1537	1536	1536	1536	1537	1537	1537	1537	1539	1540	1542	1543	1546	1547	1548	1548	1548	1548	1548	1548	1547	1548	1548	1548	1547	1548	1548	1548	1549	1549	1549	1549	1551	1551	1551	1552	1552	1552	1552	1549	1547	1545	1541	1533	1526	1513	1483	0	1445	1437	1432	1427	1423	1419	1416	1411	1408	1400	1397	1393	1390	1387	1384	1382	1379	1375	1372	1368	1358	1350	1343	1338	1335	1332	1329	1328	1326	1325	1321	1321	1319	1316	1314	1312	1310	1307	1304	1301	1296	1293	1286	1283	1280	1278	1275	1274	1270	1267	1264	1260	1257	1249	1244	1239	1235	1231	1228	1225	1221	1216	1215	1213	1211	1208	1205	1202	1199	1197	1194	1190	1184	1182	1179	1177	1175	1172	1171	1169	1168	1168	1166	1166	0	0	0	0	0	0	890	890	891	892	892	892	893	893	892	891	890	888	886	883	880	876	874	871	870	868	866	865	864	863
2066	2064	2060	2056	2054	2049	2049	2045	2043	2041	2039	2037	2035	2032	2028	2024	2022	2020	2016	2014	2012	2012	2010	2012	2012	2014	2016	2020	2026	2032	2039	2047	2051	2056	2060	2064	2066	2066	2064	2064	2062	2060	2058	2056	2051	2051	2047	2047	2043	2041	2037	2032	2028	2028	2022	2020	2020	2020	2020	2020	2020	2022	2024	2026	2028	2032	2035	2039	2043	2047	2051	2056	2058	2060	2062	2062	2062	2062	2060	2058	2058	2056	2054	2051	2049	2049	2047	2045	2043	2043	2045	2043	2043	2045	2043	2043	2045	2045	2045	2047	2049	2054	2058	2060	2064	2069	2073	2075	2077	2077	2077	2077	2075	2073	2071	2064	2060	2054	2047	2041	2035	2028	2020	2018	2016	2014	2014	2014	2012	2014	2014	2014	2016	2018	2020	2024	2028	2030	2035	2039	2041	2043	2045	2047	2049	2049	2049	2051	2051	2054	2054	2051	2054	2051	2049	2051	2051	2051	2051	2051	2051	2054	2054	2054	2054	2051	2049	2047	2045	2041	2039	2037	2032	2030	2028	2026	2026	2026	2024	2026	2026	2030	2032	2035	2037	2037	2041	2043	2045	2047	2049	2049	2051	2051	2054	2058	2060	2060	2060	2060	2060	2062	2064	2064	2062	2062	2062	2062	2062	2060	2060	2060	2058	2056	2056	2051	2049	2047	2043	2039	2037	2035	2037	2039	2037	2039	2041	2045	2045	2049	2049	2051	2054	2058	2058	2062	2064	2066	2069	2071	2073	2075	2075	2073	2075	2073	2073	2075	2075	2075	2075	2075	2075	2075	2073	2071	2071	2069	2069	2066	2064	2064	2060	2054	2051	2045	2043	2037	2032	2032	2032	2030	2032	2030	2032	2032	2035	2035	2037	2039	2041	2041	2041	2041	2041	2041	2041	2041	2043	2047	2049	2051	2054	2056	2058	2056	2054	2051	2051	2049	2049	2049	2049	2051	2051	2051	2054	2054	2051	2054	2054	2056	2054	2051	2049	2047	2039	2037	2035	2032	2030	2032	2035	2037	2039	2043	2047	2051	2058	2062	2064	2071	2073	2077	2080	2084	2086	2088	0	2091	2095	2097	2097	2099	2099	2099	2099	2099	2097	2095	2095	2093	2091	2088	2086	2086	2084	2084	2080	2080	2082	2080	2080	2080	2082	2082	2084	2086	2088	2091	2093	2093	2091	2088	2088	2084	2080	2080	2077	2075	2071	2069	2064	2062	2058	2056	2051	2049	2043	2041	2039	2035	2035	2035	2032	2035	2035	2037	2039	2041	2045	2049	2054	2058	2060	2062	2062	2062	2062	2062	2060	2060	2058	2058	2058	2056	2060	2058	2058	2058	2056	2054	2054	2051	2049	2047	2045	2043	2039	2035	2032	2032	2028	2028	2026	2026	2026	2024	2022	2022	2020	2020	2018	2018	2016	2014	2012	2010	2006	2004	1996	1991	1985	1980	1974	1968	1962	1956	1950	1944	1939	1937	1933	1931	1929	1927	1929	1931	1933	1935	1935	1937	1937	1939	1937	1935	1935	1931	1931	1931	1931	1929	1927	1925	1924	1924	1924	0	0	0	1563	1565	1567	1567	1567	1567	1567	1568	1569	1570	1572	1573	1574	1575	1575	1577	1578	1578	1578	1577	1575	1574	1574	1572	1570	1569	1568	1565	1564	1562	1559	1558	1557	1557	1556	1556	1556	1556	1557	1557	1558	1560	1562	1563	1564	1564	1565	1565	1564	1563	1560	1559	1559	1558	1556	1554	1553	1551	1549	1547	1543	1543	1542	1540	1539	1537	1539	1539	1539	1539	1539	1540	1541	1543	1546	1547	1548	1549	1549	1549	1549	1549	1549	1548	1548	1548	1548	1547	1548	1548	1548	1548	1548	1548	1549	1549	1552	1552	1553	1554	1554	1553	1552	1549	1546	1543	1536	1530	1520	1507	1474	0	1441	1434	1429	1425	1421	1417	1413	1409	1405	1398	1395	1392	1390	1387	1384	1382	1379	1374	1371	1360	1352	1344	1338	1335	1332	1329	1328	1326	1324	1321	1319	1317	1314	1313	1310	1307	1304	1301	1297	1294	1290	1282	1279	1277	1275	1274	1270	1269	1265	1262	1258	1255	1248	1243	1239	1234	1231	1227	1224	1221	1216	1214	1212	1211	1208	1206	1203	1201	1198	1195	1192	1185	1183	1180	1177	1175	1172	1172	1170	1168	1168	1166	1166	0	0	0	0	0	0	887	888	888	889	890	890	891	891	892	891	890	889	887	884	882	880	875	873	871	869	867	866	864	863
2062	2058	2054	2047	2045	2043	2041	2039	2037	2035	2035	2032	2030	2028	2024	2022	2020	2018	2014	2012	2010	2010	2010	2010	2012	2014	2016	2020	2026	2032	2039	2045	2051	2056	2060	2062	2064	2064	2064	2062	2060	2058	2054	2051	2049	2045	2043	2039	2037	2032	2028	2024	2020	2020	2016	2014	2014	2014	2016	2016	2016	2018	2020	2022	2026	2028	2032	2037	2041	2045	2049	2054	2056	2058	2060	2060	2060	2060	2058	2058	2056	2054	2054	2051	2049	2049	2047	2045	2043	2045	2045	2045	2043	2045	2043	2043	2043	2043	2043	2045	2047	2051	2056	2060	2064	2069	2073	2075	2080	2080	2080	2080	2077	2075	2069	2064	2056	2049	2045	2037	2030	2020	2014	2012	2012	2010	2008	2008	2008	2010	2012	2010	2012	2016	2018	2020	2024	2028	2032	2035	2037	2041	2043	2045	2047	2049	2049	2049	2051	2051	2051	2049	2049	2047	2047	2047	2049	2049	2049	2049	2051	2051	2051	2051	2051	2049	2047	2045	2041	2039	2037	2032	2028	2026	2026	2024	2022	2022	2024	2024	2026	2028	2028	2030	2035	2037	2039	2041	2043	2045	2047	2049	2049	2049	2054	2058	2062	2062	2062	2064	2064	2066	2071	2073	2071	2071	2071	2071	2071	2073	2069	2066	2064	2060	2058	2054	2049	2047	2043	2041	2037	2035	2035	2035	2037	2037	2037	2041	2043	2045	2045	2047	2049	2054	2058	2060	2064	2064	2069	2069	2073	2073	2073	2073	2073	2073	2073	2073	2073	2073	2073	2073	2073	2073	2071	2071	2066	2064	2064	2062	2060	2056	2054	2049	2043	2032	2028	2026	2022	2022	2020	2022	2020	2022	2020	2022	2024	2026	2028	2030	2032	2035	2035	2037	2039	2039	2039	2041	2041	2043	2047	2049	2049	2051	2051	2049	2049	2049	2047	2047	2047	2047	2047	2049	2049	2049	2049	2051	2051	2051	2054	2051	2051	2049	2047	2045	2037	2035	2030	2030	2028	2028	2030	2032	2037	2039	2043	2047	2054	2058	2060	2066	2071	2075	2077	2082	2084	2086	0	2091	2093	2095	2095	2099	2099	2099	2097	2097	2097	2095	2093	2091	2091	2088	2086	2086	2084	2082	2082	2080	2080	2080	2080	2080	2080	2082	2082	2086	2088	2088	2091	2091	2091	2088	2084	2084	2080	2077	2073	2073	2066	2064	2060	2058	2054	2051	2047	2043	2041	2037	2035	2032	2030	2030	2028	2030	2030	2032	2037	2039	2043	2047	2051	2054	2058	2062	2064	2064	2064	2064	2064	2062	2066	2066	2066	2064	2064	2064	2062	2062	2058	2058	2056	2056	2051	2049	2047	2045	2043	2039	2037	2037	2032	2032	2032	2030	2028	2028	2026	2024	2024	2022	2020	2018	2018	2014	2012	2008	2004	1993	1989	1983	1980	1972	1966	1960	1954	1948	1943	1935	1931	1929	1927	1925	1924	1925	1927	1929	1931	1933	1935	1935	1937	1935	1935	1935	1933	1931	1931	1931	1931	1927	1925	1925	1924	1922	0	0	0	1560	1562	1562	1563	1563	1563	1564	1565	1567	1568	1569	1572	1573	1575	1577	1578	1579	1580	1580	1580	1580	1580	1579	1579	1578	1575	1574	1573	1570	1569	1567	1565	1563	1562	1560	1559	1558	1557	1558	1558	1559	1560	1563	1563	1564	1565	1567	1568	1567	1567	1565	1564	1563	1563	1562	1560	1560	1558	1556	1553	1552	1548	1547	1545	1543	1541	1540	1540	1540	1540	1540	1540	1542	1543	1546	1547	1548	1549	1551	1551	1551	1551	1551	1549	1549	1549	1548	1548	1548	1548	1548	1548	1548	1549	1549	1551	1552	1553	1553	1554	1556	1556	1556	1552	1551	1548	1546	1541	1536	1528	1516	1502	1469	1444	1437	1431	1426	1422	1418	1414	1410	1406	1400	1397	1394	1392	1390	1386	1384	1381	1376	0	1360	1352	1345	1339	1336	1332	1329	1328	1325	1323	1320	1318	1315	1313	1310	1307	1304	1301	1297	1294	1290	1283	1280	1277	1275	1273	1270	1268	1266	1263	1260	1258	1251	1247	1242	1239	1234	1231	1228	1225	1222	1216	1215	1213	1211	1208	1206	1204	1202	1199	1196	1193	1189	1184	1181	1178	1175	1173	1171	1170	1168	1168	1167	1166	1165	0	0	0	0	0	0	886	887	888	888	889	890	891	891	891	890	889	887	885	883	880	876	874	871	870	868	866	864	863
2058	2051	2043	2041	2039	2037	2035	2032	2030	2030	2028	2028	2026	2024	2022	2020	2018	2016	2014	2010	2010	2008	2008	2010	2012	2016	2018	2022	2026	2035	2039	2045	2051	2056	2060	2062	2062	2064	2062	2062	2058	2056	2054	2049	2043	2041	2039	2035	2030	2024	2022	2018	2014	2012	2010	2010	2010	2010	2012	2012	2014	2018	2020	2024	2026	2028	2032	2037	2039	2045	2047	2049	2054	2056	2056	2058	2058	2058	2056	2056	2054	2054	2051	2049	2049	2049	2047	2045	2045	2045	2045	2045	2045	2045	2045	2043	2045	2043	2043	2045	2047	2051	2056	2060	2064	2071	2075	2077	2080	2082	2082	2080	2077	2073	2069	2062	2054	2047	2041	2032	2026	2018	2014	2010	2008	2006	2006	2006	2006	2008	2010	2008	2010	2014	2016	2020	2022	2026	2030	2032	2037	2041	2041	2045	2045	2047	2047	2049	2049	2049	2049	2049	2047	2047	2045	2047	2047	2047	2047	2047	2049	2049	2051	2049	2049	2047	2045	2041	2039	2035	2030	2028	2026	2024	2024	2022	2022	2022	2022	2024	2024	2026	2026	2030	2032	2035	2037	2039	2041	2043	2045	2049	2049	2051	2054	2060	2062	2064	2066	2069	2071	2075	2080	2082	2082	2082	2082	2084	2082	2082	2075	2073	2069	2064	2060	2056	2051	2047	2043	2041	2037	2037	2035	2037	2037	2035	2037	2039	2041	2043	2043	2045	2047	2051	2056	2060	2062	2064	2069	2071	2073	2075	2075	2075	2075	2075	2075	2075	2075	2073	2071	2071	2071	2069	2069	2066	2064	2060	2060	2058	2056	2051	2047	2043	2030	2026	2022	2018	2016	2014	2014	2010	2012	2012	2010	2012	2016	2018	2020	2022	2024	2028	2030	2032	2037	2037	2037	2037	2039	2041	2043	2045	2045	2045	2045	2045	2043	2043	2043	2043	2043	2043	2043	2045	2045	2049	2049	2051	2051	2054	2054	2051	2051	2049	2047	2045	2035	2030	2028	2026	2024	2024	2026	2028	2032	2035	2039	2045	2049	2056	2060	2064	2069	2073	2077	2080	2082	2086	2088	2091	0	2095	2095	2095	2097	2097	2097	2097	2095	2095	2093	2093	2091	2088	2086	2086	2084	2084	2082	2080	2080	2080	2080	2080	2080	2080	2082	2084	2086	2088	2088	2088	2088	2086	2084	2080	2077	2073	2073	2066	2064	2060	2056	2054	2049	2047	2043	2039	2037	2035	2032	2030	2030	2028	2028	2028	2028	2032	2035	2037	2041	2045	2049	2054	2058	2062	2064	2066	2069	2071	2071	2071	2071	2071	2071	2069	2069	2066	2064	2064	2062	2060	2058	2058	2051	2051	2049	2047	2043	2041	2039	2037	2037	2035	2035	2032	2032	2030	2030	2028	2026	2024	2022	2020	2018	2014	2010	2006	2000	1989	1981	1976	1970	1964	1958	1950	1944	1939	1933	1929	1925	1924	1920	1920	1920	1922	1924	1925	1929	1931	1933	1933	1933	1935	1935	1935	1933	1931	1929	1929	1929	1927	1925	0	0	0	0	1564	1562	1562	1560	1560	1562	1562	1560	1562	1563	1565	1567	1568	1570	1572	1574	1577	1579	1580	1582	1583	1584	1584	1583	1583	1582	1582	1580	1579	1578	1575	1574	1572	1569	1567	1565	1564	1563	1560	1559	1559	1559	1560	1562	1563	1564	1567	1567	1569	1569	1569	1569	1569	1568	1568	1567	1565	1564	1563	1563	1560	1558	1556	1552	1551	1548	1546	1545	1542	1542	1542	1542	1542	1542	1543	1545	1547	1549	1549	1551	1552	1552	1553	1553	1552	1552	1551	1551	1551	1549	1548	1551	1551	1549	1551	1549	1551	1552	1552	1553	1554	1554	1556	1557	1556	1552	1551	1548	1545	1543	1539	1534	1526	1495	1476	1459	1437	1431	1426	1422	1418	1414	1410	1407	1401	1399	1396	1394	1392	1389	1386	1382	1378	0	1367	1353	1345	1339	1336	1332	1329	1327	1325	1320	1318	1315	1313	1310	1307	1304	1300	1297	1294	1290	1284	1281	1278	1275	1272	1270	1268	1265	1263	1261	1258	1255	1250	1246	1242	1239	1235	1232	1229	1226	1222	1220	1216	1213	1212	1210	1208	1205	1203	1200	1197	1194	1191	1184	1182	1179	1177	1174	1172	1170	1169	1169	1168	1168	1166	0	0	0	0	0	0	885	885	887	887	888	889	890	890	891	890	889	888	886	884	882	879	875	872	870	868	866	865	863
2054	2047	2039	2035	2032	2030	2028	2026	2026	2024	2026	2024	2022	2020	2020	2018	2016	2016	2014	2012	2012	2010	2012	2014	2014	2018	2020	2024	2030	2035	2041	2047	2051	2054	2058	2062	2062	2062	2060	2058	2056	2054	2051	2047	2039	2037	2035	2030	2024	2020	2018	2014	2010	2010	2008	2006	2006	2008	2010	2012	2014	2016	2020	2024	2026	2028	2032	2035	2039	2041	2045	2047	2049	2051	2054	2054	2056	2054	2054	2054	2051	2051	2051	2049	2049	2047	2047	2047	2045	2045	2047	2047	2047	2045	2045	2045	2045	2045	2045	2047	2049	2054	2058	2062	2064	2071	2075	2077	2080	2082	2082	2080	2077	2073	2066	2060	2054	2045	2039	2030	2026	2016	2014	2012	2008	2006	2006	2006	2006	2008	2008	2008	2010	2014	2016	2020	2022	2026	2028	2032	2037	2039	2041	2043	2045	2045	2047	2047	2049	2049	2049	2049	2047	2047	2045	2045	2045	2045	2045	2047	2047	2047	2047	2047	2047	2045	2041	2039	2035	2028	2026	2022	2022	2022	2020	2020	2018	2018	2020	2020	2022	2024	2024	2028	2030	2035	2037	2039	2041	2043	2043	2047	2049	2049	2054	2060	2064	2066	2069	2073	2077	2082	2086	2088	2088	2088	2088	2088	2088	2086	2082	2075	2071	2066	2062	2056	2051	2047	2043	2041	2037	2035	2035	2035	2035	2035	2035	2039	2039	2041	2041	2043	2045	2047	2051	2056	2058	2062	2066	2069	2071	2073	2073	2073	2073	2073	2073	2073	2071	2071	2071	2069	2071	2069	2064	2062	2060	2058	2056	2051	2049	2045	2041	2030	2024	2020	2014	2012	2008	2006	2004	2004	2004	2004	2006	2006	2008	2010	2014	2016	2020	2022	2026	2030	2032	2032	2035	2035	2037	2039	2039	2039	2041	2041	2041	2039	2039	2039	2037	2037	2039	2039	2041	2041	2043	2047	2047	2049	2051	2054	2054	2054	2054	2051	2047	2045	2037	2030	2028	2024	2024	2024	2024	2028	2030	2035	2039	2043	2049	2054	2058	2064	2069	2073	2075	2080	2082	2084	2086	2091	2091	2093	2095	2095	2097	2097	2097	2095	2095	2097	2095	2095	2093	2091	2088	2086	2086	2084	2082	2080	2080	2080	2080	2080	2080	2080	2082	2084	2084	2086	2086	2086	2086	2084	2082	2077	2073	2071	2064	2062	2060	2056	2054	2049	2047	2043	2041	2037	2035	2032	2030	2030	2030	2028	2028	2028	2030	2032	2035	2039	2041	2045	2049	2054	2060	2064	2066	2069	2071	2075	2073	2075	2075	2075	2073	2073	2071	2069	2069	2066	2064	2062	2060	2058	2051	2049	2049	2045	2045	2041	2041	2037	2039	2039	2037	2037	2035	2032	2030	2030	2026	2026	2022	2020	2018	2014	2008	2002	1989	1983	1976	1970	1962	1954	1948	1943	1937	1933	1927	1924	1922	1916	1916	1916	1916	1918	1920	1922	1925	1927	1929	1931	1931	1933	1933	1933	1933	1931	1929	1929	1929	1927	0	0	0	0	1570	1568	1565	1563	1560	1560	1560	1560	1560	1562	1562	1564	1565	1568	1569	1572	1574	1577	1579	1580	1583	1586	1586	1587	1587	1587	1587	1586	1584	1584	1582	1580	1578	1577	1574	1572	1570	1568	1565	1564	1562	1562	1562	1562	1563	1564	1565	1567	1569	1569	1570	1570	1572	1570	1569	1570	1570	1569	1568	1568	1565	1564	1563	1560	1557	1554	1552	1549	1547	1546	1546	1545	1545	1545	1545	1546	1547	1548	1551	1551	1552	1553	1554	1554	1554	1553	1553	1552	1554	1554	1553	1553	1554	1553	1552	1552	1552	1552	1553	1553	1554	1554	1556	1557	1557	1556	1552	1549	1547	1545	1542	1539	1534	1527	1499	0	1463	1437	1429	1425	1421	1418	1413	1410	1407	1404	1400	1397	1395	1393	1390	1388	1384	1380	1375	0	1354	1346	1340	1336	1333	1329	1327	1324	1319	1315	1313	1310	1307	1303	1300	1296	1293	1290	1288	1282	1279	1275	1273	1270	1267	1265	1262	1259	1257	1254	1252	1247	1245	1241	1238	1235	1232	1229	1227	1224	1222	1217	1215	1213	1211	1209	1207	1204	1202	1199	1195	1192	1186	1183	1180	1177	1175	1173	1171	1170	1170	1168	1168	0	0	0	0	0	0	0	884	884	885	886	887	888	889	890	890	890	889	888	887	885	882	880	876	873	871	869	867	865	863
2049	2039	2035	2032	2028	2026	2024	2022	2020	2020	2020	2020	2020	2018	2016	2016	2014	2014	2012	2012	2012	2012	2012	2016	2018	2022	2024	2028	2032	2039	2043	2049	2051	2056	2058	2062	2062	2062	2060	2058	2056	2054	2049	2041	2037	2032	2028	2024	2020	2016	2014	2012	2008	2008	2008	2006	2006	2008	2010	2012	2016	2018	2020	2022	2026	2028	2030	2032	2037	2041	2043	2045	2047	2049	2051	2051	2051	2051	2051	2051	2051	2049	2049	2049	2049	2049	2047	2047	2047	2047	2047	2047	2047	2047	2047	2047	2047	2047	2047	2049	2049	2054	2058	2062	2066	2073	2073	2077	2082	2080	2080	2077	2075	2071	2064	2058	2051	2043	2037	2028	2024	2016	2012	2010	2008	2006	2006	2006	2008	2008	2008	2010	2012	2014	2018	2020	2024	2028	2030	2032	2037	2039	2043	2043	2045	2045	2047	2047	2047	2047	2047	2047	2045	2045	2043	2045	2043	2043	2043	2043	2045	2043	2045	2043	2043	2041	2037	2035	2030	2024	2022	2018	2018	2018	2016	2016	2016	2016	2018	2018	2020	2022	2024	2026	2030	2035	2035	2037	2039	2041	2045	2045	2047	2047	2051	2058	2062	2066	2071	2073	2077	2082	2086	2091	2091	2093	2093	2091	2088	2086	2082	2075	2069	2062	2058	2054	2049	2045	2041	2039	2037	2037	2037	2037	2037	2037	2037	2037	2039	2041	2041	2043	2043	2045	2047	2051	2054	2056	2060	2064	2066	2069	2069	2069	2069	2069	2069	2069	2069	2069	2069	2066	2066	2064	2060	2056	2054	2049	2047	2045	2041	2039	2032	2022	2016	2012	2010	2006	2002	2000	1998	1996	1998	1998	1998	2000	2002	2006	2008	2012	2014	2020	2024	2026	2030	2032	2032	2032	2035	2035	2035	2035	2035	2035	2035	2035	2035	2035	2035	2035	2035	2037	2039	2041	2043	2045	2049	2051	2054	2056	2058	2058	2056	2056	2051	2047	2037	2032	2028	2026	2022	2024	2026	2028	2032	2035	2041	2047	2051	2056	2060	2066	2071	2073	2077	2080	2080	2082	2086	2088	2091	2091	2093	2093	2095	2095	2095	2095	2097	2095	2093	2093	2093	2091	2088	2088	2086	2084	2084	2082	2080	2080	2080	2077	2077	2077	2077	2077	2080	2082	2080	2080	2080	2077	2075	2073	2071	2069	2062	2058	2056	2054	2049	2049	2045	2043	2041	2039	2037	2035	2032	2032	2030	2030	2030	2030	2032	2035	2035	2039	2043	2045	2049	2056	2060	2064	2069	2071	2073	2075	2077	2077	2077	2077	2077	2075	2075	2073	2069	2069	2066	2064	2060	2058	2051	2051	2047	2045	2043	2041	2039	2037	2039	2037	2037	2035	2032	2032	2030	2030	2028	2026	2022	2020	2016	2012	2004	1998	1983	1976	1970	1962	1954	1948	1941	1937	1931	1925	1922	1918	1912	1912	1911	1911	1911	1912	1914	1916	1920	1924	1925	1925	1929	1929	1929	1931	1929	1929	1929	1927	1927	0	0	0	0	1577	1574	1570	1569	1564	1562	1562	1562	1560	1560	1560	1562	1563	1564	1565	1568	1570	1573	1575	1578	1582	1584	1587	1588	1589	0	1591	1591	1591	1589	1588	1587	1586	1583	1580	1578	1575	1573	1570	1569	1567	1565	1564	1563	1563	1564	1565	1565	1568	1568	1569	1570	1570	1570	1572	1570	1570	1572	1570	1570	1572	1570	1569	1567	1564	1562	1559	1557	1554	1552	1551	1549	1548	1547	1547	1548	1548	1549	1551	1552	1553	1554	1556	1556	1557	1559	1558	1558	1558	1557	1557	1556	1556	1556	1557	1554	1554	1553	1554	1554	1554	1554	1554	1556	1556	1556	1554	1551	1548	1546	1543	1541	1536	1533	1528	1500	0	1464	1438	1427	1423	1420	1416	1412	1409	1406	1403	1399	1397	1395	1393	1391	1388	1384	1381	1375	1369	1355	1347	1340	1338	1333	1329	1327	1324	1317	1314	1310	1307	1303	1300	1296	1293	1290	1287	1282	1279	1276	1274	1270	1267	1264	1262	1260	1257	1254	1252	1248	1246	1244	1241	1239	1235	1233	1231	1229	1226	1223	1222	1217	1214	1213	1211	1208	1205	1203	1200	1197	1194	1190	1184	1182	1179	1176	1174	1172	1171	1170	1169	1168	0	0	0	0	0	0	0	883	883	884	885	885	887	888	889	889	889	889	888	887	885	883	881	879	874	872	870	867	865	863
2045	2037	2030	2030	2026	2022	2022	2020	2018	2018	2018	2016	2018	2016	2016	2014	2014	2014	2012	2014	2012	2014	2014	2018	2020	2024	2028	2030	2035	2041	2043	2049	2051	2054	2056	2058	2060	2060	2056	2054	2051	2047	2045	2035	2028	2024	2022	2018	2014	2012	2008	2006	2006	2006	2006	2004	2006	2008	2010	2012	2016	2018	2020	2022	2024	2026	2030	2032	2035	2039	2041	2043	2045	2047	2049	2047	2049	2049	2047	2049	2049	2049	2049	2047	2047	2047	2047	2047	2049	2047	2049	2049	2051	2051	2051	2049	2051	2049	2049	2049	2051	2056	2058	2062	2066	2069	2073	2075	2077	2077	2075	2075	2071	2066	2060	2056	2049	2043	2035	2030	2026	2016	2014	2012	2010	2008	2008	2008	2008	2008	2010	2012	2014	2016	2020	2022	2026	2028	2030	2035	2037	2041	2043	2043	2045	2045	2045	2047	2047	2047	2047	2047	2045	2045	2043	2043	2043	2043	2043	2043	2043	2043	2043	2041	2041	2039	2035	2030	2024	2020	2018	2016	2014	2012	2012	2012	2012	2012	2014	2016	2018	2020	2020	2024	2028	2035	2035	2037	2039	2041	2041	2045	2047	2045	2049	2054	2060	2062	2064	2069	2071	2077	2082	2086	2086	2086	2086	2084	2084	2082	2075	2069	2062	2058	2051	2047	2045	2041	2037	2037	2037	2037	2037	2039	2039	2039	2039	2039	2041	2043	2041	2041	2043	2041	2043	2045	2047	2049	2051	2056	2058	2060	2062	2064	2064	2064	2064	2064	2064	2064	2060	2060	2056	2056	2051	2049	2045	2041	2039	2035	2032	2030	2022	2016	2010	2008	2004	2000	1998	1996	1993	1993	1993	1993	1993	1996	1998	2002	2004	2010	2014	2018	2022	2026	2030	2030	2032	2032	2032	2032	2032	2032	2032	2032	2030	2030	2030	2030	2030	2032	2032	2035	2039	2041	2045	2047	2051	2056	2058	2060	2060	2060	2060	2058	2054	2049	2037	2035	2030	2028	2026	2026	2028	2030	2035	2039	2043	2049	2054	2058	2062	2069	2071	2075	2077	2080	2080	2082	2084	2086	2088	2091	2091	2093	2095	2095	2095	2095	2095	2095	2095	2093	2093	2091	2091	2088	2088	2086	2084	2084	2080	2080	2077	2077	2075	2073	2073	2075	2075	2075	2073	2073	2073	2073	2069	2069	2064	2058	2058	2056	2054	2051	2049	2045	2045	2045	2043	2041	2039	2037	2037	2035	2035	2032	2032	2032	2035	2037	2037	2039	2043	2047	2051	2056	2060	2064	2069	2071	2075	2077	2077	2080	2080	2080	2080	2080	2077	2075	2073	2071	2069	2066	2062	2058	2056	2051	2047	2045	2043	2041	2037	2037	2037	2035	2035	2032	2032	2030	2030	2028	2026	2024	2022	2018	2014	2008	2002	1987	1980	1970	1962	1956	1948	1943	1937	1929	1924	1920	1916	1911	1909	1907	1905	1907	1907	1909	1909	1911	1912	1916	1920	1920	1922	1924	1925	1925	1929	1927	1927	1927	1931	0	0	0	1582	1579	1577	1574	1570	1569	1565	1563	1563	1562	1562	1560	1562	1562	1564	1564	1567	1569	1573	1575	1579	1582	1584	0	1587	1589	1592	1592	1593	1593	1593	1592	1591	1589	1587	1584	1580	1579	1575	1573	1570	1568	1565	1565	1564	1564	1564	1565	1567	1568	1568	1570	1570	1572	1573	1573	1573	1574	1575	1577	1575	1577	1575	1575	1573	1569	1567	1564	1562	1559	1557	1556	1554	1553	1552	1552	1552	1553	1553	1554	1554	1557	1560	1562	1562	1562	1562	1562	1562	1562	1560	1560	1559	1559	1559	1559	1558	1557	1557	1557	1557	1557	1556	1556	1556	1556	1556	1553	1548	1546	1545	1541	1539	1535	1531	1528	1517	1501	0	1437	1426	1420	1417	1414	1411	1407	1406	1403	1399	1397	1395	1394	1391	1388	1384	1380	1375	0	1354	1348	1342	1338	1334	1330	1327	1322	1315	1312	1307	1304	1301	1296	1293	1290	1287	1281	1279	1278	1275	1272	1268	1265	1262	1260	1258	1254	1253	1250	1247	1246	1243	1241	1239	1237	1235	1233	1230	1228	1226	1223	1221	1216	1214	1212	1209	1207	1205	1201	1198	1194	1191	1185	1182	1179	1177	1175	1172	1171	1170	1170	1168	0	0	0	0	0	0	0	881	882	883	883	884	885	887	887	888	888	888	887	887	885	884	882	880	875	873	870	868	865	863
2037	2032	2028	2026	2024	2022	2020	2016	2016	2016	2014	2016	2014	2012	2012	2012	2012	2012	2012	2012	2014	2014	2016	2020	2024	2026	2030	2032	2039	2041	2045	2047	2049	2051	2054	2056	2056	2054	2054	2049	2047	2043	2032	2026	2022	2016	2014	2012	2010	2006	2006	2004	2004	2004	2006	2006	2008	2008	2012	2014	2016	2018	2020	2022	2024	2026	2028	2030	2032	2035	2039	2041	2043	2043	2045	2045	2047	2045	2045	2047	2047	2047	2047	2047	2047	2047	2047	2047	2049	2049	2051	2051	2054	2054	2056	2054	2054	2051	2051	2051	2054	2054	2058	2060	2064	2069	2071	2073	2075	2073	2073	2071	2069	2064	2060	2054	2049	2043	2037	2032	2028	2024	2018	2016	2012	2012	2010	2010	2012	2012	2014	2014	2016	2020	2022	2024	2026	2030	2032	2035	2037	2041	2043	2043	2045	2045	2045	2047	2047	2045	2045	2045	2045	2043	2043	2043	2043	2041	2041	2041	2041	2041	2041	2039	2039	2035	2030	2022	2018	2016	2014	2010	2008	2010	2008	2008	2008	2010	2010	2012	2014	2016	2018	2022	2026	2032	2032	2035	2037	2039	2041	2045	2043	2043	2047	2051	2054	2058	2060	2062	2066	2071	2073	2077	2077	2080	2077	2077	2075	2073	2066	2062	2056	2051	2047	2043	2041	2039	2035	2035	2037	2037	2039	2039	2041	2041	2041	2041	2041	2041	2041	2039	2041	2039	2037	2039	2039	2041	2043	2047	2047	2051	2054	2056	2056	2056	2060	2058	2056	2054	2054	2051	2047	2045	2043	2039	2035	2032	2030	2026	2026	2020	2016	2012	2006	2004	2002	1996	1996	1993	1991	1989	1991	1991	1991	1991	1996	1998	2002	2008	2012	2016	2022	2028	2030	2032	2032	2032	2032	2032	2032	2030	2030	2030	2030	2028	2028	2030	2030	2032	2035	2037	2039	2043	2045	2051	2054	2060	2062	2064	2064	2064	2064	2062	2060	2054	2049	2045	2035	2032	2028	2030	2030	2032	2037	2043	2045	2051	2056	2062	2066	2069	2073	2075	2077	2080	2080	2082	2084	2086	2086	2088	2088	2093	2095	2095	2095	2095	2095	2095	2095	2095	2093	2095	2093	2093	2091	2086	2086	2084	2082	2080	2077	2075	2073	2071	2069	2069	2069	2066	2066	2066	2066	2064	2062	2060	2058	2056	2051	2051	2051	2051	2049	2047	2047	2045	2045	2043	2043	2039	2039	2037	2043	2041	2039	2037	2037	2039	2039	2041	2043	2049	2051	2056	2060	2066	2069	2073	2075	2080	2080	2080	2080	2082	2080	2080	2080	2077	2075	2071	2069	2064	2062	2056	2054	2047	2045	2045	2041	2039	2037	2035	2035	2035	2032	2032	2030	2030	2028	2026	2026	2022	2020	2016	2010	2004	1998	1981	1974	1966	1956	1950	1943	1937	1931	1925	1922	1916	1909	1907	1905	1903	1901	1901	1901	1903	1903	1905	1909	1909	1912	1912	1916	1918	1920	1924	1925	1925	1925	1927	0	0	0	0	1584	1582	1579	1577	1574	1573	1570	1569	1567	1564	1564	1563	1563	1562	1564	1565	1567	1569	1572	1575	1578	1582	0	1586	1589	1592	1593	1593	1594	1596	1596	1596	1594	1592	1591	1588	1584	1582	1579	1577	1573	1570	1569	1567	1565	1565	1565	1567	1568	1568	1569	1570	1572	1573	1575	1575	1575	1577	1578	1579	1579	1580	1580	1579	1577	1575	1570	1568	1565	1563	1560	1559	1558	1557	1557	1557	1557	1558	1562	1563	1563	1564	1563	1564	1564	1565	1565	1565	1565	1564	1564	1564	1564	1563	1563	1563	1562	1559	1559	1558	1559	1559	1558	1557	1557	1556	1554	1549	1547	1545	1541	1539	1537	1534	1530	1527	1517	1501	0	1436	1424	1417	1415	1411	1409	1407	1404	1402	1399	1397	1396	1394	1391	1388	1383	1379	1374	1367	1355	1348	1343	1339	1335	1331	1327	1323	1314	1310	1307	1301	1297	1294	1290	1288	1284	1279	1278	1276	1274	1270	1267	1265	1262	1259	1258	1254	1252	1250	1247	1246	1244	1242	1241	1239	1237	1235	1232	1229	1227	1225	1222	1217	1214	1213	1211	1208	1205	1202	1199	1195	1192	1185	1183	1180	1177	1175	1173	1172	1171	1170	1169	0	0	0	0	0	0	0	880	880	881	882	883	884	885	886	887	887	887	887	886	885	884	882	880	878	874	871	868	866	864
2035	2032	2028	2024	2022	2022	2018	2016	2014	2014	2014	2012	2012	2010	2012	2010	2010	2012	2012	2012	2014	2016	2018	2022	2026	2030	2032	2037	2039	2043	2045	2047	2049	2049	2051	2051	2051	2051	2047	2043	2039	2030	2026	2020	2016	2010	2008	2006	2004	1998	2000	2000	2002	2002	2004	2006	2008	2012	2012	2014	2016	2018	2020	2022	2022	2024	2026	2026	2028	2032	2035	2037	2039	2039	2041	2041	2043	2043	2043	2043	2045	2045	2045	2045	2045	2047	2047	2047	2047	2049	2049	2051	2054	2056	2056	2056	2056	2054	2054	2054	2054	2056	2056	2060	2064	2066	2069	2071	2071	2071	2069	2069	2064	2062	2058	2054	2049	2045	2041	2039	2035	2030	2026	2022	2018	2018	2016	2016	2016	2018	2018	2020	2022	2022	2024	2026	2030	2032	2035	2035	2039	2041	2043	2043	2045	2045	2045	2047	2045	2045	2045	2045	2045	2045	2043	2043	2041	2041	2041	2039	2039	2039	2039	2037	2035	2030	2026	2018	2016	2012	2008	2006	2006	2004	2004	2004	2004	2004	2006	2008	2012	2012	2016	2020	2026	2030	2030	2032	2035	2035	2039	2043	2041	2041	2043	2045	2049	2051	2054	2056	2058	2062	2066	2069	2071	2071	2071	2071	2069	2064	2062	2056	2049	2045	2041	2039	2028	2028	2030	2035	2037	2039	2041	2043	2043	2043	2043	2041	2041	2041	2041	2039	2039	2037	2035	2032	2035	2035	2035	2037	2041	2043	2047	2047	2049	2049	2049	2049	2047	2047	2045	2041	2037	2035	2032	2028	2026	2024	2022	2018	2016	2014	2010	2008	2006	2000	1998	1996	1993	1991	1989	1989	1989	1989	1991	1993	1996	1998	2002	2008	2010	2018	2024	2030	2032	2032	2032	2035	2035	2035	2035	2032	2032	2032	2030	2030	2030	2030	2032	2032	2037	2039	2043	2045	2051	2058	2060	2064	2066	2069	2071	2069	2069	2066	2064	2062	2056	2054	2047	2039	2037	2035	2037	2037	2043	2045	2049	2056	2060	2066	0	2069	2071	2075	2077	2077	2080	2080	2082	2084	2084	2086	2091	2091	2093	2095	2095	2095	2095	2095	2095	2095	2095	2095	2095	2093	2091	2088	2084	2082	2077	2073	2071	2066	2062	2060	2056	2054	2051	2051	2051	2054	2054	2051	2054	2051	2051	2051	2051	2049	2049	2051	2049	2049	2049	2047	2047	2047	2049	2047	2045	2047	2047	2043	2043	2041	2041	2041	2041	2043	2043	2047	2051	2056	2060	2064	2069	2073	2077	2080	2080	2082	2082	2082	2080	2080	2077	2075	2073	2071	2066	2062	2058	2056	2047	2045	2043	2039	2039	2035	2035	2032	2035	2035	2032	2030	2030	2028	2026	2026	2024	2020	2018	2012	2006	2000	1983	1976	1968	1960	1952	1944	1939	1933	1927	1924	1918	1912	1905	1903	1901	1900	1898	1898	1898	1898	1898	1900	1900	1901	1903	1905	1907	1911	1912	1916	1922	1924	1925	0	0	0	0	1589	1587	1586	1583	1580	1579	1577	1574	1572	1570	1569	1568	1565	1565	1564	1565	1565	1568	1569	1573	1575	1579	1583	0	1588	1591	1594	1596	1597	1598	1598	1600	1600	1600	1600	1597	1596	1593	1591	1587	1584	1580	1577	1574	1572	1569	1569	1569	1569	1570	1570	1573	1573	1574	1575	1578	1578	1579	1580	1582	1583	1583	1584	1584	1583	1580	1579	1578	1575	1569	1567	1563	1563	1563	1562	1564	1564	1564	1564	1564	1565	1567	1567	1567	1568	1568	1568	1568	1568	1568	1568	1568	1568	1567	1567	1567	1565	1564	1563	1562	1560	1560	1560	1559	1558	1557	1556	1553	1548	1546	1542	1541	1539	1536	1534	1530	1527	1518	1486	0	1436	1423	1416	1413	1410	1408	1406	1403	1402	1400	1397	1396	1394	1391	1387	1383	1379	1373	1368	1355	1349	1344	1339	1336	1332	1327	1322	1314	1309	1305	1300	1295	1292	1289	1286	1284	1279	1277	1275	1273	1270	1267	1264	1262	1259	1258	1255	1254	1251	1250	1246	1246	1243	1242	1240	1238	1235	1233	1230	1228	1226	1222	1217	1215	1213	1211	1208	1205	1202	1199	1195	1192	1189	1183	1181	1178	1175	1174	1172	1171	1171	1170	1169	0	0	0	0	0	0	0	880	880	881	882	883	884	885	886	887	887	887	886	885	884	883	881	880	875	872	869	866	864
2035	2032	2030	2028	2024	2022	2020	2018	2016	2014	2014	2014	2012	2012	2012	2012	2012	2012	2014	2014	2016	2016	2020	2024	2026	2030	2035	2037	2041	2043	2045	2047	2047	2049	2049	2049	2049	2049	2045	2039	2030	2026	2018	2014	2008	1998	1996	1993	1993	1996	1998	1998	2000	2002	2004	2006	2008	2010	2012	2014	2016	2016	2018	2020	2020	2022	2022	2024	2024	2026	2028	2030	2032	2035	2037	2037	2037	2039	2039	2041	2043	2043	2043	2043	2045	2045	2045	2045	2047	2049	2049	2051	2054	2058	2058	2058	2056	2056	2056	2054	2054	2054	2058	2058	2060	2064	2066	2066	2069	2066	2066	2062	2062	2060	2056	2054	2051	2047	2043	2041	2037	2035	2032	2030	2028	2026	2024	2022	2022	2022	2024	2024	2026	2026	2028	2030	2035	2037	2037	2039	2039	2041	2043	2045	2045	2045	2047	2047	2045	2045	2047	2045	2043	2043	2043	2043	2041	2041	2039	2037	2037	2035	2035	2032	2030	2028	2018	2016	2012	2010	2006	2002	2000	2002	2002	2002	2002	2004	2004	2008	2010	2012	2014	2018	2024	2030	2032	2032	2035	2035	2037	2039	2037	2037	2039	2041	2045	2045	2047	2049	2051	2056	2060	2062	2064	2064	2064	2064	2062	2058	2056	2049	2041	2037	2032	2030	2024	2026	2028	0	2035	0	2041	2043	2043	2045	2045	2043	2043	2041	2039	2039	2037	2035	2030	2030	2030	2030	2030	2032	2032	2035	2039	2041	2043	2043	2043	2043	2041	2039	2035	2030	2028	2026	2022	2020	2018	2016	2014	2012	2010	2008	2006	2004	2002	2000	1998	1996	1993	1991	1989	1987	1989	1989	1989	1991	1993	1998	2004	2006	2012	2018	2026	2030	2032	2032	2035	2037	2035	2035	2035	2032	2032	2032	2032	2032	2030	2032	2032	2035	2039	2041	2047	2049	2056	2060	2064	2066	2071	2073	2073	2073	2073	2071	2069	2064	2060	2056	2051	2043	2041	2039	2039	2041	2047	2049	2054	2060	2062	0	2066	2069	2073	2075	2075	2075	2075	2075	2077	2080	2082	2082	2084	2088	2088	2093	2093	2095	2095	2095	2095	2095	2095	2095	2095	2093	2091	2088	2084	2080	2073	2069	2062	2056	2051	2047	2045	2043	2039	2039	2039	2043	2043	2045	2045	2047	2047	2049	2049	2049	2047	2049	2049	2049	2049	2051	2049	2049	2049	2047	2047	2047	2047	2047	2043	2043	2043	2043	2043	2043	2045	2049	2054	2056	2060	2064	2069	2073	2077	2080	2082	2080	2082	2082	2080	2080	2077	2075	2073	2069	2064	2060	2056	2051	2043	2041	2039	2037	2035	2032	2032	2032	2032	2032	2032	2030	2030	2030	2026	2024	2022	2018	2014	2008	2002	1996	1980	1972	1964	1956	1948	1943	1937	1931	1925	1920	1916	1907	1903	1900	1900	1896	1896	1894	1892	1892	1892	1892	1892	1894	1894	1894	1898	1901	1903	1909	1912	1918	0	0	0	1594	1593	1592	1591	1588	1586	1584	1583	1580	1578	1578	1577	1575	1574	1573	1569	1569	1569	1569	1570	1572	1574	1577	0	1582	1586	1589	1593	1597	1600	1601	1602	1604	1604	1605	1606	1606	1606	1605	1604	1600	1597	1594	1591	1588	1584	1582	1579	1579	1578	1578	1578	1578	1578	1580	1579	1580	1580	1582	1583	1584	1584	1586	1587	1588	1587	1586	1584	1583	1582	1579	1575	1570	1572	1570	1570	1569	1568	1567	1567	1568	1568	1568	1568	1569	1569	1570	1570	1570	1572	1572	1572	1572	1572	1570	1569	1570	1570	1569	1568	1567	1565	1564	1564	1563	1562	1560	1558	1556	1553	1548	1545	1542	1540	1537	1536	1535	1531	1529	1521	1489	1470	1436	1421	1414	1411	1409	1407	1405	1404	1402	1399	1399	1396	1394	1391	1386	1382	1378	1373	1367	1356	1349	1345	1340	1336	1332	1327	1323	1314	1308	1304	1299	1295	1292	1288	1285	1279	1278	1276	1275	1273	1270	1267	1265	1262	1261	1259	1258	1255	1253	1251	1250	1247	1246	1245	1242	1239	1237	1233	1231	1228	1225	1222	1216	1214	1212	1210	1208	1205	1202	1199	1195	1192	1189	1184	1181	1178	1176	1174	1172	1172	1171	1170	1169	0	0	0	0	0	0	0	879	880	881	881	882	884	884	885	885	886	886	886	886	885	884	882	880	875	873	870	867	865
