992	991	991	990	989	989	989	989	989	989	989	989	988	988	988	987	986	986	0	0	0	924	919	917	917	913	911	908	908	904	903	903	901	901	901	900	899	899	899	898	898	898	898	898	898	898	898	898	898	898	899	899	900	900	900	901	902	902	904	908	908	911	911	915	918	918	919	921	921	925	925	930	934	934	938	938	939	940	940	942	943	943	945	948	948	950	953	953	955	955	958	960	960	961	962	962	962	962	962	964	965	965	967	970	970	975	975	978	981	981	983	984	984	985	986	986	986	987	987	988	988	988	989	989	989	990	990	990	991	992	992	992	992	992	994	994	994	994	995	995	995	995	995	995	996	995	994	994	994	994	994	994	995	996	996	996	996	996	996	996	995	995	995	995	994	992	992	992	992	992	992	992	992	992	994	994	994	994	994	994	994	994	994	995	995	995	995	995	995	995	995	995	995	995	995	994	994	994	994	994	994	994	994	994	994	994	994	994	994	994	992	992	992	992	992	992	991	990	990	990	990	989	989	989	989	989	989	989	990	990	990	990	990	990	990	990	991	992	992	992	992	992	992	992	992	992	992	992	992	992	991	991	991	991	991	990	990	990	991	991	990	990	990	990	990	990	990	990	990	990	989	989	989	989	989	989	989	989	988	988	989	989	989	989	989	989	989	989	989	989	990	990	990	991	991	991	991	991	992	992	992	992	994	994	994	994	994	994	995	995	995	995	995	995	995	994	994	994	994	994	994	994	994	994	992	992	992	991	990	989	989	989	988	988	988	988	988	988	988	988	988	988	988	988	989	989	989	989	989	989	989	989	989	989	989	988	988	988	988	987	986	986	986	986	986	985	985	986	985	985	986	986	987	988	988	988	989	989	992	996	996	0	0	0	0	0	0	0	0	0	0	0	0	0	0	0	0	0	0	0	0	0	0	0	0	0	0	0	0	0	0	0	0	0	0	0	0	0	0	809	809	809	809	810	810	810	811	811	811	813	817	817	821	821	823	825	825	826	826	825	823	823	821	816	812	812	812	0	805	801	801	799	799	0	0	0	0	0	0	0	0	0	0	0	0	0	0	0	0	0	0	0	0	0	0	0	0	0	0	0	0	0	0	0	0	0	0	0	0	0	0	0	0	0	0	0	0	0	0	0	0	0	0	0	0	0	0	2163	2163	2149	2146	2139	2139	2135	2135	2135	2128	2128	2128	2125	2125	2125	2125	2125	2128	2128	2128	2128	2128	2128	2128	2128	2128	2128	2128	2128	2128	2128	2128	2128	2128	2125	2125	2125	2121	2118	2118	2118	2114	2114	2114	2114	2114	2114	2114	2114	2114	2114	2114	2114	2114	2114	2114	2114	2114	2114	2114	2114	2114	2114	2114	2114	2111	2111	2111	2111	2111	2111	2108	2108	2108	2108	2108	2108	2104	2104	2104	2104	2104	2104	2104	2104	2104	2104	2104	2104	2104	2104	2104	2104	2104	2104	2104	2108	2108	2108	2108	2108	2108	2108	2108	2108	2111	2111	2111	2111	2111	2108	2108	2108	2108	2108	2108	2108	2108	2108	2108	2108	2108	2108	2111	2111	2111	2114	2118	2118	2121	2125	2125	2128	2139	2139	2146	2149	2149	2156	2156	2156	2160	2160	2156	2156	2156	2149	2146	2146	2146	2146	2146	2146	2146	2146	2146	2149	2149	2149	2149	2156	2156	2156	2156	2156	2156	2160	2160	2160	2163	2163	2163	2163
989	988	988	988	988	988	987	987	987	986	986	986	986	986	985	985	984	984	0	0	0	924	919	917	917	913	911	908	908	904	903	903	901	901	901	900	899	899	900	900	900	900	899	899	899	899	899	899	899	899	900	900	900	901	901	902	904	904	906	910	910	914	914	917	918	918	920	923	923	927	927	932	935	935	938	938	940	941	941	942	944	944	946	948	948	952	955	955	957	957	959	961	961	962	962	962	962	963	963	964	965	965	967	970	970	975	975	978	981	981	983	984	984	985	986	986	986	987	987	988	988	988	989	989	989	990	990	990	991	992	992	992	992	992	994	994	994	994	995	995	995	995	995	995	996	995	994	994	994	994	994	994	995	996	996	996	996	996	996	996	995	995	995	995	994	992	992	992	992	992	992	992	992	992	994	994	989	989	989	989	989	990	990	990	990	990	990	990	990	990	989	989	989	989	989	989	989	989	989	989	989	989	989	989	989	990	990	990	990	990	989	989	989	989	989	988	988	988	988	988	988	988	988	987	987	988	988	988	988	988	988	988	988	988	988	988	989	989	989	989	989	989	989	989	989	989	989	989	989	989	989	988	988	988	988	988	988	988	987	987	987	987	987	986	986	986	986	986	986	986	986	986	986	985	985	985	985	986	986	986	986	986	986	986	986	986	986	987	987	987	988	988	988	988	988	988	989	989	989	989	989	990	990	990	991	991	991	991	991	991	991	992	992	991	991	991	991	991	991	991	991	990	990	990	990	989	989	989	988	988	988	987	987	987	987	987	987	987	987	987	987	987	987	987	987	987	987	987	987	987	987	987	987	986	986	986	986	985	985	984	984	984	983	982	982	981	980	980	980	980	980	980	982	983	983	984	985	985	986	996	996	0	0	0	0	0	0	0	0	0	0	0	0	0	0	0	0	0	0	0	0	0	0	0	0	0	0	0	0	0	0	0	0	0	0	0	0	0	0	809	809	809	809	810	810	810	810	811	811	812	814	814	817	817	819	821	821	822	822	820	817	813	813	810	808	806	806	802	799	797	797	795	795	0	0	0	0	0	0	0	0	0	0	0	0	0	0	0	0	0	0	0	0	0	0	0	0	0	0	0	0	0	0	0	0	0	0	0	0	0	0	0	0	0	0	0	0	0	0	0	0	0	0	0	0	0	0	0	0	2149	2146	2139	2139	2135	2135	2135	2128	2128	2128	2125	2125	2125	2125	2125	2128	2128	2128	2128	2128	2128	2128	2128	2128	2128	2128	2128	2128	2128	2128	2128	2128	2125	2125	2125	2121	2118	2118	2118	2114	2114	2114	2114	2114	2114	2114	2114	2114	2114	2114	2114	2114	2114	2114	2114	2114	2114	2114	2114	2114	2114	2114	2114	2111	2111	2111	2111	2111	2111	2108	2108	2108	2108	2108	2108	2104	2104	2104	2104	2104	2104	2104	2104	2104	2104	2104	2104	2104	2104	2104	2097	2097	2101	2101	2104	2104	2104	2104	2104	2104	2108	2108	2108	2108	2108	2108	2108	2108	2108	2108	2108	2108	2108	2108	2108	2108	2108	2108	2108	2108	2108	2108	2108	2108	2111	2111	2111	2114	2121	2121	2125	2128	2128	2135	2139	2139	2146	2146	2146	2146	2146	2146	2146	2146	2139	2139	2139	2139	2139	2139	2139	2139	2146	2146	2149	2149	2149	2149	2156	2156	2156	2156	2156	2156	2156	2156	2156	2156	2156	2156	2156
987	986	986	986	986	986	985	985	985	985	985	985	985	984	983	983	982	975	975	975	0	933	924	924	920	918	916	916	913	910	908	908	904	903	903	901	901	900	900	900	900	900	899	899	899	899	899	899	899	899	900	900	900	901	901	902	904	904	906	910	910	914	914	917	918	918	920	923	923	927	927	932	935	935	938	938	940	941	941	942	944	944	946	948	948	952	953	955	957	957	959	961	961	962	962	962	962	963	963	964	965	965	967	970	970	975	975	977	980	980	982	984	984	985	986	986	986	986	986	987	987	987	987	988	988	988	989	989	989	989	989	989	989	989	990	990	990	991	991	991	991	991	991	991	991	991	990	990	990	990	991	991	991	991	991	991	991	991	991	990	990	990	990	990	989	989	989	989	989	989	989	989	989	989	989	989	989	989	989	989	989	990	990	990	990	990	990	990	990	990	989	989	989	989	989	989	989	989	989	989	989	989	989	989	989	990	990	990	990	990	989	989	989	989	989	988	988	988	988	988	988	988	988	987	987	988	988	988	988	988	988	988	988	988	988	988	989	989	989	989	989	989	989	989	989	989	989	989	989	989	989	988	988	988	988	988	988	988	987	987	987	987	987	986	986	986	986	986	986	986	986	986	986	985	985	985	985	986	986	986	986	986	986	986	986	986	986	987	987	987	988	988	988	988	988	988	989	989	989	989	989	990	990	990	991	991	991	991	991	991	991	992	992	991	991	989	989	989	988	988	988	988	988	988	988	987	987	987	986	986	986	986	986	986	985	985	985	985	985	985	985	985	986	986	986	986	986	986	986	986	985	985	985	984	984	984	983	982	982	981	980	980	976	975	973	973	972	972	972	972	972	973	973	975	975	975	976	980	980	0	0	0	0	0	0	0	0	0	0	0	0	0	0	0	0	0	0	0	0	0	0	0	0	0	0	0	0	0	0	0	0	0	0	0	0	0	0	0	0	810	810	810	810	810	810	810	810	811	811	811	813	813	814	815	815	816	817	815	813	813	811	811	807	807	804	800	798	798	796	795	795	794	794	794	0	0	0	0	0	0	0	0	0	0	0	0	0	0	0	0	0	0	0	0	0	0	0	0	0	0	0	0	0	0	0	0	0	0	0	0	0	0	0	0	0	0	0	0	0	0	0	0	0	0	0	0	0	0	0	2149	2135	2135	2135	2128	2125	2125	2121	2121	2121	2121	2118	2118	2118	2118	2118	2118	2118	2118	2118	2118	2118	2118	2118	2118	2118	2118	2118	2118	2118	2118	2118	2118	2114	2114	2114	2111	2111	2111	2111	2111	2108	2108	2108	2108	2108	2108	2108	2108	2108	2108	2108	2108	2108	2108	2108	2108	2108	2111	2108	2108	2108	2108	2108	2108	2108	2108	2108	2108	2104	2104	2104	2104	2101	2101	2101	2097	2097	2097	2097	2097	2097	2097	2097	2097	2097	2097	2097	2097	2097	2097	2097	2101	2101	2104	2104	2104	2104	2104	2104	2108	2108	2108	2108	2108	2108	2108	2108	2108	2108	2108	2108	2108	2108	2108	2108	2108	2108	2108	2108	2108	2108	2108	2108	2111	2111	2111	2114	2121	2121	2125	2128	2128	2135	2139	2139	2146	2146	2146	2146	2146	2146	2146	2146	2139	2139	2139	2139	2139	2139	2139	2139	2146	2146	2149	2149	2149	2156	2156	2156	2156	2156	2156	2156	2156	2156	2156	2156	2156	2156	2156
987	986	986	986	986	986	985	985	985	985	985	985	985	984	983	983	982	975	975	975	0	939	939	931	924	920	918	918	917	915	915	912	910	906	906	904	903	903	903	901	901	901	900	900	900	900	900	900	900	900	900	900	901	902	902	904	906	906	910	910	913	916	916	918	920	920	922	924	924	929	929	933	936	936	939	939	940	941	941	942	944	944	946	950	950	953	953	955	958	958	960	961	961	962	962	962	963	964	964	964	966	966	968	971	971	975	975	976	980	980	981	983	983	984	984	984	985	985	985	986	986	986	986	986	986	987	987	987	987	987	987	987	987	987	988	988	988	988	988	988	988	988	988	988	988	988	988	988	988	988	988	988	988	988	988	988	988	988	988	988	988	988	988	988	987	987	987	987	987	987	987	987	987	987	987	987	987	987	987	987	987	987	987	987	988	988	987	987	987	987	987	987	987	987	987	987	987	987	987	987	987	987	987	987	987	987	987	987	987	987	987	987	987	987	987	986	986	986	986	986	986	986	986	986	986	986	986	986	986	986	986	986	986	986	986	986	987	987	987	987	987	987	987	987	987	987	987	987	987	987	987	986	986	986	986	985	985	985	984	984	984	984	984	983	983	983	983	982	981	981	980	980	981	981	981	981	981	982	982	982	983	983	983	983	984	984	985	985	985	985	986	986	986	986	986	986	987	987	987	988	988	988	988	988	988	989	989	989	989	989	989	989	989	989	989	989	989	989	988	988	988	988	988	988	988	987	987	987	986	986	986	986	986	986	985	985	985	985	985	985	985	985	986	986	986	986	986	986	986	986	985	985	985	984	984	984	983	982	982	981	980	980	976	975	973	973	972	972	972	972	972	973	973	975	975	975	976	980	980	0	0	0	0	0	0	0	0	0	0	0	0	0	0	0	0	0	0	0	0	0	0	0	0	0	0	0	0	0	0	0	0	0	0	0	0	0	0	0	0	810	810	810	810	810	810	810	810	811	811	811	813	813	814	815	815	816	817	815	813	813	811	811	807	807	804	800	798	798	796	795	795	794	794	794	0	0	0	0	0	0	0	0	0	0	0	0	0	0	0	0	0	0	0	0	0	0	0	0	0	0	0	0	0	0	0	0	0	0	0	0	0	0	0	0	0	0	0	0	0	0	0	0	0	0	0	0	0	0	0	0	2135	2121	2121	2118	2118	2118	2114	2114	2114	2114	2111	2111	2111	2111	2111	2111	2111	2111	2111	2111	2111	2111	2111	2111	2111	2111	2111	2111	2111	2111	2111	2111	2108	2108	2108	2108	2108	2108	2108	2108	2108	2104	2104	2104	2104	2104	2104	2104	2104	2104	2104	2104	2104	2104	2108	2108	2108	2108	2108	2108	2108	2108	2108	2108	2104	2104	2104	2104	2104	2104	2104	2101	2097	2097	2097	2094	2094	2094	2094	2094	2094	2094	2094	2094	2094	2094	2094	2094	2094	2094	2097	2097	2097	2101	2101	2101	2104	2104	2104	2104	2108	2108	2108	2108	2108	2108	2108	2108	2104	2104	2104	2104	2104	2104	2104	2104	2104	2104	2104	2104	2104	2104	2104	2108	2108	2108	2108	2114	2114	2118	2121	2121	2125	2128	2128	2135	2135	2135	2135	2135	2135	2135	2135	2135	2135	2135	2135	2135	2139	2139	2139	2146	2146	2149	2149	2149	2156	2156	2156	2156	2156	2156	2156	2156	2156	2156	2149	2149	2149	2149
985	985	985	984	984	984	983	983	983	983	983	983	983	981	980	980	978	973	966	961	961	939	939	931	924	924	924	921	919	918	918	916	914	914	911	910	908	908	906	904	904	903	901	901	901	901	901	901	901	901	901	901	903	904	904	906	910	910	913	913	915	918	918	919	921	921	924	924	927	931	931	934	937	937	939	939	940	942	942	942	944	944	948	950	950	953	953	957	958	958	960	961	961	962	962	962	963	964	964	964	967	967	969	971	971	975	975	976	980	980	981	983	983	984	984	984	985	985	985	986	986	986	986	986	986	987	987	987	987	987	987	987	987	987	988	988	988	988	988	988	988	988	988	988	988	988	988	988	988	988	988	988	988	988	988	988	988	988	988	988	988	988	988	988	986	985	985	985	985	985	985	985	985	985	985	985	985	985	985	985	985	986	986	986	986	986	986	986	986	986	986	986	986	986	986	986	986	986	986	986	986	986	986	986	986	986	986	986	986	986	986	986	985	985	985	985	985	985	984	984	984	984	984	984	984	984	984	985	985	985	985	985	985	985	985	985	985	985	985	985	985	985	985	985	985	985	985	985	985	985	985	984	984	984	983	983	983	982	980	980	980	978	977	977	976	975	975	973	972	972	972	972	973	973	973	975	975	975	975	975	976	978	978	980	980	980	981	983	983	983	983	983	984	984	984	985	985	985	986	986	986	986	987	987	987	987	987	987	987	987	987	987	987	987	987	987	987	986	986	986	986	986	986	986	986	986	985	985	985	984	984	984	984	984	984	984	984	984	984	984	983	983	984	984	984	984	984	983	983	983	983	982	982	981	980	980	977	976	976	975	972	970	970	968	967	967	966	965	965	965	966	967	967	968	968	968	972	972	972	0	0	0	0	0	0	0	0	0	0	0	0	0	0	0	0	0	0	0	0	0	0	0	0	0	0	0	0	0	0	0	0	0	0	0	0	0	0	811	811	810	810	810	810	810	810	810	810	811	811	811	811	811	812	812	812	812	812	811	810	808	808	806	801	798	798	797	796	796	795	794	794	794	794	794	794	794	0	0	0	0	0	0	0	0	0	0	0	0	0	0	0	0	0	0	0	0	0	0	0	0	0	0	0	0	0	0	0	0	0	0	0	0	0	0	0	0	0	0	0	0	0	0	0	0	0	0	0	0	0	0	0	2121	2121	2118	2118	2118	2114	2114	2114	2114	2111	2111	2111	2111	2111	2111	2111	2111	2111	2111	2111	2111	2111	2111	2111	2111	2111	2111	2111	2111	2111	2111	2108	2108	2108	2108	2108	2108	2108	2108	2108	2104	2104	2104	2104	2104	2104	2104	2104	2104	2104	2104	2104	2104	2108	2108	2108	2108	2108	2108	2108	2108	2108	2108	2104	2104	2104	2104	2104	2104	2104	2101	2097	2097	2097	2094	2094	2094	2091	2091	2091	2091	2091	2091	2091	2091	2091	2094	2094	2094	2094	2097	2097	2097	2101	2101	2104	2104	2104	2104	2108	2108	2108	2108	2108	2108	2108	2104	2104	2104	2104	2104	2104	2104	2104	2104	2104	2104	2104	2104	2104	2104	2104	2104	2104	2104	2108	2108	2108	2111	2114	2114	2118	2118	2118	2121	2125	2125	2125	2125	2125	2125	2128	2128	2128	2128	2128	2135	2139	2139	2139	2146	2146	2149	2149	2149	2156	2156	2156	2156	2156	2156	2156	2156	2156	2149	2149	2149	2146	2139
983	983	983	982	981	980	980	980	980	980	980	977	977	977	976	976	975	970	965	961	961	953	942	938	932	924	924	921	919	918	918	916	914	914	911	910	908	908	906	904	904	903	901	901	901	901	901	901	901	901	901	901	903	904	904	906	910	910	913	913	915	918	918	919	921	921	924	924	927	931	931	934	937	937	939	939	940	942	942	942	944	944	948	950	950	953	953	957	958	958	960	961	961	962	962	962	963	964	964	964	967	967	969	970	970	973	973	975	978	978	980	982	982	983	983	983	984	984	984	984	985	985	985	985	985	985	985	985	986	986	986	986	986	986	986	986	986	986	986	986	986	986	986	986	986	986	986	986	986	986	986	986	986	987	987	987	987	987	987	986	986	986	986	986	986	985	985	985	985	985	985	985	985	985	985	985	985	985	985	985	985	986	986	986	986	986	986	986	986	986	986	986	986	986	986	986	986	986	986	986	986	986	986	986	986	986	986	986	986	986	986	986	985	985	985	985	985	985	984	984	984	984	984	984	984	984	984	985	985	985	985	985	985	985	985	985	985	985	985	985	985	985	985	985	985	985	985	985	985	985	985	984	984	984	983	983	983	982	980	980	980	978	977	977	976	975	975	973	972	972	972	972	973	973	973	975	975	975	975	975	976	978	978	980	980	980	981	983	983	983	983	983	984	984	984	985	985	985	986	986	986	986	987	987	985	985	985	986	986	985	985	986	986	986	985	985	985	985	985	985	985	985	985	984	984	984	983	983	983	983	983	983	982	982	982	981	981	981	981	981	981	981	981	981	981	980	980	980	980	980	978	977	977	976	975	972	972	970	968	968	967	965	965	964	964	963	963	962	962	963	963	963	964	964	964	964	964	966	967	967	0	0	0	0	0	0	0	0	0	0	0	0	0	0	0	0	0	0	0	0	0	0	0	0	0	0	0	0	0	0	0	0	0	0	0	0	0	811	811	811	811	811	810	810	810	810	810	811	811	811	811	810	810	810	810	810	810	809	807	803	800	800	797	795	795	795	794	794	794	794	794	794	794	794	794	794	0	0	0	0	0	0	0	0	0	0	0	0	0	0	0	0	0	0	0	0	0	0	0	0	0	0	0	0	0	0	0	0	0	0	0	0	0	0	0	0	0	0	0	0	0	0	0	0	0	0	0	0	0	0	0	2121	2121	2114	2111	2111	2108	2108	2108	2108	2108	2108	2108	2108	2108	2108	2108	2108	2108	2108	2108	2108	2108	2108	2108	2108	2108	2108	2108	2108	2108	2108	2108	2108	2108	2104	2104	2104	2104	2104	2104	2104	2104	2101	2101	2101	2101	2101	2101	2101	2104	2104	2104	2104	2104	2104	2104	2104	2104	2104	2104	2104	2104	2104	2104	2104	2104	2101	2097	2097	2097	2097	2094	2094	2094	2094	2094	2091	2091	2091	2091	2091	2091	2091	2091	2091	2091	2094	2094	2094	2094	2097	2097	2097	2101	2101	2104	2104	2104	2104	2108	2108	2108	2108	2108	2108	2108	2104	2104	2104	2104	2104	2104	2104	2104	2104	2104	2104	2104	2104	2104	2104	2104	2104	2104	2104	2108	2108	2108	2111	2114	2114	2118	2118	2118	2121	2125	2125	2125	2125	2125	2125	2128	2128	2128	2128	2128	2135	2139	2139	2139	2146	2146	2149	2156	2156	2160	2160	2156	2156	2156	2156	2156	2156	2156	2149	2149	2149	2146	2139
983	983	983	982	981	980	980	980	980	980	980	977	977	977	975	971	971	968	965	962	962	955	955	941	937	937	930	924	922	922	920	918	917	917	915	913	911	911	910	908	908	904	904	904	903	902	902	902	902	902	903	903	904	908	908	910	910	913	915	915	917	918	918	920	921	922	924	924	927	931	931	935	937	937	939	939	940	942	942	942	945	945	948	950	950	953	953	957	958	958	960	961	961	962	962	962	964	964	964	965	967	967	968	970	970	973	973	975	976	976	978	980	980	981	982	982	982	983	983	983	983	983	983	983	983	983	983	983	983	984	984	984	984	984	984	984	984	984	984	984	984	984	984	984	984	984	984	984	984	984	985	985	985	985	985	985	985	985	985	985	985	985	984	984	984	983	983	983	983	983	983	983	983	983	983	983	983	983	983	984	984	984	984	984	984	984	984	984	984	984	984	985	984	984	984	984	984	984	984	984	984	984	984	984	984	984	984	984	984	984	984	983	983	983	983	983	983	982	982	982	982	982	982	981	981	981	981	981	982	982	982	983	982	982	983	983	983	983	983	983	983	983	983	983	983	983	983	983	983	982	982	981	980	980	978	977	975	975	972	970	970	969	968	967	967	966	965	965	964	964	964	964	965	966	966	967	967	967	968	970	970	972	973	973	975	975	976	977	977	980	980	980	981	982	982	983	983	983	984	984	984	985	985	985	985	985	985	986	986	985	985	986	986	986	985	985	985	985	985	985	985	985	985	984	984	984	983	983	983	983	983	983	982	982	982	981	981	981	981	981	981	981	981	981	981	980	980	980	980	980	978	977	977	976	975	972	972	970	968	968	967	965	965	964	964	963	963	962	962	963	963	963	964	964	964	964	964	966	967	967	0	0	0	0	0	0	0	0	0	0	0	0	0	0	0	0	0	0	0	0	0	0	0	0	0	0	0	0	0	0	0	0	0	0	0	0	0	0	813	811	811	811	811	811	811	811	811	811	811	811	811	810	810	810	810	810	810	809	807	803	800	800	797	795	795	795	794	794	794	794	794	794	794	794	794	794	0	0	0	0	0	0	0	0	0	0	0	0	0	0	0	0	0	0	0	0	0	0	0	0	0	0	0	0	0	0	0	0	0	0	0	0	0	0	0	0	0	0	0	0	0	0	0	0	0	0	0	0	0	0	0	0	0	2114	2104	2104	2104	2104	2104	2104	2104	2104	2104	2104	2104	2104	2104	2104	2104	2104	2104	2104	2104	2104	2104	2104	2104	2104	2104	2104	2104	2104	2104	2104	2104	2104	2104	2104	2104	2104	2101	2101	2101	2101	2101	2101	2101	2101	2101	2101	2101	2101	2101	2101	2101	2101	2101	2104	2104	2104	2104	2101	2101	2101	2101	2097	2097	2097	2097	2097	2097	2094	2094	2094	2091	2091	2091	2091	2091	2091	2087	2087	2087	2087	2091	2091	2091	2091	2091	2091	2094	2094	2094	2097	2101	2101	2104	2104	2104	2104	2104	2104	2108	2108	2108	2108	2108	2104	2104	2104	2104	2104	2104	2101	2101	2101	2101	2101	2101	2101	2101	2101	2101	2101	2104	2104	2104	2104	2108	2108	2108	2108	2108	2111	2114	2114	2118	2118	2118	2121	2121	2121	2121	2125	2125	2128	2128	2128	2139	2139	2139	2146	2146	2149	2156	2156	2160	2160	2156	2156	2156	2156	2156	2156	2156	2149	2146	2146	2139	2135
981	980	980	980	978	977	977	976	976	976	975	975	975	975	975	971	971	968	965	962	962	959	959	943	940	940	936	929	925	925	922	920	919	919	918	917	917	915	914	911	911	908	906	906	904	903	903	903	903	904	904	904	906	910	910	913	913	915	917	917	918	920	920	921	921	923	925	925	928	932	932	935	938	938	939	939	940	942	942	943	945	945	948	950	950	953	953	957	958	958	960	961	961	962	962	962	964	964	964	965	967	967	968	970	970	973	973	975	976	976	978	980	980	981	982	982	982	983	983	983	983	983	983	983	983	983	983	983	983	984	984	984	984	984	984	984	984	984	984	984	984	984	984	984	984	984	984	984	984	984	985	985	985	983	983	983	983	983	983	982	982	982	981	981	981	980	980	980	980	980	980	980	980	980	980	980	980	980	980	980	980	981	981	981	982	982	982	982	982	982	983	983	983	983	983	983	982	982	982	982	982	982	982	981	981	981	981	981	980	980	980	980	980	980	980	978	978	977	977	977	977	976	976	976	976	976	976	976	977	977	977	978	978	978	978	978	978	980	980	980	980	980	980	978	978	978	978	978	977	976	975	975	973	971	971	969	967	964	964	964	963	963	962	962	962	962	961	961	961	961	962	962	962	962	962	963	964	964	964	965	965	967	967	967	969	971	971	973	975	975	976	977	977	978	978	980	981	981	982	982	982	983	983	983	983	984	984	984	984	984	984	984	984	984	983	983	983	983	983	983	983	983	983	982	982	981	981	981	980	980	980	980	980	978	978	978	978	978	978	977	977	977	978	978	977	976	976	975	975	975	973	972	970	970	969	967	967	966	964	964	964	963	962	962	962	961	961	961	961	961	961	961	962	962	962	962	962	962	964	964	0	0	0	0	0	0	0	0	0	0	0	0	0	0	0	0	0	0	0	0	0	0	0	0	0	0	0	0	0	0	0	0	0	0	0	0	0	0	813	811	811	811	811	811	811	811	811	811	811	811	811	810	810	810	809	808	806	806	803	800	797	797	795	795	795	794	794	794	794	794	794	794	794	794	794	795	0	0	0	0	0	0	0	0	0	0	0	0	0	0	0	0	0	0	0	0	0	0	0	0	0	0	0	0	0	0	0	0	0	0	0	0	0	0	0	0	0	0	0	0	0	0	0	0	0	0	0	0	0	0	0	0	0	0	2104	2104	2104	2104	2104	2104	2104	2104	2104	2104	2104	2104	2104	2104	2104	2104	2104	2104	2104	2104	2104	2104	2104	2104	2104	2104	2104	2104	2104	2104	2104	2104	2104	2104	2104	2104	2101	2101	2101	2101	2101	2101	2101	2101	2101	2101	2101	2101	2101	2101	2101	2101	2101	2104	2104	2104	2104	2101	2101	2101	2101	2097	2097	2097	2097	2094	2094	2091	2091	2091	2091	2087	2087	2084	2084	2084	2084	2084	2084	2084	2087	2087	2087	2091	2091	2091	2094	2094	2094	2097	2101	2101	2104	2104	2104	2104	2104	2104	2108	2108	2108	2108	2108	2104	2104	2104	2104	2101	2101	2097	2097	2097	2097	2097	2097	2097	2097	2097	2097	2097	2097	2101	2101	2101	2104	2104	2104	2104	2104	2108	2108	2108	2111	2111	2111	2114	2118	2118	2118	2121	2121	2128	2128	2128	2139	2139	2139	2149	2149	2149	2160	2160	2160	2160	2160	2160	2160	2156	2156	2156	2149	2146	2139	2139	2135	2135
977	976	975	975	975	973	973	973	972	972	972	972	971	971	969	969	969	967	964	962	962	959	959	943	940	940	936	929	925	925	922	920	919	919	918	917	917	915	914	911	911	908	906	906	904	903	903	903	903	904	904	904	906	910	910	913	913	915	917	917	918	920	920	921	921	923	925	925	928	932	932	935	936	938	939	939	940	942	942	943	945	945	948	950	950	953	953	957	958	958	960	961	961	962	962	962	963	964	964	964	966	966	967	969	969	971	973	973	975	975	977	978	978	980	980	980	980	980	980	980	980	980	980	980	980	980	980	981	980	980	980	980	980	980	980	981	981	981	981	981	981	981	981	981	981	981	981	981	982	982	982	983	983	983	983	983	983	983	983	982	982	982	981	981	981	980	980	980	980	980	980	980	980	980	980	980	980	980	980	980	980	981	981	981	982	982	982	982	982	982	983	983	983	983	983	983	982	982	982	982	982	982	982	981	981	981	981	981	980	980	980	980	980	980	980	978	978	977	977	977	977	976	976	976	976	976	976	976	977	977	977	978	978	978	978	978	978	980	980	980	980	980	980	978	978	978	978	978	977	976	975	975	973	971	971	969	967	964	964	964	963	963	962	962	962	962	961	961	961	961	962	962	962	962	962	963	964	964	964	965	965	967	967	967	969	971	971	973	975	975	976	977	975	975	976	976	977	980	980	980	980	980	980	980	980	981	981	981	981	981	981	981	981	981	981	981	980	980	980	980	980	980	980	978	978	977	977	977	977	976	976	976	975	975	975	975	975	975	975	975	975	975	975	975	973	972	972	971	970	968	968	967	966	966	964	964	964	964	962	962	962	961	961	961	960	959	959	958	958	958	958	959	960	960	960	960	960	961	962	962	0	0	0	0	0	0	0	0	0	0	0	0	0	0	0	0	0	0	0	0	0	0	0	0	0	0	0	0	0	0	0	0	0	0	0	0	815	815	813	813	813	813	812	812	812	811	811	811	811	811	811	810	809	809	809	807	805	805	802	800	797	797	795	795	795	794	794	794	794	794	794	794	794	794	794	795	0	0	0	0	0	0	0	0	0	0	0	0	0	0	0	0	0	0	0	0	0	0	0	0	0	0	0	0	0	0	0	0	0	0	0	0	0	0	0	0	0	0	0	0	0	0	0	0	0	0	0	0	0	0	0	0	0	0	2104	2104	2097	2097	2097	2097	2097	2101	2101	2101	2101	2101	2101	2101	2101	2101	2104	2104	2104	2101	2101	2101	2104	2104	2104	2104	2104	2104	2104	2104	2104	2104	2104	2104	2104	2104	2101	2097	2097	2097	2097	2097	2097	2097	2097	2097	2097	2097	2097	2097	2097	2097	2097	2097	2097	2097	2097	2097	2097	2097	2097	2097	2094	2094	2094	2094	2094	2091	2091	2091	2091	2087	2087	2084	2084	2084	2084	2084	2084	2084	2087	2087	2087	2091	2091	2091	2094	2094	2094	2097	2101	2101	2104	2104	2104	2104	2108	2108	2108	2108	2108	2108	2108	2104	2104	2104	2104	2101	2101	2097	2097	2097	2097	2097	2097	2097	2097	2097	2097	2097	2097	2101	2101	2101	2104	2104	2104	2104	2104	2108	2108	2108	2111	2111	2111	2114	2118	2118	2118	2121	2121	2128	2128	2128	2139	2139	2146	2149	2149	2156	2160	2160	2163	2163	2160	2160	2160	2156	2156	2156	2149	2146	2139	2139	2135	2135
977	972	972	972	971	970	969	969	969	968	968	968	968	968	967	967	967	965	964	962	962	960	957	946	946	942	939	935	935	931	926	922	922	921	920	918	918	918	917	917	915	912	910	910	908	906	906	906	906	906	906	906	910	910	912	915	915	917	918	918	919	920	920	922	922	924	927	927	930	933	933	936	936	938	939	939	940	942	942	943	945	945	948	950	950	953	953	957	958	958	960	961	961	962	962	962	962	964	964	964	965	965	967	968	968	970	972	972	975	975	975	976	976	977	977	977	977	977	977	976	976	977	976	976	976	976	976	976	976	976	976	976	976	976	976	976	977	976	976	976	976	976	976	976	977	977	977	977	977	977	977	977	978	978	978	978	978	978	978	977	977	977	976	976	976	975	975	975	975	975	975	975	975	975	975	975	976	976	976	976	976	976	977	977	978	978	978	978	980	980	980	980	980	980	980	980	980	980	980	980	978	978	978	978	978	977	977	977	976	976	976	976	975	975	975	973	973	973	972	972	972	972	972	972	972	972	972	972	972	973	973	973	973	973	973	975	975	975	975	975	975	975	975	975	975	975	975	973	973	972	970	970	967	966	964	964	962	962	962	961	960	960	957	957	955	955	955	955	955	955	957	958	958	959	959	960	961	961	962	962	962	964	964	964	966	967	967	969	971	971	972	975	975	975	976	976	977	980	980	980	980	980	980	980	980	981	981	981	981	981	981	981	981	981	981	981	980	980	980	980	980	980	980	978	978	977	977	977	977	976	976	976	975	975	975	975	975	975	975	975	975	975	975	975	973	972	972	971	970	968	968	967	966	966	964	964	964	964	962	962	962	961	961	961	960	959	959	958	958	958	958	959	960	960	960	960	960	961	962	962	0	0	0	0	0	0	0	0	0	0	0	0	0	0	0	0	0	0	0	0	0	0	0	0	0	0	0	0	0	0	0	0	0	0	0	0	815	815	814	814	814	813	812	812	812	812	811	811	811	811	811	810	809	809	809	806	804	804	801	799	797	797	796	795	795	795	795	795	795	795	795	795	795	795	795	796	0	0	0	0	0	0	0	0	0	0	0	0	0	0	0	0	0	0	0	0	0	0	0	0	0	0	0	0	0	0	0	0	0	0	0	0	0	0	0	0	0	0	0	0	0	0	0	0	0	0	0	0	0	0	0	0	0	0	0	0	2094	2094	2094	2094	2094	2097	2097	2097	2097	2097	2097	2097	2097	2097	2101	2101	2101	2101	2101	2101	2101	2101	2101	2101	2101	2101	2101	2101	2101	2101	2101	2101	2101	2101	2097	2097	2097	2097	2097	2097	2097	2097	2097	2097	2097	2097	2097	2097	2097	2097	2097	2097	2097	2097	2097	2097	2094	2094	2094	2094	2091	2091	2091	2091	2091	2087	2084	2084	2084	2081	2081	2081	2081	2081	2077	2077	2081	2081	2081	2084	2084	2087	2091	2091	2091	2094	2094	2097	2101	2101	2104	2104	2104	2104	2104	2104	2104	2104	2104	2104	2104	2104	2104	2104	2101	2097	2097	2097	2097	2097	2094	2094	2094	2094	2094	2094	2094	2094	2094	2097	2097	2097	2097	2097	2101	2101	2101	2104	2104	2104	2108	2108	2108	2108	2111	2111	2114	2121	2121	2125	2125	2128	2139	2139	2146	2149	2149	2156	2160	2160	2163	2163	2160	2156	2156	2156	2149	2149	2146	2139	2135	2135	2128	2125
975	972	972	972	971	970	969	969	969	968	968	968	968	968	967	967	967	965	964	962	962	961	957	950	950	944	941	938	938	936	930	926	926	924	922	920	920	919	918	918	917	915	913	913	911	908	908	908	908	908	908	910	912	912	915	917	917	918	919	919	920	920	922	924	924	926	928	928	931	934	934	936	936	938	940	940	940	942	942	944	946	946	948	952	952	953	953	957	958	958	960	961	961	962	962	962	962	964	964	964	965	965	967	968	968	970	972	972	975	975	975	976	976	977	977	977	977	977	977	976	976	977	976	976	976	976	976	976	976	976	976	976	976	976	976	976	977	976	976	976	976	972	971	971	971	973	973	973	972	972	972	972	972	972	972	973	973	973	973	973	973	973	972	972	972	971	971	970	970	970	970	971	971	971	971	971	972	972	972	972	973	973	975	975	975	975	975	975	975	975	975	976	976	976	976	976	976	976	976	976	975	975	975	975	975	973	973	973	973	972	971	971	971	970	970	969	969	969	968	968	968	967	967	967	967	967	968	968	968	968	969	969	969	969	969	970	970	970	971	971	971	971	971	971	971	971	970	969	969	967	966	966	964	962	962	962	959	957	953	953	953	948	948	948	948	948	948	948	948	948	950	952	952	953	955	955	957	959	959	960	962	962	962	962	964	964	964	966	967	967	968	970	970	972	973	973	975	975	975	976	976	976	977	977	977	977	977	977	977	977	977	977	978	977	977	977	977	976	976	976	975	975	975	975	973	973	972	972	972	972	972	973	973	973	973	972	972	972	971	971	971	970	970	970	969	968	967	967	966	965	965	964	964	964	963	962	962	962	961	960	960	959	958	958	957	955	955	955	955	955	955	955	957	957	957	957	957	960	961	961	0	0	0	0	0	0	0	0	0	0	0	0	0	0	0	0	0	0	0	0	0	0	0	0	0	0	0	0	0	0	0	0	0	0	0	0	815	815	814	814	814	813	812	812	812	812	811	811	811	810	810	810	809	809	808	806	804	804	801	799	797	797	796	795	795	795	795	795	795	795	795	795	796	796	796	0	0	0	0	0	0	0	0	0	0	0	0	0	0	0	0	0	0	0	0	0	0	0	0	0	0	0	0	0	0	0	0	0	0	0	0	0	0	0	0	0	0	0	0	0	0	0	0	0	0	0	0	0	0	0	0	0	0	0	0	0	2094	2094	2094	2094	2094	2097	2097	2097	2097	2097	2097	2097	2097	2097	2101	2101	2101	2101	2101	2101	2101	2101	2101	2101	2101	2101	2101	2101	2101	2101	2101	2101	2101	2101	2097	2097	2097	2097	2097	2097	2097	2097	2097	2097	2097	2097	2097	2097	2097	2097	2097	2097	2097	2097	2097	2094	2094	2091	2091	2091	2091	2091	2087	2084	2084	2081	2081	2081	2077	2077	2077	2074	2074	2074	2074	2074	2074	2074	2077	2081	2081	2084	2087	2087	2091	2094	2094	2097	2097	2097	2101	2104	2104	2104	2104	2104	2104	2104	2104	2104	2104	2104	2101	2101	2097	2097	2097	2094	2094	2094	2094	2091	2091	2091	2091	2091	2091	2091	2091	2091	2091	2094	2094	2094	2097	2097	2097	2097	2101	2101	2104	2104	2104	2108	2108	2108	2114	2118	2118	2125	2125	2128	2135	2135	2146	2149	2149	2156	2160	2160	2160	2160	2156	2149	2149	2149	2146	2139	2139	2135	2128	2128	2125	2121
970	969	968	967	967	967	967	967	967	966	966	966	965	965	964	964	964	964	963	962	962	960	957	950	950	944	941	938	938	936	930	926	926	924	922	920	920	919	918	918	917	915	913	913	911	908	908	908	908	908	908	910	912	912	915	917	917	918	919	919	920	920	922	924	924	926	928	928	931	934	934	936	936	938	940	940	940	942	942	944	946	946	948	952	952	953	953	955	957	957	959	960	960	961	962	962	962	963	963	964	964	964	966	967	967	969	970	970	972	973	973	973	975	975	975	975	975	975	975	973	972	972	972	972	972	972	972	972	971	971	971	971	971	971	971	971	971	972	972	972	972	972	971	971	971	973	973	973	972	972	972	972	972	972	972	973	973	973	973	973	973	973	972	972	972	971	971	970	970	970	970	971	971	971	971	971	972	972	972	972	973	973	975	975	975	975	975	975	975	975	975	976	976	976	976	976	976	976	976	976	975	975	975	975	975	973	973	973	973	972	971	971	971	970	970	969	969	969	968	968	968	967	967	967	967	967	968	968	968	968	969	969	969	969	969	970	970	970	971	971	971	971	971	971	971	971	970	969	969	967	966	966	964	962	962	962	959	957	953	953	953	948	948	948	948	948	948	948	948	948	950	952	952	953	955	955	957	959	959	960	962	960	960	962	962	962	964	964	964	964	966	967	967	968	970	970	971	972	972	973	973	973	973	973	973	973	975	975	973	973	973	973	973	973	972	972	972	971	971	971	971	971	971	970	969	969	969	969	969	969	969	969	969	969	969	969	968	968	968	967	967	967	967	966	966	965	964	964	964	964	964	963	962	962	962	961	960	960	958	957	957	957	955	955	953	953	953	953	953	953	953	953	955	955	955	955	955	957	959	959	0	0	0	0	0	0	0	0	0	0	0	0	0	0	0	0	0	0	0	0	0	0	0	0	0	0	0	0	0	0	0	0	0	0	0	0	816	816	815	814	814	813	813	812	812	812	811	811	811	810	810	809	809	809	807	806	804	804	801	799	797	797	796	795	795	795	795	795	795	795	795	795	796	796	796	0	0	0	0	0	0	0	0	0	0	0	0	0	0	0	0	0	0	0	0	0	0	0	0	0	0	0	0	0	0	0	0	0	0	0	0	0	0	0	0	0	0	0	0	0	0	0	0	0	0	0	0	0	0	0	0	0	0	0	0	0	2094	2094	2094	2094	2094	2097	2094	2094	2094	2094	2097	2097	2097	2097	2097	2097	2097	2097	2097	2097	2097	2097	2097	2101	2101	2101	2101	2101	2101	2101	2101	2097	2097	2097	2097	2097	2097	2097	2097	2097	2097	2097	2097	2097	2097	2097	2097	2097	2097	2097	2094	2094	2094	2094	2094	2094	2094	2091	2091	2091	2091	2091	2087	2084	2084	2081	2081	2081	2077	2077	2077	2074	2074	2074	2074	2074	2074	2074	2077	2081	2081	2084	2087	2087	2091	2094	2094	2097	2097	2097	2101	2104	2104	2104	2104	2104	2104	2104	2104	2104	2104	2104	2101	2101	2097	2097	2097	2094	2094	2094	2094	2091	2091	2091	2091	2091	2091	2091	2091	2091	2091	2094	2094	2094	2097	2097	2097	2097	2101	2101	2104	2104	2104	2108	2108	2108	2114	2118	2118	2125	2125	2128	2135	2135	2146	2149	2149	2156	2160	2160	2160	2160	2156	2149	2149	2149	2146	2139	2139	2135	2128	2128	2125	2121
967	967	966	965	965	965	964	964	964	964	964	964	964	964	964	963	963	962	962	961	961	959	955	955	952	946	942	940	940	939	935	931	931	928	925	925	922	921	920	920	918	917	917	915	914	912	912	911	911	911	911	912	914	914	916	918	918	919	919	920	921	921	922	924	924	926	929	929	932	935	935	937	937	939	940	940	941	942	942	944	946	946	948	950	950	953	953	955	957	957	958	959	959	960	961	961	962	962	962	964	964	964	964	966	966	967	968	968	970	970	970	971	971	971	972	972	971	970	970	970	969	969	968	968	968	967	967	967	967	967	967	967	967	967	967	967	967	967	967	967	967	967	967	967	967	968	968	968	967	967	967	967	967	967	967	968	968	968	968	968	968	968	968	968	967	967	967	967	967	967	967	967	967	967	968	968	968	968	968	969	969	969	970	970	970	971	971	971	972	972	972	973	973	973	973	973	973	972	972	972	972	972	971	970	969	969	969	968	968	968	967	967	967	967	967	966	965	965	965	964	964	964	964	964	964	964	964	964	964	965	965	965	966	966	966	966	967	967	967	967	967	967	967	967	967	967	966	964	964	964	963	962	962	960	957	952	952	948	946	946	944	942	942	942	942	942	942	942	944	944	944	946	946	946	950	950	952	955	955	957	959	959	960	962	962	962	964	964	964	964	966	967	967	968	970	970	971	972	972	973	973	973	973	973	973	973	975	975	973	973	973	973	973	973	972	972	972	971	971	971	971	971	971	970	969	969	969	969	969	969	969	969	969	969	969	969	968	968	968	967	967	967	967	966	966	965	964	964	964	964	964	963	962	962	962	961	960	960	958	957	957	957	955	955	953	953	953	953	953	953	953	953	955	955	955	955	955	957	959	959	0	0	0	0	0	0	0	0	0	0	0	0	0	0	0	0	0	0	0	0	0	0	0	0	0	0	0	0	0	0	0	0	0	0	0	0	816	816	815	814	814	813	813	812	812	811	811	811	810	810	810	809	809	809	807	806	804	804	801	799	797	797	796	796	796	796	796	796	796	796	796	796	796	796	796	0	0	0	0	0	0	0	0	0	0	0	0	0	0	0	0	0	0	0	0	0	0	0	0	0	0	0	0	0	0	0	0	0	0	0	0	0	0	0	0	0	0	0	0	0	0	0	0	0	0	0	0	0	0	0	0	2091	2091	2091	2091	2091	2091	2091	2091	2091	2091	2094	2094	2094	2094	2094	2094	2094	2094	2097	2097	2097	2097	2097	2097	2097	2097	2097	2097	2097	2097	2097	2097	2097	2097	2097	2097	2097	2097	2097	2097	2097	2097	2097	2097	2097	2097	2097	2097	2097	2097	2097	2097	2094	2094	2094	2094	2094	2094	2094	2094	2091	2091	2091	2091	2084	2084	2084	2081	2081	2081	2077	2074	2074	2074	2074	2074	2071	2071	2071	2071	2064	2064	2064	2074	2077	2077	2081	2084	2084	2091	2094	2094	2094	2097	2097	2101	2104	2104	2104	2104	2104	2104	2104	2104	2101	2101	2101	2097	2097	2097	2094	2094	2094	2091	2091	2091	2087	2087	2087	2087	2087	2087	2087	2087	2091	2091	2091	2091	2091	2094	2094	2094	2097	2097	2097	2101	2104	2104	2104	2108	2108	2111	2114	2114	2121	2121	2125	2135	2135	2139	2146	2146	2149	2156	2149	2149	2149	2149	2146	2146	2139	2135	2128	2128	2125	2121	2121	2118	2114
967	967	966	965	965	965	964	964	964	964	964	964	964	964	964	963	963	962	962	961	961	959	955	955	952	946	943	941	941	940	938	938	936	933	929	929	926	924	921	921	920	918	918	917	916	916	915	914	913	913	913	914	916	916	917	918	918	919	919	920	922	922	924	926	926	928	930	930	933	936	936	938	938	939	940	940	942	942	942	944	946	946	948	950	950	953	953	955	957	957	958	959	959	960	961	961	962	962	962	964	964	964	964	966	966	967	968	968	970	970	970	971	971	971	972	972	971	970	970	970	969	969	968	968	968	967	967	967	967	964	964	964	964	964	964	964	964	964	964	964	964	964	964	964	964	965	965	964	964	964	964	964	964	964	964	964	965	965	965	965	965	965	965	965	965	965	965	965	965	965	965	966	965	965	965	965	966	966	966	966	967	967	967	967	967	967	968	968	968	969	969	969	970	970	969	969	969	969	969	969	968	967	967	967	966	966	966	965	965	964	964	964	964	964	964	964	964	964	964	963	963	963	963	962	962	962	963	963	963	964	964	964	964	964	964	964	964	964	964	964	964	964	964	964	964	964	964	962	962	962	961	958	958	955	950	946	946	943	942	940	940	940	940	940	940	940	940	940	941	942	942	942	943	943	945	948	948	950	950	952	955	955	957	960	960	961	962	962	963	964	964	964	966	966	967	967	968	969	969	970	970	970	970	970	970	970	969	969	969	969	970	969	969	969	968	967	967	967	967	967	967	967	967	967	966	966	966	966	966	966	966	967	967	966	966	966	966	965	965	964	964	964	964	964	964	964	963	963	962	962	962	961	961	961	960	958	957	957	955	955	955	953	952	950	950	950	950	950	950	950	950	950	952	953	953	953	953	953	959	959	0	0	0	0	972	972	0	0	0	0	0	0	0	0	0	0	0	0	0	0	0	0	0	0	0	0	0	0	0	0	0	0	0	0	0	0	816	816	815	814	814	813	813	812	812	811	811	811	810	810	810	809	809	809	807	806	804	804	801	800	798	798	796	796	796	796	796	796	796	796	796	796	796	797	797	0	0	0	0	0	0	0	0	0	0	0	0	0	0	0	0	0	0	0	0	0	0	0	0	0	0	0	0	0	0	0	0	0	0	0	0	0	0	0	0	0	0	0	0	0	0	0	0	0	0	0	0	0	0	0	0	2091	2091	2091	2091	2091	2091	2091	2091	2091	2091	2094	2094	2094	2094	2094	2094	2094	2094	2097	2097	2097	2097	2097	2097	2097	2097	2097	2097	2097	2097	2097	2097	2097	2097	2097	2097	2097	2097	2097	2097	2097	2097	2097	2097	2097	2097	2097	2097	2097	2094	2094	2094	2094	2094	2094	2094	2094	2091	2091	2091	2087	2087	2084	2084	2081	2081	2081	2077	2074	2074	2071	2064	2064	2064	2064	2064	2064	2064	2064	2064	2061	2061	2061	2071	2074	2074	2077	2081	2081	2087	2091	2091	2094	2097	2097	2097	2097	2097	2101	2101	2101	2101	2101	2097	2097	2097	2097	2094	2094	2094	2091	2091	2091	2084	2084	2084	2081	2081	2081	2081	2081	2081	2081	2084	2084	2084	2087	2091	2091	2091	2091	2091	2094	2094	2094	2097	2097	2097	2101	2104	2104	2108	2111	2111	2118	2121	2121	2125	2125	2135	2135	2135	2139	2146	2146	2139	2139	2139	2135	2128	2128	2125	2121	2121	2118	2114	2114	2111	2111
964	964	964	964	964	964	964	964	964	963	963	963	962	962	962	962	962	962	961	960	960	959	955	955	952	946	943	941	941	940	938	938	936	933	929	929	926	924	921	921	920	918	918	917	916	916	915	914	913	913	913	914	916	916	917	918	918	919	919	920	922	922	924	926	926	928	930	930	933	935	936	938	938	939	940	940	942	942	942	944	946	946	948	950	950	950	953	953	955	955	957	958	958	959	960	960	961	962	962	962	963	963	964	964	964	965	966	966	967	967	967	968	969	968	968	968	968	967	967	967	966	965	965	964	964	964	964	964	964	964	964	964	964	964	964	964	964	964	964	964	964	964	964	964	964	965	965	964	964	964	964	964	964	964	964	964	965	965	965	965	965	965	965	965	965	965	965	965	965	965	965	966	965	965	965	965	966	966	966	966	967	967	967	967	967	967	968	968	968	969	969	969	970	970	969	969	969	969	969	969	968	967	967	967	966	966	966	965	965	964	964	964	964	964	964	964	964	964	964	963	963	963	963	962	962	962	963	963	963	964	964	964	964	964	964	964	964	964	964	964	964	964	964	964	964	964	964	962	962	962	961	958	958	955	950	946	946	943	942	940	940	940	940	940	940	940	940	940	941	942	942	942	942	942	942	944	944	946	948	948	950	950	955	957	957	960	961	961	962	962	962	964	964	964	965	966	966	967	967	967	967	967	967	967	967	967	966	966	966	966	966	965	965	965	964	964	964	964	964	964	964	964	964	964	964	964	964	964	964	964	964	964	964	964	964	964	964	964	964	964	963	963	963	962	962	962	962	962	961	960	960	960	958	957	957	955	953	953	953	952	952	950	948	948	948	948	948	948	948	948	948	948	950	950	950	950	953	953	0	0	0	0	964	964	968	968	0	970	970	0	0	0	0	0	0	0	0	0	0	0	0	0	0	0	0	0	0	0	0	0	0	0	0	0	0	0	816	816	815	814	814	814	812	812	812	811	811	811	810	810	810	809	809	809	807	806	804	804	801	800	798	798	796	796	796	796	796	796	796	796	796	796	796	797	797	798	0	0	0	0	0	0	0	0	0	0	0	0	0	0	0	0	0	0	0	0	0	0	0	0	0	0	0	0	0	0	0	0	0	0	0	0	0	0	0	0	0	0	0	0	0	0	0	0	0	0	0	0	0	0	2084	2084	2091	2087	2087	2087	2087	2087	2091	2091	2091	2091	2091	2094	2094	2094	2094	2094	2094	2094	2097	2097	2097	2097	2097	2097	2097	2097	2097	2097	2097	2097	2097	2097	2097	2097	2097	2097	2097	2097	2097	2097	2097	2097	2097	2097	2097	2097	2097	2097	2094	2094	2094	2094	2094	2094	2094	2094	2091	2091	2091	2087	2087	2084	2084	2081	2081	2081	2077	2074	2074	2071	2064	2064	2064	2064	2064	2064	2064	2064	2064	2061	2061	2061	2071	2074	2074	2077	2081	2081	2087	2091	2091	2094	2097	2097	2097	2097	2097	2101	2101	2101	2101	2101	2097	2097	2097	2097	2094	2094	2094	2091	2091	2091	2084	2084	2084	2081	2081	2081	2081	2081	2081	2081	2084	2084	2084	2087	2091	2091	2091	2091	2091	2094	2094	2094	2097	2097	2097	2101	2104	2104	2108	2111	2111	2118	2121	2121	2125	2125	2135	2135	2135	2139	2146	2146	2139	2139	2139	2135	2128	2128	2125	2121	2121	2118	2114	2114	2111	2111
963	963	963	962	962	962	962	962	962	962	962	962	962	962	962	961	961	961	960	959	959	957	955	955	953	950	946	946	942	941	940	940	938	936	936	933	929	926	926	923	921	919	919	918	918	918	916	915	915	915	915	916	917	917	918	918	918	920	920	921	923	923	925	927	927	930	932	932	935	935	937	938	938	940	940	940	942	942	942	944	945	945	946	948	948	950	952	952	953	953	955	957	957	957	958	958	960	960	960	961	962	962	962	963	963	964	964	964	964	965	965	965	966	966	966	966	965	964	964	964	964	964	964	963	963	963	963	962	962	962	962	962	962	962	962	962	962	962	962	962	963	963	963	963	963	964	964	963	963	963	963	963	963	963	963	963	964	964	964	964	964	964	964	964	964	964	964	964	964	964	964	964	964	964	964	964	964	964	964	964	964	964	964	964	964	964	965	965	966	966	966	967	967	967	967	967	967	966	966	966	965	964	964	964	964	964	964	964	964	963	963	963	962	962	962	962	962	962	962	962	962	962	962	962	962	962	962	962	962	962	962	962	962	962	962	962	962	962	963	963	963	962	962	962	962	962	962	961	959	959	957	952	948	948	944	942	940	940	939	938	938	938	937	937	937	938	939	939	939	940	940	941	942	942	942	944	944	946	948	948	950	950	955	957	957	960	961	961	962	962	962	964	964	964	965	966	966	967	967	967	967	967	967	967	967	967	966	966	966	966	966	965	965	965	964	964	964	964	964	964	964	964	964	964	964	964	964	964	964	964	964	964	964	964	964	964	964	964	964	964	963	963	963	962	962	962	962	962	961	960	960	960	958	957	957	955	953	953	953	952	952	950	948	948	948	948	948	948	948	948	948	948	950	950	950	950	953	953	0	0	0	0	964	964	968	968	0	970	970	0	0	0	0	0	0	0	0	0	0	0	0	0	0	0	0	0	0	0	0	0	0	0	0	0	0	0	817	817	815	815	815	814	812	812	812	811	811	811	810	810	810	809	808	808	807	806	804	804	801	800	798	798	797	797	797	797	797	797	797	797	797	797	797	798	798	798	0	0	0	0	0	0	0	0	0	0	0	0	0	0	0	0	0	0	0	0	0	0	0	0	0	0	0	0	0	0	0	0	0	0	0	0	0	0	0	0	0	0	0	0	0	0	0	0	0	0	0	0	0	0	2084	2084	2087	2084	2084	2087	2087	2084	2084	2084	2087	2091	2091	2091	2091	2091	2094	2094	2094	2094	2094	2097	2094	2094	2094	2094	2097	2097	2097	2097	2097	2094	2094	2094	2094	2094	2094	2094	2094	2094	2094	2094	2094	2094	2094	2097	2097	2097	2097	2094	2094	2094	2094	2094	2094	2094	2094	2094	2091	2087	2084	2084	2081	2081	2081	2074	2071	2071	2071	2064	2064	2064	2061	2061	2061	2061	2061	2061	2061	2061	2061	2061	2061	2061	2064	2064	2064	2074	2077	2077	2081	2087	2087	2091	2094	2094	2094	2097	2097	2097	2097	2097	2097	2097	2097	2094	2094	2094	2091	2091	2091	2087	2081	2081	2081	2077	2077	2074	2074	2074	2074	2074	2074	2074	2077	2077	2077	2081	2084	2084	2087	2087	2087	2091	2091	2091	2094	2097	2097	2097	2101	2101	2104	2108	2108	2111	2114	2114	2121	2121	2121	2125	2125	2128	2128	2128	2128	2125	2125	2121	2118	2118	2114	2114	2114	2108	2108	2108	2104	2104
963	963	963	962	962	962	962	962	962	962	962	962	962	962	962	961	961	961	960	959	959	957	955	955	953	950	946	946	944	942	940	940	940	938	938	936	933	929	929	925	922	920	920	919	918	918	917	917	917	917	917	917	917	918	918	918	919	920	920	922	924	924	926	929	929	932	935	935	936	936	938	939	939	940	940	940	942	942	942	944	945	945	946	948	948	950	952	952	953	953	955	957	957	957	958	958	960	960	960	961	962	962	962	963	963	964	964	964	964	965	965	965	966	966	966	966	965	964	963	963	962	962	962	962	962	962	962	961	961	961	961	961	961	961	961	961	961	962	962	962	962	962	962	962	962	962	962	962	962	962	962	962	962	962	962	962	962	962	962	962	962	962	962	962	962	962	962	962	962	962	962	962	962	962	962	962	962	962	962	962	963	963	963	963	964	964	964	964	964	964	964	964	964	964	964	964	964	964	964	964	964	963	963	962	962	962	962	962	962	962	962	961	961	961	961	961	960	960	960	960	960	960	960	960	960	960	960	960	960	961	961	961	961	961	961	961	961	961	962	962	961	961	961	961	960	959	959	957	955	955	952	946	944	944	942	940	938	938	936	935	935	934	934	934	934	935	936	936	938	939	939	940	940	940	942	942	942	944	945	945	948	950	950	953	953	957	959	959	961	962	962	962	963	963	964	964	964	964	964	964	964	964	964	964	964	964	964	964	964	964	964	964	963	963	962	962	962	962	962	962	962	962	962	962	962	962	962	962	962	962	962	962	963	963	962	962	962	962	962	962	962	962	962	961	961	961	960	960	959	957	957	957	955	953	953	952	950	950	950	948	948	948	946	946	946	946	946	946	946	946	946	946	948	948	948	950	952	952	0	0	0	0	964	964	968	968	968	968	968	969	0	0	0	0	0	0	0	0	0	0	0	0	0	0	0	0	0	0	0	0	0	0	0	0	0	0	819	819	816	815	815	814	812	812	812	811	811	811	810	810	810	809	808	808	808	806	804	804	802	800	799	799	798	797	797	797	797	797	797	797	798	798	798	798	798	799	0	0	0	0	0	0	0	0	0	0	0	0	0	0	0	0	0	0	0	0	0	0	0	0	0	0	0	0	0	0	0	0	0	0	0	0	0	0	0	0	0	0	0	0	0	0	0	0	0	0	0	0	0	0	2087	2087	2087	2084	2084	2087	2087	2084	2084	2084	2087	2091	2091	2091	2091	2091	2094	2094	2094	2094	2094	2097	2094	2094	2094	2094	2097	2097	2097	2097	2097	2094	2094	2094	2094	2094	2094	2094	2094	2094	2094	2094	2094	2094	2094	2094	2094	2094	2094	2094	2094	2094	2094	2094	2094	2091	2091	2091	2091	2084	2081	2081	2077	2071	2071	2071	2061	2061	2061	2055	2055	2051	2051	2051	2051	2051	2051	2051	2051	2051	2051	2051	2051	2051	2055	2061	2061	2064	2071	2071	2077	2081	2081	2087	2091	2091	2091	2094	2094	2094	2094	2094	2094	2094	2091	2091	2091	2091	2087	2087	2081	2077	2074	2074	2071	2064	2064	2064	2061	2061	2061	2061	2061	2061	2064	2071	2071	2074	2077	2077	2081	2081	2081	2084	2087	2087	2091	2091	2091	2094	2097	2097	2097	2104	2104	2104	2108	2108	2111	2114	2114	2114	2118	2118	2118	2118	2118	2114	2114	2111	2108	2108	2108	2104	2104	2104	2101	2101	2101	2097
962	962	962	962	962	962	962	962	962	961	961	961	960	960	960	960	959	959	958	957	957	957	955	955	953	950	946	946	944	942	940	940	940	938	938	936	933	929	929	925	922	920	920	919	918	918	917	917	917	917	917	917	917	918	918	918	919	920	920	922	924	924	926	929	929	932	933	935	936	936	938	939	939	940	940	940	942	942	942	943	944	944	945	946	946	948	950	950	950	953	953	953	955	955	957	957	957	959	959	960	960	960	961	962	962	962	962	962	964	964	964	964	964	964	964	964	964	964	963	963	962	962	962	962	962	962	962	961	961	961	961	961	961	961	961	961	961	962	962	962	962	962	962	962	962	962	962	962	962	962	962	962	962	962	962	962	962	962	962	962	962	962	962	962	962	962	962	962	962	962	962	962	962	962	962	962	962	962	962	962	963	963	963	963	964	964	964	964	964	964	964	964	964	964	964	964	964	964	964	964	964	963	963	962	962	962	962	962	962	962	962	961	961	961	961	961	960	960	960	960	960	960	960	960	960	960	960	960	960	961	961	961	961	961	961	961	961	961	962	962	961	961	961	961	960	959	959	957	955	955	952	946	944	944	942	940	938	938	936	932	932	931	931	931	932	932	934	934	936	937	937	938	939	939	940	941	941	942	943	943	945	948	948	950	950	953	957	957	958	960	960	961	962	962	962	962	962	963	964	963	963	964	964	963	963	963	962	962	962	962	962	962	962	962	962	962	962	961	961	961	961	961	961	962	961	961	961	961	962	962	962	962	962	962	962	962	961	961	961	961	961	961	960	960	960	958	957	957	957	955	953	953	952	950	950	948	948	948	948	946	946	946	945	945	945	945	945	945	945	945	946	946	946	946	946	948	950	950	0	955	955	0	0	0	0	0	967	967	967	967	969	969	0	0	0	0	0	0	0	0	0	0	0	0	0	0	0	0	0	0	0	0	0	0	0	0	819	819	816	815	815	814	812	812	812	811	810	810	810	810	810	809	808	808	808	806	804	804	802	800	799	799	798	797	797	797	797	797	797	797	798	798	798	798	798	799	0	0	0	0	0	0	0	0	0	0	0	0	0	0	0	0	0	0	0	0	0	0	0	0	0	0	0	0	0	0	0	0	0	0	0	0	0	0	0	0	0	0	0	0	0	0	0	0	0	0	0	0	0	0	2084	2084	2084	2084	2084	2084	2084	2084	2084	2084	2087	2087	2087	2091	2091	2091	2091	2091	2091	2094	2094	2094	2094	2094	2094	2094	2094	2094	2094	2094	2094	2094	2091	2091	2091	2091	2091	2091	2091	2091	2091	2094	2094	2094	2094	2094	2094	2094	2094	2094	2094	2094	2094	2094	2094	2091	2091	2091	2091	2084	2081	2081	2077	2071	2071	2071	2061	2061	2061	2055	2055	2051	2051	2051	2051	2051	2051	2051	2051	2051	2051	2051	2051	2051	2055	2061	2061	2064	2071	2071	2077	2081	2081	2087	2091	2091	2091	2094	2094	2094	2094	2094	2094	2094	2091	2091	2091	2091	2087	2087	2081	2077	2074	2074	2071	2064	2064	2064	2061	2061	2061	2061	2061	2061	2064	2071	2071	2074	2077	2077	2081	2081	2081	2084	2087	2087	2091	2091	2091	2094	2097	2097	2097	2104	2104	2104	2108	2108	2111	2114	2114	2114	2118	2118	2118	2118	2118	2114	2114	2111	2108	2108	2108	2104	2104	2104	2101	2101	2101	2097
961	961	961	961	961	961	960	960	960	960	960	960	959	959	959	957	957	957	957	955	955	955	953	953	952	950	948	948	945	943	942	942	940	940	940	938	936	933	933	928	924	922	922	920	919	919	918	918	918	918	918	918	918	918	918	918	920	921	921	922	925	925	928	931	931	933	933	936	938	938	939	940	940	940	940	940	942	942	942	942	944	944	944	945	945	946	948	948	948	950	950	952	953	953	953	955	955	957	957	957	958	958	959	960	960	961	962	962	962	962	962	962	962	962	962	962	962	962	962	962	962	961	961	961	960	960	960	960	960	960	959	959	959	959	960	960	960	960	960	960	960	960	960	960	960	960	960	960	960	960	960	960	960	960	960	960	960	960	960	961	961	961	961	961	961	961	961	961	961	961	962	962	962	961	961	961	961	961	962	962	962	962	962	962	962	962	962	962	962	962	962	962	962	962	962	962	962	962	962	962	962	962	962	961	961	961	961	960	960	960	960	960	960	959	959	959	958	958	958	958	957	957	957	957	957	957	957	957	957	958	958	958	958	959	959	959	960	960	960	960	959	959	958	958	957	955	955	953	950	946	946	943	942	942	940	938	936	936	933	932	932	931	931	931	932	932	934	934	936	937	937	938	939	939	940	941	941	942	943	943	945	948	948	950	950	953	957	957	958	960	960	961	962	962	962	962	962	963	964	963	963	964	964	963	963	963	962	962	962	962	962	962	962	962	962	962	962	961	961	961	961	961	961	962	961	961	961	961	962	962	962	962	962	962	962	962	961	961	961	961	961	961	960	960	960	958	957	957	957	955	953	953	952	950	950	948	948	948	948	946	946	946	945	945	945	945	945	945	945	945	946	946	946	946	946	948	950	950	0	955	955	0	0	0	0	0	967	967	967	967	969	969	0	0	0	0	0	0	0	0	0	0	0	0	0	0	0	0	0	0	0	0	0	0	0	820	819	819	817	815	815	814	813	812	812	811	810	810	810	809	809	809	808	808	808	806	805	805	803	801	801	800	798	798	798	798	798	798	798	797	797	797	797	798	798	0	0	0	0	0	0	0	0	0	0	0	0	0	0	0	0	0	0	0	0	0	0	0	0	0	0	0	0	0	0	0	0	0	0	0	0	0	0	0	0	0	0	0	0	0	0	0	0	0	0	0	0	0	0	0	2084	2084	2084	2084	2084	2084	2084	2084	2084	2084	2084	2087	2087	2091	2091	2091	2091	2091	2091	2094	2094	2094	2094	2094	2094	2091	2091	2091	2091	2091	2091	2091	2087	2087	2087	2087	2087	2087	2091	2091	2091	2091	2091	2091	2091	2091	2091	2094	2094	2094	2094	2094	2094	2094	2094	2091	2087	2087	2084	2081	2074	2074	2064	2064	2064	2055	2051	2051	2051	2048	2048	2048	2042	2042	2042	2042	2042	2042	2042	2042	2048	2042	2042	2048	2048	2055	2055	2061	2064	2064	2071	2077	2077	2081	2084	2084	2087	2091	2091	2091	2091	2091	2091	2091	2087	2084	2084	2081	2081	2077	2077	2071	2064	2064	2061	2055	2055	2055	2051	2051	2051	2051	2051	2051	2055	2061	2061	2064	2064	2064	2071	2074	2074	2074	2077	2077	2081	2087	2087	2091	2091	2091	2094	2097	2097	2097	2101	2101	2104	2104	2104	2108	2108	2108	2108	2108	2108	2108	2108	2104	2104	2104	2101	2097	2097	2097	2094	2094	2094	2094
961	961	961	961	961	961	960	960	960	960	960	960	959	959	959	957	957	957	957	955	955	955	953	953	952	950	948	948	945	944	942	942	942	940	940	939	938	938	935	930	927	927	924	921	920	920	919	918	918	918	918	918	918	918	919	919	920	921	921	923	926	926	929	932	932	934	934	936	938	938	939	940	940	940	940	940	942	942	942	942	944	944	944	945	945	946	948	948	948	950	950	952	953	953	953	955	955	957	957	957	958	958	959	960	960	959	959	960	960	960	961	961	961	961	961	961	961	961	960	960	960	959	959	958	957	957	957	957	957	957	955	955	955	955	957	957	957	957	957	957	957	957	957	957	957	957	957	957	957	955	955	955	955	957	957	957	957	957	957	958	958	959	959	959	960	960	960	960	960	960	960	960	960	960	960	960	960	960	960	960	960	960	960	960	960	960	960	961	961	961	961	961	961	961	961	961	961	960	960	960	960	960	960	959	959	958	958	958	958	958	957	957	957	957	957	957	957	955	955	955	955	955	955	955	955	955	955	955	955	955	957	957	957	957	957	957	957	957	957	957	957	957	955	955	953	953	948	948	946	944	944	942	940	938	938	936	933	933	931	930	929	929	929	929	931	931	932	934	934	936	936	937	938	938	940	940	940	941	942	942	943	945	945	948	950	950	953	953	955	957	957	959	960	960	961	962	962	962	962	962	962	962	962	962	962	962	962	962	961	961	961	961	960	960	960	960	960	960	960	960	960	960	960	960	960	960	960	960	960	960	960	960	960	960	960	960	959	959	959	958	958	958	957	957	955	955	955	953	953	952	950	950	948	948	946	946	946	945	945	945	944	944	944	944	944	944	944	944	944	944	944	944	945	946	946	948	950	950	952	955	955	958	958	962	0	0	965	965	965	966	967	967	967	0	0	0	0	0	0	0	0	0	0	0	0	0	0	0	0	0	0	0	0	0	0	820	819	819	817	816	816	814	813	812	812	811	810	810	810	809	809	809	808	808	808	807	805	805	804	801	801	800	799	798	798	798	798	798	798	797	797	797	797	798	798	0	0	0	0	0	0	0	0	0	0	0	0	0	0	0	0	0	0	0	0	0	0	0	0	0	0	0	0	0	0	0	0	0	0	0	0	0	0	0	0	0	0	0	0	0	0	0	0	0	0	0	0	0	0	0	2084	2084	2087	2084	2084	2084	2084	2084	2084	2084	2084	2087	2087	2091	2091	2091	2091	2091	2091	2094	2094	2094	2094	2094	2094	2091	2091	2091	2091	2091	2091	2081	2081	2081	2081	2081	2081	2081	2081	2081	2081	2081	2084	2084	2084	2087	2087	2087	2091	2091	2091	2091	2091	2091	2091	2091	2084	2077	2077	2074	2064	2064	2055	2051	2051	2048	2048	2048	2042	2039	2039	2039	2039	2039	2039	2039	2039	2039	2039	2039	2042	2039	2039	2042	2042	2048	2051	2051	2055	2061	2061	2071	2071	2074	2077	2077	2081	2084	2084	2084	2084	2081	2081	2081	2081	2077	2074	2074	2071	2064	2064	2061	2055	2055	2051	2048	2048	2048	2042	2042	2042	2042	2042	2042	2048	2048	2048	2051	2055	2055	2055	2061	2061	2064	2071	2071	2074	2077	2077	2081	2084	2084	2087	2091	2091	2094	2094	2094	2097	2097	2097	2097	2101	2101	2101	2101	2101	2097	2097	2097	2094	2094	2094	2094	2094	2091	2091	2091	2091	2091
958	958	958	958	958	958	958	958	958	958	957	957	957	957	957	955	955	955	953	953	953	952	950	950	950	948	946	946	945	944	942	942	942	940	940	939	938	938	935	930	927	927	924	921	920	920	919	918	918	918	918	918	918	918	919	919	920	921	921	923	926	926	929	932	932	934	934	936	938	938	939	940	940	940	940	940	941	942	942	942	942	942	943	944	944	945	946	946	946	948	948	948	950	950	950	952	952	953	953	953	955	955	955	957	958	958	959	960	960	960	961	961	961	961	961	961	961	961	960	960	960	959	959	958	957	957	957	957	957	957	955	955	955	955	957	957	957	957	957	957	957	957	957	957	957	957	957	957	957	955	955	955	955	957	957	957	957	957	957	958	958	959	959	959	960	960	960	960	960	960	960	960	960	960	960	960	960	960	960	960	960	960	960	960	960	960	960	961	961	961	961	961	961	961	961	961	961	960	960	960	960	960	960	959	959	958	958	958	958	958	957	957	957	957	957	957	957	955	955	955	955	955	955	955	955	955	955	955	955	955	957	957	957	957	957	957	957	957	957	957	957	957	955	955	953	953	948	948	944	942	942	940	939	937	937	935	932	932	930	928	928	928	928	928	930	930	931	932	932	934	934	936	937	937	938	940	940	940	941	941	942	943	943	945	948	948	950	950	953	955	955	957	958	958	959	960	960	960	961	960	960	960	960	960	960	960	960	960	960	959	959	958	957	957	957	957	957	957	957	957	957	957	957	957	957	957	957	957	957	957	957	957	957	955	955	955	955	955	955	955	955	953	953	953	952	952	950	950	950	948	946	946	946	945	944	944	944	944	944	944	944	944	943	943	943	943	943	943	943	943	944	944	944	945	945	946	948	948	950	953	953	957	957	961	962	962	962	964	964	964	964	964	964	0	0	0	0	0	0	0	0	0	0	0	0	0	0	0	0	0	0	0	0	0	0	820	819	819	817	816	816	814	813	812	812	811	810	810	810	809	809	809	808	808	808	807	805	805	804	801	801	800	799	798	798	798	798	798	797	797	797	797	797	798	798	0	0	0	0	0	0	0	0	0	0	0	0	0	0	0	0	0	0	0	0	0	0	0	0	0	0	0	0	0	0	0	0	0	0	0	0	0	0	0	0	0	0	0	0	0	0	0	0	0	0	0	0	0	0	0	2084	2084	2084	2084	2084	2084	2081	2081	2081	2081	2084	2084	2084	2087	2087	2087	2091	2091	2091	2091	2091	2094	2094	2091	2091	2091	2087	2087	2087	2084	2084	2081	2081	2081	2081	2081	2081	2081	2081	2081	2081	2081	2084	2084	2084	2087	2087	2087	2091	2091	2091	2091	2091	2091	2091	2091	2084	2077	2077	2074	2064	2064	2055	2051	2051	2048	2048	2048	2042	2039	2039	2039	2039	2039	2039	2039	2039	2039	2039	2039	2042	2039	2039	2042	2042	2048	2051	2051	2055	2061	2061	2071	2071	2074	2077	2077	2081	2084	2084	2084	2084	2081	2081	2081	2081	2077	2074	2074	2071	2064	2064	2061	2055	2055	2051	2048	2048	2048	2042	2042	2042	2042	2042	2042	2048	2048	2048	2051	2055	2055	2055	2061	2061	2064	2071	2071	2074	2077	2077	2081	2084	2084	2087	2091	2091	2094	2094	2094	2097	2097	2097	2097	2101	2101	2101	2101	2101	2097	2097	2097	2094	2094	2094	2094	2094	2091	2091	2091	2091	2091
955	955	955	955	955	955	955	955	955	955	955	955	955	953	953	953	952	952	952	950	950	950	948	948	948	946	946	946	945	944	942	942	942	940	940	940	938	938	936	933	928	928	925	922	921	921	920	919	919	919	919	919	919	919	920	920	920	921	921	923	926	926	929	932	932	935	935	937	938	938	939	940	940	940	940	940	940	941	941	942	942	942	942	943	943	943	944	944	945	946	946	946	946	946	948	948	948	948	950	950	950	950	950	952	953	953	953	955	955	955	957	957	957	957	957	957	957	957	957	957	957	955	955	955	953	953	953	953	953	953	952	952	952	952	953	953	953	953	953	953	953	953	953	953	953	953	953	953	953	953	953	953	953	953	953	953	953	953	953	955	955	955	955	957	957	957	957	957	957	957	957	957	957	957	957	957	957	957	957	957	957	957	957	957	957	957	957	957	957	957	958	957	957	957	957	957	957	957	957	957	957	957	955	955	955	955	955	955	955	955	955	955	955	955	955	955	955	955	955	955	953	953	953	953	953	953	953	953	955	955	955	955	955	955	955	955	955	955	955	955	955	953	953	953	950	948	946	946	944	942	942	940	939	937	937	935	932	932	930	928	928	928	928	928	930	930	931	932	932	934	934	936	937	937	938	940	940	940	941	941	942	943	943	945	948	948	950	950	953	955	955	957	958	958	959	960	960	960	961	960	960	960	960	960	960	960	960	960	960	959	959	958	957	957	957	957	957	957	957	957	957	957	957	957	957	957	957	957	957	957	957	957	957	955	955	955	955	955	955	955	955	953	953	953	952	952	950	950	950	948	946	946	946	945	944	944	944	944	944	944	944	944	943	943	943	943	943	943	943	943	944	944	944	945	945	946	948	948	950	953	953	957	957	961	962	962	962	964	964	964	964	964	964	964	964	0	0	0	0	0	0	0	0	0	0	0	0	0	0	0	0	0	823	823	823	821	821	820	819	816	816	814	813	812	812	811	810	810	810	809	809	809	809	809	808	807	806	806	804	802	802	800	800	799	799	798	798	798	797	797	797	797	797	0	0	0	0	0	0	0	0	0	0	0	0	0	0	0	0	0	0	0	0	0	0	0	0	0	0	0	0	0	0	0	0	0	0	0	0	0	0	0	0	0	0	0	0	0	0	0	0	0	0	0	0	0	0	0	0	0	0	2084	2084	2081	2081	2081	2077	2077	2081	2081	2084	2084	2084	2084	2087	2087	2087	2091	2091	2091	2091	2091	2091	2087	2087	2084	2081	2081	2081	2077	2077	2071	2064	2064	2064	2064	2064	2064	2064	2064	2064	2071	2071	2071	2074	2077	2077	2077	2081	2081	2081	2081	2081	2081	2081	2081	2074	2064	2064	2055	2051	2051	2042	2039	2039	2039	2032	2032	2032	2029	2029	2029	2029	2029	2029	2029	2029	2029	2029	2029	2032	2029	2029	2032	2032	2042	2042	2042	2051	2055	2055	2061	2061	2071	2071	2071	2077	2077	2077	2077	2077	2077	2077	2077	2074	2071	2064	2064	2061	2055	2055	2051	2048	2048	2042	2039	2039	2039	2039	2039	2032	2032	2039	2039	2039	2039	2039	2042	2042	2042	2048	2051	2051	2051	2055	2055	2061	2064	2064	2064	2071	2071	2077	2081	2081	2084	2087	2087	2091	2091	2091	2091	2091	2091	2094	2094	2094	2094	2094	2091	2091	2091	2087	2087	2087	2084	2084	2084	2084	2081
955	955	955	955	955	955	955	955	955	955	955	955	955	953	953	953	952	952	952	950	950	950	948	948	948	946	946	946	945	944	942	942	942	941	941	940	939	939	937	934	930	930	926	924	922	922	921	920	920	919	919	920	920	920	920	920	921	922	922	924	927	927	930	933	933	935	935	937	938	938	939	940	940	940	940	940	940	941	941	942	942	942	942	943	943	943	944	944	945	946	946	946	946	945	945	945	945	946	946	946	946	946	946	946	948	948	948	950	950	950	952	952	952	953	953	953	953	953	953	953	953	950	950	950	950	950	950	950	948	948	948	948	948	948	948	948	948	948	948	948	948	950	950	950	950	950	948	948	948	948	948	948	948	948	948	948	950	950	950	950	950	950	952	953	953	953	953	953	953	953	953	953	953	953	953	953	953	953	953	953	953	953	953	953	953	953	953	955	955	955	955	955	955	955	955	953	953	953	953	953	953	953	953	953	953	952	952	952	953	953	953	952	952	952	952	953	952	952	952	952	952	952	952	952	952	952	952	952	952	952	952	952	952	952	953	953	953	953	952	952	952	950	950	950	948	946	944	944	942	940	940	940	938	936	936	934	931	929	929	928	928	928	928	928	929	929	930	931	931	932	934	934	936	936	938	939	939	940	940	940	941	942	942	943	945	945	948	948	948	950	953	953	955	955	955	957	957	957	958	957	957	958	957	957	957	957	957	957	957	955	955	955	955	955	955	953	953	953	953	953	953	953	953	953	952	952	952	952	950	950	952	950	950	950	950	950	950	950	950	950	950	950	950	948	948	948	946	946	945	945	944	944	944	943	943	943	942	942	942	942	942	942	942	942	942	942	942	942	942	942	943	943	943	945	945	946	946	946	950	950	950	953	957	958	961	961	961	962	962	962	963	963	963	964	964	0	0	0	0	0	0	0	0	0	0	0	0	0	0	0	0	0	823	823	823	822	822	821	819	817	817	814	813	812	812	811	810	810	810	809	809	809	809	809	808	807	806	806	805	804	804	801	800	800	800	798	798	798	797	797	797	797	797	0	0	0	0	0	0	0	0	0	0	0	0	0	0	0	0	0	0	0	0	0	0	0	0	0	0	0	0	0	0	0	0	0	0	0	0	0	0	0	0	0	0	0	0	0	0	0	0	0	0	0	0	0	0	0	0	0	0	2084	2084	2081	2081	2081	2077	2077	2081	2081	2084	2084	2084	2084	2087	2087	2087	2091	2091	2091	2091	2091	2081	2077	2077	2074	2071	2071	2064	2061	2061	2055	2051	2051	2051	2051	2051	2051	2051	2051	2051	2051	2051	2055	2055	2061	2061	2061	2064	2064	2064	2064	2064	2064	2064	2064	2055	2051	2051	2042	2039	2039	2029	2029	2023	2023	2023	2020	2020	2020	2020	2020	2020	2020	2020	2020	2020	2023	2023	2023	2023	2023	2023	2029	2029	2032	2039	2039	2042	2048	2048	2055	2061	2061	2064	2064	2071	2074	2074	2074	2074	2071	2071	2064	2064	2061	2055	2055	2051	2048	2048	2042	2039	2039	2032	2032	2032	2029	2029	2029	2029	2029	2029	2029	2029	2029	2032	2032	2032	2039	2039	2039	2042	2042	2042	2048	2048	2051	2051	2055	2055	2055	2061	2071	2071	2074	2074	2074	2077	2081	2081	2081	2084	2084	2084	2087	2087	2084	2084	2081	2081	2081	2081	2077	2077	2077	2074	2074	2074	2074
953	953	953	953	953	953	953	953	953	953	952	952	952	950	950	950	950	948	948	948	948	948	946	946	946	945	944	944	944	942	942	942	942	940	940	940	939	939	937	934	930	930	926	924	922	922	921	920	920	919	919	920	920	920	920	920	921	922	922	924	926	926	929	932	932	935	935	936	938	938	938	939	939	940	940	940	940	940	940	941	942	942	942	942	942	942	942	942	943	944	944	944	944	944	945	945	945	946	946	946	946	946	946	946	948	948	948	950	950	950	952	952	952	953	953	953	953	953	953	953	953	950	950	950	950	950	950	950	948	948	948	948	948	948	948	948	948	948	948	948	948	950	950	950	950	950	948	948	948	948	948	948	948	948	948	948	950	950	950	950	950	950	952	953	953	953	953	953	953	953	953	953	953	953	953	953	953	953	953	953	953	953	953	953	953	953	953	955	955	955	955	955	955	955	955	953	953	953	953	953	953	953	953	953	953	952	952	952	953	953	953	952	952	952	952	953	952	952	952	952	952	952	952	952	952	952	952	952	952	952	952	952	952	952	953	953	950	950	948	948	948	948	946	945	945	944	942	942	942	940	940	939	938	936	936	934	931	929	929	928	928	928	928	928	929	929	930	931	931	932	934	934	935	935	936	938	938	939	940	940	940	941	941	942	943	943	945	946	946	948	950	950	950	953	953	953	953	955	955	955	955	955	955	955	953	953	953	953	953	953	952	952	952	950	950	950	950	950	950	950	950	950	950	948	948	948	946	946	946	946	946	946	946	946	946	946	946	946	946	946	946	946	946	946	945	944	944	944	943	943	942	942	942	942	942	942	942	942	942	942	942	942	942	942	942	942	942	942	942	942	942	942	943	944	944	944	946	946	948	950	950	953	957	957	958	958	960	961	961	962	962	962	962	962	962	961	961	961	0	0	0	0	0	0	0	0	0	0	0	0	0	0	823	823	823	822	822	821	819	817	817	814	813	812	812	811	810	810	810	809	809	809	809	809	808	807	806	806	805	804	804	801	800	800	800	798	798	798	797	797	797	796	796	0	0	0	0	0	0	0	0	0	0	0	0	0	0	0	0	0	0	0	0	0	0	0	0	0	0	0	0	0	0	0	0	0	0	0	0	0	0	0	0	0	0	0	0	0	0	0	0	0	0	0	0	0	0	0	0	0	0	2084	2084	2081	2081	2081	2077	2077	2077	2077	2081	2081	2081	2084	2084	2084	2084	2084	2087	2087	2084	2084	2081	2077	2077	2074	2071	2071	2064	2061	2061	2055	2051	2051	2051	2051	2051	2051	2051	2051	2051	2051	2051	2055	2055	2061	2061	2061	2064	2064	2064	2064	2064	2064	2064	2064	2055	2051	2051	2042	2039	2039	2029	2029	2023	2023	2023	2020	2020	2020	2020	2020	2020	2020	2020	2020	2020	2023	2023	2023	2023	2023	2023	2029	2029	2032	2039	2039	2042	2048	2048	2055	2061	2061	2064	2064	2071	2074	2074	2074	2074	2071	2071	2064	2064	2061	2055	2055	2051	2048	2048	2042	2039	2039	2032	2032	2032	2029	2029	2029	2029	2029	2029	2029	2029	2029	2032	2032	2032	2039	2039	2039	2042	2042	2042	2048	2048	2051	2051	2055	2055	2055	2061	2071	2071	2074	2074	2074	2077	2081	2081	2081	2084	2084	2084	2087	2087	2084	2084	2081	2081	2081	2081	2077	2077	2077	2074	2064	2064	2064
950	950	950	950	950	950	950	950	950	950	950	950	950	948	948	948	946	946	946	946	945	945	945	944	944	944	943	943	942	942	942	942	940	940	940	939	938	938	936	934	930	930	927	924	923	923	921	920	920	920	920	920	920	920	920	920	921	922	922	924	926	926	929	931	931	934	934	936	937	937	938	938	938	939	940	940	940	940	940	940	940	940	941	942	942	942	942	942	942	942	942	942	943	943	943	943	944	943	943	943	943	944	944	944	944	944	944	945	946	946	946	946	946	948	948	948	948	948	948	948	948	948	946	946	946	946	946	946	946	946	945	945	945	945	945	946	946	946	946	946	946	946	946	946	946	946	946	946	946	945	945	945	945	945	945	945	945	945	945	946	946	946	946	948	948	948	948	948	948	950	950	950	950	950	950	950	950	950	950	950	950	950	950	950	950	950	950	950	950	950	952	952	950	950	950	950	950	950	950	950	950	948	948	948	948	948	948	948	948	948	948	948	948	948	948	948	948	948	948	948	948	948	950	950	950	950	950	950	950	950	950	950	950	950	950	950	950	950	948	948	948	948	946	945	945	944	942	942	942	940	940	939	938	936	936	934	932	932	930	929	928	928	928	928	929	929	930	931	931	932	934	934	935	935	936	938	938	939	940	940	940	941	941	942	943	943	945	946	946	948	950	950	950	953	953	953	953	955	955	955	955	955	955	955	953	953	953	953	953	953	952	952	952	950	950	950	950	950	950	950	950	950	950	948	948	948	946	946	946	946	946	946	946	946	946	946	946	946	946	946	946	946	946	946	945	944	944	944	943	943	942	942	942	942	942	942	942	942	942	942	942	942	942	942	942	942	942	942	942	942	942	942	943	944	944	944	946	946	948	950	950	953	955	955	957	957	957	959	959	960	960	960	960	960	960	959	959	959	0	0	0	0	0	0	0	0	0	0	0	0	0	0	825	825	823	822	822	821	820	817	817	816	814	812	812	811	810	810	810	809	809	809	809	809	808	808	808	807	805	804	804	802	801	801	800	798	798	798	797	797	797	796	796	0	0	0	0	0	0	0	0	0	0	0	0	0	0	0	0	0	0	0	0	0	0	0	0	0	0	0	0	0	0	0	0	0	0	0	0	0	0	0	0	0	0	0	0	0	0	0	0	0	0	0	0	0	0	0	0	0	0	0	0	2081	2077	2077	2077	2077	2077	2077	2077	2077	2081	2077	2077	2081	2081	2081	2081	2081	2077	2077	2071	2064	2064	2061	2055	2055	2051	2048	2042	2042	2032	2032	2032	2032	2039	2039	2039	2039	2039	2039	2039	2039	2039	2042	2048	2048	2048	2051	2051	2051	2051	2048	2048	2048	2042	2042	2042	2032	2029	2023	2023	2023	2020	2020	2017	2017	2017	2014	2014	2014	2014	2014	2017	2017	2017	2017	2017	2017	2017	2017	2020	2020	2020	2023	2029	2029	2032	2042	2042	2048	2051	2051	2061	2061	2064	2064	2064	2071	2071	2071	2064	2061	2061	2061	2051	2051	2048	2042	2042	2039	2032	2032	2029	2023	2023	2023	2020	2020	2020	2020	2020	2020	2020	2023	2023	2023	2023	2029	2029	2029	2029	2029	2032	2032	2032	2039	2039	2039	2042	2048	2048	2051	2055	2055	2061	2061	2064	2071	2071	2071	2074	2074	2074	2077	2077	2077	2077	2074	2074	2074	2071	2071	2064	2064	2064	2064	2064	2064
950	950	950	950	950	950	950	950	950	950	950	950	950	948	948	948	946	946	946	946	945	945	945	944	944	944	943	943	942	942	942	942	940	940	940	939	938	938	936	934	931	931	929	926	924	924	922	921	921	920	920	920	920	920	921	921	922	922	922	924	926	926	929	931	931	934	934	936	937	937	938	938	938	939	940	940	940	940	940	940	940	940	940	940	940	940	941	941	941	942	942	942	942	942	942	942	942	942	942	942	942	942	942	942	942	942	942	942	942	942	943	944	944	944	944	944	944	945	945	945	945	944	944	944	944	944	944	944	944	943	943	943	943	943	943	943	944	944	944	944	944	944	944	944	944	944	943	943	943	942	942	942	942	942	942	942	942	942	943	943	943	944	944	944	944	944	944	945	945	945	945	945	946	946	946	946	946	946	946	946	946	946	946	946	948	948	948	948	948	948	948	948	948	946	946	946	946	946	946	946	945	945	945	944	944	944	944	945	945	945	945	945	945	945	945	946	946	946	946	946	946	946	946	946	946	948	948	948	948	948	948	948	948	948	948	948	946	946	946	946	945	945	944	944	944	943	942	942	941	940	940	939	938	936	936	934	932	932	930	929	928	928	928	928	929	929	930	930	930	931	932	932	934	934	935	936	936	938	939	939	940	940	940	941	942	942	943	944	944	945	946	946	948	948	948	950	950	950	950	950	950	950	950	950	950	950	950	950	950	950	948	948	948	948	948	948	948	946	946	946	946	946	946	944	944	944	944	944	944	944	944	944	943	943	943	943	943	943	943	943	943	944	943	943	943	942	942	942	942	942	942	941	941	940	940	940	940	940	940	940	940	940	940	940	941	941	942	942	942	942	942	942	942	943	943	944	945	945	948	948	948	950	955	955	957	957	957	959	959	960	960	960	960	960	960	959	959	959	0	0	0	0	0	0	0	0	0	0	0	0	0	0	825	825	824	823	823	822	821	819	819	817	814	814	813	811	811	811	810	810	810	809	809	809	809	808	808	808	806	806	806	804	801	801	800	799	798	798	797	797	797	797	0	0	0	0	0	0	0	0	0	0	0	0	0	0	0	0	0	0	0	0	0	0	0	0	0	0	0	0	0	0	0	0	0	0	0	0	0	0	0	0	0	0	0	0	0	0	0	0	0	0	0	0	0	0	0	0	0	0	0	0	0	2081	2077	2077	2077	2077	2077	2077	2077	2077	2077	2074	2074	2074	2074	2074	2074	2074	2064	2064	2061	2051	2051	2048	2042	2039	2039	2032	2023	2023	2020	2020	2020	2020	2020	2020	2020	2020	2023	2023	2023	2023	2023	2029	2029	2029	2032	2032	2032	2039	2039	2032	2032	2032	2029	2023	2020	2020	2017	2017	2017	2014	2010	2010	2010	2007	2007	2007	2007	2007	2007	2010	2010	2010	2010	2010	2010	2010	2014	2014	2014	2017	2017	2020	2023	2023	2029	2032	2032	2042	2048	2048	2051	2055	2055	2061	2061	2061	2061	2061	2061	2055	2055	2051	2048	2048	2042	2039	2039	2032	2029	2029	2023	2020	2017	2017	2017	2017	2017	2017	2017	2017	2017	2017	2017	2017	2020	2020	2020	2020	2020	2020	2023	2023	2023	2023	2029	2029	2032	2039	2039	2042	2048	2048	2051	2055	2055	2055	2061	2061	2061	2061	2064	2064	2064	2064	2064	2064	2061	2061	2061	2061	2055	2055	2055	2055	2055	2055
946	946	946	946	946	948	948	948	948	948	948	946	946	946	946	946	945	944	944	944	944	944	943	942	942	942	942	942	942	941	940	940	940	939	939	939	938	938	936	934	931	931	929	926	924	924	922	921	921	920	920	920	920	920	921	921	922	922	922	924	926	926	928	930	930	932	934	934	936	936	936	938	938	938	939	939	939	940	940	940	940	940	940	940	940	940	941	941	941	942	942	942	942	942	942	942	942	942	942	942	942	942	942	942	942	942	942	942	942	942	943	944	944	944	944	944	944	945	945	945	945	944	944	944	944	944	944	944	944	943	943	943	943	943	943	943	944	944	944	944	944	944	944	944	944	944	943	943	943	942	942	942	942	942	942	942	942	942	943	943	943	944	944	944	944	944	944	945	945	945	945	945	946	946	946	946	946	946	946	946	946	946	946	946	948	948	948	948	948	948	948	948	948	946	946	946	946	946	946	946	945	945	945	944	944	944	944	945	945	945	945	945	945	945	945	946	946	946	946	946	946	946	946	946	946	948	944	944	944	944	945	945	945	945	945	945	945	944	944	944	944	944	943	942	942	942	942	942	941	940	940	939	938	937	937	935	933	933	932	931	931	930	929	929	929	929	930	930	930	931	932	932	934	934	935	936	936	937	938	938	939	940	940	940	940	940	942	942	942	942	944	944	944	945	945	946	946	946	946	946	946	948	948	948	946	946	946	946	946	946	946	946	946	946	946	946	945	945	945	944	944	944	943	943	943	942	942	942	942	942	942	942	942	942	942	942	942	942	942	942	942	942	942	942	942	942	942	941	940	940	940	940	940	940	939	939	939	939	939	939	939	940	940	940	940	940	941	941	941	942	942	942	942	943	943	944	944	944	946	946	946	948	950	950	953	955	955	957	957	957	957	957	957	957	957	955	955	955	955	0	0	0	0	0	0	0	0	0	0	0	0	0	825	825	824	823	823	822	821	819	819	817	814	814	813	811	811	811	810	810	810	809	809	809	809	808	808	808	806	806	806	804	801	801	800	799	798	798	797	797	797	797	0	0	0	0	0	0	0	0	0	0	0	0	0	0	0	0	0	0	0	0	0	0	0	0	0	0	0	0	0	0	0	0	0	0	0	0	0	0	0	0	0	0	0	0	0	0	0	0	0	0	0	0	0	0	0	0	0	0	0	0	0	2081	2077	2077	2077	2077	2074	2074	2074	2074	2077	2074	2074	2074	2074	2074	2074	2074	2064	2064	2061	2051	2051	2048	2042	2039	2039	2032	2023	2023	2020	2020	2020	2020	2020	2020	2020	2020	2023	2023	2023	2023	2023	2029	2029	2029	2032	2032	2032	2039	2039	2032	2032	2032	2029	2023	2020	2020	2017	2017	2017	2014	2010	2010	2010	2007	2007	2007	2007	2007	2007	2010	2010	2010	2010	2010	2010	2010	2014	2014	2014	2017	2017	2020	2023	2023	2029	2032	2032	2042	2048	2048	2051	2055	2055	2061	2061	2061	2061	2061	2061	2055	2055	2051	2048	2048	2042	2039	2039	2032	2029	2029	2023	2020	2017	2017	2017	2017	2017	2017	2017	2017	2017	2017	2017	2017	2020	2020	2020	2020	2020	2020	2023	2023	2023	2023	2029	2029	2032	2039	2039	2042	2048	2048	2051	2055	2055	2055	2061	2061	2061	2061	2064	2064	2064	2064	2051	2051	2051	2051	2051	2051	2048	2048	2048	2048	2048	2048
944	944	944	944	944	945	945	945	945	945	945	945	945	944	944	944	943	942	942	942	942	942	942	942	942	941	940	940	940	940	939	939	939	938	938	937	936	936	936	933	930	930	928	926	924	924	923	922	922	921	921	921	921	921	921	921	922	923	923	924	925	925	927	929	929	931	933	933	934	934	936	936	936	938	938	938	939	939	939	939	940	940	940	940	940	940	940	940	940	940	940	940	940	940	940	940	940	940	940	940	940	940	940	940	940	940	940	940	940	940	942	942	942	942	942	942	942	942	942	942	942	942	942	942	942	942	942	942	942	942	942	942	942	942	942	942	942	942	942	942	942	942	942	942	942	942	942	942	942	942	941	941	941	941	941	941	941	941	941	941	942	942	942	942	942	942	942	942	942	942	942	942	943	943	943	943	943	943	944	944	944	944	944	944	944	945	945	945	945	945	945	945	944	944	944	944	944	943	943	943	942	942	942	942	942	942	942	942	942	942	942	942	942	942	942	942	943	943	944	944	944	944	944	944	944	944	944	944	944	944	945	945	945	945	945	945	945	944	944	944	944	944	943	942	942	942	942	942	941	940	940	940	939	938	938	936	935	935	934	933	933	932	931	931	931	931	931	931	931	932	933	933	934	934	935	936	936	937	938	938	939	940	940	940	940	940	942	942	942	942	944	944	944	945	945	946	946	946	946	946	946	948	948	948	946	946	946	946	946	946	946	946	946	946	946	946	945	945	945	944	944	944	943	943	943	942	942	942	942	942	942	942	942	942	942	942	942	942	942	942	942	942	942	942	942	942	942	941	940	940	940	940	940	940	939	939	939	939	939	939	939	940	940	940	940	940	941	941	941	942	942	942	942	942	942	942	944	944	944	945	945	946	948	948	950	952	952	953	953	953	953	953	953	953	953	953	952	952	952	0	0	0	0	940	940	940	0	0	0	0	0	0	825	825	825	824	824	823	822	822	821	819	815	815	813	812	811	811	810	810	810	809	809	809	809	809	809	808	807	806	806	804	803	803	801	800	799	799	797	797	0	0	0	0	0	0	0	0	0	0	715	715	715	0	0	0	737	737	737	737	0	738	738	738	738	0	0	0	0	0	0	0	0	0	0	0	0	0	0	0	0	0	0	0	0	0	0	0	0	0	0	0	0	0	0	0	0	0	0	0	0	0	0	2081	2077	2077	2074	2074	2074	2074	2074	2071	2071	2071	2064	2064	2064	2061	2061	2061	2051	2051	2042	2032	2029	2029	2029	2023	2023	2017	2014	2014	2010	2010	2010	2010	2010	2010	2010	2010	2014	2014	2014	2014	2014	2014	2017	2017	2017	2017	2017	2017	2020	2020	2020	2020	2017	2014	2010	2010	2010	2007	2007	2007	2004	2004	2004	2004	2004	2004	2004	2004	2004	2004	2004	2004	2004	2004	2004	2007	2007	2007	2010	2014	2014	2014	2017	2017	2020	2029	2029	2032	2042	2042	2048	2051	2051	2051	2055	2055	2055	2055	2055	2051	2051	2048	2042	2042	2039	2032	2032	2023	2020	2017	2017	2014	2010	2010	2010	2010	2010	2010	2007	2007	2007	2010	2010	2010	2010	2010	2010	2010	2014	2014	2014	2014	2014	2017	2020	2020	2020	2023	2023	2029	2032	2032	2039	2042	2042	2042	2048	2048	2048	2051	2051	2051	2051	2051	2051	2051	2051	2051	2051	2051	2048	2048	2048	2048	2048	2048
944	944	944	944	944	945	945	945	945	945	945	945	945	944	944	944	943	942	942	942	942	942	942	942	942	941	940	940	940	940	939	939	939	938	938	937	936	936	936	933	930	930	928	926	924	924	924	922	922	922	921	921	921	921	921	921	922	923	923	924	925	925	927	929	929	931	933	933	934	934	934	935	935	936	937	937	938	938	938	938	939	939	939	939	939	939	939	939	939	939	940	940	940	940	940	940	940	940	939	939	939	939	939	939	939	939	939	939	940	940	940	940	940	940	940	940	940	940	940	941	941	941	941	941	941	941	942	942	941	941	941	941	940	940	940	940	941	940	940	940	940	940	940	940	940	940	940	940	940	940	940	940	940	939	939	939	939	939	940	940	940	940	940	940	940	940	940	940	940	941	941	941	941	942	942	942	942	942	942	942	942	942	942	942	942	942	942	942	942	942	942	942	942	942	942	942	942	942	942	942	941	941	940	940	940	940	940	940	940	940	940	940	941	941	941	941	942	942	942	942	942	942	942	942	942	942	942	942	942	942	942	942	942	942	942	942	942	942	942	942	942	942	942	942	942	942	942	942	940	940	940	940	939	938	938	936	935	935	934	933	933	932	931	931	931	931	931	931	931	932	933	933	934	934	935	936	936	936	938	938	938	939	939	940	940	940	940	942	942	942	942	942	942	942	942	943	944	944	944	944	944	945	945	945	945	945	944	944	944	944	944	944	944	944	944	944	944	943	943	942	942	942	942	942	942	941	940	940	940	940	940	940	940	940	940	940	940	940	940	940	940	940	940	940	940	940	940	940	939	939	939	938	938	938	937	937	937	937	938	938	938	939	939	939	940	940	940	940	940	942	942	942	942	942	942	942	944	944	944	945	945	946	948	948	950	952	952	953	953	953	953	953	953	953	953	953	952	952	952	0	0	0	0	940	940	940	0	0	0	0	0	0	825	825	825	824	824	824	823	823	821	820	817	817	815	813	812	812	811	810	810	810	810	810	809	809	809	809	808	806	806	805	804	804	801	801	0	0	0	0	0	0	0	0	0	0	0	0	0	0	715	715	715	0	0	0	737	737	737	737	0	738	738	738	738	0	0	0	0	0	0	0	0	0	0	0	0	0	0	0	0	0	0	0	0	0	0	0	0	0	0	0	0	0	0	0	0	0	0	0	0	0	0	0	0	0	2074	2074	2077	2077	2071	2064	2064	2061	2055	2055	2055	2051	2051	2048	2039	2023	2023	2020	2017	2017	2014	2010	2010	2007	2007	2007	2004	2004	2004	2004	2004	2004	2004	2004	2007	2007	2007	2007	2007	2007	2010	2010	2010	2010	2010	2010	2010	2010	2010	2007	2007	2007	2007	2007	2004	2004	2004	2004	2004	2004	2001	2001	2001	2001	2001	2001	2001	2001	2001	2001	2001	2004	2004	2004	2004	2004	2004	2007	2007	2010	2014	2014	2017	2020	2020	2029	2032	2032	2039	2042	2042	2048	2048	2048	2051	2051	2048	2048	2048	2042	2039	2039	2032	2023	2023	2020	2017	2014	2014	2010	2007	2007	2007	2007	2007	2007	2004	2004	2004	2004	2004	2004	2007	2007	2007	2007	2007	2004	2004	2007	2007	2007	2010	2010	2010	2014	2014	2017	2020	2020	2023	2029	2029	2029	2032	2032	2039	2039	2039	2039	2039	2039	2042	2042	2042	2042	2042	2042	2042	2042	2039	2039	2039	2039
942	942	942	942	942	942	943	943	944	944	944	944	944	943	943	943	942	942	942	942	941	941	940	940	940	940	939	939	939	938	938	938	937	936	936	935	934	932	932	931	929	929	928	926	924	924	924	922	922	922	921	921	921	921	921	921	922	923	923	923	924	924	926	928	928	930	931	931	933	934	934	935	935	936	937	937	938	938	938	938	939	939	939	939	939	939	939	939	939	939	940	940	940	940	940	940	940	940	939	939	939	939	939	939	939	939	939	939	940	940	940	940	940	940	940	940	940	940	940	941	941	941	941	941	941	941	942	942	941	941	941	941	940	940	940	940	941	940	940	940	940	940	940	940	940	940	940	940	940	940	940	940	940	939	939	939	939	939	940	940	940	940	940	940	940	940	940	940	940	941	941	941	941	942	942	942	942	942	942	942	942	942	942	942	942	942	942	942	942	942	942	942	942	942	942	942	942	942	942	942	941	941	940	940	940	940	940	940	940	940	940	940	941	941	940	940	940	940	940	940	940	940	940	940	940	940	941	941	941	941	941	942	942	942	942	942	942	942	942	942	941	941	941	941	941	941	940	940	940	940	940	940	939	939	939	938	936	936	936	934	934	934	933	933	932	932	932	932	932	932	933	933	933	934	934	935	935	936	937	937	938	938	938	939	940	940	940	940	940	940	941	941	941	942	942	942	942	942	942	942	942	942	942	942	942	942	942	942	942	942	942	942	942	942	942	942	942	942	942	942	941	941	940	940	940	940	940	940	939	939	939	939	939	939	939	939	939	939	939	939	939	939	939	939	939	939	939	938	938	938	937	936	936	936	935	935	935	935	936	936	936	937	937	938	939	939	940	940	940	940	941	941	942	942	942	942	942	942	942	944	944	944	946	946	948	948	948	950	950	950	950	950	950	950	950	950	950	950	948	945	945	0	942	940	940	940	940	0	0	0	0	0	825	825	825	824	824	824	823	823	821	820	817	817	815	813	812	812	811	810	810	810	810	810	809	809	809	809	808	806	806	805	804	804	801	801	0	694	693	693	693	692	692	692	692	695	695	697	0	0	715	715	715	723	723	0	736	736	736	737	738	738	738	738	738	739	739	739	739	739	739	740	740	740	0	0	0	0	0	0	0	0	0	0	0	0	0	0	0	0	0	0	0	0	0	0	0	0	0	0	0	0	0	0	0	0	0	0	0	0	2071	2064	2064	2061	2055	2055	2055	2051	2051	2048	2039	2023	2023	2020	2017	2017	2014	2010	2010	2007	2007	2007	2004	2004	2004	2004	2004	2004	2004	2004	2007	2007	2007	2007	2007	2007	2010	2010	2010	2010	2010	2010	2010	2010	2010	2007	2007	2007	2007	2007	2004	2004	2004	2004	2004	2004	2001	2001	2001	2001	2001	2001	2001	2001	2001	2001	2001	2004	2004	2004	2004	2004	2004	2007	2007	2010	2014	2014	2017	2020	2020	2029	2032	2032	2039	2042	2042	2048	2048	2048	2051	2051	2048	2048	2048	2042	2039	2039	2032	2023	2023	2020	2017	2014	2014	2010	2007	2007	2007	2007	2007	2007	2004	2004	2004	2004	2004	2004	2007	2007	2007	2007	2007	2004	2004	2007	2007	2007	2010	2010	2010	2014	2014	2017	2020	2020	2023	2029	2029	2020	2020	2020	2020	2023	2023	2023	2029	2029	2029	2029	2029	2029	2029	2029	2029	2029	2029	2029	2029	2029
940	940	941	941	941	942	942	942	942	942	942	942	942	942	942	942	941	940	940	940	940	940	939	939	938	938	938	937	937	936	936	936	934	933	932	932	931	930	930	929	928	928	927	925	924	924	924	922	922	922	922	922	921	921	922	922	922	923	923	923	924	924	925	926	926	928	929	929	931	932	932	933	935	935	936	936	936	936	937	937	937	938	938	938	938	938	938	938	938	938	938	938	938	938	938	938	938	938	938	938	938	937	937	937	938	938	938	938	938	938	938	939	939	939	939	939	939	940	940	940	940	940	940	940	940	940	940	940	940	940	940	940	940	940	940	940	940	940	940	940	940	940	940	939	939	939	939	939	938	938	938	938	938	938	938	938	938	938	938	938	938	938	938	938	939	939	939	939	939	940	940	940	940	940	940	940	940	940	940	940	940	940	941	941	941	941	941	941	941	941	941	940	940	940	940	940	940	940	940	940	940	940	939	939	939	939	939	939	939	939	939	939	939	940	940	940	940	940	940	940	940	940	940	940	940	940	941	941	941	941	941	942	942	942	942	942	942	942	942	942	941	941	941	941	941	941	940	940	940	940	940	940	940	940	939	938	938	938	936	936	936	935	934	934	933	933	933	932	932	932	933	933	933	934	934	935	935	936	937	937	938	938	938	939	940	940	940	940	940	940	941	941	941	942	942	942	942	942	942	942	942	942	942	942	942	942	942	942	942	942	942	942	942	942	942	942	942	942	942	942	941	941	940	940	940	940	940	940	939	939	939	939	939	939	939	939	939	939	939	939	939	939	939	939	939	939	939	938	938	938	937	936	936	936	935	935	935	935	936	936	936	936	936	936	938	938	939	940	940	940	940	940	940	941	941	942	942	942	942	942	942	942	943	943	944	946	946	946	946	946	946	946	946	946	946	946	945	944	944	944	943	943	942	941	941	940	940	940	940	0	0	0	826	826	826	825	825	825	824	824	823	821	819	819	817	815	815	813	812	811	811	811	810	810	810	809	809	809	808	808	807	806	806	0	0	695	695	694	693	693	692	691	691	692	692	695	695	695	0	0	0	0	723	723	723	725	734	734	734	737	738	738	738	738	738	739	739	739	739	739	739	740	740	740	740	740	740	0	0	0	0	0	0	0	0	0	0	0	0	0	0	0	0	0	0	0	0	0	0	0	0	0	0	0	0	0	0	0	0	0	2071	2061	2061	2061	2055	2055	2039	2039	2039	2029	2020	2017	2017	2010	2007	2007	2007	2004	2004	2004	2004	2004	2001	2001	2001	2001	2001	2001	2001	2001	2004	2004	2004	2004	2004	2004	2004	2004	2004	2004	2004	2004	2004	2004	2004	2004	2004	2004	2004	2004	2001	2001	2001	2001	2001	2001	2001	2001	2001	1998	1998	1998	1998	1998	1998	1998	2001	2001	2001	2001	2001	2001	2001	2004	2004	2004	2007	2007	2010	2017	2017	2020	2029	2029	2032	2039	2039	2042	2042	2042	2042	2042	2042	2042	2042	2032	2032	2032	2023	2020	2017	2017	2014	2010	2010	2007	2004	2004	2004	2004	2004	2004	2004	2004	2004	2004	2004	2004	2004	2004	2004	2004	2004	2001	2001	2001	2001	2004	2004	2004	2004	2004	2004	2007	2010	2010	2014	2017	2017	2017	2020	2020	2020	2023	2023	2023	2029	2029	2029	2029	2029	2029	2029	2029	2029	2029	2029	2029	2029	2029
940	940	941	941	941	942	942	942	942	942	942	942	942	942	942	942	941	940	940	940	940	940	939	939	938	938	938	937	937	936	936	936	934	933	932	932	931	930	930	929	928	928	927	925	924	924	924	923	923	922	922	922	922	922	922	922	922	923	922	922	924	924	924	925	925	927	928	928	929	930	930	931	933	933	934	934	934	935	936	936	936	936	936	936	936	936	936	936	936	936	936	936	936	936	936	936	936	936	936	936	936	936	936	936	935	935	936	936	936	936	936	936	937	937	937	938	938	938	938	938	939	939	939	939	939	939	940	940	940	940	940	939	939	939	939	939	939	939	938	938	938	938	938	938	937	937	937	936	936	936	936	936	936	936	936	936	936	936	936	936	936	937	937	937	937	937	937	938	938	938	938	938	938	939	938	938	938	938	939	939	939	939	940	940	940	940	940	940	940	940	940	939	939	939	938	938	938	938	938	938	937	937	937	936	936	936	936	936	936	936	936	937	937	937	938	938	938	938	938	939	939	939	939	939	939	939	940	940	940	940	940	940	940	940	940	940	940	940	940	940	940	940	940	940	940	940	940	940	940	940	940	940	940	940	939	938	938	938	936	936	936	935	934	934	933	933	933	932	932	932	933	933	933	934	934	934	935	935	936	936	937	938	938	938	938	938	939	940	940	940	940	940	940	940	940	940	940	940	940	940	941	941	941	941	941	941	942	942	942	942	942	942	942	942	942	942	941	940	940	940	940	940	940	939	939	939	938	937	937	937	937	937	937	937	937	937	938	938	937	937	938	938	938	938	937	937	937	936	935	935	935	933	933	933	932	932	932	932	933	934	934	936	936	936	938	938	939	940	940	940	940	940	940	941	941	942	942	942	942	942	942	942	943	943	944	946	946	946	946	946	946	946	946	946	946	946	945	944	944	944	943	943	942	941	941	940	940	940	940	0	0	0	0	0	826	826	826	826	825	825	825	823	823	821	820	817	817	815	814	814	813	811	811	811	810	810	810	809	809	809	809	0	0	0	0	695	695	694	694	694	692	691	691	692	692	0	695	695	0	0	0	0	0	0	725	725	734	734	734	737	738	738	738	738	738	739	739	739	739	739	739	740	740	740	740	740	740	0	0	0	0	0	0	0	0	0	0	0	0	0	0	0	0	0	0	0	0	0	0	0	0	0	0	0	0	0	0	0	0	0	0	2061	2061	2061	2017	2017	2017	2014	2010	2010	2004	2004	2004	2004	2001	2001	2001	2001	2001	2001	2001	2001	2001	2001	2001	2001	2001	2001	2001	2001	2001	2001	2001	2001	2001	2001	2004	2004	2004	2004	2004	2004	2004	2004	2004	2004	2004	2001	2001	2001	2001	2001	2001	2001	2001	2001	1998	1998	1998	1995	1995	1995	1995	1995	1995	1995	1995	1995	1995	1998	1998	1998	2001	2001	2001	2004	2004	2004	2010	2014	2014	2017	2020	2020	2029	2032	2032	2032	2039	2039	2039	2039	2039	2032	2032	2029	2023	2023	2020	2017	2014	2014	2010	2007	2007	2004	2001	2001	2001	2001	2001	2001	2001	2001	2001	2001	2001	2001	2001	2001	2001	2001	2001	2001	1998	1998	1998	1998	2001	2001	2001	2001	2001	2004	2004	2004	2004	2007	2007	2007	2010	2010	2010	2014	2014	2017	2017	2017	2017	2017	2017	2020	2020	2020	2020	2020	2020	2020	2020	2020
