2192	2196	2196	2181	2172	2158	2158	2148	2121	2121	2112	2085	2072	2064	2051	2039	2034	2034	2034	2034	2034	2034	2034	2034	691	0	0	0	0	0	0	0	0	0	0	0	0	0	0	0	0	0	0	0	0	0	0	0	0	0	4596	4555	4512	4512	4437	4354	4354	4320	4279	4210	4176	4136	4073	4014	3939	3884	3831	3760	3662	3650	3650	482	0	0	0	0	0	0	0	0	0	823	2727	2727	2719	2698	2676	2669	2669	2669	2662	2640	2640	2634	2612	2593	2579	2558	2558	2553	2532	2532	2524	2482	2482	2478	2457	2426	2409	2409	2381	2361	2341	2328	2317	2298	2286	2274	2236	2213	2194	2158	2148	2138	2121	2111	2103	2085	2076	2068	2068	2068	2068	2068	2068	2068	2068	2076	2085	2069	2061	2051	2051	2044	2034	2020	2005	1985	1972	1953	1924	1911	1904	1894	1882	1880	1880	1868	1866	1866	1855	1852	1852	1852	1852	1852	1852	1859	1880	1880	1877	1866	1866	1866	1866	1866	1872	1894	1904	1912	1924	1924	1921	1909	1909	1621	0	0	256	1939	1930	1924	1924	1924	1925	1939	1957	1970	1970	855	0	0	0	81	2158	2158	2117	0	0	0	0	0	0	0	0	0	0	0	0	0	0	0	0	0	0	0	863	2177	2160	2151	2139	2123	2121	2121	2106	2103	2103	2088	2085	2085	2085	2090	2103	436	600	2121	2121	2126	2139	525	0	0	0	0	0	0	0	0	0	0	0	0	0	0	0	0	0	0	0	0	0	0	0	0	230	2433	2419	2409	2409	2409	2409	2409	2422	2434	2457	2457	2457	2482	2507	2532	2558	2571	2585	2639	2654	2669	2697	2711	2727	2755	2770	2788	2818	2834	2853	2883	2899	2920	2950	2968	2990	3021	3040	3064	3096	3115	3141	3141	3167	3223	3190	3182	3182	3182	3170	3141	3111	3082	3026	2946	2904	2853	2805	2781	2757	2757	2763	2788	2788	2788	2788	2788	2793	2820	2820	2825	2853	2874	2890	2920	2920	2920	2920	2941	2954	2954	2954	2957	2990	2990	2990	2990	3010	3026	3026	3026	3026	3026	3045	3064	3064	3083	3102	3180	3201	3223	3263	3285	3309	3309	3329	3354	3354	3354	3354	3313	3275	3223	3150	3126	3102	3069	3037	2990	2931	2908	2886	2859	2853	2853	2826	2820	2820	2820	2820	2820	2820	2829	2853	2904	2937	2990	3044	3091	3182	3242	3274	3309	3309	3309	3309	3279	3265	3265	3237	3217	3182	3182	3177	3141	3117	3102	3102	3102	3095	3026	3026	3021	2954	2935	2918	2886	2886	2885	2853	2853	2853	2853	2870	2886	2886	2903	2920	2953	2988	3026	3063	3081	3102	3139	3159	3182	3220	3259	3309	3350	3372	3400	3442	3465	3495	3584	3597	3597	3642	3668	3704	3750	3779	3818	3916	3958	4003	4055	4107	4206	4262	4319	4432	4492	4533	4596	4596	4616	4683	4683	4665	4596	4537	4497	4432	4379	4341	4279	4231	4206	4206	4161	4127	4068	4068	4068	4068	4029	3997	3939	3903	3869	3760	3728	3701	3650	3621	3597	3597	3570	3545	3545	3520	3495	3495	3495	3495	3544	3545	3545	3497	3495	3495	3495	3517	3545	3545	3545	3545	3545	3545	3545	3545	3545	3545	3545	3545	3545	3589	3597	3597	3641	3633	3597	3555	3530	3495	3457	3421	3354	3253	3191	3102	3045	3008	2954	2929	2912	2886	2862	2846	2820	2820	2814	2788	2788	2788	2788	2788	2788	2788	2788	2792	2820	2861	2890	2920	2962	2997	3064	3086	3108	3182	3182	3182	3182	3160	3140	3102	3102	3101	3064	3064	3064	3026	3026	3026	3026	3044	3064	3064	3081	3102	3139	3177	3223	3262	3283	3309	3350	3391	3447	3534	3565	3597	3690	3704	3704	3852	3899	3939	4103	4182	4279	4468	4537	4596	4736	4799	4866	4941	4990	5065	5144	5170	5170	5170	5170	5170	5095	5065	5065	5065	5065	5065	5065	5065	5065	5065	5081	5170	5241	5295	5395	5470	5515	5515	5590	5640	5640	5717
2189	2190	2177	2177	2172	2158	2143	2134	2121	2094	2081	2068	2055	2047	2034	2023	2018	2018	2018	2018	2018	2006	2001	2001	2001	1699	0	0	0	0	0	0	0	0	0	0	0	0	0	0	0	0	0	0	0	0	0	0	0	0	4596	4555	4512	4357	4354	4354	4282	4246	4206	4140	4106	4068	4008	3976	3939	3829	3773	3704	3609	3540	3447	3327	3235	3102	2947	2886	2820	2768	2747	2727	2727	2718	2698	2698	2698	2698	2676	2669	2669	2669	2662	2640	2619	2612	2612	2593	2579	2558	2558	2553	2532	2532	2524	2482	2482	2475	2433	2418	2403	2364	2336	2314	2277	2252	2234	2216	2204	2193	2158	2137	2119	2085	2076	2067	2051	2051	2051	2034	2026	2018	2018	2026	2034	2034	2034	2034	2050	2043	2034	2019	2011	2001	1972	1963	1954	1927	1918	1909	1883	1869	1852	1840	1833	1825	1813	1807	1798	1798	1794	1785	1785	1785	1785	1785	1782	1773	1773	1773	1773	1763	1754	1735	1726	1723	1723	1723	1725	1735	1752	1765	1785	1794	1803	1825	1834	1851	1924	1954	1968	1954	1935	1924	1924	1933	1940	1954	1963	1970	1970	1988	2002	2018	2027	2035	2051	2051	2051	2051	2051	2051	2068	2068	2068	2120	2156	2196	2178	2152	2121	2104	2088	2068	2052	2051	2051	2051	2044	2034	2020	2012	2001	2001	2001	2001	1987	1985	1985	1973	1960	1939	1927	1915	1894	1894	1894	1894	1906	1909	1909	1909	1909	1909	504	0	0	0	0	0	0	0	0	0	0	0	0	0	0	0	0	0	0	0	0	0	225	2386	2386	2388	2409	2409	2409	2409	2422	2433	2433	2446	2457	2457	2470	2482	2532	2545	2558	2584	2611	2640	2668	2682	2698	2725	2740	2757	2786	2815	2853	2883	2899	2920	2950	2968	2990	3021	3040	3064	3096	3115	3141	3175	3209	3265	3265	3265	3265	3265	3253	3223	3160	3131	3102	3017	2964	2886	2862	2846	2820	2820	2820	2820	2820	2820	2820	2820	2820	2820	2842	2858	2886	2908	2924	2954	2954	2954	2954	2976	2990	2990	2990	2993	3026	3006	2990	2990	3010	3026	3026	3026	3026	3026	3026	3026	3064	3064	3064	3101	3140	3182	3182	3201	3223	3263	3265	3265	3265	3265	3265	3227	3207	3182	3146	3126	3102	3102	3075	3026	2995	2978	2954	2926	2920	2920	2892	2886	2886	2886	2886	2886	2886	2895	2920	2973	3008	3064	3092	3111	3141	3200	3232	3265	3236	3223	3223	3195	3182	3182	3155	3135	3102	3102	3102	3102	3102	3102	3102	3102	3098	3064	3042	3023	2990	2970	2952	2920	2901	2885	2853	2853	2853	2853	2870	2886	2886	2903	2920	2953	2971	2990	3025	3043	3064	3100	3137	3182	3182	3216	3265	3305	3327	3354	3436	3465	3495	3584	3597	3597	3642	3668	3704	3750	3779	3818	3916	3958	4003	4055	4107	4206	4262	4299	4354	4413	4452	4512	4574	4596	4596	4536	4512	4512	4402	4340	4279	4229	4194	4136	4091	4068	4068	4026	4003	4003	3963	3939	3939	3902	3872	3818	3784	3760	3760	3698	3647	3597	3597	3597	3597	3570	3544	3495	3495	3495	3495	3495	3495	3495	3495	3495	3449	3447	3447	3447	3447	3447	3447	3447	3447	3404	3400	3400	3442	3447	3447	3447	3447	3447	3488	3512	3545	3545	3545	3545	3504	3466	3400	3400	3374	3309	3242	3191	3102	3017	2981	2954	2929	2912	2886	2862	2846	2820	2820	2820	2820	2820	2826	2853	2875	2886	2886	2886	2890	2920	2941	2962	3026	3049	3071	3141	3165	3185	3223	3223	3221	3182	3160	3140	3102	3102	3102	3102	3083	3064	3064	3064	3064	3064	3064	3064	3101	3138	3182	3221	3241	3265	3347	3373	3400	3443	3506	3597	3692	3725	3760	3862	3878	3878	3984	4048	4136	4317	4405	4512	4651	4738	4866	4943	4992	5065	5065	5093	5170	5170	5197	5280	5280	5280	5280	5280	5257	5170	5170	5170	5170	5170	5170	5170	5170	5187	5280	5280	5295	5395	5470	5515	5515	5590	5652	5771	5771
2181	2184	2177	2169	2162	2148	2134	2125	2112	2092	2081	2068	2049	2039	2026	2014	2008	2002	2002	2000	1994	1983	1976	1970	1970	1819	970	348	0	0	0	0	0	0	0	0	0	0	0	0	0	0	0	0	0	0	0	0	0	0	2298	3384	4512	4357	4354	4354	4282	4230	4171	4106	4059	4004	3945	3915	3878	3772	3728	3677	3561	3491	3400	3284	3200	3083	2902	2837	2774	2723	2708	2698	2686	2679	2669	2669	2669	2669	2658	2654	2654	2644	2637	2626	2606	2595	2585	2575	2566	2545	2545	2540	2520	2511	2501	2470	2454	2438	2398	2383	2371	2342	2308	2283	2246	2228	2213	2187	2170	2156	2122	2101	2084	2052	2042	2034	2018	2014	2010	2002	2002	2002	2002	2005	2010	2010	2010	2010	2018	2007	1994	1979	1965	1948	1927	1916	1903	1877	1866	1854	1835	1822	1806	1800	1795	1786	1775	1771	1766	1757	1751	1742	1738	1735	1731	1727	1719	1703	1699	1695	1687	1675	1664	1643	1635	1632	1632	1636	1641	1658	1674	1684	1698	1706	1713	1729	1740	1773	1924	1890	1870	1864	1850	1842	1842	1858	1870	1890	1902	1917	1986	1994	2002	2018	2027	2034	2026	2026	2026	2051	2051	2051	2068	2068	2068	2120	2156	2196	2178	2152	2121	2104	2088	2068	2052	2028	1995	1995	1986	1972	1958	1953	1948	1935	1933	1934	1921	1914	1905	1888	1873	1850	1833	1820	1797	1792	1788	1780	1781	1782	1782	1878	1909	1909	504	0	0	0	0	0	0	0	0	0	0	0	0	0	0	0	0	0	0	140	1241	1233	1338	2386	2386	2388	2409	2409	2409	2409	2422	2433	2433	2446	2457	2457	2470	2482	2520	2532	2545	2571	2597	2626	2653	2668	2684	2725	2740	2757	2786	2815	2853	2883	2899	2920	2966	2986	3008	3040	3059	3083	3116	3142	3182	3216	3251	3310	3310	3310	3310	3310	3297	3266	3201	3171	3142	3041	2982	2903	2866	2846	2820	2820	2820	2820	2820	2820	2820	2820	2820	2820	2842	2858	2886	2908	2924	2954	2954	2954	2954	2976	2990	2990	3001	3009	3026	3016	3008	3008	3018	3026	3026	3026	3026	3026	3026	3026	3064	3064	3064	3101	3140	3182	3182	3191	3202	3242	3244	3244	3244	3244	3244	3206	3186	3162	3126	3114	3102	3086	3063	3026	3011	2996	2972	2958	2949	2937	2923	2920	2920	2920	2920	2920	2920	2929	2955	2995	3022	3064	3092	3111	3141	3185	3207	3224	3195	3182	3182	3155	3142	3142	3128	3119	3102	3102	3102	3102	3102	3102	3102	3102	3098	3064	3042	3023	2990	2970	2952	2920	2911	2902	2870	2870	2870	2870	2878	2886	2903	2920	2937	2954	2971	2990	3025	3043	3064	3100	3137	3182	3182	3208	3244	3303	3327	3354	3436	3465	3495	3584	3606	3624	3646	3678	3732	3779	3808	3848	3922	3958	4003	4055	4107	4206	4262	4299	4354	4413	4452	4512	4543	4554	4554	4495	4472	4472	4363	4303	4242	4194	4159	4102	4058	4031	4004	3983	3967	3940	3921	3908	3908	3872	3842	3789	3756	3730	3705	3659	3622	3597	3597	3596	3571	3557	3544	3495	3495	3495	3495	3495	3495	3495	3484	3471	3425	3424	3424	3402	3400	3400	3400	3391	3378	3357	3354	3354	3375	3378	3378	3398	3400	3400	3421	3449	3496	3516	3520	3520	3461	3433	3400	3382	3352	3287	3222	3176	3102	3017	2981	2954	2929	2912	2886	2874	2863	2836	2836	2836	2836	2848	2859	2886	2909	2920	2920	2932	2943	2973	2995	3017	3084	3095	3110	3182	3194	3206	3244	3244	3242	3202	3180	3160	3122	3122	3121	3102	3092	3083	3083	3083	3083	3083	3092	3102	3141	3179	3224	3264	3295	3332	3418	3444	3472	3541	3600	3678	3778	3825	3882	3990	4007	4007	4121	4190	4284	4408	4500	4642	4750	4817	4914	4993	5043	5118	5160	5186	5225	5225	5238	5280	5322	5338	5338	5296	5269	5225	5225	5225	5225	5225	5225	5225	5225	5242	5338	5338	5353	5455	5492	5522	5578	5615	5652	5771	5771
2173	2177	2177	2162	2153	2139	2125	2116	2103	2089	2081	2068	2043	2030	2018	2006	1998	1985	1985	1982	1970	1959	1951	1939	1939	1939	1939	695	0	0	0	0	0	0	0	0	0	0	0	0	0	0	0	0	0	0	0	0	0	0	0	2213	4512	4357	4354	4354	4282	4214	4136	4072	4012	3939	3883	3853	3818	3715	3683	3650	3513	3442	3354	3240	3166	3064	2857	2788	2727	2679	2669	2669	2645	2640	2640	2640	2640	2640	2640	2640	2640	2619	2612	2612	2592	2579	2558	2558	2553	2532	2532	2527	2507	2490	2478	2457	2425	2402	2364	2349	2338	2319	2280	2251	2216	2204	2192	2158	2136	2118	2085	2066	2049	2018	2009	2000	1985	1977	1970	1970	1978	1985	1985	1985	1985	1985	1985	1985	1985	1971	1954	1940	1919	1894	1881	1868	1852	1828	1814	1798	1786	1776	1760	1760	1756	1748	1737	1735	1735	1716	1708	1700	1690	1685	1677	1668	1657	1633	1624	1616	1601	1586	1574	1551	1544	1541	1541	1548	1557	1581	1595	1603	1612	1619	1624	1633	1647	1695	1924	1827	1773	1773	1765	1760	1760	1783	1801	1825	1841	1863	2001	2001	2002	2018	2027	2033	2001	2001	2002	2051	2051	2051	2068	2068	2068	2120	2156	2196	2178	2152	2121	2104	2088	2068	2052	2005	1939	1939	1927	1909	1896	1894	1894	1870	1866	1866	1854	1843	1825	1803	1786	1760	1740	1724	1700	1690	1682	1666	1657	1654	1654	1846	1909	1909	504	0	0	0	0	0	0	0	0	0	0	0	0	0	0	0	0	0	0	281	2482	2467	2450	2386	2386	2388	2409	2409	2409	2409	2422	2433	2433	2446	2457	2457	2470	2482	2507	2519	2532	2558	2583	2612	2639	2653	2669	2724	2740	2757	2786	2815	2853	2883	2899	2920	2982	3004	3026	3059	3078	3102	3135	3169	3223	3258	3294	3354	3354	3354	3354	3354	3341	3309	3242	3212	3182	3064	3000	2920	2871	2846	2820	2820	2820	2820	2820	2820	2820	2820	2820	2820	2842	2858	2886	2908	2924	2954	2954	2954	2954	2976	2990	2990	3011	3026	3026	3026	3026	3026	3026	3026	3026	3026	3026	3026	3026	3026	3064	3064	3064	3101	3140	3182	3182	3182	3182	3221	3223	3223	3223	3223	3223	3186	3166	3141	3106	3102	3102	3069	3050	3026	3026	3014	2990	2990	2978	2954	2954	2954	2954	2954	2954	2954	2954	2964	2990	3017	3035	3064	3092	3111	3141	3170	3182	3182	3153	3141	3141	3115	3102	3102	3102	3102	3102	3102	3102	3102	3102	3102	3102	3102	3098	3064	3042	3023	2990	2970	2952	2920	2920	2919	2886	2886	2886	2886	2886	2886	2920	2937	2954	2954	2971	2990	3025	3043	3064	3100	3137	3182	3182	3199	3223	3301	3327	3354	3436	3465	3495	3584	3616	3650	3650	3687	3760	3808	3837	3878	3927	3958	4003	4055	4107	4206	4262	4299	4354	4413	4452	4512	4512	4512	4512	4455	4432	4432	4325	4265	4206	4158	4124	4068	4025	3993	3939	3939	3931	3878	3878	3878	3878	3842	3813	3760	3727	3700	3650	3620	3597	3597	3597	3595	3545	3545	3544	3495	3495	3495	3495	3495	3495	3495	3472	3447	3402	3400	3400	3357	3354	3354	3354	3335	3309	3309	3309	3309	3309	3309	3309	3348	3354	3354	3354	3386	3447	3487	3495	3495	3418	3400	3400	3364	3329	3265	3201	3161	3102	3017	2981	2954	2929	2912	2886	2886	2879	2853	2853	2853	2853	2875	2892	2920	2942	2954	2954	2977	2995	3026	3050	3073	3141	3141	3149	3223	3223	3226	3265	3265	3263	3223	3201	3180	3141	3141	3140	3102	3102	3102	3102	3102	3102	3102	3120	3141	3180	3220	3265	3307	3348	3400	3488	3516	3545	3640	3694	3760	3865	3925	4003	4118	4136	4136	4257	4331	4432	4498	4596	4773	4848	4895	4963	5044	5095	5170	5255	5280	5280	5280	5280	5280	5365	5395	5395	5313	5280	5280	5280	5280	5280	5280	5280	5280	5280	5297	5395	5395	5411	5515	5515	5529	5640	5640	5652	5771	5771
2173	2177	2177	2162	2153	2139	2125	2116	2103	2089	2081	2068	2043	2030	2018	2006	1998	1985	1985	1979	1954	1954	1951	1939	1939	1939	1939	695	0	0	0	0	0	0	0	0	0	0	0	0	0	0	0	0	0	0	0	0	0	0	0	0	0	0	0	0	0	1873	4136	4072	4012	3939	3883	3853	3818	3715	3683	3650	3513	3442	3354	3240	3166	3064	2857	2788	2727	2679	2669	2669	2645	2632	2612	2612	2604	2585	2585	2585	2585	2565	2558	2558	2539	2532	2532	2496	2477	2457	2457	2457	2457	2441	2425	2386	2356	2338	2319	2306	2290	2236	2211	2190	2139	2128	2116	2068	2048	2032	2001	1983	1967	1909	1901	1894	1894	1887	1880	1880	1887	1894	1894	1894	1894	1894	1894	1894	1982	1971	1954	1940	1919	1894	1881	1868	1852	1828	1814	1798	1786	1776	1760	1760	1756	1748	1737	1719	1688	1688	1688	1688	1688	1681	1666	1656	1648	1633	1624	1616	1601	1586	1574	1551	1544	1541	1541	1548	1557	1581	1595	1603	1612	1619	1624	1633	1647	1404	0	1137	1773	1773	1765	1760	1760	1783	1801	1825	1841	1712	0	0	0	0	0	76	2001	2001	1963	0	0	0	0	0	0	0	0	0	0	0	0	0	0	0	0	805	1939	1939	1927	1909	1896	1873	1838	1815	1806	1798	1766	1752	1735	1696	1677	1654	1620	1612	1612	1672	1682	1666	1657	1654	1654	406	0	0	0	0	0	0	0	0	0	0	0	0	0	0	0	0	0	0	0	0	0	281	2482	2467	2457	2457	2443	2433	2433	2433	2433	2433	2433	2433	2433	2446	2457	2457	2470	2482	2507	2519	2532	2558	2583	2612	2639	2653	2669	2724	2753	2788	2818	2834	2853	2914	2948	2990	3022	3055	3102	3136	3156	3182	3252	3265	3265	3377	3415	3447	3447	3447	3447	3447	3447	3447	3375	3330	3265	3171	3113	3026	2948	2912	2886	2886	2886	2886	2863	2853	2853	2853	2859	2886	2886	2886	2886	2930	2954	2954	2976	2990	2990	3012	3026	3026	3026	3029	3064	3042	3026	3026	3047	3064	3064	3064	3064	3064	3064	3064	3064	3064	3064	3101	3120	3141	3141	3141	3141	3180	3164	3141	3141	3141	3141	3106	3087	3064	3064	3064	3064	3031	3026	3026	3026	3026	3026	3026	3026	3026	3026	3026	3026	3026	3026	3026	3055	3064	3064	3064	3073	3102	3102	3111	3141	3170	3182	3182	3153	3141	3141	3115	3102	3102	3077	3064	3064	3064	3064	3064	3064	3068	3102	3102	3102	3102	3080	3061	3026	3006	2990	2990	2970	2953	2920	2920	2920	2920	2920	2920	2920	2937	2954	2989	2990	2990	3061	3064	3064	3100	3137	3182	3182	3199	3223	3301	3345	3400	3442	3484	3545	3590	3635	3704	3752	3800	3878	3929	3960	4003	4056	4089	4136	4191	4227	4279	4337	4375	4432	4492	4512	4512	4512	4512	4512	4399	4354	4354	4251	4193	4136	4046	4003	4003	3920	3878	3878	3840	3818	3818	3782	3760	3760	3726	3704	3704	3672	3646	3597	3597	3594	3545	3545	3545	3545	3545	3545	3545	3520	3495	3495	3495	3495	3448	3447	3447	3402	3379	3354	3312	3309	3309	3268	3265	3265	3227	3223	3223	3223	3223	3223	3259	3265	3265	3265	3280	3309	3385	3400	3400	3363	3340	3309	3309	3285	3223	3160	3121	3064	2981	2946	2920	2895	2886	2886	2886	2886	2886	2886	2892	2920	2943	2960	2990	2990	2995	3026	3050	3069	3102	3126	3146	3182	3182	3186	3223	3248	3268	3309	3309	3307	3265	3242	3221	3182	3182	3181	3141	3141	3141	3141	3141	3141	3141	3180	3223	3263	3305	3354	3442	3490	3545	3642	3672	3704	3807	3866	3939	4053	4120	4206	4334	4354	4354	4488	4541	4596	4743	4803	4866	5027	5097	5170	5170	5201	5280	5369	5395	5395	5395	5395	5395	5483	5515	5515	5429	5395	5395	5395	5395	5395	5395	5395	5395	5395	5395	5395	5472	5515	5515	5515	5529	5640	5640	5652	5771	5771
2173	2177	2177	2162	2153	2139	2132	2125	2112	2092	2081	2068	2049	2037	2018	2006	1998	1985	1985	1979	1954	1954	1787	970	970	970	970	348	0	0	0	0	0	0	0	0	0	0	0	0	0	0	0	0	0	0	0	0	0	0	0	0	0	0	0	0	0	936	2068	2036	2006	1970	1941	1927	1909	1857	1841	1825	1756	1721	1677	1620	1583	1532	1428	1394	1364	1339	1334	1334	1323	1710	2612	2612	2604	2585	2585	2585	2585	2565	2558	2558	2539	2532	2532	2496	2477	2457	2457	2457	2457	2441	2425	2386	2356	2338	2319	2306	2290	2236	2211	2190	2139	2128	2116	2068	2048	2032	2001	1983	1967	1909	1901	1894	1894	1887	1880	1880	1887	1894	1894	1894	1894	1894	1894	1894	1027	985	977	970	960	947	941	934	926	914	907	899	893	888	880	880	878	874	868	1146	1688	1688	1688	1688	1003	1092	1666	1656	1648	1633	1629	1409	800	793	787	776	772	770	770	774	936	1547	1554	1559	1568	1054	812	816	823	702	0	569	886	886	882	880	880	891	900	912	920	856	0	0	0	0	0	38	1000	1000	982	0	0	0	0	0	0	0	0	0	0	0	0	0	0	0	0	793	1910	1897	1890	1880	1868	1853	1832	1808	1798	1786	1759	1748	1735	1696	1677	1654	1620	1604	1586	1617	1400	833	828	827	827	203	0	0	0	0	0	0	0	0	0	0	0	0	0	0	0	0	0	0	0	0	0	140	1241	1233	1344	2457	2450	2445	2445	2445	2445	2445	2438	2433	2433	2446	2457	2457	2470	2482	2507	2526	2545	2558	2583	2612	2639	2660	2684	2739	2769	2804	2849	2867	2886	2965	3002	3046	3097	3126	3162	3198	3218	3246	3319	3340	3356	3453	3488	3522	3544	3548	3548	3548	3541	3522	3466	3425	3356	3257	3190	3084	3016	2980	2938	2925	2916	2903	2891	2883	2870	2870	2872	2886	2886	2889	2903	2936	2954	2954	2976	2990	2990	3012	3026	3026	3026	3029	3064	3053	3045	3045	3055	3064	3064	3064	3064	3064	3054	3045	3045	3054	3064	3083	3101	3122	3122	3122	3122	3141	3133	3122	3122	3114	3102	3068	3056	3045	3045	3045	3045	3029	3026	3026	3026	3026	3026	3042	3051	3064	3064	3064	3064	3064	3064	3064	3079	3083	3083	3098	3107	3122	3122	3126	3141	3170	3178	3162	3134	3122	3122	3095	3083	3083	3058	3045	3045	3045	3048	3064	3064	3068	3102	3102	3104	3122	3099	3082	3064	3043	3027	3027	3007	2989	2955	2945	2937	2937	2937	2937	2955	2963	2972	3007	3008	3008	3062	3073	3083	3119	3148	3182	3182	3208	3244	3303	3345	3400	3463	3499	3545	3637	3680	3732	3780	3830	3908	3960	3992	4036	4089	4123	4171	4228	4263	4316	4376	4403	4432	4492	4512	4512	4483	4472	4472	4387	4339	4280	4204	4158	4102	4013	3966	3940	3879	3844	3819	3800	3785	3761	3743	3729	3705	3688	3674	3650	3635	3622	3597	3582	3570	3545	3545	3545	3545	3545	3545	3545	3520	3495	3495	3483	3471	3447	3436	3424	3379	3356	3332	3310	3290	3266	3246	3235	3224	3204	3202	3202	3202	3202	3202	3221	3224	3224	3241	3266	3309	3365	3377	3377	3340	3318	3287	3287	3263	3202	3140	3106	3064	2981	2946	2920	2895	2886	2886	2886	2886	2886	2886	2892	2920	2943	2960	2990	3002	3014	3045	3057	3069	3102	3126	3143	3162	3174	3186	3223	3248	3268	3309	3309	3308	3287	3263	3242	3202	3202	3202	3182	3182	3182	3182	3182	3182	3203	3233	3266	3330	3374	3424	3516	3566	3624	3699	3741	3791	3899	3961	4038	4158	4228	4319	4418	4464	4518	4586	4643	4731	4845	4899	4966	5089	5150	5225	5225	5257	5338	5428	5455	5455	5455	5455	5455	5499	5515	5515	5472	5455	5455	5455	5455	5455	5414	5395	5395	5395	5395	5395	5433	5463	5515	5515	5522	5578	5615	5646	5706	5744
2173	2177	2177	2162	2153	2139	2139	2134	2121	2094	2081	2068	2055	2044	2018	2006	1998	1985	1985	1979	1954	1954	1622	0	0	0	0	0	0	0	0	0	0	0	0	0	0	0	0	0	0	0	0	0	0	0	0	0	0	0	0	0	0	0	0	0	0	0	0	0	0	0	0	0	0	0	0	0	0	0	0	0	0	0	0	0	0	0	0	0	0	789	2612	2612	2604	2585	2585	2585	2585	2565	2558	2558	2539	2532	2532	2496	2477	2457	2457	2457	2457	2441	2425	2386	2356	2338	2319	2306	2290	2236	2211	2190	2139	2128	2116	2068	2048	2032	2001	1983	1967	1909	1901	1894	1894	1887	1880	1880	1887	1894	1894	1894	1894	1894	1894	1894	71	0	0	0	0	0	0	0	0	0	0	0	0	0	0	0	0	0	0	573	1688	1688	1688	1688	318	503	1666	1656	1648	1633	1633	1202	0	0	0	0	0	0	0	0	314	1513	1513	1515	1523	489	0	0	0	0	0	0	0	0	0	0	0	0	0	0	0	0	0	0	0	0	0	0	0	0	0	0	0	0	0	0	0	0	0	0	0	0	0	0	0	0	0	780	1880	1855	1852	1852	1840	1833	1825	1802	1789	1773	1752	1744	1735	1696	1677	1654	1620	1597	1561	1561	1119	0	0	0	0	0	0	0	0	0	0	0	0	0	0	0	0	0	0	0	0	0	0	0	0	0	0	0	0	0	232	2457	2457	2457	2457	2457	2457	2457	2444	2433	2433	2446	2457	2457	2470	2482	2507	2532	2558	2558	2583	2612	2639	2666	2698	2754	2784	2820	2881	2900	2920	3016	3056	3102	3173	3197	3223	3259	3281	3309	3386	3416	3447	3528	3562	3597	3640	3650	3650	3650	3635	3597	3557	3519	3447	3343	3268	3141	3084	3047	2990	2964	2947	2920	2920	2914	2886	2886	2886	2886	2886	2891	2920	2942	2954	2954	2976	2990	2990	3012	3026	3026	3026	3029	3064	3064	3064	3064	3064	3064	3064	3064	3064	3064	3045	3026	3026	3045	3064	3064	3082	3102	3102	3102	3102	3102	3102	3102	3102	3086	3064	3030	3026	3026	3026	3026	3026	3026	3026	3026	3026	3026	3026	3058	3076	3102	3102	3102	3102	3102	3102	3102	3102	3102	3102	3131	3141	3141	3141	3141	3141	3170	3173	3141	3114	3102	3102	3076	3064	3064	3039	3026	3026	3026	3031	3064	3064	3068	3102	3102	3106	3141	3118	3102	3102	3080	3064	3064	3043	3025	2990	2971	2954	2954	2954	2954	2990	2990	2990	3025	3026	3026	3063	3081	3102	3139	3159	3182	3182	3216	3265	3305	3345	3400	3484	3514	3545	3683	3724	3760	3809	3859	3939	3992	4024	4068	4123	4157	4206	4264	4300	4354	4414	4432	4432	4492	4512	4512	4453	4432	4432	4376	4323	4206	4157	4123	4068	3980	3929	3878	3838	3809	3760	3760	3753	3704	3704	3698	3650	3650	3645	3597	3597	3597	3597	3568	3545	3545	3545	3545	3545	3545	3545	3545	3520	3495	3495	3471	3447	3447	3425	3400	3356	3334	3309	3309	3272	3223	3223	3206	3182	3182	3182	3182	3182	3182	3182	3182	3182	3182	3217	3252	3309	3346	3354	3354	3317	3296	3265	3265	3242	3182	3120	3092	3064	2981	2946	2920	2895	2886	2886	2886	2886	2886	2886	2892	2920	2943	2960	2990	3014	3032	3064	3064	3069	3102	3126	3141	3141	3166	3186	3223	3248	3268	3309	3309	3309	3309	3285	3263	3223	3223	3223	3223	3223	3223	3223	3223	3223	3264	3286	3309	3397	3443	3495	3591	3643	3704	3756	3809	3878	3991	4056	4136	4263	4337	4432	4501	4573	4683	4683	4745	4866	4947	4996	5065	5150	5203	5280	5280	5313	5395	5488	5515	5515	5515	5515	5515	5515	5515	5515	5515	5515	5515	5515	5515	5515	5433	5395	5395	5395	5395	5395	5395	5411	5515	5515	5515	5515	5590	5640	5640	5717
2173	2177	2177	2177	2172	2158	2143	2134	2121	2107	2099	2085	2060	2047	2034	2010	1998	1985	1975	1967	1954	1954	1622	0	0	0	0	0	0	0	0	0	0	0	0	0	0	0	0	0	0	0	0	0	0	0	0	0	0	0	0	0	0	0	0	0	0	0	0	0	0	0	0	0	0	0	0	0	0	0	0	0	0	0	0	0	0	0	0	0	0	0	0	0	739	2612	2591	2585	2585	2565	2558	2558	2539	2532	2532	2496	2482	2482	2499	2507	2507	2490	2478	2457	2441	2429	2409	2394	2383	2364	2336	2314	2277	2264	2256	2256	936	0	0	0	0	0	0	0	0	0	0	0	0	0	0	0	0	0	0	0	0	0	0	0	0	0	0	0	0	0	0	0	0	0	0	0	0	0	0	0	0	0	0	0	0	0	0	0	0	0	0	0	0	0	352	1435	1411	1402	1402	1402	1405	1418	1430	1435	1435	460	0	0	0	0	0	0	0	0	0	0	0	0	0	0	0	0	0	0	0	0	0	0	0	0	0	0	0	0	0	0	0	0	0	0	0	0	0	0	0	0	0	780	1880	1842	1827	1811	1811	1806	1798	1765	1756	1748	1727	1711	1688	1651	1634	1612	1612	1591	1541	1512	1504	1504	341	0	0	0	0	0	0	0	0	0	0	0	0	0	0	0	0	0	0	0	0	0	0	0	0	0	0	1561	2578	2507	2507	2507	2507	2493	2482	2482	2482	2482	2482	2482	2482	2482	2507	2532	2532	2545	2558	2584	2625	2669	2725	2755	2788	2849	2882	2920	3018	3042	3064	3171	3198	3223	3299	3343	3400	3441	3464	3495	3582	3615	3650	3695	3704	3704	3749	3743	3704	3704	3689	3650	3609	3557	3447	3343	3278	3182	3067	3010	2954	2930	2906	2853	2830	2820	2820	2798	2788	2788	2809	2825	2853	2874	2890	2920	2941	2958	2990	2990	2993	3026	3048	3064	3064	3064	3064	3064	3064	3064	3064	3064	3063	3026	3026	3026	2990	2990	2990	2990	3007	3026	3026	3026	3026	3026	3026	3026	2993	2990	2990	2990	2990	2990	2990	2990	2990	2990	3003	3026	3058	3064	3064	3096	3115	3141	3174	3182	3182	3182	3182	3182	3120	3102	3102	3131	3141	3141	3141	3141	3141	3141	3141	3141	3114	3095	3064	3064	3064	3064	3039	3026	3026	3026	3031	3064	3064	3068	3102	3126	3145	3182	3182	3182	3182	3159	3139	3102	3102	3101	3064	3044	3026	3026	3026	3026	3026	3045	3064	3064	3064	3064	3138	3141	3141	3141	3159	3182	3220	3240	3265	3346	3391	3447	3490	3533	3597	3690	3745	3818	3921	3961	4003	4057	4090	4136	4252	4279	4279	4338	4354	4354	4414	4432	4432	4492	4512	4512	4453	4414	4354	4300	4264	4206	4110	4056	4003	3960	3918	3818	3780	3760	3760	3724	3697	3650	3650	3644	3597	3597	3597	3597	3567	3545	3545	3545	3545	3545	3518	3495	3495	3495	3495	3495	3495	3495	3447	3447	3447	3447	3425	3400	3356	3334	3309	3228	3205	3182	3182	3165	3141	3141	3141	3141	3141	3141	3141	3141	3141	3141	3176	3196	3223	3332	3340	3309	3273	3265	3265	3265	3242	3182	3120	3082	3026	2972	2946	2920	2895	2886	2886	2886	2886	2886	2886	2892	2920	2943	2960	2990	3014	3026	3026	3050	3069	3102	3102	3106	3141	3166	3186	3223	3248	3268	3309	3334	3354	3354	3354	3354	3354	3330	3309	3309	3309	3309	3309	3331	3354	3354	3398	3447	3541	3593	3650	3701	3753	3818	3930	3993	4068	4130	4193	4279	4415	4494	4596	4672	4749	4866	4866	4899	4963	5048	5099	5170	5259	5315	5395	5395	5395	5395	5488	5515	5515	5515	5515	5515	5515	5515	5515	5515	5515	5515	5431	5395	5395	5395	5395	5395	5395	5395	5395	5395	5395	5395	5470	5515	5515	5515	5527	5640	5640
2173	2177	2177	2177	2172	2158	2151	2144	2130	2116	2105	2085	2066	2054	2034	2010	1998	1985	1969	1958	1939	1929	1755	926	921	919	919	329	0	0	0	0	0	0	0	0	0	0	0	0	0	0	0	0	0	0	0	0	0	0	0	0	0	0	0	0	0	0	0	0	0	0	0	0	0	0	0	0	0	0	0	0	0	0	0	0	0	0	0	0	0	0	0	0	370	1306	1296	1292	1292	2248	2558	2558	2548	2542	2532	2505	2494	2494	2512	2522	2532	2515	2505	2494	2487	2481	2470	1651	1192	1182	1168	1157	1138	1132	1128	1128	468	0	0	0	0	0	0	0	0	0	0	0	0	0	0	0	0	0	0	0	0	0	0	0	0	0	0	0	0	0	0	0	0	0	0	0	0	0	0	0	0	0	0	0	0	0	0	0	0	0	0	0	0	0	352	1435	1411	1402	1402	1402	1405	1418	1430	1435	1435	460	0	0	0	0	0	0	0	0	0	0	0	0	0	0	0	0	0	0	0	0	0	0	0	0	0	0	0	0	0	0	0	0	0	0	0	0	0	0	0	0	0	390	940	1729	1804	1792	1792	1785	1773	1746	1737	1730	1709	1692	1666	1630	1611	1586	1571	1550	1509	1484	1478	1478	335	0	0	0	0	0	0	0	0	0	0	0	0	0	0	0	0	0	0	0	0	0	0	0	0	0	0	1561	2580	2532	2525	2520	2520	2505	2494	2494	2488	2482	2482	2489	2495	2507	2520	2532	2545	2558	2572	2612	2653	2698	2755	2786	2820	2899	2942	2992	3059	3088	3123	3214	3249	3288	3347	3390	3448	3490	3514	3546	3612	3642	3677	3723	3732	3732	3732	3715	3677	3677	3654	3598	3558	3514	3424	3305	3236	3142	3057	3006	2937	2913	2893	2853	2830	2820	2820	2798	2788	2788	2809	2825	2853	2874	2890	2920	2941	2958	2990	2990	2993	3026	3048	3064	3064	3064	3064	3064	3064	3064	3064	3054	3044	3008	2999	2990	2972	2972	2972	2972	2980	2990	2990	2990	2990	2990	2990	2990	2958	2955	2955	2970	2972	2972	2988	2990	2990	2990	3003	3026	3058	3064	3064	3112	3128	3141	3174	3182	3182	3182	3182	3182	3135	3122	3122	3136	3141	3141	3127	3122	3122	3122	3122	3122	3095	3079	3064	3064	3061	3045	3032	3026	3026	3026	3031	3064	3064	3071	3122	3146	3165	3202	3202	3202	3202	3191	3180	3142	3142	3140	3083	3073	3064	3064	3064	3064	3064	3073	3083	3083	3092	3102	3140	3150	3162	3162	3179	3202	3241	3262	3287	3369	3405	3447	3490	3543	3624	3718	3763	3818	3921	3961	4003	4057	4090	4136	4252	4279	4279	4338	4354	4354	4414	4432	4432	4462	4472	4472	4414	4384	4354	4300	4264	4206	4110	4050	3971	3929	3893	3818	3780	3756	3732	3697	3670	3624	3624	3620	3597	3597	3597	3597	3567	3545	3545	3545	3545	3545	3518	3495	3495	3495	3495	3495	3495	3495	3447	3447	3447	3447	3425	3400	3356	3334	3309	3228	3205	3182	3182	3165	3141	3141	3141	3141	3141	3134	3122	3122	3128	3141	3176	3196	3223	3313	3324	3309	3273	3265	3265	3248	3226	3182	3120	3082	3026	2972	2946	2920	2895	2886	2886	2886	2890	2903	2903	2906	2920	2943	2960	2990	3014	3026	3026	3050	3069	3102	3102	3106	3141	3166	3186	3223	3248	3270	3332	3344	3355	3377	3377	3378	3400	3389	3378	3378	3378	3378	3378	3389	3400	3424	3458	3496	3594	3646	3705	3786	3843	3910	4028	4079	4137	4235	4289	4356	4496	4561	4640	4716	4777	4866	4866	4916	5014	5100	5134	5170	5259	5297	5338	5338	5338	5338	5384	5413	5455	5455	5455	5455	5499	5501	5455	5455	5455	5455	5413	5384	5338	5338	5338	5338	5338	5338	5338	5338	5345	5395	5432	5455	5455	5455	5467	5578	5614
2173	2177	2177	2177	2172	2158	2158	2153	2139	2125	2112	2085	2072	2060	2034	2010	1998	1985	1963	1948	1924	1904	1887	1852	1843	1838	1838	659	0	0	0	0	0	0	0	0	0	0	0	0	0	0	0	0	0	0	0	0	0	0	0	0	0	0	0	0	0	0	0	0	0	0	0	0	0	0	0	0	0	0	0	0	0	0	0	0	0	0	0	0	0	0	0	0	0	0	0	0	0	1931	2558	2558	2558	2552	2532	2514	2507	2507	2524	2537	2558	2540	2532	2532	2532	2532	2532	908	0	0	0	0	0	0	0	0	0	0	0	0	0	0	0	0	0	0	0	0	0	0	0	0	0	0	0	0	0	0	0	0	0	0	0	0	0	0	0	0	0	0	0	0	0	0	0	0	0	0	0	0	0	0	0	0	0	0	0	0	0	0	352	1435	1411	1402	1402	1402	1405	1418	1430	1435	1435	460	0	0	0	0	0	0	0	0	0	0	0	0	0	0	0	0	0	0	0	0	0	0	0	0	0	0	0	0	0	0	0	0	0	0	0	0	0	0	0	0	0	0	0	1617	1780	1773	1773	1764	1748	1726	1719	1712	1692	1673	1644	1608	1588	1561	1530	1509	1477	1456	1451	1451	329	0	0	0	0	0	0	0	0	0	0	0	0	0	0	0	0	0	0	0	0	0	0	0	0	0	0	1561	2582	2558	2543	2532	2532	2518	2507	2507	2493	2482	2482	2495	2507	2532	2532	2532	2558	2571	2585	2639	2681	2727	2786	2817	2853	2948	3002	3064	3099	3135	3182	3257	3300	3354	3395	3436	3495	3538	3564	3597	3642	3668	3704	3750	3760	3760	3715	3688	3650	3650	3620	3545	3506	3470	3400	3266	3193	3102	3046	3002	2920	2896	2879	2853	2830	2820	2820	2798	2788	2788	2809	2825	2853	2874	2890	2920	2941	2958	2990	2990	2993	3026	3048	3064	3064	3064	3064	3064	3064	3064	3064	3044	3025	2990	2972	2954	2954	2954	2954	2954	2954	2954	2954	2954	2954	2954	2954	2954	2923	2920	2920	2951	2954	2954	2986	2990	2990	2990	3003	3026	3058	3064	3064	3128	3141	3141	3174	3182	3182	3182	3182	3182	3150	3141	3141	3141	3141	3141	3112	3102	3102	3102	3102	3102	3075	3064	3064	3064	3058	3026	3026	3026	3026	3026	3031	3064	3064	3073	3141	3166	3186	3223	3223	3223	3223	3223	3221	3182	3182	3179	3102	3102	3102	3102	3102	3102	3102	3102	3102	3102	3120	3141	3141	3160	3182	3182	3200	3223	3262	3283	3309	3391	3419	3447	3490	3553	3650	3745	3781	3818	3921	3961	4003	4057	4090	4136	4252	4279	4279	4338	4354	4354	4414	4432	4432	4432	4432	4432	4375	4354	4354	4300	4264	4206	4110	4044	3939	3898	3868	3818	3780	3752	3704	3669	3643	3597	3597	3597	3597	3597	3597	3597	3567	3545	3545	3545	3545	3545	3518	3495	3495	3495	3495	3495	3495	3495	3447	3447	3447	3447	3425	3400	3356	3334	3309	3228	3205	3182	3182	3165	3141	3141	3141	3141	3141	3126	3102	3102	3116	3141	3176	3196	3223	3294	3309	3309	3273	3265	3265	3232	3211	3182	3120	3082	3026	2972	2946	2920	2895	2886	2886	2886	2893	2920	2920	2920	2920	2943	2960	2990	3014	3026	3026	3050	3069	3102	3102	3106	3141	3166	3186	3223	3248	3272	3354	3354	3357	3400	3400	3402	3447	3447	3447	3447	3447	3447	3447	3447	3447	3494	3519	3545	3646	3700	3760	3871	3932	4003	4126	4165	4206	4340	4385	4432	4577	4629	4683	4761	4806	4866	4866	4934	5065	5152	5170	5170	5259	5280	5280	5280	5280	5280	5280	5310	5395	5395	5395	5395	5483	5488	5395	5395	5395	5395	5395	5373	5280	5280	5280	5280	5280	5280	5280	5280	5295	5395	5395	5395	5395	5395	5406	5515	5588
2154	2158	2158	2158	2158	2158	2143	2139	2139	2139	2130	2103	2077	2064	2051	2015	1995	1970	1948	1936	1924	1904	1887	1852	1843	1838	1838	659	0	0	0	0	0	0	0	0	0	0	0	0	0	0	0	0	0	0	0	0	0	0	0	0	0	0	0	0	0	0	0	0	0	0	0	0	0	2675	2954	2954	3018	3012	2990	2900	2874	2853	2853	1884	0	0	0	0	0	0	0	0	0	0	0	0	0	0	0	0	0	0	0	0	0	0	0	0	0	0	0	0	0	0	0	0	0	0	0	0	0	0	0	0	0	0	0	0	0	0	0	0	0	0	0	0	0	0	0	0	0	0	0	0	0	0	0	0	0	0	0	0	0	0	0	0	0	0	0	0	0	0	0	0	0	0	0	0	0	0	0	0	0	0	0	0	0	0	0	0	0	0	0	0	0	0	0	0	0	0	0	0	0	0	0	0	0	0	0	0	0	0	0	0	0	0	0	0	0	0	0	0	0	0	0	0	0	0	0	0	0	0	0	0	0	0	0	0	0	0	0	0	0	1617	1765	1735	1724	1723	1723	1693	1688	1688	1651	1629	1601	1568	1546	1513	1476	1455	1426	1426	1433	1451	329	0	0	0	0	0	0	0	0	0	0	0	0	0	0	0	0	0	0	0	0	0	0	0	0	0	0	1594	2635	2585	2585	2585	2585	2555	2532	2532	2532	2532	2532	2532	2532	2532	2559	2585	2612	2626	2640	2697	2756	2820	2884	2917	2954	3058	3115	3182	3259	3302	3354	3438	3466	3495	3539	3565	3597	3643	3650	3650	3696	3723	3760	3760	3760	3760	3715	3688	3650	3608	3582	3545	3469	3411	3309	3244	3193	3102	3046	3002	2920	2896	2879	2853	2830	2820	2820	2820	2820	2820	2820	2825	2853	2874	2890	2920	2941	2958	2990	3012	3030	3064	3064	3067	3102	3102	3102	3102	3081	3063	3026	3007	2989	2954	2937	2920	2886	2886	2886	2886	2886	2886	2886	2886	2886	2886	2916	2954	2923	2920	2920	2951	2954	2954	2986	2990	2990	2990	3003	3026	3058	3064	3064	3128	3141	3141	3208	3211	3182	3182	3182	3182	3150	3141	3141	3141	3141	3141	3112	3102	3102	3102	3102	3102	3075	3064	3064	3064	3058	3026	3026	3026	3026	3026	3031	3064	3088	3111	3182	3207	3227	3265	3265	3265	3265	3265	3265	3265	3242	3220	3141	3141	3141	3141	3141	3141	3141	3141	3141	3141	3160	3182	3182	3201	3223	3223	3241	3265	3265	3302	3354	3396	3419	3447	3534	3585	3650	3697	3745	3818	3869	3920	4003	4057	4090	4136	4193	4228	4279	4279	4300	4354	4354	4354	4354	4413	4432	4432	4375	4337	4279	4279	4249	4136	4089	4044	3939	3898	3868	3818	3780	3752	3704	3669	3643	3597	3597	3597	3597	3597	3597	3597	3567	3545	3545	3545	3545	3545	3518	3495	3495	3495	3495	3495	3495	3495	3495	3471	3447	3447	3425	3400	3356	3334	3309	3267	3229	3182	3182	3165	3141	3141	3141	3141	3106	3102	3102	3102	3116	3141	3176	3196	3223	3258	3265	3265	3231	3211	3182	3182	3170	3141	3111	3092	3064	2981	2954	2954	2929	2920	2920	2920	2920	2920	2920	2926	2954	2954	2960	2990	3014	3026	3026	3050	3069	3102	3102	3106	3141	3166	3186	3223	3248	3272	3354	3380	3403	3447	3447	3449	3495	3495	3496	3545	3545	3545	3545	3571	3597	3597	3647	3704	3758	3813	3878	3996	4031	4068	4196	4236	4279	4347	4417	4512	4586	4663	4773	4854	4901	4963	4963	4998	5065	5065	5099	5170	5170	5170	5170	5170	5170	5170	5170	5199	5280	5280	5280	5280	5280	5280	5280	5362	5371	5280	5280	5280	5280	5280	5261	5170	5170	5170	5170	5241	5280	5280	5352	5395	5395	5395	5406	5515	5515
2138	2142	2148	2148	2148	2148	2141	2137	2130	2123	2117	2103	2077	2062	2042	2019	2001	1970	1948	1938	1932	1263	943	926	921	919	919	329	0	0	568	912	906	898	891	880	880	814	0	0	0	0	0	0	0	0	0	0	0	0	0	0	0	0	0	0	0	0	0	1036	1098	1098	1165	1205	1254	2678	2850	2887	2948	2943	2922	2848	2820	2790	2753	2253	1292	1281	1275	1266	1256	1254	1254	1254	1254	1254	1263	1269	1279	1299	1309	1320	1341	1352	1364	1385	1397	1410	1422	1433	1460	1472	1480	1495	1495	1495	1495	1507	1513	1513	1513	1513	1513	1513	1513	1513	1513	1513	1513	1503	1495	1495	1485	1477	1477	1477	1449	0	0	0	0	0	0	0	0	0	0	0	0	0	0	0	0	0	0	0	0	0	0	0	0	0	0	0	0	0	0	0	0	0	0	0	0	0	0	0	0	0	0	0	0	0	0	0	0	0	0	0	0	0	0	0	0	0	0	0	0	0	0	0	0	0	0	0	0	0	0	0	0	0	0	0	0	0	0	0	0	0	0	0	0	0	0	0	0	0	0	0	0	0	0	0	0	0	0	808	1226	1735	1724	1723	1723	1693	1688	1688	1651	1629	1601	1568	1546	1513	1476	1455	1426	1426	1228	726	164	0	0	0	0	0	0	0	0	0	0	0	0	0	0	0	0	0	0	0	0	0	0	0	898	1439	1410	2179	2678	2627	2627	2626	2612	2598	2585	2572	2572	2572	2572	2572	2572	2572	2593	2612	2640	2662	2684	2727	2779	2836	2917	2960	3009	3117	3176	3246	3348	3395	3450	3539	3569	3600	3646	3685	3738	3760	3764	3764	3787	3801	3819	3819	3809	3789	3743	3707	3650	3608	3575	3520	3464	3411	3309	3244	3193	3102	3046	3006	2937	2913	2896	2870	2846	2833	2820	2820	2823	2836	2836	2841	2870	2891	2907	2937	2959	2976	3008	3019	3030	3064	3064	3065	3083	3072	3063	3046	3026	3008	2973	2955	2937	2904	2878	2854	2837	2837	2837	2885	2886	2886	2886	2886	2886	2886	2901	2920	2904	2903	2903	2918	2927	2937	2984	2990	2990	3006	3014	3026	3074	3090	3102	3151	3168	3182	3215	3217	3202	3202	3202	3202	3171	3156	3141	3141	3136	3122	3107	3102	3102	3102	3102	3102	3089	3079	3064	3064	3061	3045	3045	3045	3045	3045	3050	3083	3107	3128	3182	3219	3248	3287	3300	3310	3310	3310	3308	3287	3263	3242	3182	3171	3162	3162	3162	3162	3162	3162	3162	3162	3181	3202	3223	3233	3244	3244	3263	3287	3308	3328	3354	3396	3419	3447	3534	3585	3650	3697	3734	3789	3865	3910	3971	4025	4057	4102	4158	4193	4242	4242	4263	4316	4346	4354	4354	4383	4393	4393	4364	4337	4279	4253	4220	4136	4089	4044	3939	3898	3868	3818	3780	3752	3704	3669	3643	3597	3597	3597	3597	3597	3597	3597	3567	3545	3545	3560	3570	3545	3531	3521	3546	3546	3546	3546	3546	3546	3520	3508	3496	3471	3449	3424	3379	3346	3309	3267	3238	3202	3184	3165	3141	3141	3141	3141	3106	3102	3102	3102	3116	3141	3176	3196	3223	3258	3258	3244	3227	3211	3182	3182	3170	3141	3111	3092	3064	2981	2954	2954	2941	2937	2937	2937	2937	2937	2937	2940	2954	2966	2978	3008	3020	3029	3045	3057	3069	3102	3102	3106	3141	3166	3186	3223	3248	3272	3354	3380	3404	3471	3471	3473	3520	3534	3547	3598	3598	3598	3598	3624	3650	3678	3717	3761	3817	3860	3908	4028	4080	4137	4235	4273	4316	4422	4481	4554	4630	4690	4773	4854	4883	4914	4956	4980	5014	5014	5031	5066	5108	5102	5066	5066	5066	5066	5066	5094	5172	5172	5172	5172	5211	5225	5225	5266	5271	5225	5225	5225	5225	5225	5216	5170	5170	5170	5170	5205	5232	5280	5316	5344	5395	5395	5406	5515	5515
2121	2126	2139	2139	2139	2139	2139	2134	2121	2107	2103	2103	2077	2060	2034	2023	2008	1970	1948	1939	1939	622	0	0	0	0	0	0	0	0	1136	1823	1811	1795	1783	1760	1760	1627	0	0	0	0	0	0	0	0	0	0	0	0	0	0	0	0	0	0	0	0	0	2072	2196	2196	2330	2410	2507	2680	2746	2820	2879	2874	2853	2797	2766	2727	2653	2621	2585	2563	2550	2532	2512	2507	2507	2507	2507	2507	2526	2539	2558	2599	2619	2640	2683	2705	2727	2771	2795	2820	2843	2866	2920	2943	2960	2990	2990	2990	2990	3013	3026	3026	3026	3026	3026	3026	3026	3026	3026	3026	3026	3006	2990	2990	2970	2954	2954	2954	2898	0	0	0	0	0	0	0	0	0	0	0	0	0	0	0	0	0	0	0	0	0	0	0	0	0	0	0	0	0	0	0	0	0	0	0	0	0	0	0	0	0	0	0	0	0	0	0	0	0	0	0	0	0	0	0	0	0	0	0	0	0	0	0	0	0	0	0	0	0	0	0	0	0	0	0	0	0	0	0	0	0	0	0	0	0	0	0	0	0	0	0	0	0	0	0	0	0	0	0	687	1735	1724	1723	1723	1693	1688	1688	1651	1629	1601	1568	1546	1513	1476	1455	1426	1426	1022	0	0	0	0	0	0	0	0	0	0	0	0	0	0	0	0	0	0	0	0	0	0	0	0	0	1797	2879	2820	2764	2722	2669	2669	2667	2640	2640	2638	2612	2612	2612	2612	2612	2612	2612	2626	2640	2669	2697	2727	2756	2802	2853	2950	3004	3064	3175	3237	3309	3437	3488	3545	3640	3671	3704	3754	3805	3878	3878	3878	3878	3878	3878	3878	3878	3859	3818	3771	3727	3650	3608	3568	3495	3458	3411	3309	3244	3193	3102	3046	3010	2954	2930	2913	2886	2863	2847	2820	2820	2826	2853	2853	2858	2886	2908	2924	2954	2976	2994	3026	3026	3030	3064	3064	3064	3064	3042	3024	2990	2970	2953	2920	2902	2885	2853	2820	2788	2788	2788	2788	2884	2886	2886	2886	2886	2886	2886	2886	2886	2886	2886	2886	2886	2899	2920	2982	2990	2990	3021	3026	3026	3091	3115	3141	3175	3195	3223	3223	3223	3223	3223	3223	3223	3191	3171	3141	3141	3131	3102	3102	3102	3102	3102	3102	3102	3102	3095	3064	3064	3064	3064	3064	3064	3064	3064	3069	3102	3126	3146	3182	3232	3269	3309	3335	3354	3354	3354	3351	3309	3285	3263	3223	3201	3182	3182	3182	3182	3182	3182	3182	3182	3201	3223	3263	3265	3265	3265	3284	3309	3351	3354	3354	3396	3419	3447	3534	3585	3650	3697	3724	3760	3860	3899	3939	3992	4024	4068	4123	4157	4206	4206	4227	4279	4337	4354	4354	4354	4354	4354	4354	4337	4279	4227	4191	4136	4089	4044	3939	3898	3868	3818	3780	3752	3704	3669	3643	3597	3597	3597	3597	3597	3597	3597	3567	3545	3545	3574	3594	3545	3545	3547	3597	3597	3597	3597	3597	3597	3545	3545	3545	3496	3472	3447	3402	3359	3309	3267	3247	3223	3185	3165	3141	3141	3141	3141	3106	3102	3102	3102	3116	3141	3176	3196	3223	3258	3252	3223	3223	3211	3182	3182	3170	3141	3111	3092	3064	2981	2954	2954	2954	2954	2954	2954	2954	2954	2954	2954	2954	2978	2996	3026	3026	3032	3064	3064	3069	3102	3102	3106	3141	3166	3186	3223	3248	3272	3354	3380	3405	3495	3495	3497	3545	3572	3598	3650	3650	3650	3650	3676	3704	3759	3787	3818	3876	3906	3939	4061	4128	4206	4273	4310	4354	4497	4545	4596	4673	4717	4773	4854	4866	4866	4948	4963	4963	4963	4963	4963	5046	5034	4963	4963	4963	4963	4963	4990	5065	5065	5065	5065	5142	5170	5170	5170	5170	5170	5170	5170	5170	5170	5170	5170	5170	5170	5170	5170	5185	5280	5280	5293	5395	5395	5406	5515	5515
2103	2108	2121	2121	2121	2121	2121	2121	2121	2107	2099	2085	2060	2047	2034	2023	2008	1970	1948	1933	1909	1889	1875	1852	1852	1572	0	0	0	0	1136	1823	1811	1795	1783	1760	1760	1760	1760	1739	1723	1723	780	0	0	898	1700	1700	1706	1712	1723	1729	1735	1748	1765	1785	1836	1870	1909	1981	2036	2103	2226	2270	2319	2444	2497	2558	2582	2606	2640	2616	2593	2558	2536	2524	2507	2486	2466	2433	2414	2409	2409	2428	2433	2433	2471	2489	2507	2545	2571	2612	2654	2682	2727	2771	2795	2820	2843	2866	2920	2943	2960	2990	2990	2990	2990	3013	3026	3026	3026	3026	3026	3026	3023	2990	2990	2990	2990	2970	2954	2954	2935	2920	2920	2920	2920	2920	2920	2920	2920	2920	2920	2920	1543	0	0	0	0	0	0	0	0	0	0	0	0	0	0	0	0	0	0	0	0	0	0	0	0	0	0	0	0	0	0	0	0	0	0	0	0	0	0	0	0	0	0	0	0	0	0	0	0	0	0	0	0	0	0	0	0	0	0	0	0	0	0	0	0	0	0	0	0	0	0	0	0	0	0	0	0	0	0	0	0	0	0	0	0	0	0	0	0	0	0	0	0	0	0	0	0	0	0	0	0	0	0	0	0	0	0	0	0	0	0	0	0	0	0	0	0	0	0	0	0	0	0	0	0	0	0	0	0	0	0	480	3182	3106	3049	2954	2912	2879	2820	2801	2785	2757	2722	2698	2698	2665	2640	2640	2640	2640	2640	2640	2641	2669	2684	2698	2727	2742	2757	2819	2867	2920	3022	3078	3141	3258	3344	3447	3586	3619	3650	3802	3842	3878	3989	4028	4068	4068	4068	4068	4013	4003	4003	3950	3900	3818	3726	3688	3650	3567	3531	3495	3422	3376	3309	3244	3203	3141	3084	3055	3026	3000	2975	2920	2896	2886	2886	2886	2886	2886	2908	2925	2954	2977	2995	3026	3026	3030	3064	3064	3064	3064	3064	3061	3026	3006	2986	2920	2920	2920	2920	2902	2885	2853	2820	2788	2788	2788	2788	2788	2788	2788	2788	2802	2820	2820	2834	2853	2853	2853	2853	2853	2880	2920	2950	2968	2990	3021	3040	3064	3096	3129	3182	3216	3223	3223	3257	3252	3223	3223	3211	3182	3182	3161	3102	3102	3093	3064	3064	3064	3064	3064	3064	3064	3064	3064	3064	3064	3064	3064	3064	3070	3102	3102	3102	3102	3152	3191	3265	3292	3313	3354	3381	3400	3400	3400	3397	3354	3329	3307	3265	3265	3264	3223	3223	3223	3223	3223	3223	3264	3265	3265	3307	3309	3309	3351	3354	3354	3397	3400	3400	3443	3466	3495	3539	3565	3597	3643	3669	3704	3752	3800	3878	3929	3960	4003	4056	4089	4136	4136	4156	4206	4262	4279	4279	4336	4354	4354	4354	4337	4279	4227	4191	4136	4089	4044	3939	3898	3868	3818	3780	3752	3704	3669	3650	3650	3650	3644	3597	3597	3597	3597	3597	3597	3597	3627	3650	3650	3650	3650	3650	3650	3650	3650	3650	3650	3597	3597	3597	3546	3521	3495	3495	3452	3400	3314	3290	3265	3226	3223	3223	3186	3182	3182	3182	3182	3182	3182	3182	3182	3182	3196	3223	3258	3252	3223	3223	3211	3182	3182	3170	3141	3141	3121	3064	3008	2990	2990	2964	2954	2954	2980	2990	2990	2990	2990	2990	3014	3032	3064	3064	3064	3064	3064	3069	3102	3102	3106	3141	3166	3186	3223	3248	3272	3354	3380	3405	3495	3522	3547	3597	3625	3651	3704	3704	3704	3760	3760	3760	3817	3875	3939	4001	4032	4068	4132	4198	4279	4348	4354	4354	4425	4464	4512	4586	4629	4683	4761	4773	4773	4852	4866	4866	4866	4866	4866	4866	4838	4773	4773	4799	4866	4866	4866	4866	4866	4866	4866	4937	4963	4963	4963	4963	4963	4963	4982	5065	5065	5065	5065	5065	5081	5170	5170	5185	5280	5280	5280	5280	5349	5395	5395	5465
2092	2097	2103	2103	2103	2103	2110	2112	2112	2105	2096	2076	2058	2047	2034	2023	2008	1970	1948	1933	1909	1889	1875	1852	1852	1712	926	926	926	926	1494	1836	1818	1802	1790	1772	1769	1766	1754	1736	1723	1723	1252	861	856	1302	1700	1700	1706	1712	1723	1729	1735	1748	1765	1785	1836	1870	1909	1974	2021	2077	2188	2239	2298	2420	2472	2532	2567	2582	2599	2565	2545	2520	2488	2478	2470	2450	2438	2421	2411	2409	2409	2419	2424	2433	2461	2479	2507	2536	2561	2612	2654	2682	2727	2782	2811	2836	2871	2899	2955	2967	2978	3008	3008	3011	3027	3039	3042	3026	3026	3026	3026	3015	3006	2990	2990	2990	2990	2970	2954	2954	2935	2920	2920	2920	2920	2920	2920	2920	2920	2920	2920	2920	2239	1477	1477	1493	1513	1513	856	0	0	0	0	0	0	0	0	0	0	0	0	0	0	0	0	0	0	0	0	0	0	0	0	0	0	0	0	0	0	0	0	0	0	0	0	0	0	0	0	0	0	0	0	0	0	0	0	0	0	0	0	0	0	0	0	0	0	0	0	0	0	0	0	0	0	0	0	0	0	0	0	0	0	0	0	0	0	0	0	0	0	0	0	0	0	0	0	0	0	0	0	0	0	0	0	0	0	0	0	0	0	0	0	0	0	0	0	0	0	0	0	0	0	0	0	0	0	0	0	0	0	0	1037	1808	3142	3080	3033	2954	2912	2880	2836	2817	2801	2772	2737	2712	2712	2688	2669	2669	2669	2669	2669	2669	2670	2698	2705	2712	2758	2773	2788	2852	2901	2955	3060	3117	3182	3302	3390	3496	3614	3657	3705	3835	3898	3973	4028	4061	4102	4102	4102	4102	4046	4036	4036	3930	3870	3789	3720	3680	3624	3541	3506	3471	3398	3359	3309	3244	3203	3141	3098	3070	3026	3000	2979	2937	2925	2917	2903	2903	2906	2920	2943	2958	2972	2995	3013	3045	3045	3047	3064	3075	3083	3083	3072	3061	3026	3006	2986	2920	2911	2902	2870	2844	2821	2790	2759	2728	2728	2728	2728	2728	2728	2728	2742	2757	2774	2788	2802	2820	2820	2827	2836	2836	2863	2903	2948	2968	2990	3021	3046	3083	3116	3142	3182	3216	3223	3223	3240	3231	3202	3186	3171	3142	3142	3126	3083	3069	3059	3045	3045	3045	3045	3045	3045	3045	3045	3049	3064	3064	3064	3064	3077	3086	3102	3102	3105	3122	3172	3212	3287	3314	3336	3377	3390	3400	3400	3400	3399	3377	3352	3329	3265	3265	3265	3244	3244	3244	3266	3266	3266	3287	3287	3287	3330	3342	3354	3376	3377	3377	3398	3410	3424	3467	3481	3495	3539	3565	3597	3643	3669	3704	3752	3790	3848	3898	3919	3940	4018	4056	4102	4129	4156	4206	4262	4279	4279	4307	4326	4354	4354	4337	4279	4253	4228	4171	4099	4050	3971	3929	3898	3848	3809	3780	3732	3697	3677	3677	3677	3674	3650	3650	3650	3650	3650	3650	3650	3666	3677	3677	3677	3677	3677	3692	3705	3705	3705	3705	3650	3650	3650	3598	3561	3520	3520	3487	3448	3360	3335	3310	3290	3288	3288	3250	3246	3246	3246	3246	3246	3246	3246	3246	3246	3252	3266	3283	3273	3244	3227	3217	3202	3186	3176	3162	3146	3121	3064	3022	3008	3008	2995	2990	2990	3003	3008	3008	3008	3008	3008	3033	3048	3064	3077	3083	3083	3083	3086	3102	3102	3106	3141	3166	3186	3223	3248	3270	3332	3370	3405	3495	3522	3547	3597	3625	3652	3732	3732	3732	3789	3804	3819	3877	3922	3971	4033	4066	4102	4167	4218	4279	4348	4354	4354	4425	4464	4512	4586	4612	4640	4716	4728	4728	4767	4774	4774	4774	4774	4774	4739	4717	4684	4684	4698	4731	4731	4731	4731	4764	4774	4774	4843	4868	4868	4868	4878	4914	4914	4924	4966	4966	4974	5014	5048	5073	5118	5151	5177	5225	5259	5280	5280	5349	5395	5395	5465
2082	2085	2085	2085	2085	2085	2099	2103	2103	2103	2094	2068	2055	2047	2034	2023	2008	1970	1948	1933	1909	1889	1875	1852	1852	1852	1852	1852	1852	1852	1852	1849	1825	1809	1797	1785	1778	1771	1748	1734	1723	1723	1723	1723	1712	1706	1700	1700	1706	1712	1723	1729	1735	1748	1765	1785	1836	1870	1909	1967	2005	2051	2150	2207	2277	2397	2448	2507	2552	2558	2558	2514	2498	2482	2440	2433	2433	2413	2409	2409	2409	2409	2409	2409	2416	2433	2452	2470	2507	2526	2552	2612	2654	2682	2727	2794	2827	2853	2900	2933	2990	2990	2996	3026	3026	3032	3064	3064	3059	3026	3026	3026	3026	3004	2990	2990	2990	2990	2990	2970	2954	2954	2935	2920	2920	2920	2920	2920	2920	2920	2920	2920	2920	2920	2936	2954	2954	2987	3026	3026	1713	0	0	0	0	0	0	0	0	0	0	0	0	0	0	0	0	0	0	0	0	0	0	0	0	0	0	0	0	0	0	0	0	0	0	0	0	0	0	0	0	0	0	0	0	0	0	0	0	0	0	0	0	0	0	0	0	0	0	0	0	0	0	0	0	0	0	0	0	0	0	0	0	0	0	0	0	0	0	0	0	0	0	0	0	0	0	0	0	0	0	0	0	0	0	0	0	0	0	0	0	0	0	0	0	0	0	0	0	0	0	0	0	0	0	0	0	0	0	0	0	0	0	0	2074	3135	3102	3053	3016	2954	2912	2882	2853	2833	2817	2788	2752	2727	2727	2711	2698	2698	2698	2698	2698	2698	2699	2727	2727	2727	2788	2804	2820	2885	2935	2990	3098	3157	3223	3347	3437	3545	3642	3696	3760	3867	3953	4068	4068	4094	4136	4136	4136	4136	4078	4068	4068	3910	3840	3760	3715	3672	3597	3516	3481	3447	3375	3342	3309	3244	3203	3141	3112	3085	3026	3000	2983	2954	2954	2948	2920	2920	2926	2954	2978	2990	2990	3013	3031	3064	3064	3064	3064	3087	3102	3102	3080	3061	3026	3006	2986	2920	2901	2884	2820	2787	2756	2727	2697	2669	2669	2669	2669	2669	2669	2669	2697	2711	2727	2755	2770	2788	2788	2801	2820	2820	2846	2886	2946	2968	2990	3021	3053	3102	3135	3155	3182	3216	3223	3223	3223	3211	3182	3150	3130	3102	3102	3092	3064	3035	3026	3026	3026	3026	3026	3026	3026	3026	3026	3033	3064	3064	3064	3064	3089	3102	3102	3102	3107	3141	3192	3233	3309	3336	3358	3400	3400	3400	3400	3400	3400	3400	3375	3351	3265	3265	3265	3265	3265	3265	3309	3309	3309	3309	3309	3309	3352	3375	3400	3400	3400	3400	3400	3420	3447	3490	3495	3495	3539	3565	3597	3643	3669	3704	3752	3780	3818	3868	3878	3878	3979	4023	4068	4122	4156	4206	4262	4279	4279	4279	4297	4354	4354	4337	4279	4279	4264	4206	4110	4056	4003	3960	3929	3878	3838	3809	3760	3724	3704	3704	3704	3704	3704	3704	3704	3704	3704	3704	3704	3704	3704	3704	3704	3704	3704	3734	3760	3760	3760	3760	3704	3704	3704	3651	3600	3545	3545	3522	3495	3405	3380	3354	3354	3354	3354	3313	3309	3309	3309	3309	3309	3309	3309	3309	3309	3309	3309	3309	3295	3265	3231	3223	3223	3191	3182	3182	3150	3121	3064	3035	3026	3026	3026	3026	3026	3026	3026	3026	3026	3026	3026	3052	3064	3064	3089	3102	3102	3102	3102	3102	3102	3106	3141	3166	3186	3223	3248	3268	3309	3361	3405	3495	3522	3547	3597	3625	3652	3760	3760	3760	3818	3847	3878	3938	3969	4003	4066	4099	4136	4202	4238	4279	4348	4354	4354	4425	4464	4512	4586	4596	4596	4672	4683	4683	4683	4683	4683	4683	4683	4683	4612	4596	4596	4596	4596	4596	4596	4596	4596	4662	4683	4683	4749	4773	4773	4773	4792	4866	4866	4866	4866	4866	4882	4963	5030	5065	5065	5132	5170	5170	5238	5280	5280	5349	5395	5395	5465
2051	2051	2051	2064	2068	2068	2068	2072	2085	2085	2081	2068	2055	2047	2034	2023	2011	1985	1963	1948	1924	1904	1889	1866	1857	1852	1852	1852	1852	1852	1852	1849	1825	1809	1797	1785	1778	1771	1748	1734	1723	1723	1723	1723	1712	1712	1712	1712	1718	1723	1735	1741	1748	1773	1785	1798	1850	1871	1894	1951	1996	2051	2132	2196	2277	2397	2448	2507	2552	2548	2532	2510	2489	2457	2437	2433	2433	2413	2409	2409	2409	2409	2409	2409	2409	2409	2446	2470	2507	2526	2552	2612	2654	2682	2727	2794	2827	2853	2900	2933	2990	2990	2996	3026	3026	3026	3026	3026	3026	3026	3026	3026	3026	3004	2990	2990	2969	2954	2954	2935	2920	2920	2920	2920	2920	2920	2920	2920	2920	2920	2920	2937	2954	2954	2954	2954	2954	2987	3026	3026	3026	3026	228	0	0	0	0	0	0	0	0	0	0	0	0	0	0	0	0	0	0	0	0	0	0	0	0	0	0	0	0	0	0	0	0	0	0	0	0	0	0	0	0	0	0	0	0	0	0	0	0	0	0	0	0	0	0	0	0	0	0	0	0	0	0	0	0	0	0	0	0	0	0	0	0	0	0	0	0	0	0	0	0	0	0	0	0	0	0	0	0	0	0	0	0	0	0	0	0	0	0	0	0	0	0	0	0	0	0	0	0	0	0	0	0	0	0	0	0	0	0	0	0	0	2074	3135	3102	3053	3016	2954	2912	2882	2853	2833	2817	2788	2788	2786	2757	2740	2727	2727	2727	2727	2727	2743	2757	2757	2773	2788	2820	2836	2853	2885	2970	3064	3101	3176	3265	3392	3485	3597	3696	3751	3818	3872	3953	4068	4068	4120	4206	4145	4136	4136	4078	4068	4068	3910	3840	3760	3715	3672	3597	3516	3481	3447	3375	3342	3309	3244	3213	3182	3152	3132	3102	3102	3094	3064	3037	3026	3026	3026	3032	3064	3089	3108	3141	3141	3141	3141	3141	3137	3102	3102	3102	3102	3080	3061	3026	3006	2984	2886	2850	2816	2727	2696	2668	2640	2612	2585	2585	2585	2585	2585	2598	2612	2639	2666	2698	2725	2740	2757	2786	2801	2820	2820	2846	2886	2946	2981	3026	3059	3078	3102	3135	3155	3182	3216	3210	3182	3149	3129	3102	3102	3091	3064	3007	2990	2990	2963	2954	2954	2954	2954	2954	2954	2961	2990	2990	2997	3026	3026	3032	3064	3089	3102	3102	3127	3146	3182	3234	3275	3354	3354	3358	3400	3427	3447	3447	3447	3444	3400	3375	3352	3309	3309	3309	3309	3309	3309	3309	3309	3309	3353	3354	3354	3354	3375	3400	3444	3447	3447	3447	3467	3495	3495	3495	3495	3539	3545	3545	3545	3564	3597	3642	3668	3704	3750	3779	3818	3867	3916	4003	4055	4087	4136	4190	4225	4279	4279	4279	4279	4334	4354	4354	4300	4264	4206	4157	4123	4068	4024	3992	3939	3899	3869	3818	3818	3810	3760	3760	3760	3760	3760	3760	3760	3760	3760	3760	3793	3818	3818	3818	3818	3818	3850	3878	3878	3878	3878	3878	3849	3818	3761	3708	3650	3650	3626	3597	3548	3523	3495	3451	3447	3447	3447	3428	3400	3400	3400	3400	3400	3400	3400	3400	3384	3354	3317	3295	3265	3265	3252	3223	3223	3211	3182	3150	3131	3102	3073	3064	3064	3064	3064	3064	3064	3064	3064	3064	3064	3064	3090	3102	3102	3102	3102	3102	3102	3102	3102	3126	3141	3141	3166	3186	3223	3248	3268	3309	3361	3403	3447	3473	3499	3597	3625	3652	3760	3760	3760	3878	3878	3878	3938	3969	4003	4066	4068	4068	4132	4166	4206	4273	4279	4279	4347	4354	4354	4423	4432	4432	4501	4512	4512	4512	4512	4512	4512	4486	4432	4432	4432	4432	4432	4432	4432	4432	4432	4432	4432	4432	4432	4491	4531	4596	4596	4614	4683	4683	4700	4773	4773	4789	4866	4930	4978	5065	5132	5170	5170	5238	5280	5280	5349	5395	5395	5465
2034	2037	2042	2049	2053	2060	2060	2062	2068	2074	2072	2060	2053	2047	2034	2023	2011	1985	1969	1958	1939	1919	1904	1880	1871	1866	1866	1866	1865	1859	1859	1856	1832	1811	1797	1785	1781	1777	1754	1744	1735	1729	1729	1729	1718	1718	1718	1718	1723	1729	1748	1751	1754	1773	1785	1798	1850	1871	1894	1951	1992	2042	2132	2192	2266	2385	2431	2482	2516	2515	2507	2485	2464	2433	2423	2417	2410	2400	2398	2398	2398	2401	2409	2409	2409	2409	2456	2483	2520	2539	2561	2612	2665	2697	2742	2798	2830	2870	2917	2947	2990	2990	2993	3008	3008	3008	3008	3008	3008	3008	3008	3006	2990	2979	2972	2972	2961	2953	2937	2927	2920	2920	2920	2920	2920	2920	2920	2920	2920	2920	2937	2945	2954	2954	2962	2972	2972	2996	3026	3026	3026	3026	228	0	0	0	0	0	0	0	0	0	0	0	0	0	0	0	0	0	0	0	0	0	0	0	0	0	0	0	0	0	0	0	0	0	0	0	0	0	0	0	0	0	0	0	0	0	0	0	0	0	0	0	0	0	0	0	0	0	0	0	0	0	0	0	0	0	0	0	0	0	0	0	0	0	0	0	0	0	0	0	0	0	0	0	0	0	0	0	0	0	0	0	0	0	0	0	0	0	0	0	0	0	0	0	0	0	0	0	0	0	0	0	0	0	0	0	0	0	0	0	0	0	2074	3135	3102	3053	3016	2954	2912	2884	2870	2860	2850	2820	2811	2803	2788	2771	2757	2742	2742	2743	2758	2774	2788	2788	2796	2804	2836	2853	2870	2919	2988	3064	3119	3196	3287	3438	3512	3597	3696	3764	3848	3932	3991	4068	4129	4163	4206	4176	4171	4171	4112	4090	4068	3936	3870	3789	3720	3672	3597	3516	3475	3424	3370	3342	3309	3244	3218	3202	3172	3157	3142	3142	3134	3102	3076	3064	3064	3064	3071	3102	3115	3124	3141	3141	3141	3141	3141	3141	3142	3142	3138	3102	3080	3060	3008	2968	2934	2870	2825	2785	2698	2668	2640	2599	2578	2558	2558	2558	2558	2558	2571	2585	2624	2652	2684	2725	2740	2757	2800	2817	2836	2836	2863	2903	2964	3000	3045	3078	3097	3122	3138	3155	3182	3199	3189	3162	3114	3091	3064	3050	3036	3009	2980	2968	2955	2929	2920	2920	2920	2924	2937	2937	2941	2955	2967	2979	3008	3020	3032	3064	3089	3102	3102	3115	3129	3182	3234	3275	3354	3354	3358	3400	3414	3425	3447	3447	3446	3424	3398	3374	3309	3309	3309	3309	3309	3309	3332	3332	3332	3376	3377	3377	3377	3398	3424	3446	3447	3447	3447	3467	3495	3495	3495	3495	3517	3529	3545	3545	3564	3597	3620	3642	3677	3723	3750	3789	3861	3906	3971	4022	4054	4102	4155	4190	4242	4270	4279	4279	4334	4354	4354	4300	4264	4206	4182	4158	4102	4057	4030	4004	3941	3904	3878	3859	3844	3819	3819	3819	3819	3819	3819	3819	3819	3819	3819	3853	3880	3910	3910	3910	3910	3926	3940	3940	3940	3940	3940	3895	3848	3820	3779	3734	3706	3693	3678	3602	3575	3546	3524	3522	3522	3498	3487	3472	3450	3438	3424	3424	3424	3424	3404	3392	3377	3321	3302	3287	3269	3252	3223	3223	3211	3182	3150	3131	3102	3088	3083	3083	3083	3083	3083	3083	3087	3102	3102	3103	3102	3115	3122	3122	3122	3122	3122	3122	3122	3122	3146	3162	3162	3174	3186	3223	3248	3268	3309	3347	3381	3447	3473	3498	3571	3613	3652	3732	3746	3760	3848	3863	3878	3938	3954	3971	4033	4050	4068	4100	4132	4171	4237	4242	4242	4310	4316	4316	4384	4393	4393	4462	4458	4433	4433	4433	4433	4433	4420	4393	4363	4356	4356	4356	4356	4356	4356	4356	4356	4356	4356	4356	4413	4451	4514	4543	4572	4640	4640	4656	4728	4759	4789	4866	4930	4978	5065	5132	5170	5170	5238	5280	5280	5349	5401	5455	5490
2018	2023	2034	2034	2039	2051	2051	2051	2051	2064	2064	2051	2051	2047	2034	2023	2011	1985	1975	1967	1954	1934	1919	1894	1885	1880	1880	1880	1878	1866	1866	1863	1838	1814	1797	1785	1785	1783	1760	1753	1747	1735	1735	1735	1723	1723	1723	1723	1729	1735	1760	1760	1760	1773	1785	1798	1850	1871	1894	1951	1989	2034	2131	2188	2256	2374	2414	2457	2479	2482	2482	2460	2440	2409	2409	2401	2386	2386	2386	2386	2386	2393	2409	2409	2409	2409	2465	2495	2532	2552	2571	2612	2675	2711	2757	2802	2834	2886	2933	2961	2990	2990	2990	2990	2990	2990	2990	2990	2990	2990	2990	2986	2954	2954	2954	2954	2954	2951	2920	2920	2920	2920	2920	2920	2920	2920	2920	2920	2920	2920	2954	2954	2954	2954	2971	2990	2990	3006	3026	3026	3026	3026	228	0	0	0	0	0	0	0	0	0	0	0	0	0	0	0	0	0	0	0	0	0	0	0	0	0	0	0	0	0	0	0	0	0	0	0	0	0	0	0	0	0	0	0	0	0	0	0	0	0	0	0	0	0	0	0	0	0	0	0	0	0	0	0	0	0	0	0	0	0	0	0	0	0	0	0	0	0	0	0	0	0	0	0	0	0	0	0	0	0	0	0	0	0	0	0	0	0	0	0	0	0	0	0	0	0	0	0	0	0	0	0	0	0	0	0	0	0	0	0	0	0	2074	3135	3102	3053	3016	2954	2912	2886	2886	2886	2883	2853	2834	2820	2820	2802	2786	2757	2757	2758	2788	2805	2820	2820	2820	2820	2853	2869	2886	2953	3006	3064	3138	3217	3309	3484	3539	3597	3696	3776	3878	3991	4029	4068	4190	4206	4206	4206	4206	4206	4147	4113	4068	3961	3900	3818	3726	3672	3597	3516	3468	3400	3364	3342	3309	3244	3223	3223	3193	3182	3182	3182	3173	3141	3114	3102	3102	3102	3109	3141	3141	3141	3141	3141	3141	3141	3141	3146	3182	3182	3174	3102	3080	3058	2990	2931	2884	2853	2800	2754	2669	2639	2611	2558	2545	2532	2532	2532	2532	2532	2544	2558	2610	2638	2669	2724	2740	2757	2815	2834	2853	2853	2880	2920	2982	3018	3064	3097	3116	3141	3141	3155	3182	3182	3169	3141	3079	3053	3026	2997	2980	2954	2954	2945	2920	2894	2886	2886	2886	2894	2920	2920	2920	2920	2944	2961	2990	3014	3032	3064	3089	3102	3102	3102	3113	3182	3234	3275	3354	3354	3358	3400	3400	3404	3447	3447	3447	3447	3421	3397	3309	3309	3309	3309	3309	3309	3354	3354	3354	3399	3400	3400	3400	3421	3447	3447	3447	3447	3447	3467	3495	3495	3495	3495	3495	3514	3545	3545	3564	3597	3597	3615	3650	3695	3722	3760	3856	3896	3939	3990	4021	4068	4121	4154	4206	4261	4279	4279	4334	4354	4354	4300	4264	4206	4206	4193	4136	4090	4068	4068	3983	3939	3939	3900	3878	3878	3878	3878	3878	3878	3878	3878	3878	3878	3878	3913	3943	4003	4003	4003	4003	4003	4003	4003	4003	4003	4003	3942	3878	3878	3850	3818	3762	3760	3760	3656	3627	3597	3597	3597	3597	3550	3545	3545	3501	3477	3447	3447	3447	3447	3407	3400	3400	3324	3309	3309	3273	3252	3223	3223	3211	3182	3150	3131	3102	3102	3102	3102	3102	3102	3102	3102	3110	3141	3141	3141	3141	3141	3141	3141	3141	3141	3141	3141	3141	3141	3167	3182	3182	3182	3186	3223	3248	3268	3309	3334	3359	3447	3473	3497	3545	3600	3651	3704	3733	3760	3818	3847	3878	3938	3939	3939	4001	4032	4068	4068	4098	4136	4201	4206	4206	4272	4279	4279	4346	4354	4354	4422	4404	4354	4354	4354	4354	4354	4354	4354	4293	4279	4279	4279	4279	4279	4279	4279	4279	4279	4279	4279	4334	4372	4432	4489	4529	4596	4596	4612	4683	4744	4789	4866	4930	4978	5065	5132	5170	5170	5238	5280	5280	5349	5406	5515	5515
1998	2001	2001	2001	2006	2018	2030	2034	2034	2047	2051	2051	2051	2047	2034	2023	2014	2001	1990	1979	1954	1944	1936	1924	1914	1909	1909	1899	1890	1866	1857	1849	1825	1809	1797	1785	1778	1772	1760	1760	1759	1748	1741	1735	1735	1735	1735	1748	1754	1760	1773	1773	1773	1785	1797	1811	1837	1857	1880	1922	1950	1985	2062	2105	2158	2266	2311	2364	2404	2409	2409	2389	2386	2386	2348	2341	2341	2341	2341	2341	2341	2348	2364	2400	2409	2409	2465	2502	2558	2578	2606	2669	2712	2741	2788	2835	2867	2920	2944	2954	2954	2978	2990	2990	2966	2954	2954	2932	2920	2920	2920	2920	2920	2899	2886	2886	2886	2884	2853	2853	2853	2853	2871	2887	2920	2920	2920	2920	2937	2954	2990	2990	2990	3025	3026	3026	3026	3026	3026	3026	3026	3026	228	0	0	0	0	0	0	0	0	0	0	0	0	0	0	0	0	0	0	0	0	0	0	0	0	0	0	0	0	0	0	0	0	0	0	0	0	0	0	0	0	0	0	0	0	0	0	0	0	0	0	0	0	0	0	0	0	0	0	0	0	0	0	0	0	0	0	0	0	0	0	0	0	0	0	0	0	0	0	0	0	0	0	0	0	0	0	0	0	0	0	0	0	0	0	0	0	0	0	0	0	0	0	0	0	0	0	0	0	0	0	0	0	0	0	0	0	0	0	0	0	0	2074	3135	3102	3053	3016	2954	2912	2886	2886	2886	2886	2886	2886	2884	2853	2834	2820	2820	2820	2820	2820	2837	2853	2853	2853	2853	2886	2903	2920	2989	3025	3064	3138	3197	3265	3392	3463	3545	3642	3696	3760	3922	3964	4003	4121	4162	4206	4206	4206	4206	4147	4113	4068	3961	3882	3760	3715	3672	3597	3516	3468	3400	3364	3342	3309	3244	3223	3223	3193	3182	3182	3182	3173	3141	3114	3102	3102	3102	3109	3141	3168	3188	3223	3223	3223	3223	3223	3223	3223	3223	3212	3102	3080	3058	2990	2931	2882	2820	2753	2695	2612	2583	2557	2507	2494	2482	2482	2482	2482	2507	2531	2558	2610	2638	2669	2724	2753	2788	2818	2834	2853	2853	2893	2954	3052	3078	3102	3136	3141	3141	3141	3141	3141	3141	3116	3064	3033	3004	2954	2954	2944	2920	2894	2886	2886	2861	2853	2853	2853	2853	2853	2853	2860	2886	2910	2926	2954	2978	2996	3026	3051	3070	3102	3102	3107	3141	3192	3233	3309	3336	3358	3400	3400	3404	3447	3474	3492	3447	3421	3398	3354	3354	3354	3354	3354	3354	3400	3400	3400	3400	3422	3447	3447	3447	3447	3447	3447	3447	3447	3467	3495	3495	3495	3495	3495	3514	3545	3545	3545	3545	3589	3615	3650	3695	3704	3704	3796	3836	3878	3926	3957	4003	4106	4136	4136	4189	4206	4206	4260	4296	4354	4354	4338	4279	4228	4206	4206	4158	4124	4068	4068	4058	4003	4003	3995	3939	3939	3946	4003	4003	4003	4003	4003	4003	4003	4040	4072	4136	4136	4136	4136	4136	4136	4136	4136	4136	4068	4036	4003	3940	3939	3939	3880	3851	3818	3763	3760	3760	3708	3704	3704	3655	3629	3597	3597	3577	3545	3502	3478	3447	3447	3431	3400	3362	3340	3309	3273	3252	3223	3223	3211	3182	3182	3171	3141	3141	3141	3141	3141	3141	3141	3170	3182	3182	3182	3182	3182	3182	3182	3182	3182	3176	3141	3141	3146	3182	3182	3187	3223	3223	3223	3223	3248	3268	3309	3334	3357	3400	3426	3449	3495	3521	3547	3650	3678	3704	3760	3788	3818	3877	3907	3939	3939	3968	4003	4064	4068	4068	4131	4136	4136	4199	4206	4206	4271	4279	4279	4279	4279	4279	4279	4279	4279	4279	4279	4279	4220	4206	4206	4151	4136	4136	4136	4136	4136	4136	4153	4206	4206	4223	4279	4333	4370	4432	4432	4463	4596	4655	4714	4866	4930	4978	5065	5132	5185	5280	5280	5293	5395	5395	5406	5515	5515
1991	1993	1993	1993	1998	2010	2016	2020	2026	2038	2042	2042	2049	2047	2034	2028	2021	2001	1990	1981	1962	1951	1944	1932	1922	1915	1909	1899	1890	1866	1857	1849	1825	1809	1797	1785	1778	1772	1760	1760	1759	1748	1744	1742	1742	1745	1748	1754	1760	1766	1773	1776	1779	1791	1801	1811	1837	1857	1880	1914	1936	1962	2060	2105	2158	2266	2311	2364	2404	2396	2375	2355	2349	2342	2323	2320	2320	2320	2320	2320	2328	2340	2364	2391	2401	2409	2465	2502	2558	2589	2619	2684	2727	2756	2804	2839	2867	2920	2944	2954	2954	2966	2969	2955	2943	2937	2937	2915	2903	2903	2893	2886	2886	2876	2870	2870	2870	2867	2836	2836	2837	2853	2871	2887	2903	2912	2920	2937	2946	2954	2990	2990	2990	3025	3026	3026	3026	3026	3026	3026	3026	3026	228	0	0	0	0	0	0	0	0	0	0	0	0	0	0	0	0	0	0	0	0	0	0	0	0	0	0	0	0	0	0	0	0	0	0	0	0	0	0	0	0	0	0	0	0	0	0	0	0	0	0	0	0	0	0	0	0	0	0	0	0	0	0	0	0	0	0	0	0	0	0	0	0	0	0	0	0	0	0	0	0	0	0	0	0	0	0	0	0	0	0	0	0	0	0	0	0	0	0	0	0	0	0	0	0	0	0	0	0	0	0	0	0	0	0	0	0	0	0	0	0	0	2074	3135	3102	3053	3016	2954	2922	2903	2903	2893	2886	2886	2886	2884	2853	2844	2836	2836	2836	2836	2836	2854	2870	2870	2878	2886	2903	2920	2937	2989	3025	3064	3119	3177	3244	3369	3439	3520	3640	3696	3760	3922	3964	4003	4121	4162	4206	4206	4206	4206	4147	4113	4068	3961	3882	3760	3715	3672	3597	3516	3475	3424	3388	3359	3309	3244	3223	3223	3193	3182	3182	3182	3178	3162	3134	3122	3122	3135	3149	3182	3224	3249	3266	3280	3288	3288	3288	3288	3288	3275	3254	3142	3096	3057	2972	2905	2850	2804	2738	2680	2598	2564	2532	2494	2482	2470	2470	2470	2470	2494	2518	2545	2596	2630	2669	2738	2769	2804	2834	2864	2904	2936	2960	2990	3072	3105	3142	3159	3154	3141	3141	3134	3122	3122	3097	3045	3000	2974	2937	2924	2915	2903	2864	2853	2853	2828	2820	2820	2820	2824	2836	2836	2843	2870	2893	2909	2937	2973	2996	3026	3051	3067	3083	3095	3107	3141	3179	3212	3287	3327	3356	3377	3390	3404	3447	3461	3471	3471	3445	3422	3377	3377	3377	3377	3377	3377	3400	3412	3424	3424	3435	3447	3447	3447	3447	3447	3457	3471	3471	3481	3495	3495	3495	3495	3495	3514	3545	3545	3545	3545	3589	3615	3650	3672	3686	3704	3773	3816	3878	3902	3935	4003	4080	4111	4136	4162	4180	4206	4260	4287	4316	4343	4338	4279	4254	4242	4242	4194	4165	4137	4114	4097	4070	4048	4031	4004	4004	4007	4036	4036	4039	4070	4070	4070	4070	4088	4106	4171	4171	4171	4171	4190	4208	4208	4208	4208	4137	4104	4070	4005	3988	3971	3942	3899	3848	3821	3806	3789	3763	3749	3732	3682	3656	3624	3600	3577	3545	3502	3486	3471	3451	3431	3400	3362	3333	3287	3252	3238	3223	3207	3197	3182	3182	3171	3141	3141	3141	3141	3141	3146	3162	3191	3202	3202	3202	3203	3202	3202	3202	3202	3202	3199	3182	3182	3185	3202	3202	3205	3223	3223	3225	3244	3256	3268	3309	3334	3357	3400	3426	3448	3471	3497	3521	3598	3624	3650	3732	3760	3789	3847	3877	3908	3908	3937	3971	4032	4050	4068	4099	4102	4102	4164	4171	4171	4203	4221	4242	4242	4242	4242	4242	4242	4242	4213	4208	4208	4150	4137	4137	4109	4102	4102	4102	4102	4102	4102	4111	4137	4162	4187	4242	4296	4332	4393	4420	4455	4554	4612	4670	4820	4914	4978	5065	5132	5177	5225	5259	5293	5395	5431	5461	5515	5552
1985	1985	1985	1985	1990	2001	2001	2005	2018	2030	2034	2034	2047	2047	2034	2034	2027	2001	1990	1982	1970	1959	1951	1939	1929	1922	1909	1899	1890	1866	1857	1849	1825	1809	1797	1785	1778	1772	1760	1760	1759	1748	1748	1748	1748	1754	1760	1760	1767	1773	1773	1779	1785	1798	1804	1811	1837	1857	1880	1907	1922	1939	2058	2105	2158	2266	2311	2364	2404	2383	2341	2322	2311	2298	2298	2298	2298	2298	2298	2298	2315	2333	2364	2381	2393	2409	2465	2502	2558	2599	2633	2698	2741	2771	2820	2844	2867	2920	2944	2954	2954	2954	2948	2920	2920	2920	2920	2898	2886	2886	2865	2853	2853	2853	2853	2853	2853	2851	2820	2820	2822	2853	2871	2886	2886	2904	2921	2954	2954	2954	2990	2990	2990	3025	3026	3026	3026	3026	3026	3026	3026	3026	228	0	0	0	0	0	0	0	0	0	0	0	0	0	0	0	0	0	0	0	0	0	0	0	0	0	0	0	0	0	0	0	0	0	0	0	0	0	0	0	0	0	0	0	0	0	0	0	0	0	0	0	0	0	0	0	0	0	0	0	0	0	0	0	0	0	0	0	0	0	0	0	0	0	0	0	0	0	0	0	0	0	0	0	0	0	0	0	0	0	0	0	0	0	0	0	0	0	0	0	0	0	0	0	0	0	0	0	0	0	0	0	0	0	0	0	0	0	0	0	0	0	2074	3135	3102	3053	3016	2954	2933	2920	2920	2899	2886	2886	2886	2884	2853	2853	2853	2853	2853	2853	2853	2870	2886	2886	2903	2920	2920	2937	2954	2989	3025	3064	3101	3157	3223	3347	3415	3495	3638	3696	3760	3922	3964	4003	4121	4162	4206	4206	4206	4206	4147	4113	4068	3961	3882	3760	3715	3672	3597	3516	3481	3447	3411	3376	3309	3244	3223	3223	3193	3182	3182	3182	3182	3182	3153	3141	3141	3169	3189	3223	3280	3309	3309	3338	3354	3354	3354	3354	3354	3327	3297	3182	3113	3056	2954	2878	2818	2788	2723	2666	2585	2544	2507	2482	2469	2457	2457	2457	2457	2482	2506	2532	2583	2623	2669	2752	2784	2820	2851	2895	2954	3019	3026	3026	3093	3132	3182	3182	3167	3141	3141	3128	3102	3102	3078	3026	2968	2944	2920	2893	2886	2886	2835	2820	2820	2796	2788	2788	2788	2795	2820	2820	2827	2853	2876	2892	2920	2968	2996	3026	3051	3064	3064	3088	3107	3141	3167	3191	3265	3319	3354	3354	3381	3404	3447	3447	3450	3495	3469	3445	3400	3400	3400	3400	3400	3400	3400	3423	3447	3447	3447	3447	3447	3447	3447	3447	3468	3495	3495	3495	3495	3495	3495	3495	3495	3514	3545	3545	3545	3545	3589	3615	3650	3650	3667	3704	3749	3796	3878	3878	3913	4003	4053	4086	4136	4136	4153	4206	4260	4279	4279	4333	4338	4279	4279	4279	4279	4229	4206	4206	4160	4136	4136	4092	4068	4068	4068	4068	4068	4068	4074	4136	4136	4136	4136	4136	4140	4206	4206	4206	4206	4245	4279	4279	4279	4279	4206	4172	4136	4069	4037	4003	4003	3946	3878	3878	3852	3818	3818	3794	3760	3709	3683	3650	3603	3577	3545	3502	3495	3495	3454	3431	3400	3362	3325	3265	3231	3223	3223	3191	3182	3182	3182	3171	3141	3141	3141	3141	3141	3150	3182	3211	3223	3223	3223	3223	3223	3223	3223	3223	3223	3223	3223	3223	3223	3223	3223	3223	3223	3223	3227	3265	3265	3268	3309	3334	3357	3400	3426	3447	3447	3472	3496	3545	3571	3597	3704	3731	3760	3817	3846	3878	3878	3906	3939	3999	4031	4068	4068	4068	4068	4130	4136	4136	4136	4162	4206	4206	4206	4206	4206	4206	4206	4148	4136	4136	4081	4068	4068	4068	4068	4068	4068	4068	4068	4068	4068	4068	4118	4152	4206	4258	4295	4354	4408	4447	4512	4569	4626	4773	4898	4978	5065	5132	5170	5170	5238	5293	5395	5467	5515	5515	5588
1970	1970	1970	1970	1974	1985	1997	2001	2001	2014	2022	2034	2047	2051	2051	2039	2034	2034	2023	2015	2001	1980	1967	1954	1954	1949	1924	1914	1905	1880	1871	1863	1838	1822	1810	1798	1790	1784	1773	1773	1773	1773	1773	1773	1773	1779	1785	1785	1792	1798	1811	1811	1811	1825	1831	1838	1851	1865	1880	1907	1922	1939	146	0	0	0	0	0	0	883	2341	2322	2296	2256	2256	2249	2236	2236	2256	2298	2315	2333	2364	2381	2399	2433	2471	2502	2558	2620	2661	2727	2772	2795	2820	2867	2900	2954	2954	2954	2954	2954	2948	2920	2898	2886	2886	2865	2853	2853	2832	2820	2820	2820	2820	2820	2820	2820	2820	2820	2822	2853	2853	2854	2886	2904	2921	2954	2972	2990	3026	3026	3026	3063	3064	3064	3027	3026	3026	3026	3026	3026	228	0	0	0	0	0	0	0	0	0	0	0	0	0	0	0	0	0	0	0	0	0	0	0	0	0	0	0	0	0	0	0	0	0	0	0	0	0	0	0	0	0	0	0	0	0	0	0	0	0	0	0	0	0	0	0	0	0	0	0	0	0	0	0	0	0	0	0	0	0	0	0	0	0	0	0	0	0	0	0	0	0	0	0	0	0	0	0	0	0	0	0	0	0	0	0	0	0	0	0	0	0	0	0	0	0	0	0	0	0	0	0	0	0	0	0	0	0	0	0	0	0	2074	3135	3102	3078	3054	2990	2968	2950	2920	2899	2886	2886	2886	2884	2853	2853	2853	2853	2853	2854	2886	2886	2886	2886	2903	2920	2954	2954	2954	2989	3025	3064	3101	3157	3223	3347	3415	3495	3638	3696	3760	3867	3928	4003	4121	4162	4206	4206	4206	4206	4147	4113	4068	4014	3925	3760	3715	3672	3597	3516	3481	3447	3411	3376	3309	3244	3223	3223	3223	3214	3182	3182	3182	3182	3153	3141	3141	3169	3196	3265	3324	3354	3354	3384	3400	3400	3371	3354	3354	3327	3297	3182	3113	3056	2954	2878	2818	2788	2723	2666	2585	2544	2506	2457	2445	2433	2433	2445	2457	2482	2506	2532	2583	2623	2669	2752	2784	2820	2912	2949	2990	3091	3102	3102	3209	3223	3223	3187	3167	3141	3108	3089	3064	3064	3040	2990	2933	2900	2853	2853	2844	2820	2795	2788	2788	2765	2757	2757	2757	2764	2788	2811	2820	2820	2843	2866	2920	2943	2960	2990	3014	3032	3064	3064	3069	3102	3152	3191	3265	3292	3313	3354	3381	3400	3400	3427	3450	3495	3469	3445	3400	3400	3400	3400	3400	3400	3400	3423	3447	3447	3447	3447	3447	3447	3447	3447	3468	3495	3495	3495	3495	3495	3495	3495	3495	3514	3545	3545	3545	3545	3589	3615	3650	3650	3667	3704	3749	3778	3818	3866	3895	3939	3989	4020	4068	4119	4136	4136	4188	4223	4279	4333	4354	4354	4302	4279	4279	4279	4279	4279	4279	4268	4206	4206	4206	4206	4206	4206	4206	4206	4206	4206	4249	4279	4279	4279	4283	4354	4354	4354	4354	4354	4354	4354	4354	4354	4354	4281	4206	4137	4104	4068	4005	4003	4003	3943	3913	3878	3878	3878	3878	3824	3795	3760	3710	3684	3650	3604	3560	3495	3454	3431	3400	3324	3295	3265	3231	3223	3223	3191	3182	3182	3182	3171	3141	3141	3151	3182	3182	3191	3223	3253	3265	3265	3296	3309	3309	3279	3265	3265	3265	3265	3265	3265	3265	3265	3265	3265	3265	3265	3265	3265	3265	3268	3309	3309	3312	3354	3379	3400	3400	3450	3496	3545	3571	3597	3650	3704	3760	3817	3846	3878	3878	3906	3939	3999	4031	4068	4068	4068	4068	4068	4095	4136	4136	4136	4136	4136	4136	4136	4136	4136	4136	4136	4136	4136	4081	4048	4003	4003	4021	4068	4068	4068	4068	4068	4068	4068	4068	4083	4136	4186	4221	4279	4331	4369	4432	4486	4541	4683	4804	4881	4963	5028	5079	5170	5238	5293	5395	5395	5406	5515	5515
1962	1962	1962	1962	1966	1978	1984	1990	2001	2014	2020	2026	2038	2044	2051	2045	2042	2042	2031	2023	2010	1993	1983	1970	1970	1965	1939	1929	1920	1894	1881	1871	1852	1835	1823	1812	1804	1797	1786	1786	1786	1786	1786	1786	1786	1792	1798	1805	1808	1812	1824	1828	1832	1838	1845	1852	1865	1876	1887	1007	961	970	73	0	0	0	0	0	0	442	1170	1161	1553	2256	2256	2242	2216	2216	2239	2288	2322	2344	2375	2402	2420	2445	2503	2541	2599	2663	2702	2758	2804	2832	2870	2894	2914	2954	2967	2969	2954	2942	2934	2920	2898	2886	2886	2865	2853	2853	2832	2818	2804	2804	2804	2804	2804	2805	2820	2820	2821	2836	2846	2854	2886	2904	2921	2954	2972	2990	3026	3035	3045	3064	3064	3064	3027	3026	3026	3026	3026	3026	228	0	0	0	0	0	0	0	0	0	0	0	0	0	0	0	0	0	0	0	0	0	0	0	0	0	0	0	0	0	0	0	0	0	0	0	0	0	0	0	0	0	0	0	0	0	0	0	0	0	0	0	0	0	0	0	0	0	0	0	0	0	0	0	0	0	0	0	0	0	0	0	0	0	0	0	0	0	0	0	0	0	0	0	0	0	0	0	0	0	0	0	0	0	0	0	0	0	0	0	0	0	0	0	0	0	0	0	0	0	0	0	0	0	0	0	0	0	0	0	0	0	1037	1568	1551	1539	1527	1495	2393	2933	2903	2893	2884	2870	2860	2852	2836	2836	2836	2836	2846	2854	2870	2870	2870	2886	2903	2920	2954	2954	2954	3007	3034	3064	3101	3157	3223	3325	3392	3471	3588	3653	3732	3811	3892	4003	4121	4162	4206	4206	4206	4206	4147	4113	4068	4014	3944	3819	3726	3680	3624	3541	3499	3447	3411	3382	3332	3265	3244	3244	3244	3239	3224	3239	3246	3246	3231	3225	3225	3239	3264	3356	3385	3404	3424	3424	3420	3400	3386	3377	3377	3350	3317	3182	3113	3056	2954	2887	2834	2788	2723	2666	2585	2544	2506	2457	2445	2433	2433	2445	2457	2494	2518	2545	2596	2637	2684	2767	2807	2853	2931	2974	3027	3113	3122	3122	3212	3223	3223	3187	3167	3141	3092	3070	3045	3030	3004	2955	2899	2871	2836	2824	2816	2804	2780	2769	2758	2746	2742	2742	2742	2749	2772	2795	2807	2820	2843	2862	2903	2938	2960	2990	3014	3032	3064	3064	3069	3102	3152	3191	3265	3292	3311	3332	3358	3379	3400	3427	3448	3471	3458	3445	3400	3400	3400	3400	3400	3400	3400	3412	3424	3424	3435	3447	3447	3447	3447	3447	3457	3471	3493	3495	3495	3495	3495	3495	3517	3529	3545	3545	3554	3571	3593	3615	3650	3650	3667	3704	3727	3749	3789	3836	3865	3908	3957	3988	4036	4061	4086	4136	4188	4214	4242	4322	4354	4354	4328	4316	4316	4316	4316	4316	4316	4311	4280	4280	4280	4280	4280	4280	4280	4280	4280	4280	4301	4319	4356	4356	4358	4393	4393	4393	4393	4393	4393	4393	4373	4354	4316	4262	4206	4137	4104	4068	4005	4003	4003	3973	3944	3908	3908	3908	3908	3854	3825	3789	3738	3711	3677	3608	3560	3495	3454	3431	3400	3324	3295	3265	3231	3223	3223	3191	3182	3182	3182	3177	3162	3162	3167	3182	3197	3212	3244	3275	3292	3310	3325	3332	3332	3317	3310	3310	3295	3287	3287	3287	3287	3287	3287	3285	3265	3265	3267	3287	3287	3289	3309	3309	3312	3354	3379	3400	3400	3450	3496	3545	3571	3597	3650	3704	3760	3817	3832	3848	3877	3906	3939	3999	4017	4036	4036	4036	4036	4065	4081	4102	4102	4102	4102	4102	4102	4102	4074	4070	4070	4096	4102	4102	4074	4048	4003	4003	4012	4036	4061	4068	4068	4068	4068	4068	4068	4083	4136	4161	4186	4242	4294	4338	4432	4486	4534	4640	4758	4834	4914	5011	5079	5170	5204	5238	5338	5372	5401	5455	5490
1954	1954	1954	1954	1959	1970	1970	1978	2001	2014	2018	2018	2030	2038	2051	2051	2051	2051	2039	2031	2018	2006	1998	1985	1985	1980	1954	1944	1935	1909	1891	1878	1866	1849	1837	1825	1817	1810	1798	1798	1798	1798	1798	1798	1798	1805	1811	1825	1825	1825	1838	1845	1852	1852	1859	1866	1879	1886	1894	107	0	0	0	0	0	0	0	0	0	0	0	0	809	2256	2256	2236	2196	2196	2222	2277	2329	2355	2386	2423	2440	2457	2535	2580	2640	2706	2742	2788	2836	2868	2920	2920	2927	2954	2979	2983	2954	2931	2920	2920	2898	2886	2886	2865	2853	2853	2832	2816	2788	2788	2788	2788	2788	2790	2820	2820	2820	2820	2838	2854	2886	2904	2921	2954	2972	2990	3026	3045	3064	3064	3064	3064	3027	3026	3026	3026	3026	3026	228	0	0	0	0	0	0	0	0	0	0	0	0	0	0	0	0	0	0	0	0	0	0	0	0	0	0	0	0	0	0	0	0	0	0	0	0	0	0	0	0	0	0	0	0	0	0	0	0	0	0	0	0	0	0	0	0	0	0	0	0	0	0	0	0	0	0	0	0	0	0	0	0	0	0	0	0	0	0	0	0	0	0	0	0	0	0	0	0	0	0	0	0	0	0	0	0	0	0	0	0	0	0	0	0	0	0	0	0	0	0	0	0	0	0	0	0	0	0	0	0	0	0	0	0	0	0	0	1818	2916	2886	2886	2883	2853	2834	2820	2820	2820	2820	2820	2838	2853	2853	2853	2854	2886	2903	2920	2954	2954	2954	3025	3044	3064	3101	3157	3223	3304	3369	3447	3538	3611	3704	3755	3856	4003	4121	4162	4206	4206	4206	4206	4147	4113	4068	4014	3963	3878	3737	3688	3650	3567	3517	3447	3411	3388	3354	3287	3265	3265	3265	3265	3265	3297	3309	3309	3309	3309	3309	3309	3332	3447	3447	3454	3495	3464	3441	3400	3400	3400	3400	3372	3338	3182	3113	3056	2954	2897	2849	2788	2723	2666	2585	2544	2506	2457	2445	2433	2433	2445	2457	2506	2531	2558	2610	2651	2698	2783	2831	2886	2949	3000	3064	3134	3141	3141	3214	3223	3223	3187	3167	3141	3076	3051	3026	2996	2968	2920	2866	2843	2820	2795	2788	2788	2764	2749	2727	2727	2727	2727	2727	2734	2757	2779	2795	2820	2843	2859	2886	2932	2960	2990	3014	3032	3064	3064	3069	3102	3152	3191	3265	3292	3309	3309	3335	3357	3400	3427	3447	3447	3447	3445	3400	3400	3400	3400	3400	3400	3400	3400	3400	3400	3422	3447	3447	3447	3447	3447	3447	3447	3491	3495	3495	3495	3495	3495	3539	3545	3545	3545	3564	3597	3597	3615	3650	3650	3667	3704	3704	3721	3760	3806	3835	3878	3925	3956	4003	4003	4036	4136	4188	4206	4206	4312	4354	4354	4354	4354	4354	4354	4354	4354	4354	4354	4354	4354	4354	4354	4354	4354	4354	4354	4354	4354	4354	4360	4432	4432	4432	4432	4432	4432	4432	4432	4432	4432	4392	4354	4279	4243	4206	4137	4104	4068	4005	4003	4003	4003	3975	3939	3939	3939	3939	3884	3854	3818	3767	3739	3704	3611	3560	3495	3454	3431	3400	3324	3295	3265	3231	3223	3223	3191	3182	3182	3182	3182	3182	3182	3182	3182	3212	3233	3265	3297	3318	3354	3354	3354	3354	3354	3354	3354	3324	3309	3309	3309	3309	3309	3309	3304	3265	3265	3269	3309	3309	3309	3309	3309	3312	3354	3379	3400	3400	3450	3496	3545	3571	3597	3650	3704	3760	3817	3818	3818	3876	3906	3939	3999	4003	4003	4003	4003	4003	4062	4068	4068	4068	4068	4068	4068	4068	4068	4013	4003	4003	4057	4068	4068	4068	4048	4003	4003	4003	4003	4053	4068	4068	4068	4068	4068	4068	4083	4136	4136	4151	4206	4257	4308	4432	4486	4526	4596	4713	4787	4866	4994	5079	5170	5170	5182	5280	5349	5395	5395	5465
1939	1939	1939	1939	1943	1954	1966	1970	1970	1981	1989	2001	2014	2022	2034	2034	2038	2051	2051	2048	2034	2034	2031	2018	2007	1999	1985	1975	1966	1939	1920	1907	1894	1877	1863	1838	1838	1837	1825	1825	1825	1825	1825	1825	1838	1838	1838	1852	1852	1852	1866	1873	1880	1880	1887	1894	71	0	0	0	0	0	0	0	0	0	0	0	0	0	0	0	0	0	0	746	2196	2196	2222	2277	2329	2362	2409	2467	2504	2558	2621	2671	2757	2829	2878	2954	2980	2990	2990	2990	2990	2990	3015	3019	2990	2942	2914	2886	2864	2853	2853	2853	2849	2820	2820	2816	2788	2788	2788	2788	2788	2790	2820	2820	2820	2820	2838	2856	2920	2920	2921	2954	2991	3026	3064	3064	3064	3064	3064	3064	3064	3064	3064	3064	3064	3064	231	0	0	0	0	0	0	0	0	0	0	0	0	0	0	0	0	0	0	0	0	0	0	0	0	0	0	0	0	0	0	0	0	0	0	0	0	0	0	0	0	0	0	0	0	0	0	0	0	0	0	0	0	0	0	0	0	0	0	0	0	0	0	0	0	0	0	0	0	0	0	0	0	0	0	0	0	0	0	0	0	0	0	0	0	0	0	0	0	0	0	0	0	0	0	0	0	0	0	0	0	0	0	0	0	0	0	0	0	0	0	0	0	0	0	0	0	0	0	0	0	0	0	0	0	0	0	0	1818	2912	2853	2833	2820	2820	2820	2820	2820	2820	2820	2820	2838	2853	2853	2853	2854	2886	2903	2920	2954	2972	2990	3025	3044	3064	3101	3157	3223	3304	3369	3447	3538	3611	3704	3755	3807	3878	3989	4003	4003	4059	4068	4068	4126	4113	4068	4014	3982	3939	3841	3800	3760	3716	3674	3597	3557	3519	3447	3377	3354	3354	3354	3354	3354	3387	3390	3354	3354	3354	3354	3354	3370	3447	3447	3447	3447	3417	3394	3354	3354	3359	3400	3372	3338	3182	3113	3056	2954	2897	2848	2757	2709	2666	2585	2531	2482	2457	2433	2409	2409	2433	2457	2506	2531	2558	2637	2679	2727	2815	2863	2920	2985	3021	3064	3134	3173	3223	3223	3208	3182	3113	3102	3102	3037	3014	2990	2960	2932	2886	2832	2810	2788	2763	2749	2727	2705	2698	2698	2698	2698	2698	2698	2705	2727	2749	2770	2820	2843	2859	2886	2932	2960	2990	3014	3032	3064	3064	3069	3102	3126	3150	3223	3248	3269	3309	3335	3354	3354	3380	3403	3447	3421	3400	3400	3400	3400	3400	3400	3400	3400	3400	3400	3400	3400	3400	3400	3421	3447	3447	3447	3447	3447	3467	3495	3495	3495	3495	3539	3545	3545	3545	3564	3597	3597	3615	3650	3650	3667	3704	3704	3721	3760	3760	3776	3818	3864	3894	3939	3987	4019	4068	4118	4152	4206	4258	4295	4354	4354	4369	4432	4432	4432	4432	4432	4432	4432	4432	4432	4432	4432	4432	4432	4432	4432	4432	4432	4432	4432	4432	4432	4432	4476	4512	4512	4470	4431	4354	4316	4279	4206	4172	4136	4069	4068	4068	4005	4003	4003	4003	4003	4003	3944	3939	3939	3939	3915	3878	3825	3796	3760	3665	3631	3597	3510	3479	3447	3370	3325	3265	3265	3252	3223	3223	3211	3182	3182	3182	3182	3182	3192	3223	3254	3275	3309	3341	3354	3354	3386	3409	3447	3447	3447	3447	3416	3400	3400	3400	3400	3400	3400	3400	3400	3372	3354	3354	3354	3354	3354	3354	3357	3400	3400	3402	3447	3472	3496	3545	3571	3597	3650	3704	3760	3817	3818	3818	3876	3906	3939	3999	4003	4003	4003	4003	4003	4003	4003	4003	4003	4003	4003	4003	4003	4003	4003	4003	4003	4057	4068	4068	4068	4048	4003	4003	4003	4003	4053	4068	4068	4068	4068	4068	4068	4083	4136	4136	4151	4206	4257	4293	4354	4407	4446	4512	4625	4697	4773	4833	4879	4963	5027	5077	5170	5236	5280	5280	5347
1938	1937	1932	1932	1936	1946	1958	1964	1970	1981	1989	2001	2007	2013	2026	2032	2036	2042	2042	2041	2034	2029	2025	2018	2007	1999	1985	1970	1959	1939	1920	1907	1887	1874	1864	1845	1841	1838	1832	1832	1832	1832	1832	1832	1845	1849	1852	1866	1866	1866	1873	1880	1887	1894	1898	1902	997	526	0	0	0	0	0	0	0	0	0	0	0	0	0	0	0	0	0	373	1098	1098	1111	1138	1164	1584	2539	2568	2622	2739	2771	2809	2892	2956	3005	3088	3102	3097	3066	3038	3027	3027	3001	2983	2955	2908	2881	2853	2842	2832	2805	2805	2805	2804	2794	2787	2772	2782	2790	2804	2804	2805	2820	2829	2836	2836	2855	2872	2937	2947	2955	2972	3009	3045	3083	3093	3102	3083	3083	3083	1591	1532	1532	1532	1532	1532	116	0	0	0	0	0	0	0	0	0	0	0	0	0	0	0	0	0	0	0	0	0	0	0	0	0	0	0	0	0	0	0	0	0	0	0	0	0	0	0	0	0	0	0	0	0	0	0	0	0	0	0	0	0	0	0	0	0	0	0	0	0	0	0	0	0	0	0	0	0	0	0	0	0	0	0	0	0	0	0	0	0	0	0	0	0	0	0	0	0	0	0	0	0	0	0	0	0	0	0	0	0	0	0	0	0	0	0	0	0	0	0	0	0	0	0	0	0	0	0	0	0	0	0	0	0	0	0	909	1618	2853	2833	2820	2820	2820	2820	2820	2820	2821	2836	2846	2853	2853	2862	2870	2903	2920	2937	2972	2990	3008	3044	3063	3083	3101	3157	3223	3304	3369	3447	3538	3589	3650	3700	3750	3819	3900	3922	3940	3995	4004	4004	4060	4058	4036	3982	3961	3939	3865	3830	3789	3744	3709	3650	3589	3551	3496	3424	3395	3377	3377	3377	3377	3393	3390	3354	3338	3332	3332	3332	3347	3424	3424	3424	3424	3394	3374	3354	3354	3357	3377	3350	3317	3182	3113	3056	2954	2897	2848	2757	2709	2666	2585	2531	2482	2457	2433	2409	2409	2433	2457	2506	2531	2558	2637	2679	2727	2815	2863	2920	3001	3031	3064	3134	3173	3223	3223	3200	3162	3110	3088	3064	3016	2996	2972	2943	2915	2870	2816	2794	2772	2748	2738	2727	2705	2698	2698	2698	2698	2698	2698	2705	2727	2749	2770	2820	2843	2859	2886	2932	2960	2990	3014	3032	3064	3064	3069	3102	3126	3150	3223	3248	3269	3309	3335	3354	3354	3380	3401	3424	3411	3399	3377	3377	3377	3377	3377	3377	3377	3377	3377	3377	3388	3400	3400	3411	3424	3446	3447	3447	3447	3467	3495	3495	3495	3495	3539	3555	3571	3571	3580	3597	3620	3642	3677	3677	3686	3704	3704	3721	3760	3760	3776	3818	3864	3886	3908	3956	3987	4036	4109	4152	4206	4258	4295	4354	4381	4400	4432	4432	4432	4432	4432	4432	4432	4458	4472	4472	4472	4472	4472	4472	4472	4472	4472	4472	4472	4472	4470	4432	4454	4472	4472	4430	4392	4354	4316	4279	4171	4137	4102	4069	4053	4036	3973	3971	3971	3971	3971	3971	3941	3939	3939	3911	3885	3848	3796	3767	3732	3661	3631	3597	3510	3479	3447	3370	3340	3310	3291	3274	3244	3227	3217	3202	3202	3202	3202	3202	3213	3244	3276	3297	3332	3364	3382	3400	3433	3452	3471	3488	3492	3471	3455	3448	3448	3448	3448	3448	3433	3424	3424	3410	3398	3377	3377	3379	3400	3400	3402	3424	3424	3424	3447	3472	3496	3545	3571	3597	3677	3718	3760	3817	3818	3818	3876	3906	3939	3999	4003	4003	4003	4003	4003	4003	4003	4003	4003	4003	4003	4003	3992	3971	3971	3982	4003	4030	4046	4068	4068	4058	4036	4036	4036	4036	4061	4077	4102	4102	4102	4102	4102	4110	4136	4136	4151	4206	4257	4286	4316	4368	4406	4472	4555	4617	4728	4787	4832	4914	4976	5026	5118	5182	5230	5280	5347
1936	1934	1924	1924	1928	1939	1951	1958	1970	1981	1989	2001	2001	2005	2018	2029	2034	2034	2034	2034	2034	2023	2018	2018	2007	1999	1985	1965	1952	1939	1920	1906	1880	1872	1865	1852	1844	1838	1838	1838	1838	1838	1838	1839	1852	1859	1866	1880	1880	1880	1880	1887	1894	1909	1909	1909	1923	1053	0	0	0	0	0	0	0	0	0	0	0	0	0	0	0	0	0	0	0	0	0	0	0	806	2669	2669	2740	2920	2920	2948	3026	3083	3132	3223	3223	3204	3141	3086	3064	3064	2987	2948	2920	2874	2847	2820	2820	2810	2757	2757	2761	2788	2769	2757	2757	2776	2791	2820	2820	2820	2820	2839	2853	2853	2871	2889	2954	2973	2990	2990	3028	3064	3102	3121	3141	3103	3102	3102	117	0	0	0	0	0	0	0	0	0	0	0	0	0	0	0	0	0	0	0	0	0	0	0	0	0	0	0	0	0	0	0	0	0	0	0	0	0	0	0	0	0	0	0	0	0	0	0	0	0	0	0	0	0	0	0	0	0	0	0	0	0	0	0	0	0	0	0	0	0	0	0	0	0	0	0	0	0	0	0	0	0	0	0	0	0	0	0	0	0	0	0	0	0	0	0	0	0	0	0	0	0	0	0	0	0	0	0	0	0	0	0	0	0	0	0	0	0	0	0	0	0	0	0	0	0	0	0	0	0	0	0	0	0	0	323	2853	2833	2820	2820	2820	2820	2820	2820	2822	2853	2853	2853	2853	2870	2887	2920	2937	2954	2990	3008	3026	3063	3082	3102	3102	3157	3223	3304	3369	3447	3538	3567	3597	3645	3694	3760	3811	3841	3878	3931	3939	3939	3993	4003	4003	3950	3939	3939	3890	3860	3818	3772	3744	3704	3621	3583	3545	3471	3435	3400	3400	3400	3400	3400	3390	3354	3323	3309	3309	3309	3324	3400	3400	3400	3400	3370	3354	3354	3354	3354	3354	3327	3297	3182	3113	3056	2954	2897	2848	2757	2709	2666	2585	2531	2482	2457	2433	2409	2409	2433	2457	2506	2531	2558	2637	2679	2727	2815	2863	2920	3018	3042	3064	3134	3173	3223	3223	3192	3141	3107	3075	3026	2995	2978	2954	2926	2899	2853	2800	2779	2757	2733	2727	2727	2705	2698	2698	2698	2698	2698	2698	2705	2727	2749	2770	2820	2843	2859	2886	2932	2960	2990	3014	3032	3064	3064	3069	3102	3126	3150	3223	3248	3269	3309	3335	3354	3354	3380	3400	3400	3400	3398	3354	3354	3354	3354	3354	3354	3354	3354	3354	3354	3376	3400	3400	3400	3400	3444	3447	3447	3447	3467	3495	3495	3495	3495	3539	3565	3597	3597	3597	3597	3642	3668	3704	3704	3704	3704	3704	3721	3760	3760	3776	3818	3864	3878	3878	3924	3955	4003	4101	4152	4206	4258	4295	4354	4408	4432	4432	4432	4432	4432	4432	4432	4432	4483	4512	4512	4512	4512	4512	4512	4512	4512	4512	4512	4512	4512	4507	4432	4432	4432	4432	4391	4354	4354	4316	4279	4136	4103	4068	4068	4037	4003	3941	3939	3939	3939	3939	3939	3939	3939	3939	3884	3854	3818	3767	3739	3704	3657	3631	3597	3510	3479	3447	3370	3354	3354	3317	3296	3265	3232	3223	3223	3223	3223	3223	3223	3233	3265	3297	3319	3354	3387	3410	3447	3481	3495	3495	3529	3537	3495	3495	3495	3495	3495	3495	3495	3465	3447	3447	3447	3443	3400	3400	3404	3447	3447	3447	3447	3447	3447	3447	3472	3496	3545	3571	3597	3704	3731	3760	3817	3818	3818	3876	3906	3939	3999	4003	4003	4003	4003	4003	4003	4003	4003	4003	4003	4003	4003	3980	3939	3939	3961	4003	4003	4024	4068	4068	4068	4068	4068	4068	4068	4068	4086	4136	4136	4136	4136	4136	4136	4136	4136	4151	4206	4257	4279	4279	4330	4367	4432	4485	4538	4683	4741	4785	4866	4926	4975	5065	5128	5180	5280	5347
1924	1924	1924	1924	1924	1924	1936	1943	1954	1966	1970	1970	1981	1989	2001	2013	2018	2018	2018	2018	2018	2006	2001	2001	1990	1983	1970	1960	1950	1924	1915	1906	1880	1872	1865	1852	1844	1838	1838	1838	1838	1838	1838	1839	1852	1859	1866	1880	1887	1894	1894	1901	1909	1909	1916	1924	1924	1938	1954	111	0	0	0	0	0	0	0	0	0	0	0	0	0	0	0	0	0	0	0	0	0	0	0	2428	3064	3064	3155	3193	3223	3255	3276	3309	3277	3237	3141	3086	3064	3064	2987	2941	2886	2841	2815	2788	2768	2757	2757	2738	2727	2727	2727	2730	2757	2776	2791	2820	2820	2820	2820	2839	2855	2886	2886	2889	2954	2973	2991	3026	3065	3102	3141	1600	0	0	0	0	0	0	0	0	0	0	0	0	0	0	0	0	0	0	0	0	0	0	0	0	0	0	0	0	0	0	0	0	0	0	0	0	0	0	0	0	0	0	0	0	0	0	0	0	0	0	0	0	0	0	0	0	0	0	0	0	0	0	0	0	0	0	0	0	0	0	0	0	0	0	0	0	0	0	0	0	0	0	0	0	0	0	0	0	0	0	0	0	0	0	0	0	0	0	0	0	0	0	0	0	0	0	0	0	0	0	0	0	0	0	0	0	0	0	0	0	0	0	0	0	0	0	0	0	0	0	0	0	0	0	0	0	0	0	0	0	0	1703	2820	2820	2820	2820	2820	2820	2822	2853	2853	2853	2853	2870	2887	2920	2937	2954	2990	3008	3026	3063	3082	3102	3140	3178	3223	3304	3348	3400	3488	3516	3545	3640	3671	3704	3754	3782	3818	3818	3840	3878	3930	3939	3939	3939	3939	3939	3890	3860	3818	3772	3744	3704	3621	3583	3545	3471	3435	3400	3400	3400	3400	3367	3345	3309	3309	3309	3309	3309	3324	3400	3400	3393	3354	3325	3309	3309	3337	3349	3309	3309	3297	3182	3113	3056	2954	2897	2849	2788	2739	2696	2640	2583	2532	2507	2494	2482	2482	2494	2507	2584	2611	2640	2696	2739	2788	2880	2916	2954	3021	3058	3102	3137	3157	3182	3146	3141	3141	3074	3037	2990	2959	2942	2920	2892	2875	2853	2800	2770	2727	2704	2698	2698	2698	2698	2698	2698	2698	2698	2698	2705	2727	2771	2795	2820	2843	2866	2920	2968	2996	3026	3026	3037	3102	3102	3107	3141	3167	3191	3265	3292	3309	3309	3335	3357	3400	3400	3400	3400	3375	3352	3309	3309	3309	3309	3309	3309	3309	3309	3309	3353	3354	3354	3354	3375	3400	3400	3420	3447	3447	3467	3495	3495	3515	3545	3591	3597	3597	3597	3616	3650	3696	3704	3704	3750	3760	3760	3760	3760	3760	3760	3776	3818	3864	3878	3878	3924	3955	4003	4101	4152	4206	4312	4370	4432	4432	4432	4432	4432	4446	4512	4512	4512	4512	4512	4512	4512	4512	4512	4512	4512	4512	4512	4512	4512	4512	4512	4507	4432	4432	4432	4432	4391	4353	4279	4279	4279	4136	4103	4068	4004	3973	3939	3939	3911	3878	3821	3818	3818	3818	3818	3818	3818	3818	3818	3717	3704	3704	3611	3578	3545	3462	3447	3447	3408	3385	3354	3354	3327	3265	3265	3253	3223	3223	3223	3223	3223	3233	3265	3330	3364	3400	3434	3457	3495	3530	3555	3597	3597	3597	3597	3597	3597	3597	3597	3590	3545	3545	3545	3545	3515	3495	3495	3495	3495	3495	3495	3495	3495	3495	3497	3545	3545	3546	3597	3624	3650	3704	3731	3760	3817	3818	3818	3876	3906	3939	3999	4003	4003	4003	4003	4003	4003	4003	4003	4003	4003	4003	3947	3939	3939	3939	3961	4003	4003	4024	4068	4068	4068	4068	4068	4068	4068	4121	4136	4136	4136	4136	4136	4136	4136	4136	4136	4151	4206	4257	4279	4279	4330	4367	4432	4432	4444	4512	4622	4695	4773	4831	4877	4963	5025	5075	5170	5234
1924	1924	1924	1924	1924	1924	1936	1943	1954	1960	1964	1970	1981	1987	1993	2005	2010	2010	2010	2010	2010	1998	1993	1993	1983	1975	1962	1952	1944	1924	1915	1907	1887	1874	1865	1852	1848	1844	1838	1838	1838	1845	1845	1846	1859	1866	1873	1887	1894	1902	1909	1913	1916	1916	1924	1932	1932	1942	1954	111	0	0	0	0	0	0	0	0	0	0	0	0	0	0	0	0	0	0	0	0	0	0	0	2580	3256	3256	3339	3369	3384	3400	3398	3378	3328	3281	3182	3111	3071	3027	2964	2921	2853	2820	2801	2788	2758	2742	2742	2732	2727	2727	2727	2730	2757	2776	2791	2820	2820	2821	2836	2846	2856	2903	2903	2906	2972	2991	2980	1513	1532	1551	1570	800	0	0	0	0	0	0	0	0	0	0	0	0	0	0	0	0	0	0	0	0	0	0	0	0	0	0	0	0	0	0	0	0	0	0	0	0	0	0	0	0	0	0	0	0	0	0	0	0	0	0	0	0	0	0	0	0	0	0	0	0	0	0	0	0	0	0	0	0	0	0	0	0	0	0	0	0	0	0	0	0	0	0	0	0	0	0	0	0	0	0	0	0	0	0	0	0	0	0	0	0	0	0	0	0	0	0	0	0	0	0	0	0	0	0	0	0	0	0	0	0	0	0	0	0	0	0	0	0	0	0	0	0	0	0	0	0	0	0	0	0	0	851	1546	2853	2853	2744	1410	2217	2837	2853	2853	2853	2853	2870	2887	2920	2937	2954	2990	3008	3026	3063	3082	3102	3140	3178	3223	3304	3348	3400	3488	3505	3520	3590	3618	3650	3699	3716	3734	3711	3709	3712	3716	3709	3693	3693	3685	3670	3626	3607	3586	3545	3527	3506	3483	3463	3427	3390	3372	3354	3371	3377	3377	3344	3327	3309	3294	3287	3287	3287	3298	3354	3369	3374	3354	3325	3306	3287	3301	3309	3309	3296	3277	3182	3113	3057	2972	2914	2867	2820	2770	2725	2654	2611	2571	2520	2507	2494	2494	2513	2532	2584	2611	2640	2710	2754	2804	2897	2933	2972	3039	3077	3122	3139	3149	3162	3143	3134	3122	3055	3019	2972	2942	2925	2903	2875	2859	2836	2797	2770	2727	2704	2698	2698	2698	2698	2698	2698	2698	2698	2698	2705	2727	2771	2795	2820	2866	2896	2937	2985	3014	3045	3045	3054	3102	3115	3124	3141	3179	3210	3265	3292	3311	3332	3345	3357	3400	3387	3377	3377	3352	3330	3287	3287	3287	3266	3266	3266	3287	3287	3287	3309	3320	3332	3353	3364	3377	3399	3410	3424	3445	3457	3471	3493	3515	3545	3591	3607	3624	3624	3643	3677	3724	3732	3732	3755	3760	3760	3760	3760	3760	3760	3768	3789	3812	3827	3848	3894	3924	3971	4067	4126	4206	4312	4370	4432	4460	4472	4472	4472	4486	4554	4554	4554	4554	4554	4554	4554	4554	4554	4554	4554	4554	4554	4529	4512	4512	4512	4510	4472	4450	4432	4432	4391	4353	4279	4260	4242	4136	4103	4068	4004	3973	3939	3910	3881	3848	3820	3818	3818	3791	3789	3789	3789	3778	3761	3687	3667	3650	3604	3578	3545	3462	3447	3447	3408	3385	3354	3354	3334	3287	3270	3259	3244	3244	3244	3244	3244	3255	3287	3353	3388	3424	3458	3481	3520	3556	3581	3624	3624	3628	3650	3650	3650	3650	3650	3647	3624	3608	3598	3598	3582	3570	3546	3546	3546	3546	3546	3545	3520	3520	3521	3545	3559	3572	3624	3651	3677	3732	3760	3789	3817	3832	3848	3906	3922	3939	3999	4003	4003	4003	4003	4003	4003	4003	4003	4003	4003	4003	3947	3939	3939	3939	3961	4003	4003	4024	4068	4068	4068	4068	4068	4068	4068	4121	4145	4171	4171	4171	4171	4171	4171	4171	4171	4178	4206	4231	4242	4242	4293	4329	4393	4419	4438	4472	4579	4651	4728	4785	4830	4914	4975	5024	5118	5180
1924	1924	1924	1924	1924	1924	1936	1943	1954	1954	1958	1970	1981	1985	1985	1996	2001	2001	2001	2001	2001	1990	1985	1985	1975	1968	1954	1944	1937	1924	1915	1907	1894	1877	1865	1852	1852	1851	1838	1838	1839	1852	1852	1853	1866	1873	1880	1894	1902	1909	1924	1924	1924	1924	1931	1939	1939	1946	1954	111	0	0	0	0	0	0	0	0	0	0	0	0	0	0	0	0	0	0	0	0	0	0	0	2732	3447	3447	3523	3545	3545	3545	3521	3447	3379	3324	3223	3136	3079	2990	2941	2901	2820	2798	2788	2788	2748	2727	2727	2727	2727	2727	2727	2730	2757	2776	2791	2820	2820	2822	2853	2853	2857	2920	2920	2923	2990	3009	2969	0	0	0	0	0	0	0	0	0	0	0	0	0	0	0	0	0	0	0	0	0	0	0	0	0	0	0	0	0	0	0	0	0	0	0	0	0	0	0	0	0	0	0	0	0	0	0	0	0	0	0	0	0	0	0	0	0	0	0	0	0	0	0	0	0	0	0	0	0	0	0	0	0	0	0	0	0	0	0	0	0	0	0	0	0	0	0	0	0	0	0	0	0	0	0	0	0	0	0	0	0	0	0	0	0	0	0	0	0	0	0	0	0	0	0	0	0	0	0	0	0	0	0	0	0	0	0	0	0	0	0	0	0	0	0	0	0	0	0	0	0	0	0	0	0	0	0	272	2886	2886	2668	0	1615	2853	2853	2853	2853	2853	2870	2887	2920	2937	2954	2990	3008	3026	3063	3082	3102	3140	3178	3223	3304	3348	3400	3488	3495	3495	3540	3566	3597	3644	3650	3650	3604	3578	3545	3503	3479	3447	3447	3432	3400	3363	3354	3354	3318	3309	3309	3344	3342	3309	3309	3309	3309	3342	3354	3354	3322	3309	3309	3278	3265	3265	3265	3272	3309	3339	3354	3354	3325	3303	3265	3265	3270	3309	3282	3257	3182	3113	3058	2990	2931	2884	2853	2800	2754	2669	2639	2610	2532	2519	2507	2507	2532	2558	2584	2611	2640	2724	2769	2820	2914	2950	2990	3058	3096	3141	3141	3141	3141	3141	3126	3102	3036	3000	2954	2925	2908	2886	2859	2842	2820	2794	2770	2727	2704	2698	2698	2698	2698	2698	2698	2698	2698	2698	2705	2727	2771	2795	2820	2890	2926	2954	3003	3032	3064	3064	3070	3102	3127	3141	3141	3192	3228	3265	3292	3313	3354	3354	3357	3400	3374	3354	3354	3329	3307	3265	3265	3264	3223	3223	3223	3265	3265	3265	3265	3286	3309	3352	3354	3354	3397	3400	3400	3443	3447	3447	3490	3515	3545	3591	3617	3650	3650	3669	3704	3752	3760	3760	3760	3760	3760	3760	3760	3760	3760	3760	3760	3760	3775	3818	3863	3893	3939	4034	4099	4206	4312	4370	4432	4488	4512	4512	4512	4526	4596	4596	4596	4596	4596	4596	4596	4596	4596	4596	4596	4596	4596	4547	4512	4512	4512	4512	4512	4468	4432	4432	4391	4353	4279	4242	4206	4136	4103	4068	4004	3973	3939	3880	3851	3818	3818	3818	3818	3764	3760	3760	3760	3738	3704	3656	3630	3597	3597	3578	3545	3462	3447	3447	3408	3385	3354	3354	3340	3309	3274	3265	3265	3265	3265	3265	3265	3276	3309	3376	3411	3447	3481	3505	3545	3581	3607	3650	3650	3659	3704	3704	3704	3704	3704	3704	3704	3670	3650	3650	3650	3645	3597	3597	3597	3597	3597	3594	3545	3545	3545	3545	3572	3598	3650	3678	3704	3760	3788	3818	3818	3846	3878	3937	3939	3939	3999	4003	4003	4003	4003	4003	4003	4003	4003	4003	4003	4003	3947	3939	3939	3939	3961	4003	4003	4024	4068	4068	4068	4068	4068	4068	4068	4121	4154	4206	4206	4206	4206	4206	4206	4206	4206	4206	4206	4206	4206	4206	4256	4292	4354	4406	4432	4432	4537	4607	4683	4739	4784	4866	4925	4973	5065	5126
1924	1924	1924	1924	1924	1924	1936	1943	1954	1954	1958	1970	1981	1985	1985	1996	2001	2001	2001	1998	1985	1975	1970	1970	1959	1952	1939	1939	1937	1924	1915	1907	1894	1886	1879	1866	1858	1852	1852	1852	1853	1866	1866	1867	1880	1887	1894	1909	1917	1924	1939	1939	1939	1939	1946	1954	1969	1970	1970	112	0	0	0	0	0	0	0	0	0	0	0	0	0	0	0	0	0	0	0	0	0	0	0	0	1254	4432	4003	3878	3878	3747	3678	3597	3452	3360	3223	3136	3079	2990	2941	2901	2820	2798	2783	2757	2737	2727	2727	2727	2731	2757	2757	2757	2757	2795	2823	2853	2853	2858	2920	2920	2920	2920	1322	0	0	0	0	0	0	0	0	0	0	0	0	0	0	0	0	0	0	0	0	0	0	0	0	0	0	0	0	0	0	0	0	0	0	0	0	0	0	0	0	0	0	0	0	0	0	0	0	0	0	0	0	0	0	0	0	0	0	0	0	0	0	0	0	0	0	0	0	0	0	0	0	0	0	0	0	0	0	0	0	0	0	0	0	0	0	0	0	0	0	0	0	0	0	0	0	0	0	0	0	0	0	0	0	0	0	0	0	0	0	0	0	0	0	0	0	0	0	0	0	0	0	0	0	0	0	0	0	0	0	0	0	0	0	0	0	0	0	0	0	0	0	0	0	0	0	0	0	0	0	0	272	2886	2886	2668	0	0	165	2920	2920	2920	2920	2938	2955	2990	3008	3026	3064	3064	3064	3101	3120	3141	3180	3201	3223	3263	3284	3309	3309	3309	3309	3309	3292	3265	3228	3208	3182	3113	3062	2990	2959	2931	2886	2831	2810	2788	2739	2718	2698	2675	2669	2669	2691	2706	2727	2750	2772	2820	2869	2910	2990	3043	3097	3223	3252	3265	3265	3265	3265	3265	3294	3302	3265	3265	3265	3265	3265	3270	3309	3282	3257	3182	3113	3058	2990	2931	2884	2853	2800	2755	2698	2653	2611	2558	2545	2532	2532	2545	2558	2611	2653	2698	2755	2800	2853	2916	2950	2990	3058	3096	3141	3106	3102	3102	3102	3088	3064	3031	3000	2954	2925	2897	2853	2853	2832	2788	2763	2748	2727	2704	2698	2698	2698	2698	2698	2698	2698	2698	2698	2711	2757	2802	2834	2886	2910	2940	3026	3052	3064	3064	3089	3108	3141	3167	3182	3182	3208	3233	3309	3336	3354	3354	3381	3400	3400	3374	3351	3309	3285	3263	3223	3223	3222	3182	3182	3182	3182	3182	3182	3222	3243	3265	3307	3309	3309	3351	3374	3400	3443	3447	3447	3490	3515	3545	3591	3617	3650	3697	3724	3760	3760	3780	3818	3770	3760	3760	3715	3704	3704	3704	3704	3704	3747	3760	3760	3804	3848	3939	3986	4033	4136	4239	4311	4432	4488	4512	4512	4569	4596	4596	4596	4596	4596	4596	4596	4596	4596	4596	4596	4596	4596	4596	4547	4512	4512	4512	4512	4512	4468	4432	4432	4391	4353	4279	4242	4206	4136	4103	4068	4004	3973	3939	3880	3851	3818	3763	3736	3704	3704	3704	3704	3655	3650	3650	3650	3630	3597	3552	3545	3545	3503	3479	3447	3408	3400	3400	3363	3354	3354	3318	3309	3309	3309	3309	3309	3343	3354	3354	3388	3422	3495	3531	3567	3650	3650	3660	3704	3704	3714	3760	3760	3760	3760	3760	3760	3760	3760	3754	3704	3704	3704	3704	3672	3650	3650	3650	3650	3650	3650	3650	3650	3650	3651	3704	3733	3760	3818	3847	3878	3878	3907	3939	4001	4003	4003	4064	4068	4068	4068	4068	4068	4068	4068	4068	4068	4043	4003	4003	4003	4003	4003	4025	4068	4068	4090	4136	4136	4136	4136	4136	4156	4206	4262	4279	4279	4279	4279	4279	4279	4279	4279	4279	4279	4279	4228	4206	4206	4256	4279	4279	4329	4366	4432	4483	4523	4596	4650	4693	4773	4888	4973	5065	5126
