827	827	827	828	829	829	829	830	830	830	831	831	830	830	829	829	829	828	828	828	828	828	828	827	827	827	827	827	827	827	828	831	831	0	0	0	0	884	884	884	904	904	912	911	911	912	912	913	913	913	914	914	915	915	915	915	915	916	916	916	916	916	916	916	915	915	915	914	913	913	913	912	912	911	910	910	910	910	908	908	908	908	908	906	906	906	906	906	903	903	903	903	903	903	902	902	901	900	900	900	900	900	899	899	0	0	845	845	842	842	843	843	843	843	843	843	843	843	843	843	843	843	843	843	843	842	842	842	841	841	841	841	841	841	841	841	841	842	843	843	843	845	845	850	859	859	863	863	873	873	0	885	885	885	895	895	900	904	904	910	910	911	911	911	912	913	913	913	913	913	914	915	915	915	915	915	915	916	916	916	916	916	916	917	917	917	917	917	917	916	916	915	915	915	915	914	914	914	913	913	912	912	912	912	912	912	912	912	912	912	912	912	913	913	914	914	914	914	914	914	914	914	914	915	915	915	915	915	915	915	915	915	914	914	914	915	915	915	914	914	914	914	914	914	914	914	914	914	914	914	914	915	915	915	915	915	915	915	915	915	915	915	915	915	915	915	915	915	915	915	915	915	915	916	916	916	916	916	916	916	916	915	915	915	915	915	915	916	916	916	916	917	917	917	917	917	917	917	917	917	917	917	917	916	916	916	915	915	915	915	915	914	914	914	914	914	914	913	913	913	913	913	913	913	913	913	913	913	913	913	913	913	913	913	913	913	912	912	912	912	912	912	911	911	912	911	910	910	910	908	906	906	904	904	904	903	901	901	901	900	899	899	899	898	898	898	898	898	898	898	898	898	898	898	898	898	899	899	899	900	900	900	900	900	901	901	901	901	0	0	0	0	0	0	0	0	0	0	0	0	0	0	0	0	0	0	0	0	0	0	0	0	0	0	0	0	0	0	0	0	0	0	0	0	0	0	0	0	0	0	0	0	0	0	0	0	0	0	0	769	769	769	768	768	767	766	766	766	765	764	764	764	764	764	762	760	758	758	757	754	753	753	752	751	751	750	750	750	750	750	750	749	749	749	749	748	748	748	748	749	750	750	750	750	750	750	750	750	751	752	0	0	0	0	0	0	0	0	0	0	0	0	0	0	0	0	0	0	0	0	0	0	0	0	0	0	0	0	0	0	0	0	0	0	0	0	0	0	0	0	0	0	0	2004	2004	1998	1998	1998	1998	2001	2001	2001	2001	2004	2004	2007	2007	2007	2014	2014	2014	2014	2017	2017	2017	2017	2017	2017	2017	2017	2020	2020	2020	2020	2020	2020	2020	2020	2020	2020	2020	2020	2017	2017	2017	2017	2014	2014	2014	2014	2014	2014	2014	2014	2014	2014	2014	2014	2014	2014	2014	2017	2017	2017	2017	2020	2020	2020	2020	2020	2020	2020	2020	2017	2017	2017	2017	2017	2014	2014	2014	2014	2010	2010	2010	2007	2007	2007	2007	2007	2007	2004	2004	2004	2004	2004	2004	2004	2004	2004	2004	2004	2007	2007	2010	2014	2014	2014	2017	2017	2017	2020	2020	2020	2020	2017	2017	2017	2017	2017	2017	2017	2017	2020	2020	2020	2023	2023	2023	2029	2029	2032	2039	2039	2042	2051	2051	2055	2064	2064	2071	2071	2074	2077	2077	2081	2081	2081	2081	2081	2077	2077	2077	2077	2074	2074	2074	2074	2071	2071	2071	2064	2064	2064	2064	2064	2061	2061	2061	2061	2055	2055	2055	2055	2055	2055	2051	2051	2051	2048	2042	2042	2042	2042	2042	2039	2039	2039	2032	2032	2032	2029
826	827	827	828	828	828	829	830	830	830	830	830	830	830	829	829	829	828	828	828	828	827	827	827	827	826	826	826	826	827	827	829	829	0	0	0	866	866	866	884	901	901	906	906	908	910	910	910	910	910	910	911	911	912	913	913	913	914	914	914	914	914	914	914	913	912	912	911	911	911	910	910	908	908	908	906	906	906	906	906	906	904	904	904	904	903	903	903	903	903	903	903	903	903	902	902	901	900	900	900	900	900	899	899	0	0	845	845	842	842	843	843	843	843	843	843	843	843	843	843	843	843	843	843	843	842	842	842	841	841	841	841	841	841	841	841	841	842	843	843	843	845	845	850	859	859	863	863	873	873	0	885	885	885	895	895	900	904	904	910	910	911	911	911	912	913	913	913	913	913	914	915	915	915	915	915	915	916	916	916	916	916	916	917	917	917	917	917	917	916	916	915	915	915	915	914	914	914	913	913	910	910	908	908	908	908	908	908	908	908	908	908	910	910	910	910	910	910	910	910	911	912	912	912	912	911	911	911	911	911	911	911	910	910	910	911	911	911	911	911	911	911	911	911	911	911	911	910	910	911	911	911	912	912	912	912	912	912	912	912	912	912	912	912	913	913	913	914	914	914	914	914	914	915	915	915	915	914	914	915	915	914	914	914	914	914	914	914	915	915	915	915	915	915	915	915	915	915	915	915	915	915	914	914	914	913	913	913	913	913	913	912	912	912	912	911	911	911	911	911	911	911	910	910	910	910	910	910	910	910	910	910	910	910	910	910	910	910	910	910	910	910	910	910	911	910	910	908	908	908	906	906	904	903	903	901	901	900	900	899	898	898	898	898	898	898	898	898	897	897	897	897	897	898	898	898	898	898	898	899	899	900	900	900	900	901	901	901	0	0	0	0	0	0	0	0	0	0	0	0	0	0	0	0	0	0	0	0	0	0	0	0	0	0	0	0	0	0	0	0	0	0	0	0	0	0	0	0	0	0	0	0	0	0	0	0	0	0	0	769	769	769	769	769	767	767	766	766	765	764	764	764	764	764	762	760	758	758	757	754	753	753	752	751	751	751	750	750	750	750	750	750	750	750	750	750	750	750	750	750	750	750	750	750	750	750	751	751	752	752	0	0	0	0	0	0	0	0	0	0	0	0	0	0	0	0	0	0	0	0	0	0	0	0	0	0	0	0	0	0	0	0	0	0	0	0	0	0	0	0	0	0	0	0	0	1998	1995	1995	1995	1995	1995	1995	1995	1998	1998	2001	2001	2001	2004	2004	2004	2007	2007	2007	2007	2007	2007	2010	2010	2010	2010	2014	2014	2014	2014	2014	2014	2014	2014	2014	2014	2014	2014	2010	2010	2010	2010	2010	2007	2007	2007	2007	2007	2007	2007	2007	2007	2007	2007	2007	2007	2007	2007	2007	2007	2007	2007	2007	2010	2010	2010	2010	2010	2010	2010	2010	2007	2007	2007	2004	2004	2004	2004	2004	2004	2004	2001	2001	2001	2001	2001	2001	2001	2001	2001	2001	2001	2001	2001	2001	2001	2001	2001	2001	2004	2004	2004	2004	2004	2004	2004	2007	2007	2010	2010	2010	2010	2010	2010	2010	2010	2010	2010	2014	2014	2017	2020	2020	2020	2023	2023	2029	2032	2032	2039	2048	2048	2051	2055	2055	2061	2064	2064	2071	2071	2074	2074	2071	2071	2071	2071	2064	2064	2064	2064	2064	2064	2061	2061	2061	2061	2055	2055	2055	2055	2055	2055	2055	2055	2051	2051	2051	2051	2051	2051	2051	2051	2051	2048	2048	2042	2042	2042	2042	2042	2039	2039	2039	2032	2029	2029	2029
826	827	827	828	828	828	829	830	830	830	830	830	830	830	830	829	829	828	828	828	828	827	827	827	826	826	826	826	826	826	826	827	828	828	0	0	866	866	866	897	897	897	903	903	904	906	906	906	908	908	908	908	908	908	910	910	910	910	910	911	911	911	911	911	910	910	908	908	908	908	908	906	906	906	904	904	904	904	903	903	903	902	902	902	901	901	901	901	901	901	901	901	901	901	900	900	900	899	899	898	898	897	886	886	886	0	844	844	842	842	843	843	843	842	842	842	842	842	842	843	843	842	842	842	842	842	842	841	841	841	840	840	840	840	840	841	841	842	842	842	843	845	845	847	857	857	862	862	869	869	878	878	882	885	891	895	898	902	902	906	908	908	910	910	910	910	910	910	910	910	910	911	911	911	912	912	913	913	913	914	914	914	914	915	915	915	914	914	914	914	914	913	912	912	912	911	911	911	910	910	910	910	908	908	908	908	908	908	908	908	908	908	910	910	910	910	910	910	910	910	911	912	912	912	912	911	911	911	911	911	911	911	910	910	910	911	911	911	911	911	911	911	911	911	911	911	911	910	910	911	911	911	912	912	912	912	912	912	912	912	912	912	912	912	913	913	913	914	914	914	914	914	914	915	915	915	915	914	914	915	915	914	914	914	914	914	914	914	915	915	915	915	915	915	915	915	915	915	915	915	915	915	914	914	914	913	913	913	913	913	913	910	910	910	910	908	908	908	908	908	908	908	908	908	908	908	908	908	908	908	908	908	908	908	908	908	908	908	908	908	908	908	908	908	908	908	908	906	906	904	903	903	902	901	901	901	900	899	899	898	898	898	898	898	898	897	896	896	896	896	896	896	896	897	897	898	898	898	898	898	898	898	899	899	900	900	900	0	0	0	0	0	0	0	0	0	0	0	0	0	0	0	0	0	0	0	0	0	0	0	0	0	0	0	0	0	0	0	0	0	0	0	0	0	0	0	0	0	0	0	0	0	0	0	0	0	0	0	774	769	769	769	769	769	767	767	766	766	765	764	764	764	763	763	762	760	758	758	756	753	752	752	752	751	751	751	750	750	750	750	750	750	750	750	750	750	750	750	750	750	750	750	750	750	750	750	751	751	752	752	0	0	0	0	0	0	0	0	0	0	0	0	0	0	0	0	0	0	0	0	0	0	0	0	0	0	0	0	0	0	0	0	0	0	0	0	0	0	0	0	0	0	0	0	0	0	1995	1995	1995	1995	1995	1995	1995	1998	1998	2001	2001	2001	2004	2004	2004	2007	2007	2007	2007	2007	2007	2010	2010	2010	2010	2014	2014	2014	2014	2014	2014	2014	2014	2014	2014	2014	2014	2010	2010	2010	2010	2010	2007	2007	2007	2007	2007	2007	2007	2007	2007	2007	2007	2007	2007	2007	2007	2007	2007	2007	2007	2007	2010	2010	2010	2010	2010	2010	2010	2010	2007	2007	2007	2004	2004	2004	2004	2004	2004	2004	2001	2001	2001	2001	2001	2001	2001	2001	2001	2001	2001	2001	2001	2001	2001	2001	2001	2001	2004	2004	2004	2004	2004	2004	2004	2007	2007	2010	2010	2010	2010	2010	2004	2004	2007	2007	2007	2010	2010	2014	2014	2014	2017	2020	2020	2023	2029	2029	2032	2039	2039	2048	2051	2051	2051	2055	2055	2055	2061	2061	2055	2055	2055	2051	2051	2051	2051	2051	2051	2048	2048	2048	2051	2051	2048	2048	2048	2048	2048	2051	2048	2048	2048	2048	2048	2051	2051	2048	2048	2048	2048	2048	2048	2042	2042	2042	2042	2042	2042	2039	2039	2039	2032	2029	2029	2029
826	827	827	828	828	828	829	830	830	830	831	831	830	830	830	829	829	828	828	828	828	827	827	827	826	826	826	826	826	826	826	827	828	828	0	0	0	0	0	897	897	897	903	903	904	906	906	906	908	908	908	908	908	908	910	910	910	910	910	911	911	911	911	911	910	910	908	908	908	908	908	906	906	906	904	904	904	904	901	901	901	901	901	901	901	900	900	900	900	900	900	900	900	900	899	899	898	898	897	897	896	893	881	881	881	0	844	844	842	842	843	843	842	842	842	842	842	842	842	842	842	842	841	841	841	841	841	840	840	840	840	840	840	840	840	841	841	842	842	842	843	845	845	847	855	855	861	861	867	867	877	877	881	889	889	897	897	900	900	903	904	904	906	908	908	908	908	908	908	908	908	908	910	910	910	910	910	910	911	911	911	911	911	911	911	911	911	911	911	911	911	910	910	910	908	908	908	908	906	906	906	906	906	906	906	906	906	906	904	904	904	906	906	906	906	906	906	906	908	908	908	908	908	908	908	908	908	908	908	908	908	908	908	908	908	908	908	908	908	908	908	908	908	908	908	908	908	908	908	908	908	908	908	908	908	908	908	910	910	910	910	910	910	910	910	910	910	911	911	911	911	911	912	912	912	912	912	912	913	913	913	912	911	911	911	911	911	911	912	912	912	912	912	912	912	912	912	912	912	912	912	912	912	911	911	911	911	911	910	910	910	910	910	910	910	908	908	908	908	908	908	908	908	908	908	908	908	908	908	908	908	908	908	908	908	908	908	908	908	908	908	908	908	908	908	908	908	906	906	904	903	903	902	901	901	901	900	899	899	898	898	898	898	898	898	897	896	896	896	896	896	896	896	897	897	898	898	898	898	898	898	898	899	899	900	900	900	0	0	0	0	0	0	0	0	0	0	0	0	0	0	0	0	0	0	0	0	0	0	0	0	0	0	0	0	0	0	0	0	0	0	0	0	0	0	0	0	0	0	0	0	0	0	0	0	0	0	0	774	772	772	771	769	769	768	767	766	766	765	764	764	763	763	763	761	760	757	757	754	753	752	752	751	751	751	750	750	750	750	750	750	750	750	750	750	750	750	750	750	750	750	750	750	750	751	751	751	751	0	0	0	0	0	0	0	0	0	0	0	0	0	0	0	0	0	0	0	0	0	0	0	0	0	0	0	0	0	0	0	0	0	0	0	0	0	0	0	0	0	0	0	0	0	0	0	1992	1992	1992	1992	1992	1992	1992	1995	1995	1995	1995	1998	1998	2001	2001	2001	2001	2001	2001	2001	2004	2004	2004	2004	2004	2004	2007	2007	2007	2007	2010	2010	2010	2010	2007	2007	2007	2007	2004	2004	2004	2004	2004	2004	2004	2004	2004	2004	2004	2004	2001	2001	2001	2001	2001	2001	2001	2001	2001	2001	2001	2001	2001	2001	2001	2001	2001	2001	2001	2001	2001	2001	2001	2001	2001	2001	2001	2001	1998	1998	1998	1995	1995	1995	1995	1995	1995	1995	1995	1995	1995	1995	1995	1995	1995	1995	1995	1995	1995	1995	1995	1995	1998	1998	1998	2001	2001	2001	2001	2004	2004	2004	2004	2004	2004	2007	2007	2007	2010	2010	2014	2014	2014	2017	2020	2020	2023	2029	2029	2032	2039	2039	2048	2051	2051	2051	2055	2055	2055	2061	2061	2055	2055	2055	2051	2051	2051	2051	2051	2051	2048	2048	2048	2051	2051	2048	2048	2048	2048	2048	2051	2048	2048	2048	2048	2048	2051	2051	2048	2048	2048	2048	2048	2048	2042	2042	2042	2042	2042	2042	2039	2039	2039	2032	2032	2032	2029
826	827	827	827	828	828	829	830	830	830	830	830	830	830	830	829	829	828	828	828	827	827	827	826	826	826	826	825	825	826	826	825	825	825	825	828	828	0	0	897	897	897	900	900	901	903	903	903	903	903	903	904	904	904	906	906	906	906	906	908	908	908	908	908	908	906	906	906	904	904	904	904	903	903	903	902	902	902	901	901	901	901	901	901	901	900	900	900	900	900	900	900	900	900	899	899	898	898	897	897	896	893	881	881	881	0	844	844	842	842	843	843	842	842	842	842	842	842	842	842	842	842	841	841	841	841	841	840	840	840	840	840	840	840	840	841	841	842	842	842	843	845	845	847	855	855	861	861	867	867	877	877	881	889	889	897	897	900	900	903	904	904	906	908	908	908	908	908	908	908	908	908	910	910	910	910	910	910	911	911	911	911	911	911	911	911	911	911	911	908	908	908	906	906	906	906	904	904	904	904	904	903	903	903	903	903	903	903	903	903	903	903	903	903	904	904	904	904	904	904	904	904	904	904	904	904	904	904	904	904	904	904	904	904	904	904	904	904	904	904	904	904	904	904	904	904	904	904	904	904	904	906	906	906	906	906	906	906	906	906	906	908	908	908	908	908	908	908	908	910	910	910	910	910	910	910	910	910	910	910	910	910	910	910	908	908	908	908	908	908	908	908	908	908	908	908	908	910	910	910	908	908	908	908	908	908	908	908	908	908	908	908	906	906	906	906	906	906	906	906	906	906	906	906	906	906	906	906	906	906	906	906	906	906	906	904	904	904	906	906	906	906	906	906	906	906	906	904	904	903	902	902	901	900	899	899	899	898	898	898	898	898	897	896	896	896	896	896	896	896	896	896	896	897	897	897	898	898	898	898	898	898	899	899	899	900	900	0	0	0	0	0	0	0	0	0	0	0	0	0	0	0	0	0	0	0	0	0	0	0	0	0	0	0	0	0	0	0	0	0	0	0	0	0	0	0	0	0	0	0	0	0	0	0	0	0	0	0	0	0	774	772	770	770	768	767	766	766	765	764	764	763	763	763	761	760	757	757	754	753	752	752	751	751	751	750	750	750	750	750	750	750	750	750	750	750	750	750	750	750	750	751	751	751	751	751	751	752	0	0	0	0	0	0	0	0	0	0	0	0	0	0	0	0	0	0	0	0	0	0	0	0	0	0	0	0	0	0	0	0	0	0	0	0	0	0	0	0	0	0	0	0	0	0	0	1992	1992	1992	1992	1992	1992	1992	1992	1992	1992	1995	1995	1995	1995	1995	1995	1995	1998	1998	1998	2001	2001	2001	2001	2001	2001	2001	2004	2004	2004	2004	2004	2004	2004	2004	2004	2004	2004	2004	2004	2001	2001	2001	2001	2001	2001	2001	2001	2001	2001	2001	2001	2001	1998	1998	1998	1998	1998	1998	1995	1995	1995	1995	1995	1995	1995	1995	1995	1995	1995	1995	1995	1995	1995	1995	1995	1995	1995	1992	1992	1992	1992	1992	1992	1992	1992	1992	1989	1989	1989	1989	1989	1989	1989	1992	1992	1992	1992	1992	1992	1992	1992	1995	1995	1995	1995	1995	1995	1998	2001	2001	2001	2001	2001	2004	2004	2004	2004	2004	2004	2007	2010	2010	2010	2014	2014	2017	2020	2020	2023	2029	2029	2032	2039	2039	2039	2039	2039	2042	2042	2042	2039	2039	2039	2032	2032	2032	2032	2032	2032	2032	2032	2032	2032	2039	2039	2039	2039	2039	2039	2042	2039	2039	2042	2042	2042	2042	2042	2042	2042	2042	2042	2042	2042	2039	2039	2039	2039	2039	2039	2039	2032	2032	2029	2023	2023	2020
826	826	826	827	828	828	829	830	830	830	830	830	830	830	830	829	829	828	828	828	827	827	827	826	826	825	825	825	825	825	825	824	824	824	824	826	826	0	0	0	0	900	900	900	901	901	901	901	901	902	902	902	903	903	903	904	904	904	904	904	904	904	904	904	904	904	903	903	903	903	903	901	901	901	901	901	901	901	900	900	900	900	900	900	900	900	900	899	899	899	899	898	898	898	898	896	896	895	895	895	893	888	879	879	879	0	843	843	842	842	843	842	842	842	842	841	841	841	841	841	841	841	840	840	840	840	840	840	839	839	839	839	839	839	840	841	841	841	842	842	843	844	844	847	855	855	861	861	866	866	875	875	880	887	887	895	895	900	900	902	903	903	904	904	904	904	904	904	906	906	906	906	906	906	906	906	906	908	908	908	908	908	908	908	908	908	908	908	908	908	908	908	906	906	906	906	904	904	904	904	904	903	903	903	903	903	903	903	903	903	903	903	903	903	904	904	904	904	904	904	904	904	904	904	904	904	904	904	904	904	904	904	904	904	904	904	904	904	904	904	904	904	904	904	904	904	904	904	904	904	904	906	906	906	906	906	906	906	906	906	906	908	908	908	908	908	908	908	908	910	910	910	910	910	910	910	910	910	910	910	910	910	910	910	908	908	908	908	908	908	908	908	908	908	908	908	908	910	910	910	908	904	904	904	904	904	904	904	904	904	904	904	904	904	904	904	904	904	904	904	904	904	904	904	904	904	904	904	903	903	903	903	903	903	903	903	903	903	904	904	904	904	904	903	903	904	903	902	902	901	900	900	900	899	898	898	898	898	898	897	896	896	896	896	896	896	896	896	896	896	896	896	896	896	896	897	898	898	898	898	898	898	898	898	899	899	899	0	0	0	0	0	0	0	0	0	0	0	0	0	0	0	0	0	0	0	0	0	0	0	0	0	0	0	0	0	0	0	0	0	0	0	0	0	0	0	0	0	0	0	0	0	0	0	0	0	0	0	0	0	774	772	770	770	768	767	766	766	765	764	764	763	762	762	761	760	757	757	754	753	752	752	751	750	750	750	750	750	750	750	750	750	750	750	750	750	750	750	750	750	750	751	751	751	751	751	751	752	0	0	0	0	0	0	0	0	0	0	0	0	0	0	0	0	0	0	0	0	0	0	0	0	0	0	0	0	0	0	0	0	0	0	0	0	0	0	0	0	0	0	0	0	0	0	0	0	0	0	0	1992	1992	1992	1992	1992	1992	1995	1995	1995	1995	1995	1995	1995	1998	1998	1998	2001	2001	2001	2001	2001	2001	2001	2004	2004	2004	2004	2004	2004	2004	2004	2004	2004	2004	2004	2004	2001	2001	2001	2001	2001	2001	2001	2001	2001	2001	2001	2001	2001	1998	1998	1998	1998	1998	1998	1995	1995	1995	1995	1995	1995	1995	1995	1995	1995	1995	1995	1995	1995	1995	1995	1995	1995	1995	1992	1992	1992	1992	1992	1992	1992	1992	1992	1989	1989	1989	1989	1989	1989	1989	1992	1992	1992	1992	1992	1992	1992	1992	1995	1995	1995	1995	1995	1995	1995	1995	1995	1998	2001	2001	2001	2001	2001	2001	2004	2004	2004	2004	2004	2007	2007	2007	2010	2010	2010	2014	2017	2017	2020	2020	2020	2023	2023	2023	2023	2023	2023	2023	2023	2020	2020	2020	2020	2017	2017	2017	2020	2020	2020	2020	2020	2023	2023	2023	2029	2029	2029	2029	2029	2029	2032	2032	2032	2032	2032	2032	2039	2039	2032	2032	2032	2032	2032	2029	2029	2029	2029	2023	2023	2020	2017	2017	2014
826	826	826	827	828	828	829	830	830	832	832	832	831	831	830	829	829	829	828	828	827	827	827	826	826	825	825	825	825	825	825	824	824	824	824	826	826	0	0	0	0	0	0	0	901	901	901	901	901	902	902	902	903	903	903	904	904	904	904	904	904	904	904	904	904	904	901	901	901	901	901	901	900	900	900	900	900	900	900	900	900	900	900	900	900	899	899	899	898	898	898	898	898	898	896	895	895	894	893	893	890	884	879	879	879	0	843	843	842	842	842	842	842	841	841	841	841	841	841	841	841	840	840	840	839	838	838	838	838	838	838	839	839	839	840	841	841	841	842	842	843	844	844	847	855	855	861	861	866	866	875	875	880	885	885	895	895	898	898	901	901	901	903	903	903	903	903	903	903	903	903	904	904	904	904	904	904	904	904	904	906	906	906	906	906	906	906	906	906	904	904	904	904	903	903	903	903	903	903	902	902	901	901	901	901	901	901	901	901	901	901	901	901	901	901	901	901	901	902	902	902	902	902	902	902	902	902	902	902	902	901	901	901	901	901	901	901	901	901	901	901	901	901	902	902	903	903	902	902	903	903	903	903	903	903	903	904	904	904	904	904	904	904	904	906	906	906	906	906	906	908	908	908	908	908	908	908	908	908	908	908	906	906	906	906	906	906	906	906	906	906	906	904	904	904	906	906	906	906	906	904	904	904	904	904	904	904	904	904	904	904	904	904	904	904	904	904	904	904	904	904	904	904	904	904	904	904	904	903	903	903	903	903	903	903	903	903	903	904	904	904	904	904	903	903	904	903	902	902	901	900	900	900	899	898	898	898	898	898	897	896	896	896	896	896	896	896	896	896	896	896	896	896	896	896	897	898	898	898	898	898	898	898	898	899	899	899	0	0	0	0	0	0	0	0	0	0	0	0	0	0	0	0	0	0	0	0	0	0	0	0	0	0	0	0	0	0	0	0	0	0	0	0	0	0	0	0	0	0	0	0	0	0	0	0	0	0	781	781	781	0	774	772	772	769	768	766	766	765	764	764	764	762	762	761	759	756	756	754	753	752	752	751	750	750	750	750	750	750	750	750	750	750	750	750	750	750	750	751	751	751	751	752	752	752	752	752	0	0	0	0	0	0	0	0	0	0	0	0	0	0	0	0	0	0	0	0	0	0	0	0	0	0	0	0	0	0	0	0	0	0	0	0	0	0	0	0	0	0	0	0	0	0	0	0	0	1989	1989	1989	1989	1989	1989	1989	1989	1989	1992	1992	1992	1992	1992	1992	1992	1995	1995	1995	1995	1995	1995	1998	2001	1998	1998	2001	2001	2001	2001	2001	2001	2001	2001	2001	2001	2001	2001	2001	2001	2001	2001	2001	2001	2001	1998	1998	1998	1998	1995	1995	1995	1995	1995	1995	1995	1995	1992	1992	1992	1992	1992	1992	1992	1992	1992	1992	1992	1992	1992	1992	1992	1992	1992	1989	1989	1989	1989	1989	1989	1989	1989	1989	1986	1986	1986	1986	1986	1986	1986	1986	1986	1986	1986	1986	1986	1986	1986	1989	1989	1989	1992	1992	1992	1992	1995	1995	1995	1995	1995	1998	2001	2001	2001	2001	2001	2001	2004	2004	2004	2004	2004	2007	2007	2007	2010	2010	2010	2014	2017	2017	2020	2020	2020	2023	2023	2023	2023	2023	2023	2023	2023	2020	2020	2020	2020	2017	2017	2017	2020	2020	2020	2020	2020	2023	2023	2023	2029	2029	2029	2029	2029	2029	2032	2032	2032	2032	2032	2032	2039	2039	2032	2032	2032	2032	2032	2029	2029	2029	2029	2023	2023	2020	2017	2017	2014
825	826	826	827	828	828	829	830	830	832	832	832	831	831	830	829	829	829	828	828	827	827	827	826	826	825	825	824	824	824	824	823	823	823	823	826	826	0	0	0	0	0	0	0	895	895	900	900	900	900	900	900	901	901	901	902	902	902	903	903	903	903	903	902	902	902	901	901	901	901	901	901	900	900	900	900	900	900	900	900	900	900	900	900	900	899	899	899	898	898	898	898	898	898	896	895	895	894	893	893	890	884	884	0	0	0	843	843	843	842	842	842	842	841	841	841	841	841	841	841	841	840	840	840	839	838	838	838	838	838	838	839	839	839	840	841	841	842	842	842	843	844	844	847	855	855	861	861	866	866	875	875	880	885	885	895	895	898	898	901	901	901	903	903	903	903	903	903	903	903	903	904	904	904	904	904	904	904	904	903	903	903	903	903	903	903	903	903	903	903	903	903	902	901	901	901	901	901	901	901	901	900	900	900	900	900	900	900	900	900	900	900	900	900	900	900	900	900	900	900	900	900	900	900	900	900	900	900	900	900	900	900	900	900	900	900	900	900	900	900	900	900	900	900	901	901	901	901	901	901	901	901	901	901	901	902	902	902	903	903	903	903	903	903	903	904	904	904	904	904	904	904	904	906	906	906	906	906	906	904	904	904	904	904	903	903	903	903	903	903	903	902	902	902	902	902	903	903	903	903	902	902	902	902	902	902	902	902	902	902	902	902	902	902	902	902	902	902	902	902	902	902	902	902	902	902	902	902	902	902	902	902	902	902	902	901	901	901	901	901	901	901	901	901	901	901	901	900	900	899	899	898	898	898	898	898	897	896	896	896	896	896	896	896	896	896	896	896	896	896	896	896	896	896	896	897	898	898	898	898	898	898	898	898	898	899	899	0	0	0	0	0	0	0	0	0	0	0	0	0	0	0	0	0	0	0	0	0	0	0	0	0	0	0	0	0	0	0	0	0	0	0	0	0	0	0	0	0	0	0	0	0	0	0	0	0	0	781	781	781	0	776	776	774	771	769	769	767	766	764	764	764	763	763	761	759	756	756	754	753	752	752	751	751	751	750	750	750	750	750	750	750	750	751	751	751	751	751	751	751	751	752	752	752	752	752	752	0	0	0	0	0	0	0	0	0	0	0	0	0	0	0	0	0	0	0	0	0	0	0	0	0	0	0	0	0	0	0	0	0	0	0	0	0	0	0	0	0	0	0	0	0	0	0	0	0	1989	1989	1989	1986	1986	1986	1986	1989	1989	1989	1989	1989	1989	1992	1992	1992	1992	1992	1992	1992	1995	1995	1995	1995	1995	1995	1995	1995	1998	1998	1998	2001	2001	2001	2001	2001	2001	1998	1998	1998	1998	1998	1995	1995	1995	1995	1995	1995	1995	1995	1995	1995	1992	1992	1992	1992	1992	1992	1989	1989	1989	1989	1989	1989	1989	1989	1989	1989	1989	1989	1989	1989	1989	1986	1986	1986	1986	1983	1983	1983	1980	1980	1980	1980	1980	1980	1980	1980	1977	1977	1977	1977	1980	1980	1980	1980	1983	1983	1983	1986	1986	1989	1989	1989	1992	1992	1992	1995	1995	1995	1995	1998	1998	1998	2001	2001	2001	2001	2001	2001	2004	2004	2004	2004	2004	2004	2004	2004	2004	2007	2007	2007	2010	2010	2010	2010	2010	2010	2010	2010	2010	2010	2010	2007	2007	2007	2007	2007	2007	2007	2007	2010	2010	2010	2014	2014	2014	2017	2017	2017	2020	2020	2020	2020	2020	2023	2023	2023	2023	2023	2023	2029	2029	2023	2023	2023	2023	2023	2023	2023	2017	2017	2014	2010	2010	2007
825	826	826	827	828	828	829	830	830	832	832	832	832	831	830	829	829	829	828	828	828	827	827	826	826	825	825	824	824	824	822	821	821	821	823	826	826	0	0	0	0	877	877	877	888	888	898	898	899	899	899	899	900	900	900	900	900	901	901	901	901	901	901	901	901	901	900	900	900	900	900	900	899	899	899	899	899	900	900	900	900	899	899	899	899	899	899	898	898	898	898	897	897	896	895	893	893	891	890	887	887	881	881	0	0	852	843	843	843	842	842	842	841	841	841	841	840	840	840	840	840	839	838	838	837	837	837	837	837	838	838	838	838	839	840	841	841	842	842	842	843	844	844	847	855	855	861	861	866	866	875	875	880	884	884	893	893	898	898	900	901	901	901	901	901	901	901	901	901	901	901	901	901	901	902	902	902	902	902	902	903	903	903	903	903	903	903	903	903	903	903	903	902	901	901	901	901	901	901	901	901	900	900	900	900	900	900	900	900	900	900	900	900	900	900	900	900	900	900	900	900	900	900	900	900	900	900	900	900	900	900	900	900	900	900	900	900	900	900	900	900	900	900	900	901	901	901	901	901	901	901	901	901	901	901	902	902	902	903	903	903	903	903	903	903	904	904	904	904	904	904	904	904	906	906	906	906	906	906	904	904	904	904	904	903	903	903	903	903	903	903	901	900	900	900	900	900	900	900	900	900	900	900	900	900	900	900	900	900	900	900	900	900	900	900	900	900	900	901	901	901	901	901	901	901	900	900	901	901	901	901	900	900	900	900	900	900	900	900	900	900	900	900	899	899	899	898	898	898	898	897	896	896	896	896	896	896	895	895	895	895	895	895	895	896	896	896	896	896	896	896	896	896	897	897	897	897	897	898	898	898	898	898	898	898	898	898	0	0	0	0	0	0	0	0	0	0	0	0	0	0	0	0	0	0	0	0	0	0	0	0	0	0	0	0	0	0	0	0	0	0	0	0	0	0	0	0	0	0	0	0	0	0	0	0	0	790	781	781	781	0	776	776	774	771	769	769	767	766	764	764	764	763	763	761	759	756	756	754	753	752	752	751	751	751	750	750	750	750	750	750	750	750	751	751	751	751	751	751	751	643	642	642	642	752	752	752	0	0	0	0	0	0	0	0	0	0	0	0	0	0	0	0	0	0	0	0	0	0	0	0	0	0	0	0	0	0	0	0	0	0	0	0	0	0	0	0	0	0	0	0	0	0	0	0	0	0	0	0	1986	1986	1986	1986	1989	1989	1989	1989	1989	1989	1992	1992	1992	1992	1992	1992	1992	1995	1995	1995	1995	1995	1995	1995	1995	1998	1998	1998	2001	2001	2001	2001	2001	2001	1998	1998	1998	1998	1998	1995	1995	1995	1995	1995	1995	1995	1995	1995	1995	1992	1992	1992	1992	1992	1992	1989	1989	1989	1989	1989	1989	1989	1989	1989	1989	1989	1989	1989	1989	1989	1986	1986	1986	1986	1983	1983	1983	1980	1980	1980	1980	1980	1980	1980	1980	1977	1977	1977	1977	1980	1980	1980	1977	1977	1977	1980	1983	1983	1986	1989	1989	1989	1992	1992	1992	1992	1992	1995	1995	1995	1995	1995	1995	1998	1998	1998	1998	1998	1998	2001	2001	2001	2001	2001	2001	2001	2001	2001	2001	2001	2001	2001	2001	2004	2004	2004	2004	2004	2004	2004	2001	2001	2001	2001	2001	2001	2001	2004	2004	2004	2004	2004	2004	2007	2007	2007	2010	2010	2010	2014	2014	2014	2014	2017	2017	2017	2017	2017	2017	2017	2017	2017	2017	2017	2017	2017	2017	2014	2014	2007	2007	2007	2004
825	826	826	827	828	828	829	831	831	832	832	833	833	833	833	830	830	830	829	829	828	827	827	826	826	825	825	825	824	824	822	821	821	821	823	826	826	0	0	0	0	877	877	877	888	888	898	898	899	899	899	899	900	900	900	900	900	900	900	900	900	900	900	900	900	899	899	899	899	899	899	899	899	898	898	898	899	899	899	899	899	899	899	899	898	898	898	898	898	898	897	896	895	895	893	890	890	890	887	884	884	881	881	0	0	852	844	844	843	843	843	842	841	841	841	840	840	840	840	839	839	837	837	837	837	837	837	837	837	837	838	838	838	839	840	841	841	842	842	842	843	845	845	848	855	855	861	861	866	866	875	875	880	884	884	892	892	897	897	899	900	900	900	900	900	900	900	900	900	900	900	900	900	900	900	900	900	900	901	901	901	901	901	901	901	901	901	901	901	901	901	901	900	900	900	900	900	900	900	899	899	899	899	899	899	899	899	899	899	899	899	899	899	899	899	899	899	899	899	899	899	899	899	899	899	899	898	898	898	898	898	898	898	899	899	899	899	899	899	899	899	899	899	900	900	900	900	900	900	900	900	900	901	901	901	901	901	901	901	901	901	901	902	902	902	902	902	903	903	903	903	903	903	903	903	903	903	903	903	903	903	903	901	901	901	901	901	901	901	901	901	901	900	900	900	900	900	900	900	900	900	900	900	900	900	900	900	900	900	900	900	900	900	900	900	900	900	900	901	901	901	901	901	901	901	900	900	901	901	901	901	900	900	900	900	900	900	900	900	900	900	900	900	899	899	899	898	898	898	898	897	896	896	896	896	896	896	895	895	895	895	895	895	895	896	896	896	896	896	896	896	896	896	897	897	897	897	897	898	898	898	898	898	898	898	898	898	0	0	0	0	0	0	0	0	0	0	0	0	0	0	0	0	0	0	0	0	0	0	0	0	0	0	0	0	0	0	0	0	0	0	0	0	0	0	0	0	0	0	0	0	0	0	0	0	0	790	786	786	786	0	778	778	776	773	769	769	768	766	765	765	764	763	763	761	758	757	757	754	753	752	752	751	751	751	751	751	751	751	751	751	751	751	0	0	0	0	644	644	643	643	642	642	641	639	639	639	0	0	0	0	0	0	0	0	0	0	0	0	0	0	0	0	0	0	0	0	0	0	0	0	0	0	0	0	0	0	0	0	0	0	0	0	0	0	0	0	0	0	0	0	0	0	0	0	0	0	0	0	1986	1986	1986	1986	1989	1989	1989	1989	1989	1989	1989	1989	1989	1992	1992	1992	1992	1992	1992	1995	1995	1995	1995	1995	1995	1995	1995	1995	1998	1998	1998	1998	1998	1998	1998	1998	1995	1995	1995	1995	1995	1995	1995	1995	1995	1995	1992	1992	1992	1992	1992	1992	1989	1989	1989	1989	1989	1989	1989	1986	1986	1986	1986	1986	1986	1983	1983	1983	1980	1980	1980	1977	1977	1977	1974	1974	1974	1974	1974	1974	1971	1971	1971	1971	1971	1971	1971	1971	1971	1971	1974	1974	1974	1977	1977	1980	1983	1983	1986	1989	1989	1989	1992	1992	1992	1992	1992	1995	1995	1995	1995	1995	1995	1998	1998	1998	1998	1998	1998	2001	2001	2001	2001	2001	2001	2001	2001	2001	2001	2001	2001	2001	2001	2004	2004	2004	2004	2004	2004	2004	2001	2001	2001	2001	2001	2001	2001	2004	2004	2004	2004	2004	2004	2007	2007	2007	2010	2010	2010	2014	2014	2014	2014	2017	2017	2017	2017	2017	2017	2017	2017	2017	2017	2017	2017	2017	2017	2014	2014	2007	2007	2007	2004
825	826	826	827	828	828	829	830	831	832	832	833	833	833	833	830	830	830	829	829	828	827	827	826	826	825	825	824	823	823	821	821	821	821	822	826	826	0	0	0	0	873	873	873	884	884	898	898	898	898	898	898	899	899	899	899	899	900	900	900	900	900	900	900	900	899	899	899	899	899	899	899	899	898	898	898	899	899	899	899	899	899	899	899	898	898	898	898	898	898	897	896	895	895	893	890	890	890	887	884	884	881	881	0	0	853	845	845	843	843	843	842	841	841	841	840	840	840	840	839	839	837	837	837	837	837	837	837	837	837	838	838	839	839	840	841	841	842	843	843	843	845	845	848	857	857	861	861	866	866	875	875	880	884	884	892	892	897	897	899	900	900	900	900	900	900	900	900	899	899	899	899	899	899	899	899	899	899	900	900	900	900	900	900	900	900	900	900	900	900	900	900	900	899	899	899	899	899	899	898	898	898	898	898	898	898	898	898	898	898	898	898	898	898	898	898	898	898	898	898	898	898	898	898	898	898	898	897	897	897	897	898	898	898	898	898	898	898	898	898	898	898	898	898	898	898	899	899	899	899	899	899	900	900	900	900	900	900	900	900	900	900	901	901	901	901	901	901	901	901	901	901	901	902	902	901	901	901	901	901	901	901	900	900	900	900	900	900	899	899	899	899	899	899	899	898	898	898	898	898	898	898	898	898	898	898	898	898	898	898	899	899	899	899	899	899	899	899	899	899	899	899	899	899	899	899	899	899	899	899	899	899	899	899	899	898	898	898	898	898	898	897	896	896	896	895	895	895	895	895	895	895	895	894	893	893	893	893	893	893	894	895	895	895	895	895	896	896	896	896	896	896	896	897	897	897	897	897	897	898	898	898	898	898	898	898	898	0	0	0	0	0	0	0	0	0	0	0	0	0	0	0	0	0	0	0	0	0	0	0	0	0	0	0	0	0	0	0	0	0	0	0	0	0	0	0	0	0	0	0	0	0	0	0	0	0	0	0	789	789	0	780	780	778	775	773	773	769	767	765	765	764	764	0	761	758	758	0	0	0	752	752	751	751	751	751	751	0	0	0	0	0	0	0	0	0	0	644	644	643	643	643	642	641	639	639	639	0	0	0	0	0	0	0	0	0	0	0	0	0	0	0	0	0	0	0	0	0	0	0	0	0	0	0	0	0	0	0	0	0	0	0	0	0	0	0	0	0	0	0	0	0	0	0	0	0	0	0	0	0	0	0	0	0	0	1983	1983	1986	1986	1989	1989	1989	1989	1992	1992	1992	1992	1992	1992	1995	1995	1995	1995	1995	1995	1995	1995	1995	1995	1995	1995	1995	1995	1995	1995	1995	1995	1995	1995	1995	1995	1995	1992	1992	1992	1992	1992	1992	1992	1992	1992	1989	1989	1989	1989	1989	1989	1986	1983	1983	1983	1983	1983	1983	1980	1980	1977	1977	1977	1974	1971	1971	1965	1965	1965	1965	1962	1962	1962	1962	1962	1962	1962	1962	1962	1962	1965	1965	1965	1965	1965	1971	1974	1974	1974	1980	1980	1983	1986	1986	1989	1989	1989	1992	1992	1992	1992	1995	1995	1995	1995	1995	1995	1995	1995	1995	1995	1995	1995	1995	1995	1995	1995	1995	1995	1995	1995	1995	1995	1995	1995	1995	1995	1995	1998	1998	1998	1998	1998	1998	1998	1998	1998	1998	1998	1998	2001	2001	2001	2001	2001	2001	2001	2004	2004	2004	2004	2004	2004	2007	2007	2007	2007	2007	2007	2010	2010	2010	2010	2010	2010	2010	2010	2010	2010	2010	2007	2007	2004	2004	2004	2001
825	827	827	828	829	829	830	830	831	833	833	834	834	834	834	834	833	831	830	830	829	828	828	827	826	825	825	823	821	821	820	819	819	819	821	825	825	0	0	0	0	873	873	873	883	883	895	895	896	896	896	897	898	898	898	898	898	898	898	898	898	899	898	898	898	898	898	898	898	898	898	898	898	898	898	898	898	898	898	898	898	898	898	898	898	898	898	897	896	896	896	895	893	893	891	889	889	888	885	882	882	879	879	0	860	853	845	845	843	843	843	842	841	840	840	840	840	840	839	838	838	837	837	837	837	837	837	837	837	837	838	838	839	839	840	841	841	842	843	843	843	845	845	848	857	857	861	861	866	866	875	875	880	884	884	890	890	896	896	898	898	898	899	899	899	899	899	899	899	899	899	899	899	899	899	899	899	899	900	900	900	900	900	900	900	900	900	900	900	900	900	900	900	899	899	899	899	899	899	898	898	898	898	898	898	898	898	898	898	898	898	898	898	898	898	898	898	898	898	898	898	898	898	898	898	898	898	897	897	897	897	898	898	898	898	898	898	898	898	898	898	898	898	898	898	898	899	899	899	899	899	899	900	900	900	900	900	900	900	900	900	900	901	901	901	901	901	901	901	901	901	901	901	902	902	901	901	901	901	901	900	900	899	899	899	898	898	898	898	898	898	898	898	898	897	897	897	897	897	897	897	896	896	896	896	896	896	896	897	898	897	897	898	898	898	898	898	898	898	898	898	898	898	898	898	898	898	898	898	898	898	898	898	898	897	896	896	895	895	894	894	892	890	890	890	889	889	889	889	889	889	889	890	890	890	890	890	890	891	891	892	893	893	894	895	895	895	896	896	896	896	896	896	897	897	896	896	896	897	897	897	897	898	898	898	898	898	0	0	0	0	0	0	0	0	0	0	0	0	0	0	0	0	0	0	0	0	0	0	0	0	0	0	0	0	0	0	0	0	0	0	0	0	0	0	0	0	0	0	0	0	0	0	0	0	0	0	0	789	787	783	780	780	778	775	773	773	769	767	765	765	764	763	763	761	758	758	0	0	0	752	752	751	687	687	686	683	679	676	669	669	669	0	647	645	645	644	644	644	643	643	641	641	640	639	639	639	0	0	0	0	0	0	0	0	0	0	0	0	0	0	0	0	0	0	0	0	0	0	0	0	0	0	0	0	0	0	0	0	0	0	0	0	0	0	0	0	0	0	0	0	0	0	0	0	0	0	0	0	0	0	0	0	0	0	1983	1983	1986	1986	1989	1989	1989	1989	1992	1992	1992	1992	1992	1992	1995	1995	1995	1995	1995	1995	1998	1995	1995	1995	1995	1995	1995	1995	1995	1995	1995	1995	1995	1995	1995	1995	1995	1992	1992	1992	1992	1992	1992	1992	1992	1992	1989	1989	1989	1989	1989	1989	1986	1983	1983	1983	1983	1983	1983	1980	1980	1977	1977	1977	1974	1971	1971	1965	1965	1965	1965	1962	1962	1962	1962	1962	1962	1962	1956	1956	1953	1953	1956	1956	1956	1962	1962	1965	1971	1971	1974	1974	1977	1980	1980	1983	1986	1986	1989	1989	1989	1992	1992	1992	1992	1992	1992	1992	1992	1992	1992	1992	1992	1992	1992	1992	1992	1992	1992	1992	1992	1992	1992	1992	1995	1995	1995	1995	1995	1995	1995	1995	1995	1995	1995	1995	1995	1995	1995	1995	1995	1995	1995	1995	1995	1995	1995	1995	1998	1998	2001	2001	2001	2001	2001	2001	2001	2004	2004	2004	2004	2004	2004	2004	2004	2004	2004	2004	2007	2007	2007	2004	2004	2004	2001	2001	1998
825	827	827	828	829	829	830	830	833	834	834	834	835	835	834	834	834	832	830	830	829	828	828	827	826	825	825	823	821	821	820	819	819	819	821	825	825	0	0	0	0	0	0	883	883	883	893	893	895	895	895	895	896	896	896	896	896	897	897	897	898	898	898	898	898	897	897	897	897	897	897	897	897	898	898	898	898	898	898	898	898	898	898	898	898	897	897	896	895	895	895	893	890	890	889	886	885	885	883	881	881	878	878	0	860	853	845	845	844	843	843	842	841	840	840	840	840	840	839	838	838	837	837	837	837	837	837	837	837	837	838	838	839	839	840	841	841	842	843	843	844	845	845	850	853	858	862	862	867	867	875	875	880	884	884	890	890	895	896	896	898	898	898	898	898	898	898	898	898	898	898	898	898	898	898	898	898	898	899	899	899	899	899	899	899	899	899	899	899	899	899	899	899	898	898	898	898	898	898	898	898	898	897	897	897	896	896	896	896	896	896	896	896	896	896	896	896	896	896	896	896	896	896	896	896	896	896	896	896	896	896	896	896	896	896	897	897	897	897	897	898	898	898	898	898	898	898	898	898	898	898	898	898	899	899	899	899	899	899	900	900	900	900	900	900	900	900	900	901	901	901	901	900	900	900	900	900	900	900	900	900	900	899	899	899	898	898	898	898	898	898	898	898	898	897	897	897	897	897	897	897	896	896	896	896	896	896	896	897	898	897	897	898	898	898	898	898	898	898	898	898	898	898	898	898	898	898	898	898	898	898	898	898	898	897	896	896	895	895	894	894	892	890	890	890	889	889	889	889	889	889	889	890	890	890	890	890	890	891	891	892	893	893	894	895	895	895	896	896	896	896	896	896	897	897	896	896	896	897	897	897	897	0	0	0	0	0	0	0	0	0	0	0	0	0	0	0	0	0	0	0	0	0	0	0	0	0	0	0	0	0	0	0	0	0	0	0	0	0	0	0	0	0	0	0	0	0	0	0	0	0	0	0	0	798	796	794	794	793	787	783	783	781	780	778	778	774	771	768	765	765	764	763	763	763	0	0	687	687	687	0	0	687	687	685	685	682	677	676	669	669	669	0	647	645	645	644	644	644	643	643	641	641	640	638	638	637	637	635	635	635	0	0	0	0	0	0	0	0	0	0	0	0	0	0	0	0	0	0	0	0	0	0	0	0	0	0	0	0	0	0	0	0	0	0	0	0	0	0	0	0	0	0	0	0	0	0	0	0	0	0	0	0	0	0	1983	1983	1986	1986	1986	1986	1986	1989	1989	1989	1992	1992	1992	1992	1995	1995	1995	1995	1995	1995	1995	1995	1995	1995	1995	1995	1995	1995	1995	1995	1992	1992	1992	1992	1992	1992	1992	1992	1992	1992	1992	1992	1992	1992	1992	1992	1989	1989	1989	1989	1989	1986	1986	1983	1983	1983	1980	1980	1980	1977	1977	1974	1971	1971	1965	1962	1962	1956	1956	1956	1956	1953	1953	1953	1953	1953	1953	1953	1953	1956	1953	1953	1956	1956	1956	1962	1962	1965	1971	1971	1974	1974	1977	1980	1980	1983	1986	1986	1989	1989	1989	1992	1992	1992	1992	1992	1992	1992	1992	1992	1992	1992	1992	1992	1992	1992	1992	1992	1992	1992	1992	1992	1992	1992	1995	1995	1995	1995	1995	1995	1995	1995	1995	1995	1995	1995	1995	1995	1995	1995	1995	1995	1995	1995	1995	1995	1995	1995	1998	1998	2001	2001	2001	2001	2001	2001	2001	2004	2004	2004	2004	2004	2004	2004	2004	2004	2004	2004	2007	2007	2007	2004	2004	2004	2001	2001	1998
825	827	827	828	829	829	830	830	833	834	834	834	835	835	834	834	834	831	829	829	828	827	827	826	824	821	821	819	817	815	815	814	814	816	816	825	825	0	0	0	0	0	0	883	883	883	893	893	895	895	895	895	896	896	896	896	896	897	897	897	898	898	898	898	898	897	897	897	897	897	897	897	897	898	898	898	898	898	898	898	898	898	898	898	898	897	897	896	895	895	895	893	890	890	889	886	885	885	883	881	881	878	878	0	860	854	846	846	844	843	843	842	841	840	840	840	840	840	839	838	838	837	837	837	837	837	837	837	837	837	838	838	839	839	840	842	842	842	843	843	844	847	847	853	853	859	862	862	868	868	876	876	880	884	884	890	890	894	894	894	895	896	896	896	896	896	896	896	895	895	896	896	896	896	896	897	897	897	898	898	898	898	898	898	899	899	898	898	898	898	898	898	898	898	898	898	897	897	897	896	896	896	895	895	895	895	895	895	895	895	895	895	895	895	895	895	895	895	895	895	895	895	895	895	895	895	895	895	895	895	895	895	895	895	895	895	895	895	895	895	896	896	896	896	896	896	896	896	896	897	898	898	898	898	898	898	898	898	898	899	899	899	899	899	899	900	900	900	900	900	900	900	900	900	900	900	899	899	899	899	898	898	898	898	898	898	897	897	896	896	896	896	895	895	895	895	895	895	895	894	894	894	894	894	894	894	895	895	895	895	894	894	895	895	895	895	895	895	895	895	895	896	896	896	896	896	896	896	896	896	896	895	895	893	893	892	890	890	889	887	885	885	884	883	883	883	883	883	883	884	884	884	884	885	885	887	888	888	890	890	890	891	891	892	894	894	895	895	895	896	896	896	896	896	896	896	896	896	896	896	896	896	897	897	0	0	0	0	895	895	895	0	0	0	0	0	0	0	0	0	0	0	0	0	0	0	0	0	0	0	0	0	0	0	0	0	0	0	0	0	0	0	0	0	0	0	0	0	0	0	0	0	0	0	798	796	794	794	793	790	786	786	783	780	779	779	777	774	769	766	766	764	763	763	763	0	0	687	687	687	0	0	687	687	685	685	682	677	677	0	0	0	0	647	645	645	645	644	644	643	643	643	642	640	638	638	637	637	635	635	635	0	0	0	0	0	0	0	0	0	0	0	0	0	0	0	0	0	0	0	0	0	0	0	0	0	0	0	0	0	0	0	0	0	0	0	0	0	0	0	0	0	0	0	0	0	0	0	0	0	0	0	0	0	0	0	0	0	0	1986	1986	1986	1989	1989	1989	1992	1992	1992	1992	1995	1995	1995	1995	1995	1995	1995	1995	1995	1995	1995	1995	1995	1992	1992	1992	1992	1992	1992	1992	1992	1992	1992	1992	1992	1992	1992	1992	1992	1992	1992	1992	1989	1989	1989	1989	1989	1986	1986	1986	1986	1983	1980	1980	1980	1974	1974	1974	1965	1965	1965	1956	1956	1953	1951	1951	1951	1951	1945	1945	1945	1945	1951	1951	1951	1951	1951	1953	1953	1953	1956	1956	1956	1962	1965	1965	1971	1971	1971	1974	1974	1977	1980	1980	1983	1986	1986	1989	1989	1989	1989	1989	1989	1989	1989	1989	1989	1989	1989	1989	1989	1989	1989	1989	1989	1989	1989	1989	1989	1989	1992	1992	1992	1992	1992	1992	1992	1992	1992	1992	1992	1992	1992	1992	1992	1992	1992	1992	1992	1992	1992	1992	1992	1992	1995	1995	1995	1995	1995	1995	1995	1995	1995	1998	1998	2001	2001	2001	2001	2001	2001	2001	2004	2004	2004	2004	2004	2001	2001	2001	2001	2001	1995
826	827	827	829	829	830	832	832	834	835	835	836	836	835	834	834	833	830	828	828	826	824	821	815	815	812	811	811	810	810	809	809	809	811	811	0	0	0	0	0	0	0	0	883	883	883	891	891	891	892	892	892	893	893	894	895	895	895	895	895	895	895	896	895	895	895	895	895	895	895	895	896	896	896	896	896	896	896	896	896	897	897	896	896	896	895	895	895	894	892	892	890	888	888	886	884	883	883	881	880	877	877	870	863	860	854	846	846	844	843	843	842	841	840	840	840	840	840	839	838	838	837	837	837	837	837	837	837	837	837	838	838	839	839	840	842	842	842	843	843	844	847	847	853	853	859	862	862	868	868	876	876	880	883	883	888	888	892	894	894	895	896	896	896	896	896	896	896	895	895	896	896	896	896	896	897	897	897	898	898	898	898	898	898	899	899	898	898	898	898	898	898	898	898	898	898	897	897	897	896	896	896	895	895	895	895	895	895	895	895	895	895	895	895	895	895	895	895	895	895	895	895	895	895	895	895	895	895	895	895	895	895	895	895	895	895	895	895	895	895	896	896	896	896	896	896	896	896	896	897	898	898	898	898	898	898	898	898	898	899	899	899	899	899	899	900	900	900	900	900	899	899	899	899	898	898	898	898	898	898	898	898	898	896	896	896	895	895	895	895	895	894	893	893	893	893	892	892	892	891	891	891	891	891	891	891	891	891	891	891	891	891	891	891	891	891	891	891	892	892	892	892	892	892	892	892	893	893	893	892	891	891	890	888	888	886	884	883	883	882	881	881	881	881	881	880	880	881	881	881	881	881	882	883	883	884	885	885	887	889	889	890	891	891	893	893	894	895	895	895	896	895	895	895	895	895	895	895	895	895	896	896	897	897	895	895	895	894	893	893	892	892	0	0	0	0	0	0	0	0	0	0	0	0	0	0	0	0	0	0	0	0	0	0	0	0	0	898	898	899	899	899	899	899	0	0	0	0	0	0	0	802	800	800	798	796	794	794	793	790	786	786	783	780	779	779	777	774	769	766	766	764	763	763	763	0	686	686	686	686	686	686	686	686	683	679	679	676	676	0	0	654	651	647	645	645	645	644	644	643	643	641	641	640	638	638	637	636	635	635	635	635	0	0	0	0	0	0	0	0	0	0	0	0	0	0	0	0	0	699	699	699	699	0	0	0	0	0	0	0	0	0	0	0	0	0	0	0	0	0	0	0	0	0	0	0	0	0	0	0	0	0	0	0	0	0	0	0	0	0	0	0	1989	1989	1989	1992	1992	1992	1992	1995	1995	1995	1995	1995	1995	1995	1995	1995	1995	1995	1995	1995	1992	1992	1992	1992	1992	1992	1992	1992	1992	1992	1992	1992	1992	1992	1992	1992	1992	1992	1992	1989	1989	1989	1989	1989	1989	1986	1986	1986	1983	1980	1980	1980	1974	1974	1974	1965	1965	1965	1956	1956	1953	1951	1945	1945	1942	1942	1942	1942	1942	1942	1942	1942	1945	1945	1945	1951	1951	1951	1953	1953	1953	1962	1962	1962	1965	1965	1971	1971	1971	1974	1974	1977	1980	1980	1983	1983	1983	1983	1986	1986	1986	1986	1986	1986	1986	1986	1986	1986	1986	1986	1986	1986	1986	1986	1986	1986	1989	1989	1989	1989	1989	1989	1989	1989	1989	1989	1989	1989	1989	1989	1989	1989	1989	1989	1989	1989	1989	1989	1989	1989	1989	1989	1989	1989	1992	1992	1992	1992	1992	1992	1992	1992	1995	1995	1995	1995	1998	1998	1998	2001	2001	2001	2001	2001	2001	2001	1998	1995	1995	1995
826	828	828	829	829	830	833	833	834	836	836	836	836	835	834	834	833	830	828	828	826	824	821	815	815	812	811	811	810	810	809	809	809	811	811	0	0	0	0	0	0	0	0	0	0	889	889	890	890	890	890	890	891	891	891	892	892	892	892	893	893	893	893	893	893	893	893	893	893	893	893	894	894	894	895	895	895	895	895	895	895	895	895	895	895	894	892	892	891	890	890	888	886	884	884	883	882	882	881	879	875	875	869	863	860	855	848	848	845	843	843	843	842	841	841	840	840	840	840	839	839	839	837	837	837	837	838	838	839	839	839	840	840	840	841	842	842	843	844	844	845	849	849	855	855	860	861	863	870	870	877	877	880	883	883	886	886	890	891	891	892	892	892	892	893	893	893	893	893	893	893	893	894	894	894	895	896	896	897	898	898	898	898	898	898	898	898	898	898	898	898	898	898	898	898	896	896	896	896	895	895	895	895	895	895	894	894	894	894	894	894	894	894	894	894	894	894	894	894	894	894	893	893	894	893	893	893	893	893	893	893	893	893	893	894	894	894	894	894	894	895	895	895	895	895	895	895	895	895	896	896	896	896	896	896	897	898	898	898	898	898	898	898	898	898	898	898	899	899	899	899	899	899	899	898	898	898	898	898	898	898	898	898	896	896	896	895	895	895	895	895	894	893	893	893	893	892	892	892	891	891	891	891	891	891	891	891	891	891	891	891	891	891	891	891	891	891	891	892	892	892	892	892	892	892	892	893	893	893	892	891	891	890	888	888	886	884	883	883	882	881	881	881	881	881	880	880	881	881	881	881	881	882	883	883	884	885	885	887	889	889	890	891	891	893	893	894	895	895	895	896	895	895	895	895	895	895	895	895	895	896	896	0	0	894	894	894	892	891	891	891	889	889	888	888	0	0	0	0	0	0	0	0	0	0	0	0	0	0	0	0	0	0	0	0	0	0	898	898	898	898	898	898	898	0	0	0	0	0	0	0	802	800	800	798	796	795	795	793	791	788	788	786	783	780	780	779	776	773	773	773	0	0	0	0	0	686	686	686	685	685	685	685	685	680	677	677	675	671	671	659	654	651	648	646	646	645	644	644	643	643	641	641	640	639	639	638	636	635	635	635	635	635	635	0	0	0	0	0	0	0	0	0	0	0	0	0	699	699	698	698	698	698	697	697	697	696	696	0	0	0	0	0	0	0	0	0	0	0	0	0	0	0	0	0	0	0	0	0	0	0	0	0	0	0	0	0	0	0	0	0	0	1989	1989	1989	1992	1992	1992	1992	1995	1995	1995	1995	1995	1995	1995	1995	1995	1995	1995	1995	1995	1992	1992	1992	1992	1992	1992	1992	1992	1992	1992	1992	1992	1992	1992	1992	1992	1992	1992	1992	1989	1989	1989	1989	1989	1989	1986	1986	1986	1983	1980	1980	1977	1974	1974	1965	1962	1962	1956	1953	1945	1945	1945	1945	1945	1942	1942	1942	1942	1942	1942	1942	1942	1945	1945	1945	1951	1951	1951	1953	1953	1953	1962	1962	1962	1965	1965	1971	1971	1971	1974	1974	1977	1980	1980	1983	1983	1983	1983	1986	1986	1986	1986	1986	1986	1986	1986	1986	1986	1986	1986	1986	1986	1986	1986	1986	1986	1989	1989	1989	1989	1989	1989	1989	1989	1989	1989	1989	1989	1989	1989	1989	1989	1989	1989	1989	1989	1989	1989	1989	1989	1989	1989	1989	1989	1992	1992	1992	1992	1992	1992	1992	1992	1995	1995	1995	1995	1998	1998	1998	2001	2001	2001	2001	2001	2001	2001	1998	1995	1995	1995
826	827	828	829	829	830	833	833	834	836	835	834	834	833	830	828	828	826	824	819	814	814	811	809	809	808	806	806	810	810	809	809	809	811	811	0	0	0	0	0	0	0	0	0	0	889	889	890	890	890	890	890	891	891	891	892	892	892	892	893	893	893	893	893	893	893	893	893	893	893	893	894	894	894	895	895	895	895	895	895	895	895	895	895	895	894	892	892	891	890	890	888	886	884	884	883	882	882	881	879	875	875	869	863	860	857	857	850	847	845	845	843	842	842	842	841	841	841	841	840	840	840	840	840	840	840	840	840	840	840	840	841	841	841	842	843	843	844	845	845	847	852	852	858	858	861	861	864	871	871	877	877	880	882	882	884	884	886	889	889	889	890	890	890	890	890	890	890	890	890	890	890	892	893	893	894	895	895	896	897	897	897	898	898	898	898	898	898	898	898	898	898	897	896	896	896	896	895	895	895	894	894	894	893	893	893	893	893	893	892	892	892	892	892	892	892	892	892	893	893	893	893	892	892	892	892	893	892	892	892	892	892	892	892	892	892	892	892	892	892	893	893	893	893	893	893	893	893	893	894	894	894	895	895	895	895	896	896	896	896	896	897	898	898	898	898	898	898	898	898	898	898	898	898	898	898	898	898	898	897	896	896	896	895	895	895	894	894	893	892	891	891	891	890	890	890	890	890	890	890	890	889	889	889	889	889	889	889	889	889	888	888	888	888	889	889	889	889	889	889	889	889	889	889	889	889	889	888	888	887	886	886	884	883	882	882	881	880	880	880	879	879	878	878	878	878	878	879	879	880	880	880	881	881	881	882	884	884	884	887	887	888	890	890	891	893	893	894	894	895	895	895	895	895	895	894	894	895	894	894	895	895	895	895	894	894	894	892	891	891	891	889	889	888	888	0	0	0	0	0	0	0	0	0	0	0	0	0	0	0	0	0	0	0	0	0	0	898	898	898	898	898	898	898	0	0	0	0	0	0	0	802	801	801	799	796	795	795	794	792	792	790	787	785	785	782	780	780	0	0	0	0	0	0	0	0	686	686	686	685	685	685	685	685	680	677	677	675	671	671	659	654	651	649	646	646	645	644	644	643	643	643	642	640	639	639	638	636	636	636	635	635	635	635	0	0	0	0	0	0	0	0	0	0	0	0	699	698	698	698	697	697	697	696	695	695	695	694	692	692	692	0	0	0	0	0	0	0	0	0	0	0	0	0	0	0	0	0	0	0	0	0	0	0	0	0	0	0	0	0	0	0	0	0	0	0	0	1995	1995	1995	1995	1995	1995	1995	1995	1995	1995	1995	1995	1995	1992	1992	1992	1989	1989	1989	1989	1989	1989	1989	1992	1992	1992	1992	1992	1992	1992	1992	1992	1992	1992	1992	1992	1989	1989	1989	1989	1989	1989	1986	1983	1980	1980	1977	1971	1971	1965	1956	1956	1953	1945	1942	1942	1936	1933	1933	1933	1933	1933	1933	1933	1933	1933	1936	1936	1936	1942	1942	1942	1942	1945	1945	1951	1953	1953	1956	1956	1956	1962	1965	1965	1971	1971	1971	1974	1974	1977	1977	1977	1980	1980	1980	1980	1980	1983	1983	1983	1983	1983	1983	1983	1983	1983	1983	1983	1983	1983	1983	1983	1983	1983	1983	1983	1983	1983	1983	1983	1986	1986	1986	1986	1986	1986	1986	1986	1983	1983	1986	1983	1983	1983	1983	1983	1986	1986	1986	1986	1986	1986	1989	1989	1989	1989	1989	1992	1992	1992	1992	1992	1992	1995	1995	1995	1995	1995	1995	1995	1995	1995	1992	1992	1992
827	827	828	830	830	831	833	833	834	834	833	830	828	828	826	825	820	813	813	810	810	814	811	801	799	797	797	797	798	800	800	0	0	0	0	0	0	0	0	0	0	0	0	0	0	887	887	887	887	887	887	887	887	887	887	888	890	889	889	890	890	890	890	890	890	890	890	890	890	890	890	891	891	891	892	892	892	892	892	892	893	893	892	892	892	891	890	890	888	887	887	885	883	882	882	881	880	880	880	878	875	875	869	863	860	857	857	850	847	845	845	843	842	842	842	841	841	841	841	840	840	840	840	840	840	840	840	840	840	840	840	841	841	841	842	843	843	844	845	845	847	850	852	858	858	861	861	866	873	873	877	877	880	882	882	884	884	886	889	889	889	890	890	890	890	890	890	890	890	890	890	890	892	893	893	894	895	895	896	897	897	897	898	898	898	898	898	898	898	898	898	898	897	896	896	896	896	895	895	895	894	894	894	893	893	893	893	893	893	892	892	892	892	892	892	892	892	892	893	893	893	893	892	892	892	892	893	892	892	892	892	892	892	892	892	892	892	892	892	892	893	893	893	893	893	893	893	893	893	894	894	894	895	895	895	895	896	896	896	896	896	895	895	895	896	896	896	896	897	897	897	897	897	896	896	896	896	896	896	895	895	895	894	893	893	892	891	890	890	890	890	890	890	889	889	889	888	888	887	887	887	886	886	886	886	886	886	886	886	885	885	885	885	885	885	885	885	885	885	885	885	885	885	884	884	884	884	883	883	883	882	881	881	880	880	880	879	878	878	878	877	877	877	877	877	877	877	877	877	878	878	878	880	880	880	881	881	881	883	884	884	886	888	888	890	891	891	892	892	893	894	893	893	893	893	892	892	893	893	893	893	893	892	892	892	892	892	891	891	891	890	888	887	887	886	886	0	0	0	0	0	0	0	0	0	0	0	0	0	0	0	0	0	0	0	0	0	898	898	898	898	898	898	898	0	0	0	0	0	0	0	802	801	801	799	796	795	795	794	792	792	790	787	785	785	782	780	780	0	0	0	0	0	0	685	685	685	685	685	685	685	684	684	682	679	677	677	675	671	665	659	654	651	649	646	646	645	644	644	643	643	643	642	640	639	639	638	636	636	636	635	635	635	635	635	0	0	0	0	0	0	0	0	0	0	0	699	698	698	698	697	697	697	696	695	695	695	694	692	692	692	0	0	0	0	0	0	0	0	0	0	0	0	0	0	0	0	0	0	0	0	0	0	0	0	0	0	0	0	0	0	0	0	0	0	0	0	1995	1995	1995	1995	1995	1995	1995	1995	1995	1995	1995	1995	1995	1992	1992	1992	1989	1989	1989	1989	1989	1989	1989	1992	1992	1992	1992	1992	1992	1992	1992	1992	1992	1992	1992	1992	1992	1992	1992	1989	1989	1989	1989	1986	1980	1980	1977	1971	1971	1956	1953	1953	1945	1936	1933	1933	1928	1928	1928	1925	1925	1925	1925	1925	1928	1928	1928	1928	1928	1933	1936	1936	1936	1936	1936	1942	1942	1942	1945	1951	1951	1953	1953	1953	1956	1962	1962	1965	1965	1965	1971	1974	1974	1974	1974	1974	1977	1977	1977	1977	1977	1977	1977	1977	1977	1977	1977	1977	1977	1977	1977	1977	1977	1977	1977	1977	1977	1977	1977	1977	1980	1980	1980	1980	1980	1980	1977	1977	1977	1977	1977	1977	1977	1977	1974	1974	1977	1977	1977	1977	1977	1977	1980	1980	1983	1983	1983	1986	1989	1989	1989	1989	1989	1992	1992	1992	1992	1995	1995	1992	1992	1992	1992	1992	1992
827	827	829	831	831	831	834	834	834	834	833	830	828	828	826	825	820	813	813	810	810	0	0	801	799	793	793	793	794	795	795	796	796	796	798	0	0	0	0	0	0	0	0	0	0	887	881	881	881	883	883	883	884	884	884	884	885	885	885	886	886	886	886	886	887	887	887	888	888	888	888	888	888	889	889	889	890	890	890	890	890	890	890	889	889	888	887	887	885	884	883	883	881	881	881	880	880	880	878	877	874	874	869	864	861	861	859	853	848	846	846	844	843	843	843	842	842	842	842	841	841	841	841	841	841	841	841	841	841	841	841	842	842	842	843	844	844	845	847	847	850	850	855	860	860	862	862	866	873	873	877	877	880	881	881	883	884	884	886	886	886	887	887	887	887	887	887	887	888	888	889	889	890	891	891	892	894	894	895	895	895	896	898	898	898	898	898	898	898	898	897	897	896	896	895	895	895	894	894	894	893	893	892	891	891	891	890	890	890	891	891	891	890	890	891	891	890	890	890	891	891	891	891	892	891	891	891	891	891	891	891	891	891	891	890	890	890	890	890	890	890	890	890	890	890	890	890	890	890	890	891	891	891	891	892	892	893	893	893	894	894	895	895	895	896	896	896	896	897	897	897	897	897	896	896	896	896	896	896	895	895	895	894	893	893	892	891	890	890	890	890	890	890	889	889	889	888	888	887	887	887	886	886	886	886	886	886	886	886	885	885	885	885	885	885	885	885	885	885	885	885	885	885	884	884	884	884	883	883	883	882	881	881	880	880	880	879	878	878	878	877	877	877	877	877	877	877	877	877	878	878	878	880	880	880	881	881	881	883	884	884	886	888	888	890	891	891	892	892	893	894	893	893	893	893	891	891	891	891	892	892	891	890	890	890	890	890	890	890	890	889	887	885	885	885	885	886	886	0	0	0	0	0	0	0	0	0	0	0	0	0	0	0	0	0	0	0	898	898	898	898	898	898	896	896	0	0	0	0	811	809	806	801	801	801	797	795	795	794	793	793	791	789	787	787	785	785	0	0	0	0	0	0	0	685	685	685	685	684	684	683	682	682	680	677	675	675	675	0	664	657	654	652	650	650	647	646	644	644	644	643	643	642	641	639	639	638	636	636	636	635	635	635	635	635	635	635	0	0	0	0	0	0	0	0	0	698	697	697	697	697	697	697	695	695	692	692	692	691	691	690	690	0	0	0	0	0	0	0	0	0	0	0	0	0	0	0	0	0	0	0	0	0	0	0	0	0	0	0	0	0	0	0	0	0	0	0	1995	1995	1995	1995	1995	1995	1995	1992	1992	1992	1992	1992	1992	1989	1989	1989	1989	1989	1989	1989	1989	1989	1989	1989	1989	1989	1992	1992	1992	1992	1992	1992	1992	1992	1992	1992	1992	1992	1992	1989	1989	1989	1986	1983	1980	1980	1974	1965	1965	1956	1953	1953	1945	1936	1933	1933	1928	1928	1928	1925	1925	1925	1925	1925	1928	1928	1928	1928	1928	1933	1936	1936	1936	1936	1936	1942	1942	1942	1945	1951	1951	1953	1953	1953	1956	1962	1962	1965	1965	1965	1971	1974	1974	1974	1974	1974	1977	1977	1977	1977	1977	1977	1977	1977	1977	1977	1977	1977	1977	1977	1977	1977	1977	1977	1977	1977	1977	1977	1977	1977	1980	1980	1980	1980	1980	1980	1977	1977	1977	1977	1977	1977	1977	1977	1974	1974	1977	1977	1977	1977	1977	1977	1980	1980	1983	1983	1983	1986	1989	1989	1989	1989	1989	1992	1992	1992	1992	1995	1995	1992	1992	1992	1992	1992	1989
827	827	829	831	831	831	834	834	830	829	829	827	825	821	821	814	810	808	802	802	800	796	795	795	794	793	793	793	794	795	795	796	796	796	798	0	0	0	0	0	0	0	0	0	0	0	881	881	881	883	883	883	884	884	884	884	885	885	885	886	886	886	886	886	887	887	887	888	888	888	888	888	888	889	889	889	890	890	890	890	890	890	890	889	889	888	887	887	885	884	883	883	881	881	881	880	880	880	878	877	874	874	869	864	862	862	860	855	853	848	848	845	844	844	843	843	843	843	843	842	842	842	842	842	842	842	842	842	842	842	842	843	843	843	844	845	845	847	850	850	854	854	858	860	861	863	863	868	874	874	878	878	880	881	881	881	883	883	883	884	884	884	884	884	884	884	884	885	885	885	887	888	888	890	890	890	892	892	893	895	895	896	898	898	0	0	898	898	898	898	895	895	895	895	894	894	894	894	894	892	891	891	890	890	890	890	890	890	890	890	890	890	890	890	890	890	890	890	890	890	890	890	890	890	890	890	890	890	890	890	890	890	890	890	890	890	890	889	889	889	889	889	889	889	888	888	888	888	888	888	889	889	889	889	889	889	890	890	890	890	892	892	892	892	892	893	894	894	894	894	894	895	895	895	894	894	894	893	893	893	892	892	891	890	890	890	889	889	889	888	887	887	887	886	886	886	885	885	885	885	884	884	884	884	884	884	884	884	884	883	883	883	883	883	883	883	883	883	883	883	882	882	882	881	881	881	881	881	880	880	880	879	879	878	878	878	876	875	875	875	874	874	874	874	875	875	875	876	877	877	878	878	878	879	879	880	881	881	881	883	883	884	886	886	888	890	890	890	892	892	892	892	891	891	892	891	891	891	891	892	892	891	890	890	890	890	890	890	890	890	889	887	885	885	885	885	886	886	0	0	0	0	0	0	0	0	0	0	0	0	0	0	0	0	0	0	0	898	898	898	898	898	898	896	896	0	0	0	0	811	809	806	806	806	801	798	798	796	795	794	794	793	791	791	789	787	787	0	0	0	0	0	0	0	685	685	685	685	684	684	683	682	682	680	677	675	675	675	0	664	657	654	652	650	650	648	646	645	645	644	643	643	643	641	639	639	638	637	636	636	636	636	636	635	635	635	635	0	0	0	0	0	0	0	0	697	697	697	697	697	695	695	695	694	693	691	691	691	690	690	689	688	688	688	0	0	0	0	0	0	0	0	0	0	0	0	0	0	0	0	0	0	0	0	0	0	0	0	0	0	0	0	0	0	0	0	0	0	0	0	1995	1995	1995	1992	1992	1992	1992	1989	1989	1989	1989	1989	1989	1989	1989	1989	1989	1989	1989	1989	1989	1989	1989	1992	1992	1992	1992	1992	1995	1995	1995	1992	1992	1992	1992	1992	1992	1989	1989	1986	1983	1980	1980	1974	1962	1962	1953	1951	1936	1936	1933	1925	1925	1925	1922	1922	1922	1922	1922	1922	1922	1922	1922	1922	1925	1925	1925	1928	1928	1928	1933	1933	1933	1936	1936	1942	1942	1942	1945	1945	1945	1951	1953	1953	1953	1956	1956	1956	1962	1962	1965	1965	1965	1971	1971	1971	1971	1971	1971	1971	1971	1971	1974	1974	1974	1974	1974	1974	1974	1974	1974	1971	1971	1971	1971	1974	1974	1974	1974	1974	1974	1974	1974	1974	1974	1971	1971	1971	1965	1965	1971	1965	1965	1965	1965	1971	1971	1971	1971	1971	1971	1974	1977	1977	1980	1980	1980	1983	1986	1986	1989	1989	1989	1989	1992	1992	1992	1992	1992	1989	1989	1989
828	828	829	831	831	833	833	830	828	826	826	822	816	816	821	814	810	797	795	794	794	793	792	789	789	789	789	791	791	793	793	794	794	794	796	0	0	0	0	0	0	0	0	0	0	0	878	878	880	880	880	881	881	881	881	881	882	883	883	883	883	883	883	884	884	884	884	884	884	885	885	885	885	885	886	887	887	887	887	887	887	887	886	885	885	884	884	884	883	882	881	881	881	880	880	880	879	879	878	876	873	873	869	864	862	862	860	855	853	848	848	845	844	844	843	843	843	843	843	842	842	842	842	842	842	842	842	842	842	842	842	843	843	843	844	845	845	851	851	854	858	858	860	860	862	865	865	870	875	875	878	878	880	881	881	881	883	883	883	884	884	884	884	884	884	884	884	885	885	885	887	888	888	890	890	890	892	892	893	895	895	0	0	0	0	0	0	0	0	0	895	895	895	895	894	894	894	0	0	892	891	891	890	890	890	890	890	890	890	890	890	890	890	890	890	890	890	890	890	890	890	890	890	890	890	890	890	890	890	890	890	890	890	890	890	890	890	889	889	889	889	889	889	889	888	888	888	888	888	888	885	885	885	885	886	886	887	887	887	887	888	888	888	888	888	889	890	890	890	890	890	890	890	890	890	890	890	890	890	890	889	889	889	888	887	887	886	886	886	885	884	884	884	884	884	884	884	883	883	883	883	883	883	883	883	883	882	882	882	881	881	881	881	881	881	881	881	881	881	881	880	880	880	880	879	879	879	878	878	878	877	876	876	875	873	873	873	871	871	871	871	871	871	871	873	873	873	874	875	875	876	878	878	878	878	879	880	880	881	881	881	883	884	884	886	887	887	889	890	890	890	890	890	890	890	890	890	890	890	890	890	890	889	889	889	890	890	890	888	888	888	886	885	885	884	884	884	884	886	886	886	0	0	0	0	0	0	0	0	0	0	0	0	0	0	897	897	897	898	898	898	896	896	895	895	0	0	0	0	811	809	806	806	805	801	798	798	796	795	794	794	793	791	791	789	787	787	791	0	0	0	0	0	684	684	683	683	683	682	682	681	680	678	678	676	675	675	665	665	663	657	654	652	650	650	648	646	645	645	644	643	643	643	641	639	639	638	637	636	636	636	636	636	635	635	636	636	0	0	0	0	0	0	0	0	697	697	697	697	697	695	695	695	694	693	691	691	691	690	690	689	688	688	688	0	0	0	0	0	0	0	0	0	0	0	0	0	0	0	0	0	0	0	0	0	0	0	0	0	0	0	0	0	0	0	0	0	0	0	0	0	1995	1995	1992	1992	1992	1992	1989	1989	1989	1989	1989	1989	1989	1989	1989	1989	1989	1989	1989	1989	1989	1989	1992	1992	1992	1995	1995	1995	1995	1995	1995	1995	1992	1992	1992	1992	1989	1989	1983	1977	1974	1974	1965	1953	1953	1945	1942	1928	1928	1925	1922	1922	1919	1916	1916	1916	1916	1916	1916	1916	1916	1916	1916	1919	1919	1922	1922	1922	1925	1925	1925	1925	1928	1928	1928	1933	1933	1933	1936	1936	1942	1942	1942	1945	1945	1945	1951	1953	1953	1953	1956	1956	1956	1956	1956	1962	1962	1962	1965	1965	1965	1965	1965	1965	1965	1965	1965	1965	1965	1965	1965	1965	1965	1965	1965	1965	1965	1965	1965	1965	1965	1965	1965	1965	1962	1962	1962	1962	1956	1956	1956	1956	1956	1956	1956	1956	1962	1962	1962	1965	1965	1965	1974	1974	1974	1974	1977	1980	1980	1983	1986	1986	1986	1989	1989	1989	1989	1989	1989	1989	1986
828	828	829	831	831	833	833	830	828	826	826	822	816	816	0	793	791	787	787	787	786	786	785	783	783	783	784	787	787	789	792	792	794	794	796	0	0	0	0	0	0	0	0	0	0	0	878	875	875	875	877	880	880	880	880	880	880	880	880	881	881	881	881	881	881	881	882	882	883	883	883	883	883	883	883	884	884	884	884	884	884	884	883	883	883	882	881	881	881	881	880	880	880	879	879	878	878	878	877	875	873	873	868	865	862	862	861	859	855	855	852	848	845	845	845	844	844	844	843	843	843	843	843	843	843	843	843	843	843	843	843	844	844	844	845	848	848	851	851	854	858	858	860	860	862	865	865	870	873	875	878	878	879	880	880	881	881	881	881	881	881	881	882	882	882	882	882	883	884	884	885	886	886	887	889	889	891	891	893	895	895	0	0	0	0	0	0	0	659	659	659	659	660	660	660	661	661	661	662	662	891	891	890	890	890	890	890	890	890	890	890	890	890	890	890	890	890	890	890	890	890	890	890	890	890	890	890	890	890	890	890	890	890	890	889	889	889	888	888	888	887	887	887	886	886	886	885	885	885	885	885	885	885	885	886	886	887	887	887	887	888	888	888	888	888	889	890	890	890	890	890	890	890	890	890	890	890	890	890	890	889	889	889	888	887	887	886	886	886	885	884	884	884	884	884	884	884	883	883	883	883	883	883	883	883	883	882	882	882	881	881	881	881	881	881	881	881	881	881	881	880	880	880	880	879	879	879	878	878	878	877	876	876	875	873	873	873	871	871	871	871	871	871	871	873	873	873	874	875	875	876	878	878	878	878	879	880	880	881	881	881	883	884	884	886	887	887	887	888	888	888	888	887	887	888	888	888	888	888	889	889	889	888	888	888	888	888	887	887	887	887	885	884	884	884	884	884	884	885	885	885	0	0	0	0	0	0	0	0	0	0	0	0	0	896	896	896	896	897	897	895	895	889	881	881	859	859	859	0	812	812	808	808	805	803	799	799	796	795	794	794	794	792	792	791	791	791	791	791	791	791	0	0	684	684	681	681	681	681	681	679	678	676	676	675	675	667	665	665	662	657	654	653	651	651	650	647	645	645	644	644	644	643	642	641	641	639	638	638	637	636	636	636	636	636	636	636	638	638	0	0	0	0	0	0	695	695	694	694	694	694	694	694	692	691	690	690	690	689	689	688	688	688	687	687	0	0	0	0	0	0	0	0	0	0	0	0	0	0	0	0	0	0	0	0	0	0	0	0	0	0	0	0	0	0	0	0	0	0	0	0	1995	1995	1992	1992	1992	1989	1989	1989	1989	1986	1986	1983	1983	1986	1986	1986	1986	1986	1989	1989	1989	1989	1992	1992	1992	1992	1992	1995	1995	1995	1995	1995	1992	1992	1992	1989	1989	1989	1983	1977	1974	1974	1965	1953	1953	1945	1942	1928	1928	1925	1922	1922	1919	1916	1916	1916	1916	1916	1916	1916	1916	1916	1916	1919	1919	1922	1922	1922	1925	1925	1925	1925	1928	1928	1928	1933	1933	1933	1936	1936	1942	1942	1942	1945	1945	1945	1951	1953	1953	1953	1956	1956	1956	1956	1956	1962	1962	1962	1965	1965	1965	1965	1965	1965	1965	1965	1965	1965	1965	1965	1965	1965	1965	1965	1965	1965	1965	1965	1965	1965	1965	1965	1965	1965	1962	1962	1962	1962	1956	1956	1956	1956	1956	1956	1956	1956	1962	1962	1962	1965	1965	1965	1974	1974	1974	1974	1977	1980	1980	1983	1986	1986	1980	1980	1980	1983	1980	1980	1980	1980	1980
827	827	828	829	829	828	826	826	823	817	817	822	822	0	0	793	791	787	787	787	786	786	785	783	783	783	784	787	787	789	792	792	794	794	796	0	0	0	0	0	0	0	0	0	0	0	0	875	875	875	877	880	880	880	880	880	880	880	880	881	881	881	881	881	881	881	882	882	883	883	883	883	883	883	883	884	884	884	884	884	884	884	883	883	883	882	881	881	881	881	880	880	880	879	879	878	878	878	877	875	873	873	868	865	863	863	861	860	857	857	854	851	848	848	847	845	845	845	845	845	844	844	844	844	844	844	844	844	844	845	845	846	847	847	849	849	853	855	855	858	860	860	862	862	864	867	867	873	873	875	877	877	878	879	879	879	880	880	880	880	880	880	881	881	881	881	881	883	884	884	885	886	886	887	889	660	660	660	660	660	660	659	659	659	658	658	659	659	659	659	659	659	660	660	660	661	661	661	662	662	662	662	661	661	661	661	660	660	659	659	659	659	0	0	0	0	0	0	0	0	0	0	0	0	890	890	890	890	890	890	890	889	889	889	887	887	887	887	885	885	884	884	884	884	883	883	883	883	883	883	883	883	883	883	883	883	883	883	883	883	883	884	884	884	884	884	885	885	885	885	886	886	886	886	886	886	886	886	886	886	885	885	885	884	884	884	884	884	884	883	883	883	883	883	883	883	882	882	882	882	882	882	882	881	881	881	881	881	881	881	881	881	880	880	880	880	880	880	879	879	879	878	878	878	877	876	876	875	874	874	873	871	871	871	870	869	869	869	869	869	869	869	870	870	871	871	871	873	874	874	875	877	877	878	878	878	879	879	880	881	881	881	883	883	884	885	885	887	888	888	888	888	887	887	888	888	888	888	888	889	889	889	888	888	888	888	888	887	887	887	887	885	884	884	884	884	884	884	885	885	885	0	0	0	0	0	0	0	0	0	0	0	0	0	896	896	896	896	897	897	895	895	889	881	881	859	859	859	0	814	814	0	0	806	803	800	800	797	796	794	794	794	793	793	793	792	792	792	791	791	791	0	0	0	0	681	681	681	681	681	679	678	676	676	675	675	667	665	665	662	657	654	654	654	652	651	649	646	646	645	644	644	644	643	643	642	640	639	639	638	638	638	638	637	636	636	636	638	638	0	0	0	0	0	0	695	695	691	691	691	691	690	690	690	689	689	689	688	688	688	688	688	688	687	687	687	687	0	0	0	0	0	0	0	0	0	0	0	0	0	0	0	0	0	0	0	0	0	0	0	0	0	0	0	0	0	0	0	0	0	0	0	0	1992	1989	1989	1989	1986	1986	1983	1983	1983	1983	1983	1983	1983	1983	1986	1986	1986	1989	1989	1989	1992	1992	1992	1992	1992	1992	1992	1992	1992	1992	1989	1989	1989	1989	1983	1977	1977	1974	1962	1962	1956	1945	1945	1936	1928	1925	1925	1919	1916	1916	1913	1913	1913	1913	1911	1911	1911	1911	1913	1913	1913	1913	1913	1916	1916	1916	1919	1919	1919	1919	1922	1922	1922	1922	1922	1925	1925	1925	1928	1933	1933	1933	1936	1936	1936	1942	1942	1945	1945	1945	1951	1951	1951	1953	1953	1953	1953	1953	1953	1953	1956	1956	1956	1956	1956	1956	1956	1956	1956	1956	1956	1956	1956	1956	1956	1962	1962	1956	1956	1956	1956	1956	1956	1953	1953	1953	1951	1951	1951	1951	1951	1951	1951	1951	1951	1951	1953	1956	1956	1956	1962	1962	1965	1971	1971	1974	1974	1974	1977	1977	1980	1980	1980	1983	1980	1980	1980	1980	1980
826	826	826	825	825	823	817	817	823	817	817	0	793	789	784	784	782	780	780	780	780	780	780	780	781	782	782	786	786	788	792	792	794	794	796	802	802	0	0	0	0	0	0	0	0	0	0	866	866	871	871	876	876	878	878	878	878	879	879	879	879	879	880	880	880	881	881	881	881	881	881	881	881	881	881	882	882	881	881	881	881	881	881	881	881	881	881	880	880	880	879	879	878	878	878	877	876	875	875	873	871	871	868	865	863	863	861	860	857	857	854	851	848	848	847	845	845	845	845	845	844	844	844	844	844	844	846	847	847	847	848	849	849	852	853	853	857	859	859	860	860	862	863	863	866	870	870	873	873	875	877	877	878	879	879	879	880	880	880	880	880	880	881	881	881	881	881	0	0	0	0	0	0	0	0	660	660	660	660	660	660	659	659	659	658	658	659	659	659	659	659	659	660	660	660	661	661	661	662	662	662	662	661	661	661	661	660	660	659	659	659	659	0	0	0	0	0	0	0	0	0	0	0	0	0	0	0	0	0	0	0	889	889	889	887	887	887	887	885	885	884	883	883	882	882	882	881	881	881	881	881	881	881	881	881	881	881	881	881	881	881	881	881	881	881	881	881	881	881	881	882	882	883	883	883	883	883	883	883	883	883	883	883	883	883	883	882	881	881	881	881	881	881	881	881	881	881	881	881	881	881	881	881	881	881	881	881	881	880	880	880	880	880	880	879	878	878	878	877	876	876	875	874	874	873	871	871	871	870	869	869	868	867	867	866	866	866	866	866	868	868	868	869	869	870	871	871	871	873	873	874	875	875	877	877	877	878	878	879	880	880	881	881	881	883	883	883	884	886	886	885	885	885	886	886	886	886	886	886	886	887	887	885	885	885	885	885	885	884	884	884	883	883	883	882	882	882	882	884	884	884	0	0	0	885	885	885	0	0	0	0	0	0	0	896	896	896	896	894	890	890	890	889	881	865	859	843	834	825	814	812	812	812	806	803	800	800	797	796	794	794	794	793	793	793	792	792	792	791	791	791	791	0	0	0	681	681	679	678	677	677	677	676	676	673	669	666	664	661	656	656	654	654	654	652	651	649	646	646	645	644	644	644	643	643	643	642	641	641	640	639	639	638	638	638	638	639	0	0	0	0	0	0	0	0	0	0	691	691	691	691	690	690	690	689	689	689	688	688	688	688	688	688	687	687	687	687	0	0	0	0	0	0	0	0	0	0	0	0	0	0	0	0	0	0	0	0	0	0	0	0	0	0	0	0	0	0	0	0	0	0	0	0	0	1989	1989	1989	1986	1986	1983	1983	1983	1983	1983	1983	1983	1983	1986	1986	1986	1989	1989	1989	1992	1992	1992	1992	1992	1989	1989	1989	1989	1989	1986	1983	1983	1980	1977	1971	1971	1962	1953	1953	1945	1936	1928	1928	1922	1919	1919	1913	1911	1911	1911	1911	1911	1911	1911	1911	1911	1911	1911	1911	1911	1911	1911	1913	1913	1913	1913	1913	1913	1913	1916	1916	1916	1919	1919	1919	1919	1919	1922	1922	1922	1925	1928	1928	1928	1933	1933	1933	1936	1936	1936	1942	1942	1942	1945	1945	1945	1945	1945	1945	1945	1945	1951	1951	1951	1951	1951	1951	1951	1951	1951	1951	1951	1951	1951	1951	1951	1951	1951	1951	1951	1945	1945	1945	1945	1945	1942	1942	1942	1942	1942	1942	1942	1942	1942	1942	1945	1945	1945	1951	1953	1953	1956	1956	1956	1962	1965	1965	1965	1971	1971	1974	1974	1971	1971	1974	1974	1974	1974
826	826	821	817	817	823	817	817	0	0	789	783	783	781	780	779	779	779	779	780	780	780	780	780	781	782	782	786	786	788	792	792	794	794	796	802	802	810	810	0	0	836	836	0	0	0	0	862	862	865	865	871	871	875	875	875	876	877	877	877	878	878	878	878	878	879	880	880	880	880	880	880	880	880	881	881	881	881	881	881	880	880	880	880	880	880	880	879	879	878	878	878	877	877	877	875	875	873	873	871	870	870	868	866	863	863	862	860	859	859	857	855	855	853	850	848	848	848	847	847	847	846	846	845	845	846	846	847	847	847	848	849	849	852	853	853	857	859	859	860	860	862	863	863	866	870	870	873	873	875	876	876	877	878	878	878	878	878	879	879	879	879	880	880	881	881	881	0	0	0	0	0	660	660	659	659	658	658	658	659	659	658	657	657	657	657	658	658	658	658	658	659	660	660	660	661	661	661	661	661	661	661	661	660	660	660	660	658	658	658	658	658	658	658	658	658	659	0	0	0	0	0	0	0	0	0	0	0	0	0	0	889	889	889	887	886	886	884	884	884	883	883	883	882	882	882	881	881	881	881	881	881	881	881	881	881	881	881	881	881	881	881	881	881	881	881	881	881	881	881	882	882	883	883	883	883	883	883	883	883	883	883	883	883	883	883	882	881	881	881	881	881	881	881	881	881	881	881	881	881	881	881	881	881	881	881	881	881	880	880	880	880	880	880	879	878	878	878	877	876	876	875	874	874	873	871	871	871	870	869	869	868	867	867	866	866	866	866	866	868	868	868	869	869	870	871	871	871	873	873	874	875	875	877	877	877	877	878	878	879	879	880	881	881	881	882	882	883	884	884	884	884	884	884	884	884	884	884	884	884	885	884	884	883	883	883	883	883	883	883	883	882	881	881	881	881	881	881	884	884	884	0	0	0	885	885	885	0	0	0	0	0	0	0	0	0	0	0	894	884	884	884	0	0	865	865	843	832	825	819	812	810	810	808	804	801	801	797	796	795	795	795	794	794	793	793	793	793	792	792	791	791	0	0	0	0	0	679	677	676	676	676	675	672	672	669	666	664	661	656	656	655	654	654	653	652	650	650	648	646	645	645	644	644	644	643	642	641	641	640	639	639	638	638	638	638	639	0	0	0	0	0	0	0	0	688	688	688	688	688	688	688	688	688	688	688	688	688	687	687	687	687	686	686	686	685	685	685	685	0	0	0	0	0	0	0	0	0	0	0	0	0	0	0	0	0	0	0	0	0	0	0	0	0	0	0	0	0	0	0	0	0	0	0	1989	1989	1986	1983	1983	1980	1980	1980	1980	1977	1977	1977	1983	1983	1983	1986	1986	1986	1989	1989	1989	1989	1992	1992	1989	1989	1989	1989	1989	1986	1983	1983	1980	1977	1971	1971	1962	1953	1953	1945	1936	1928	1928	1922	1919	1919	1913	1911	1911	1911	1911	1911	1911	1911	1911	1911	1911	1911	1911	1911	1911	1911	1913	1913	1913	1913	1913	1913	1913	1916	1916	1916	1919	1919	1919	1919	1919	1922	1922	1922	1925	1928	1928	1928	1933	1933	1933	1936	1936	1936	1942	1942	1942	1945	1945	1945	1945	1945	1945	1945	1945	1951	1951	1951	1951	1951	1951	1951	1951	1951	1951	1951	1951	1951	1951	1951	1951	1951	1951	1951	1945	1945	1945	1945	1945	1942	1942	1942	1942	1942	1942	1942	1942	1942	1942	1945	1945	1945	1951	1953	1945	1945	1951	1951	1951	1953	1953	1953	1956	1956	1956	1956	1956	1956	1956	1956	1956	1956
824	824	821	817	817	0	0	0	0	0	789	783	783	781	780	779	779	779	779	780	780	780	780	780	781	782	782	786	786	789	792	792	794	794	798	804	804	810	810	0	0	836	836	0	0	0	0	862	862	865	865	871	871	875	875	875	876	877	877	877	878	878	878	878	878	879	880	880	880	880	880	880	880	880	881	881	881	881	881	881	880	880	880	880	880	880	880	879	879	878	878	878	877	877	877	875	875	873	873	871	870	870	868	866	864	864	863	861	861	860	859	858	858	857	854	854	853	852	850	850	849	849	849	849	849	850	850	851	852	852	853	855	855	857	857	858	860	860	860	862	862	863	864	864	867	871	871	873	873	874	875	875	876	876	876	877	877	877	877	877	877	878	880	880	0	0	0	0	0	0	0	658	658	657	657	657	657	657	657	657	657	657	657	657	657	657	657	657	657	658	658	658	659	659	659	660	660	661	661	661	661	661	661	660	660	660	659	657	657	657	657	658	657	657	657	657	657	657	657	657	0	0	0	0	0	0	0	0	0	0	0	0	0	0	887	886	886	884	883	883	881	881	881	881	881	881	881	880	880	880	880	880	880	880	880	880	880	880	880	880	880	880	880	880	880	880	880	880	880	880	880	880	881	881	881	881	881	881	881	881	881	881	881	881	881	881	881	881	881	881	881	881	881	881	881	881	881	881	881	881	881	881	881	881	881	880	880	880	880	880	880	879	878	878	878	877	875	875	875	873	873	871	871	869	869	868	867	867	866	866	866	865	865	866	866	866	866	866	866	866	866	867	869	869	869	870	870	871	871	871	873	873	873	875	876	876	877	878	878	879	879	880	881	881	881	882	882	883	884	884	884	884	884	884	884	884	884	884	884	884	885	884	884	883	883	883	883	883	883	883	883	882	881	881	881	881	881	881	0	0	0	0	0	0	0	0	0	0	0	0	0	0	0	0	0	0	0	0	0	884	884	884	0	0	0	0	0	832	826	819	814	810	810	808	805	801	801	798	796	796	796	795	794	794	794	793	793	793	793	793	792	792	0	0	0	0	0	0	677	676	676	676	675	672	672	669	666	664	661	661	657	655	654	654	654	653	651	651	649	647	646	646	645	644	644	644	643	643	643	641	640	640	640	640	640	640	0	646	646	0	0	0	0	0	0	688	688	688	687	687	687	687	687	687	687	687	687	687	687	686	686	686	685	685	685	684	684	683	683	681	681	681	0	0	0	0	0	0	0	0	0	0	0	0	0	0	0	0	0	0	0	0	0	0	0	0	0	0	0	0	0	0	0	0	0	0	1986	1977	1977	1977	1974	1974	1974	1974	1977	1977	1980	1980	1980	1980	1983	1983	1983	1986	1986	1989	1989	1989	1986	1986	1983	1983	1983	1980	1977	1971	1971	1962	1956	1956	1951	1942	1942	1933	1925	1919	1919	1916	1913	1913	1911	1911	1911	1908	1908	1908	1908	1908	1908	1908	1908	1908	1908	1911	1911	1911	1911	1911	1911	1911	1911	1911	1911	1911	1911	1911	1913	1913	1913	1913	1916	1916	1916	1916	1919	1919	1919	1922	1922	1922	1925	1928	1928	1928	1928	1928	1933	1933	1933	1936	1936	1936	1936	1936	1936	1936	1942	1942	1942	1942	1942	1942	1942	1942	1942	1942	1942	1942	1942	1942	1942	1942	1942	1942	1942	1942	1936	1936	1936	1936	1933	1933	1933	1933	1933	1933	1933	1933	1933	1936	1936	1936	1942	1942	1942	1945	1951	1951	1951	1953	1953	1953	1956	1956	1956	1956	1956	1956	1956	1956	1956	1956
815	811	809	809	806	806	0	0	783	783	780	779	779	779	778	778	778	778	779	779	779	780	780	780	781	782	782	786	786	789	792	792	794	794	798	804	804	810	810	0	0	831	831	0	0	0	0	860	860	862	862	866	871	871	873	873	873	874	874	875	875	875	876	877	877	878	878	878	878	878	878	879	879	879	879	879	879	879	879	879	879	879	879	878	878	878	878	878	878	877	877	877	876	875	874	874	873	871	871	871	869	869	867	866	864	864	863	861	861	860	859	858	858	857	857	858	857	855	855	854	853	853	853	853	853	853	853	855	855	855	857	857	858	859	859	860	861	861	862	863	863	864	866	866	869	871	871	873	873	874	875	875	876	876	876	877	877	877	877	877	877	878	0	0	0	0	0	0	0	0	0	658	658	657	657	657	657	657	657	657	657	657	657	657	657	657	657	657	657	658	658	658	659	659	659	660	660	661	661	661	661	661	661	660	660	660	659	657	657	657	657	0	657	657	657	657	657	657	657	657	0	0	0	0	0	0	0	0	0	0	0	0	0	0	0	0	0	884	881	881	881	880	880	880	880	880	879	879	879	879	878	878	878	878	878	878	878	878	878	878	878	878	878	878	878	878	878	878	878	878	879	879	879	879	879	880	880	880	880	880	880	880	880	880	880	880	880	880	880	880	880	880	880	880	880	880	880	880	880	880	880	880	880	880	880	880	880	880	879	878	878	878	877	876	876	875	873	873	871	870	868	868	867	866	866	865	864	864	864	864	864	864	864	864	864	864	865	865	866	866	866	867	868	868	869	869	869	870	871	871	871	873	873	874	875	875	876	877	877	878	879	879	880	880	880	881	881	881	881	881	881	881	882	882	881	881	881	882	883	883	883	883	882	882	882	881	881	881	881	881	881	881	880	880	880	880	880	880	880	0	0	0	0	0	0	0	0	0	0	0	0	0	0	0	0	0	0	0	0	884	884	884	0	0	0	0	0	832	826	819	814	810	810	808	805	801	801	798	796	796	796	795	794	794	794	793	793	793	793	793	792	792	0	0	0	0	677	677	676	676	676	675	674	671	671	667	665	664	661	661	657	655	654	654	654	653	653	652	651	649	649	648	646	645	645	644	644	644	643	643	642	642	642	642	642	642	0	646	646	0	0	0	0	0	0	0	0	0	687	687	687	687	687	687	687	687	687	687	687	686	686	686	685	685	685	684	684	683	683	681	681	681	0	0	0	0	0	0	0	0	0	0	0	0	0	0	0	0	0	0	0	0	0	0	0	0	0	0	0	0	0	0	0	0	0	0	0	1977	1977	1977	1974	1974	1974	1974	1977	1977	1980	1980	1980	1977	1977	1977	1980	1980	1980	1980	1980	1980	1980	1980	1977	1974	1974	1971	1965	1956	1956	1951	1945	1945	1936	1928	1925	1925	1919	1913	1913	1911	1911	1911	1908	1908	1908	1908	1908	1908	1908	1908	1908	1908	1908	1908	1908	1908	1908	1908	1908	1908	1908	1908	1908	1908	1908	1908	1908	1911	1911	1911	1911	1911	1911	1911	1911	1913	1913	1913	1916	1916	1916	1919	1919	1919	1919	1919	1922	1925	1925	1925	1925	1925	1925	1928	1928	1928	1928	1928	1928	1933	1933	1933	1933	1933	1928	1928	1928	1933	1933	1933	1933	1933	1933	1933	1933	1933	1933	1933	1928	1928	1928	1928	1925	1925	1925	1928	1928	1928	1928	1928	1928	1928	1933	1933	1933	1936	1936	1936	1942	1942	1942	1942	1942	1942	1945	1945	1945	1945	1945	1945	1945	1945	1945	1945
809	806	806	796	796	796	787	782	780	780	779	778	778	778	777	777	778	778	778	779	779	780	780	780	781	782	782	786	786	789	793	793	794	794	798	806	806	810	810	822	822	829	829	842	842	0	857	857	857	860	862	863	866	866	868	870	870	871	871	871	873	873	873	875	875	875	876	876	877	877	877	877	877	877	877	878	878	878	878	878	878	877	877	877	877	877	877	876	876	875	875	875	874	873	873	873	871	870	870	869	867	866	866	865	864	864	863	862	862	861	860	860	860	859	858	858	857	855	855	854	853	853	853	853	853	853	853	855	855	855	857	857	858	859	859	860	861	861	862	863	863	864	866	866	869	871	871	871	871	873	874	873	873	874	874	875	876	875	875	877	877	877	0	0	0	0	0	0	0	0	657	657	657	657	657	657	657	657	657	657	657	656	656	656	656	656	656	656	657	657	657	658	658	658	659	660	660	661	661	661	660	660	660	659	659	659	658	657	657	657	656	656	656	657	657	656	656	657	657	657	657	657	657	0	0	0	0	0	0	0	0	0	0	0	0	0	0	0	881	881	881	880	880	880	880	880	879	879	879	879	878	878	878	878	878	878	878	878	878	878	878	878	878	878	878	878	878	878	878	878	879	879	879	879	879	880	880	880	880	880	880	880	880	880	880	880	880	880	880	880	880	880	880	880	880	880	880	880	880	880	880	880	880	880	880	880	880	880	879	878	878	878	877	876	876	875	873	873	871	870	868	868	867	866	866	865	864	864	864	864	864	864	864	864	864	864	865	865	866	866	866	867	868	868	869	869	869	869	870	870	870	871	871	873	873	873	875	876	876	877	878	878	879	879	879	880	880	880	881	881	881	881	881	881	881	881	881	881	881	881	881	881	881	881	881	881	881	881	880	880	880	880	879	879	879	879	879	879	879	878	878	878	878	0	0	0	0	0	0	0	0	0	0	0	0	0	0	0	0	0	0	0	861	853	853	853	840	834	826	820	815	815	811	809	806	802	802	799	798	798	796	796	795	795	794	794	794	794	793	793	793	793	0	0	0	676	676	676	676	675	675	674	672	670	670	667	665	664	661	661	657	655	655	655	654	653	653	652	651	649	649	648	646	645	645	644	644	644	643	643	642	642	642	642	642	642	644	644	646	649	0	0	0	0	675	675	679	679	687	686	686	686	686	686	686	686	686	686	686	686	686	685	683	683	683	683	683	682	681	681	681	681	0	0	0	0	0	0	0	0	0	0	0	0	0	0	0	0	0	0	0	0	0	0	0	0	0	0	0	0	0	0	0	0	0	0	0	1977	1977	1965	1965	1971	1971	1971	1971	1971	1971	1974	1974	1974	1977	1977	1980	1980	1980	1980	1980	1980	1980	1980	1977	1974	1974	1971	1965	1956	1956	1951	1945	1945	1936	1928	1925	1925	1919	1913	1913	1911	1911	1911	1908	1908	1908	1908	1908	1908	1908	1908	1908	1908	1908	1908	1908	1908	1908	1908	1908	1908	1908	1908	1908	1908	1908	1908	1908	1911	1911	1911	1911	1911	1911	1911	1911	1913	1913	1913	1916	1916	1916	1919	1919	1919	1919	1919	1922	1925	1925	1925	1925	1925	1925	1928	1928	1928	1928	1928	1928	1933	1933	1933	1933	1933	1928	1928	1928	1933	1933	1933	1933	1933	1933	1933	1933	1933	1933	1933	1928	1928	1928	1928	1925	1925	1925	1928	1928	1928	1925	1925	1925	1925	1925	1925	1928	1928	1928	1928	1928	1928	1928	1933	1933	1933	1933	1933	1933	1933	1933	1928	1928	1928	1928	1928
809	806	806	796	796	796	787	782	780	780	779	778	778	778	777	777	778	778	778	779	779	780	780	780	782	783	783	787	787	791	793	793	795	795	801	807	807	811	811	822	822	829	829	842	842	0	857	857	857	860	863	863	866	866	868	870	870	871	871	871	873	873	873	875	875	875	876	876	877	877	877	877	877	877	877	878	878	878	878	878	878	877	877	877	877	877	877	876	876	875	875	875	874	873	873	873	871	870	870	869	867	866	866	865	863	863	863	863	863	862	861	861	860	860	859	859	859	858	858	857	857	857	857	857	857	857	857	858	858	858	859	859	860	860	860	861	862	862	863	864	864	866	867	867	869	870	870	871	871	871	871	873	873	873	873	873	873	874	874	877	877	877	0	0	0	0	0	655	655	655	656	657	657	656	656	656	656	656	656	656	656	656	655	655	655	655	655	655	655	656	656	657	657	657	658	659	659	660	661	660	660	660	659	659	659	658	657	657	657	656	656	656	656	656	656	656	656	656	656	656	656	656	656	656	656	0	0	0	0	0	0	0	0	0	0	0	0	0	881	881	880	879	879	879	878	878	878	877	877	877	877	877	877	877	876	876	876	876	876	875	875	875	875	875	875	875	876	876	876	876	876	876	877	877	877	878	878	878	878	878	878	878	878	878	878	879	879	878	878	878	878	878	878	878	879	879	879	879	879	879	879	879	879	880	880	879	879	879	878	877	877	877	875	874	874	871	870	867	867	866	865	865	864	863	863	863	863	863	863	863	863	863	863	864	864	864	865	865	866	866	866	867	868	868	868	869	869	869	870	870	870	871	871	873	873	873	875	876	876	877	878	878	879	879	879	880	880	880	881	881	881	881	881	881	881	881	881	881	881	881	881	881	881	881	881	881	881	881	880	880	880	880	879	879	879	879	879	879	879	878	878	878	878	0	0	0	0	0	0	0	0	0	0	0	0	0	0	0	0	0	0	0	861	853	853	853	840	835	827	821	817	817	817	809	807	807	804	801	799	799	797	796	796	796	795	794	794	794	794	0	0	0	0	0	0	676	676	676	676	675	675	674	672	670	670	667	665	664	664	662	658	656	655	655	654	654	654	653	652	651	651	650	648	648	647	646	645	645	644	644	644	643	643	643	643	643	644	644	649	649	0	0	0	0	674	674	678	678	683	683	683	685	684	684	685	685	685	685	684	683	683	682	682	682	681	681	680	680	679	679	680	679	679	0	0	0	0	0	0	0	0	0	0	0	0	0	0	0	0	0	0	0	0	0	0	0	0	0	0	0	0	0	0	0	0	0	0	0	0	1965	1956	1956	1956	1956	1962	1962	1962	1965	1965	1965	1965	1965	1971	1971	1971	1971	1971	1971	1965	1962	1962	1962	1956	1956	1951	1945	1945	1936	1928	1925	1925	1919	1916	1916	1911	1911	1911	1908	1908	1908	1908	1908	1908	1905	1905	1905	1905	1905	1905	1905	1905	1905	1905	1905	1905	1905	1905	1905	1905	1908	1908	1908	1908	1908	1908	1908	1908	1908	1908	1908	1908	1908	1908	1911	1911	1911	1911	1911	1911	1911	1911	1913	1916	1916	1916	1916	1916	1919	1919	1919	1919	1919	1919	1922	1922	1922	1922	1922	1922	1925	1925	1925	1925	1925	1925	1925	1925	1925	1925	1925	1925	1925	1925	1925	1925	1925	1925	1925	1925	1922	1922	1922	1922	1922	1925	1925	1925	1925	1925	1925	1925	1925	1928	1928	1928	1928	1928	1928	1928	1933	1933	1933	1933	1933	1933	1933	1933	1928	1928	1928	1928	1928
797	797	794	791	785	781	781	780	778	778	778	778	778	778	777	777	778	778	778	779	779	780	780	780	782	783	783	787	787	791	793	793	795	795	801	803	807	811	811	822	822	828	828	840	840	845	845	853	853	858	861	861	863	863	864	866	866	867	869	869	869	871	871	871	873	873	873	873	873	874	875	875	875	875	875	875	875	875	875	875	875	875	875	875	875	875	875	874	874	873	873	871	871	871	871	871	869	868	868	867	866	865	865	864	863	863	863	863	863	862	862	862	861	861	860	860	860	859	859	859	859	859	858	858	858	858	859	859	859	860	860	860	861	862	862	863	863	863	864	866	866	866	868	868	869	870	870	871	871	871	871	873	873	873	873	873	873	874	874	0	0	0	0	0	0	0	0	655	655	655	656	657	657	656	656	656	656	656	656	656	656	656	655	655	655	655	655	655	655	656	656	657	657	657	658	659	659	660	661	660	660	660	659	659	659	658	657	657	657	656	656	656	656	656	656	656	656	656	656	656	656	656	656	656	656	655	655	0	0	0	0	0	0	0	0	0	0	0	0	0	880	878	877	877	877	876	876	875	875	875	875	874	874	873	873	873	873	871	871	871	871	871	871	871	871	871	871	871	873	873	873	873	873	873	875	875	875	875	875	875	876	876	876	877	877	877	877	877	877	877	877	877	877	877	877	878	878	878	878	878	878	878	878	878	878	878	877	877	877	875	874	874	873	870	870	868	866	864	864	863	863	863	862	862	862	862	862	862	862	862	862	862	863	863	863	864	864	864	865	866	866	866	867	867	868	868	868	868	868	868	869	869	869	871	871	871	873	874	874	875	877	877	878	878	878	878	879	879	879	879	879	879	879	879	879	879	879	879	880	880	880	880	880	880	880	880	880	880	879	879	879	878	878	878	877	877	877	877	877	875	875	874	873	873	871	871	0	0	0	0	0	0	0	0	863	863	863	863	864	864	864	864	858	848	848	848	838	835	827	821	817	817	817	809	807	807	804	801	799	799	797	796	796	796	795	794	794	794	794	0	0	0	0	0	0	675	675	676	675	675	675	674	672	669	669	667	665	664	664	662	659	656	655	655	655	654	654	654	653	653	652	651	650	650	649	647	646	646	645	644	644	644	644	644	644	644	646	646	652	652	0	0	0	0	674	674	678	678	683	683	683	685	684	684	685	685	685	685	684	683	683	682	682	682	681	681	680	680	679	679	680	679	679	0	0	0	0	0	0	0	0	0	0	0	0	0	0	0	0	0	0	0	0	0	0	0	0	0	0	0	0	0	0	0	0	0	0	0	0	0	1956	1945	1945	1945	1951	1951	1951	1951	1951	1951	1953	1953	1953	1956	1956	1956	1953	1953	1951	1945	1945	1942	1936	1936	1928	1925	1925	1922	1916	1913	1913	1911	1911	1911	1908	1908	1908	1908	1905	1905	1905	1905	1905	1905	1905	1905	1905	1905	1905	1905	1905	1905	1902	1902	1902	1902	1902	1902	1902	1902	1902	1902	1902	1902	1902	1902	1905	1905	1905	1905	1908	1908	1908	1908	1908	1908	1908	1908	1908	1911	1911	1911	1911	1911	1911	1911	1911	1913	1913	1913	1913	1916	1916	1919	1919	1919	1919	1922	1922	1922	1922	1922	1919	1919	1919	1919	1919	1919	1919	1919	1919	1919	1919	1919	1919	1919	1919	1919	1919	1919	1919	1919	1919	1919	1919	1919	1922	1922	1922	1922	1922	1922	1922	1925	1925	1922	1922	1922	1922	1922	1922	1922	1922	1922	1922	1919	1919	1919	1919	1919	1919	1919
794	791	791	786	781	780	780	779	778	778	778	778	778	778	778	779	779	779	779	780	780	780	781	781	783	783	786	789	789	791	793	794	796	796	803	803	809	812	812	823	823	828	828	840	840	844	844	850	850	857	860	860	862	862	863	864	864	865	866	866	866	867	867	868	869	869	869	870	870	871	871	871	871	871	871	871	871	871	871	871	871	871	871	871	871	871	871	871	871	871	870	869	869	869	868	868	867	866	866	866	865	864	864	863	863	863	863	862	862	862	862	862	861	861	860	860	860	859	859	859	859	859	858	858	858	858	859	859	859	860	860	860	861	862	862	863	863	863	864	866	866	866	867	867	868	869	869	869	869	869	869	869	869	870	871	871	871	874	874	0	0	0	0	0	654	654	654	655	655	655	656	656	656	656	656	656	656	656	655	655	655	655	655	655	655	655	655	655	655	655	655	656	657	657	657	659	659	660	660	659	659	659	659	658	658	658	657	656	656	656	655	655	655	656	656	655	655	656	656	656	656	655	655	655	655	655	655	0	0	0	0	0	0	0	0	0	0	0	0	0	0	878	877	877	877	876	876	875	875	875	875	874	874	873	873	873	873	871	871	871	871	871	871	871	871	871	871	871	873	873	873	873	873	873	875	875	875	875	875	875	876	876	876	877	877	877	877	877	877	877	877	877	877	877	877	878	878	878	878	878	878	878	878	878	878	878	877	877	877	875	874	874	873	870	870	868	866	864	864	863	863	863	862	862	862	862	862	862	862	862	862	862	863	863	863	864	864	864	865	866	866	866	866	866	866	867	867	867	867	867	867	867	867	869	870	870	871	873	873	874	875	875	875	876	876	877	877	877	877	878	878	878	878	878	878	878	878	878	878	878	879	879	879	878	878	878	878	878	878	878	878	877	875	875	875	875	874	874	874	873	873	871	869	867	867	866	864	864	863	862	862	861	861	862	862	862	862	862	862	863	863	863	857	848	848	848	838	835	828	823	823	819	813	810	809	809	806	802	800	800	798	797	797	796	796	795	795	795	795	0	0	0	0	0	0	675	675	675	675	674	674	673	671	669	669	667	665	664	664	662	659	656	655	655	655	654	654	654	653	653	652	651	650	650	649	647	646	646	645	644	644	644	644	644	644	644	646	646	652	652	659	659	0	0	674	674	677	677	681	681	683	683	682	682	683	683	683	683	682	682	682	681	681	679	679	679	679	679	678	678	678	678	678	0	0	0	0	0	0	0	0	0	0	0	0	0	0	0	0	0	0	0	0	0	0	0	0	0	0	0	0	0	0	0	0	0	0	0	0	0	0	1945	1945	1945	1951	1951	1951	1951	1951	1951	1953	1953	1953	1956	1956	1956	1953	1953	1951	1945	1945	1942	1936	1936	1928	1925	1925	1922	1916	1913	1913	1911	1911	1911	1908	1908	1908	1908	1905	1905	1905	1905	1905	1905	1905	1905	1905	1905	1905	1905	1905	1905	1902	1902	1902	1902	1902	1902	1902	1902	1902	1902	1902	1902	1902	1902	1905	1905	1905	1905	1908	1908	1908	1908	1908	1908	1908	1908	1908	1911	1911	1911	1911	1911	1911	1911	1911	1913	1913	1913	1913	1916	1916	1919	1919	1919	1919	1922	1922	1922	1922	1922	1919	1919	1919	1919	1919	1919	1919	1919	1919	1919	1919	1919	1919	1919	1919	1919	1919	1916	1916	1916	1916	1916	1916	1916	1916	1919	1919	1919	1919	1919	1919	1922	1919	1919	1919	1919	1916	1916	1916	1916	1916	1916	1913	1913	1913	1911	1911	1911	1911	1911
