0	0	0	50176	50176	50176	50176	0	0	0	0	0	0	0	0	0	0	0	0	0	0	0	0	0	0	0	0	0	0	20480	20480	20480	20480	20480	20480	20480	20992	20992	20992	20992	20992	21504	21504	21504	21504	21504	22016	22016	22528	0	0	24576	24576	24576	24576	25088	25088	25088	25088	25088	25088	25600	25600	25600	25600	25600	26112	26112	26112	26112	26624	26624	26624	27136	27136	27136	27136	27136	27136	27136	27136	27136	27136	27136	27136	27648	0	0	0	33792	33792	33792	33792	34304	34304	34304	34304	34816	34816	34816	34816	35328	35328	35328	35840	35840	36352	36352	36352	36352	36864	36864	36864	0	0	40448	37376	37376	37376	37376	37376	34304	31232	28160	25600	22528	16896	13824	8192	5632	3072	0	62976	62976	62976	62976	0	0	0	3072	5632	5632	8192	11264	16896	16896	19456	19456	25600	25600	25600	25600	22528	22528	25600	28160	31232	34304	37376	40448	43008	49152	58880	6144	0	4096	4096	24064	0	56832	56832	61440	0	61440	52736	39936	27648	19968	8192	54784	44032	29696	19456	9216	65024	55808	52224	52224	49152	49152	49152	49152	49152	49152	49152	49152	52224	55808	61952	65024	6144	12800	19456	23040	29696	33280	36864	33280	33280	33280	36864	36864	36864	33280	33280	29696	29696	23040	23040	19456	15872	12800	9216	3072	61952	55808	52224	43008	37376	34304	28160	22528	16896	16896	13824	8192	57856	49664	41984	36864	36864	54784	57856	57856	0	0	0	0	6144	6144	23040	33280	47616	62464	8192	19968	31744	48640	56832	0	4608	0	0	56832	48640	39936	27648	11776	62464	51200	40448	33280	23040	12800	6144	65024	58880	52224	49152	46080	43008	40448	40448	49152	49152	49152	49152	55808	55808	58880	61952	61952	61952	61952	61952	61952	58880	58880	58880	58880	58880	58880	58880	55808	55808	55808	52224	52224	52224	49152	46080	46080	43008	43008	40448	40448	40448	40448	46080	46080	49152	52224	58880	0	0	61952	61952	65024	0	0	0	0	0	0	0	0	0	0	0	0	0	0	0	0	0	0	0	0	0	0	0	0	0	0	0	0	0	0	0	0	0	0	0	0	0	0	0	0	0	0	0	0	0	0	0	0	0	0	0	0	0	0	0	0	0	0	0	0	0	0	0	0	0	0	0	0	0	0	0	0	0	0	0	0	0	0	0	0	0	0	0	0	0	0	0	0	0	0	0	0	0	0	0	0	0	0	0	0	0	0	3072	3072	3584	3072	3072	3584	3584	3584	3584	3072	3072	0	0	0	0	0	0	0	0	0	0	0	0	0	0	0	60416	60416	60416	60416	60416	60416	60416	60416	60416	60416	60416	60928	60928	60928	0	0	0	0	0	0	61952	61952	0	0	0	0	0	0	0	0	0	0	0	0	0	0	0	0	0	0	0	64512	64512	64512	64512	65024	0	0	0	0	63488	62976	62976	62976	62464	62464	62464	62464	62464	62464	61952	61952	61952	61952	61952	61952	61952	61952	61952	0	0	0	0	0	0	0	0	0	0	0	62464	62464	62464	61952	61952	61952	61952	61952	61952	61952	61952	62464	62464	62464	0	0	0	0	0	0	0	0	0	0	0	0	0	0	0	0	0	0	0	0	0	0	0	0	0	0	0	0	0	65024	65024	65024	65024	65024	65024	65024	65024	49664	43008	57856	6656	38400	23552	61440	25600	36352	45056	40448	19456	1024	25088	44544	33792	40448	63488	25088	12800	39424	47616	27136	1536	8704	2048	10240	52736	17408	9216	39424	14848	64512	45056	23552	30720	49664	49664	0	0	0	61440	56832	44032	39936	31744	27648	24064	19968	19968	15872	15872	11776	8192	8192	4096	512	62464	58368	58368	54784	54784	51200	51200	51200	47616	44032	36864	33280	29696	23040	19456	15872	15872	12800	12800	12800	15872	15872	26112	33280	51200	58368	512	11776	19968	27648	27648	27648	31744	31744	31744	31744	31744	27648	27648	24064	24064	19968	19968	19968	15872	15872	15872	15872	15872	15872
0	0	0	50176	50176	50176	50176	50176	50176	50176	50176	50176	0	0	0	0	0	0	0	0	0	0	0	0	0	0	0	0	0	20480	20480	20480	20480	20480	20480	20992	20992	20992	20992	20992	20992	21504	21504	21504	21504	21504	22016	0	0	0	24576	24576	24576	24576	25088	25088	25088	25600	25600	25600	25600	25600	25600	25600	25600	26112	26112	26112	26112	26112	26624	26624	26624	26624	27136	27136	27136	27136	27136	27136	27136	27136	27136	27136	27136	27648	0	0	32768	32768	33792	33792	33792	34304	34304	34304	34304	34304	34816	34816	34816	35328	35328	35840	35840	35840	36352	36352	36352	36864	36864	36864	36864	0	0	43008	43008	43008	43008	43008	43008	40448	40448	37376	34304	28160	25600	22528	16896	11264	11264	5632	5632	5632	5632	5632	8192	11264	11264	13824	13824	16896	16896	19456	22528	22528	22528	22528	25600	22528	22528	19456	19456	19456	19456	22528	25600	28160	28160	31232	34304	40448	55808	3072	58368	58368	11776	4608	36864	46080	17920	17920	22528	22528	17920	9216	9216	52736	39936	27648	8192	54784	44032	26112	12800	65024	58880	55808	52224	49152	49152	49152	49152	49152	49152	49152	52224	55808	61952	3072	9216	15872	26112	33280	36864	44032	47616	47616	47616	47616	44032	44032	47616	40448	40448	36864	36864	33280	29696	26112	23040	19456	15872	12800	3072	61952	55808	49152	43008	37376	31232	25600	16896	13824	0	54784	36864	22528	22528	36864	36864	0	0	0	0	0	0	0	0	0	0	0	44032	35840	35840	48640	56832	4608	13312	22528	27136	22528	22528	17920	9216	61440	48640	27648	11776	512	51200	36864	26112	9216	65024	58880	49152	43008	40448	34304	31232	31232	40448	43008	43008	43008	46080	52224	55808	58880	58880	61952	61952	61952	61952	61952	58880	58880	58880	58880	58880	58880	58880	58880	55808	55808	55808	52224	52224	49152	46080	46080	43008	43008	40448	40448	37376	37376	43008	43008	46080	49152	58880	0	0	6144	65024	65024	0	0	0	0	0	0	0	0	0	0	0	0	0	0	0	0	0	0	0	0	0	0	0	0	0	0	0	0	0	0	0	0	0	0	0	0	0	0	0	0	0	0	0	0	0	0	0	0	0	0	0	0	0	0	0	0	0	0	0	0	0	0	0	0	0	0	0	0	0	0	0	0	0	0	0	0	0	0	0	0	0	0	0	0	0	0	0	0	0	0	0	0	0	0	0	0	0	0	0	0	0	3584	3072	3072	3584	3584	3584	3584	3584	3584	3584	3584	3584	0	0	0	0	0	0	0	0	0	0	0	0	0	0	0	59904	59904	59904	59904	59904	59904	59904	59904	59904	59904	59904	0	0	0	0	0	0	0	0	0	0	0	0	0	0	0	0	0	0	0	0	0	0	0	0	0	0	0	0	0	0	64000	64000	64000	64000	64000	0	0	63488	63488	63488	62976	62976	62464	62464	62464	62464	62464	61952	61952	61952	61952	61952	61952	61952	61952	61952	61952	61952	0	0	0	0	0	0	0	0	0	0	0	61952	61952	61952	61952	61952	61952	61952	61952	61952	61952	61952	61952	61952	61952	0	0	0	0	0	0	0	0	0	0	0	0	0	0	0	0	0	0	0	0	0	0	0	0	0	0	0	0	0	65024	65024	65024	65024	65024	65024	65024	65024	49664	43008	57856	6656	38400	23552	4096	25600	26624	45056	40448	19456	2560	25088	44544	2048	17408	34816	14336	30208	29696	44544	42496	33280	45056	2048	10240	52736	36864	9216	8704	25600	45056	45056	23552	23552	0	0	42496	512	46080	17920	0	52736	48640	39936	35840	31744	27648	27648	24064	19968	19968	15872	11776	8192	8192	512	62464	62464	58368	54784	51200	51200	47616	47616	44032	36864	33280	29696	23040	23040	15872	15872	12800	12800	12800	15872	23040	29696	40448	54784	58368	512	8192	15872	24064	24064	24064	27648	27648	27648	31744	27648	27648	27648	24064	19968	19968	15872	15872	11776	11776	11776	11776	11776	11776
0	0	0	50176	50176	50176	50176	50176	50176	50176	50176	50176	0	0	0	0	0	0	0	0	0	0	0	0	0	0	0	0	20480	20480	20480	20480	20480	20992	20992	20992	20992	20992	20992	20992	21504	21504	21504	21504	21504	22016	22016	0	0	24576	24576	24576	25088	25088	25600	25600	25600	25600	25600	25600	25600	25600	25600	25600	25600	26112	26112	26112	26112	26112	26624	26624	26624	26624	26624	27136	27136	27136	27136	27136	27136	27136	27136	27136	27648	28160	30720	30720	31744	32768	33280	33792	33792	33792	34304	34304	34304	34304	34816	34816	34816	35328	35328	35840	35840	35840	36352	36352	36864	36864	36864	36864	36864	0	0	49152	49152	49152	49152	46080	46080	46080	46080	43008	40448	37376	31232	28160	25600	19456	13824	13824	13824	13824	13824	13824	13824	13824	16896	19456	22528	22528	25600	25600	28160	28160	25600	25600	22528	19456	19456	16896	13824	13824	13824	16896	19456	19456	25600	28160	31232	34304	55808	3072	58368	58368	31744	4608	36864	46080	51200	51200	56320	56320	51200	41472	31744	27136	13312	61440	44032	27648	4096	54784	33280	19456	6144	61952	58880	55808	52224	52224	52224	52224	52224	52224	55808	61952	65024	9216	15872	26112	33280	44032	47616	54784	54784	58368	58368	54784	54784	54784	51200	44032	44032	40448	40448	36864	33280	29696	29696	23040	19456	12800	6144	65024	58880	52224	43008	40448	31232	25600	13824	5632	60416	41984	24576	22528	22528	0	47616	43008	38912	38912	43008	0	0	0	0	0	0	0	44032	44032	56832	4608	13312	27136	36864	41472	41472	36864	36864	27136	17920	4608	52736	35840	19968	4096	54784	36864	19456	6144	58880	49152	40448	34304	28160	25600	25600	31232	34304	34304	37376	37376	40448	46080	49152	52224	55808	58880	58880	58880	58880	61952	61952	58880	58880	58880	61952	61952	61952	58880	58880	58880	55808	55808	55808	49152	46080	43008	43008	0	0	0	37376	37376	43008	43008	46080	49152	58880	0	58368	29696	23040	23040	0	0	0	0	0	0	0	0	0	0	0	0	0	0	0	0	0	0	0	0	0	0	0	0	0	0	0	0	0	0	0	0	0	0	0	0	0	0	0	0	0	0	0	0	0	0	0	0	0	0	0	0	0	0	0	0	0	0	0	0	0	0	0	0	0	0	0	0	0	0	0	0	0	0	0	0	0	0	0	0	0	0	0	0	0	0	0	0	0	0	0	0	0	0	0	0	0	3584	3584	0	0	3584	3072	3072	3584	3584	3584	3584	3584	3584	3584	3584	0	0	0	0	0	0	0	0	0	0	0	0	0	0	0	0	59904	59904	59904	59904	59904	59904	59904	59904	59904	59904	59904	0	59392	59392	59392	0	0	0	0	0	0	0	0	0	0	0	0	0	0	0	0	0	0	0	0	0	0	0	0	0	0	64000	63488	63488	63488	63488	63488	63488	63488	62976	62976	0	62464	62464	62464	62464	62464	62464	61952	61952	61952	61952	61952	61952	61952	61952	61952	61952	61952	61952	0	0	0	0	0	0	0	0	0	61952	61952	61952	61952	61952	61952	61952	61440	61440	61440	61440	61952	61952	61952	61952	0	0	0	0	0	0	0	0	0	0	0	0	0	0	0	0	0	0	0	0	0	0	0	0	0	0	0	0	0	0	65024	65024	65024	65024	65024	65024	65024	65024	11264	57856	6656	38400	23552	4096	25600	26624	45056	5120	19456	2560	44544	33792	17408	34816	14336	22528	13312	44544	14336	1536	3072	16896	2048	33792	8704	36864	23040	14848	3072	23552	23552	0	0	47616	59392	20992	56320	36864	17920	9216	0	56832	52736	44032	39936	35840	35840	31744	27648	24064	19968	15872	11776	8192	4096	512	62464	58368	54784	54784	51200	47616	47616	44032	36864	33280	29696	23040	23040	15872	15872	12800	12800	12800	15872	23040	33280	47616	51200	58368	512	8192	11776	19968	19968	19968	24064	24064	24064	27648	24064	24064	24064	19968	19968	15872	15872	11776	11776	8192	8192	8192	4096	4096
0	0	0	50176	50176	50176	50176	50176	50176	50176	50176	0	0	0	0	0	0	0	0	0	0	0	0	0	0	0	0	0	20480	20480	20480	20480	20992	20992	20992	20992	20992	20992	20992	21504	21504	21504	21504	21504	21504	21504	22016	0	0	24576	24576	25088	25088	25600	25600	25600	25600	26112	26112	26112	26112	25600	25600	25600	26112	26112	26112	26112	26112	26112	26112	26624	26624	26624	26624	27136	27136	27136	27136	27136	27136	27136	27136	27136	27648	28160	30720	30720	31744	32768	33280	33792	33792	33792	33792	34304	34304	34304	34304	34816	34816	35328	35328	35840	35840	35840	36352	36352	36864	36864	36864	36864	37376	0	0	52224	52224	52224	49152	49152	49152	49152	49152	46080	46080	43008	37376	34304	31232	25600	22528	16896	16896	16896	16896	16896	19456	22528	22528	25600	28160	28160	31232	31232	31232	28160	25600	25600	22528	19456	13824	13824	11264	11264	13824	13824	16896	16896	19456	22528	25600	31232	46080	0	62464	62464	39936	13312	51200	5632	20992	26624	26624	20992	15872	5632	56320	56320	36864	17920	0	44032	27648	8192	54784	33280	23040	9216	6144	65024	61952	61952	58880	58880	58880	58880	61952	3072	9216	15872	23040	33280	44032	51200	58368	62464	62464	62464	62464	58368	58368	54784	51200	47616	47616	44032	44032	40448	36864	33280	29696	26112	23040	19456	9216	3072	61952	52224	46080	40448	34304	22528	13824	0	54784	34304	24576	24576	0	36864	27136	18944	18944	38912	43008	0	0	0	0	0	0	0	4608	4608	17920	27136	36864	46080	51200	56320	56320	51200	46080	36864	27136	13312	61440	44032	27648	8192	54784	29696	9216	61952	49152	37376	31232	22528	19456	19456	22528	22528	22528	22528	25600	28160	31232	37376	43008	49152	52224	55808	55808	55808	58880	58880	58880	58880	58880	58880	58880	61952	61952	58880	58880	55808	55808	55808	55808	49152	46080	43008	43008	0	0	0	0	0	0	46080	46080	52224	3072	0	58368	58368	512	4096	0	0	0	0	0	0	0	0	0	0	0	0	0	0	0	0	0	0	0	0	0	0	0	0	0	0	0	0	0	0	0	0	0	0	0	0	0	0	0	0	0	0	0	0	0	0	0	0	0	0	0	0	0	0	0	0	0	0	0	0	0	0	0	0	0	0	0	0	0	0	0	0	0	0	0	0	0	0	0	0	0	0	0	0	0	0	0	0	0	0	0	0	0	0	0	0	3584	3584	3584	0	0	3584	3072	3072	3584	3584	3584	3584	3584	3584	3584	0	0	0	0	0	0	0	0	0	0	0	0	0	0	0	0	0	59392	59392	59392	59392	59392	59392	59392	59392	59392	59392	59392	59392	59392	59392	59392	59392	59392	0	0	0	0	0	0	0	0	0	0	0	0	0	0	0	0	0	0	0	0	61952	61952	62464	0	0	62976	62976	62976	62976	62976	62976	62976	62976	62976	62464	62464	62464	62464	62464	62464	61952	61952	61952	61952	61952	61952	61952	61952	61952	61952	61952	61952	61952	0	0	0	0	0	0	0	0	0	61952	61952	61952	61952	61952	61952	61440	61440	61440	61440	61440	61440	61440	61952	61952	0	0	0	0	0	0	0	0	0	0	0	0	0	0	0	0	0	0	0	0	0	0	0	0	0	0	0	0	0	0	65024	65024	65024	65024	65024	65024	65024	49664	11264	57856	2560	9728	21504	61440	25600	26624	45056	5120	19456	2560	4096	40448	47616	14336	22528	64000	1536	52736	6144	34304	38400	16896	2048	33792	30720	36864	39424	64512	3072	23552	26624	20992	40960	59392	31744	512	41472	27136	17920	9216	0	61440	52736	48640	39936	39936	35840	31744	31744	27648	24064	19968	15872	11776	8192	4096	512	62464	58368	58368	51200	47616	47616	44032	40448	33280	29696	23040	23040	15872	15872	12800	12800	12800	15872	19456	29696	44032	51200	54784	62464	4096	8192	15872	15872	15872	19968	19968	19968	24064	24064	19968	19968	19968	15872	11776	11776	8192	4096	4096	4096	512	512	512
0	0	0	0	50176	50176	50176	50176	50176	0	0	0	0	0	0	0	0	0	0	0	0	0	0	0	0	20992	20992	20992	20480	20480	20992	20992	20992	20992	20992	20992	20992	20992	20992	21504	21504	21504	21504	21504	21504	21504	22016	0	0	24576	24576	25600	25600	26112	26112	26112	26112	26112	26112	26112	26112	26112	26112	26112	26112	26112	26112	26112	26112	26112	26112	26624	26624	26624	26624	26624	27136	27136	27136	27136	27136	27136	27136	27136	27648	28160	0	31232	31232	32256	33280	33280	33792	33792	33792	33792	34304	34304	34304	34816	34816	35328	35328	35840	35840	35840	36352	36352	36864	36864	36864	36864	37376	0	0	55808	52224	52224	52224	52224	52224	52224	52224	52224	49152	46080	40448	40448	34304	31232	28160	25600	22528	22528	25600	25600	25600	28160	31232	34304	34304	34304	34304	34304	34304	31232	25600	22528	19456	16896	13824	11264	8192	5632	5632	11264	11264	13824	16896	16896	19456	28160	40448	58880	62464	62464	19968	56832	27136	51200	5632	26624	31744	31744	31744	26624	15872	5632	60928	36864	13312	56832	35840	19968	512	47616	33280	23040	15872	12800	6144	6144	3072	3072	65024	65024	3072	6144	12800	19456	29696	40448	51200	58368	512	512	512	512	512	62464	58368	54784	54784	51200	47616	47616	44032	40448	40448	36864	29696	29696	23040	19456	12800	6144	61952	52224	46080	40448	34304	22528	13824	0	47104	34304	34304	0	36864	23040	9728	9728	18944	0	0	0	0	0	0	0	0	0	41472	41472	51200	56320	56320	512	512	512	60928	56320	51200	41472	31744	17920	4608	48640	24064	4096	44032	23040	65024	46080	37376	28160	19456	13824	13824	13824	13824	13824	13824	16896	16896	22528	22528	31232	37376	43008	49152	52224	52224	52224	55808	55808	55808	55808	55808	55808	58880	58880	58880	55808	55808	52224	52224	52224	52224	0	0	0	0	0	0	0	0	0	0	0	0	0	0	0	0	35840	35840	0	0	0	0	0	0	0	0	0	0	0	0	0	0	0	0	0	0	0	0	0	0	0	0	0	0	0	0	0	0	0	0	0	0	0	0	0	0	0	0	0	0	0	0	0	0	0	0	0	0	0	0	0	0	0	0	0	0	0	0	0	0	0	0	0	0	0	0	0	0	0	0	0	0	0	0	2048	2048	2048	0	0	0	0	0	0	0	0	0	0	0	0	0	0	0	0	0	3584	3584	3584	3584	0	0	3072	3072	3072	3072	3584	3584	3584	3584	3584	3584	3584	3584	0	0	0	0	0	0	0	0	0	0	0	0	0	0	0	59392	59392	59392	59392	59392	59392	59392	59392	59392	59392	59392	59392	59392	58880	58880	58880	58880	0	0	0	0	0	0	0	0	0	0	0	0	0	0	0	0	0	0	0	0	61952	61952	61952	62464	62464	62976	62464	62464	62976	62976	62464	62464	62464	62464	62464	62464	62464	62464	61952	61952	61952	61952	61440	61440	61440	61440	61440	61440	61440	61440	61440	61440	61952	0	0	0	0	0	0	0	0	0	61952	61440	61440	61440	61440	61440	61440	61440	61440	61440	61440	61440	61440	0	0	0	0	0	0	0	0	0	0	0	0	0	0	0	0	0	0	0	0	0	0	0	0	0	0	0	0	0	0	0	0	65024	65024	65024	65024	65024	65024	65024	5120	11264	57856	2560	9728	21504	15872	25600	26624	26624	45056	40448	2560	33792	63488	18432	16896	50688	47616	2560	6144	33280	3072	8704	16896	2048	57856	53248	17408	44032	33792	33792	18944	18944	11264	42496	15872	60928	46080	31744	22528	17920	13312	4608	61440	52736	48640	44032	39936	35840	35840	31744	27648	24064	19968	15872	11776	8192	4096	512	62464	62464	58368	54784	51200	51200	47616	40448	36864	29696	23040	19456	15872	15872	12800	12800	12800	12800	15872	26112	40448	47616	51200	58368	512	4096	11776	15872	15872	19968	19968	19968	24064	19968	15872	15872	11776	8192	8192	4096	4096	512	62464	62464	62464	58368	58368
0	0	0	0	0	0	0	0	0	0	0	0	0	0	0	0	0	0	0	0	0	0	0	20992	20992	20992	20992	20992	20992	20992	20992	20992	20992	20992	20992	20992	20992	20992	21504	21504	21504	21504	21504	21504	21504	21504	22016	22528	0	25088	25088	25600	26112	26112	26112	26112	26112	26112	26112	26112	26112	26112	26112	26112	26112	26112	26112	26112	26112	26112	26112	26112	26624	26624	26624	26624	26624	27136	27136	27136	27136	27136	27136	27136	27648	28672	29696	31232	31232	32256	33280	33280	33280	33792	33792	33792	33792	34304	34304	34304	34816	35328	35328	35840	35840	35840	36352	36864	36864	36864	37376	37376	37376	0	0	52224	52224	52224	52224	52224	52224	52224	49152	49152	49152	46080	46080	43008	40448	37376	34304	31232	28160	28160	28160	31232	34304	34304	37376	40448	40448	40448	40448	37376	34304	31232	25600	19456	16896	11264	8192	5632	5632	3072	3072	3072	5632	8192	11264	13824	16896	25600	34304	49152	12800	4096	4096	39936	4608	36864	56320	15872	20992	26624	31744	26624	20992	10752	60928	41472	17920	0	44032	24064	4096	51200	36864	26112	19456	15872	12800	12800	9216	9216	6144	6144	9216	12800	19456	26112	36864	44032	51200	62464	512	4096	4096	4096	512	62464	58368	58368	54784	54784	47616	47616	44032	40448	36864	36864	33280	26112	23040	19456	12800	9216	65024	52224	46080	40448	34304	25600	11264	0	41984	19968	60416	38912	23040	9728	64000	55296	55296	0	0	0	0	0	0	0	0	0	20992	15872	10752	5632	5632	512	512	60928	56320	51200	46080	36864	27136	9216	56832	39936	15872	54784	29696	6144	52224	37376	25600	16896	11264	11264	11264	5632	5632	5632	5632	8192	11264	13824	19456	25600	31232	40448	46080	49152	52224	52224	55808	55808	55808	55808	55808	55808	55808	55808	55808	55808	52224	52224	52224	52224	52224	0	0	0	0	0	0	0	0	0	0	0	0	0	0	0	0	0	0	0	0	0	0	0	0	0	0	0	0	0	0	0	0	0	0	0	0	0	0	0	0	0	0	0	0	0	0	0	0	0	0	0	0	0	0	0	0	0	0	0	0	0	0	0	0	0	0	0	0	0	0	0	0	0	0	0	0	0	0	0	0	0	0	0	0	0	0	0	0	0	0	0	0	2048	2048	2048	2048	2048	1536	1536	1536	0	0	0	0	0	0	0	0	0	0	0	0	0	3584	3584	3584	3072	3072	0	0	3072	3072	3072	3072	3584	3584	3584	3584	3584	3584	3584	3584	0	0	0	0	0	0	0	0	0	0	0	0	0	0	0	0	59392	59392	59392	59392	59392	59392	59392	59392	59392	59392	59392	58880	58880	58880	58880	58880	58880	0	0	0	0	0	0	0	0	0	0	0	0	0	0	0	0	0	0	61952	61952	61952	61952	61952	62464	62464	62464	62464	62464	62464	62464	62464	62464	62464	62464	62464	0	61952	61952	61952	61440	61440	61440	60928	60928	60928	60928	60928	60928	61440	61440	61440	61952	0	0	0	0	0	0	0	0	0	0	61440	61440	61440	61440	61440	61440	61440	61440	61440	60928	60928	0	0	0	0	0	0	0	0	0	0	0	0	0	0	0	0	0	3072	3072	3072	0	0	0	0	0	0	0	0	0	0	0	0	65024	65024	65024	65024	65024	65024	65024	65024	5120	43008	57856	2560	59904	21504	15872	25600	36352	26624	45056	40448	25088	40448	34816	13824	39424	29696	2560	42496	512	34304	38400	45056	55296	2048	16896	33792	45568	38912	33792	33792	18944	59392	20992	512	56320	41472	36864	27136	22528	17920	9216	4608	56832	52736	48640	44032	39936	35840	35840	31744	27648	24064	19968	19968	15872	11776	8192	4096	512	62464	58368	54784	51200	47616	47616	40448	36864	29696	23040	19456	15872	15872	12800	12800	12800	12800	15872	26112	40448	44032	51200	54784	62464	4096	11776	15872	19968	19968	19968	24064	19968	19968	15872	11776	8192	8192	512	512	62464	62464	62464	62464	58368	58368	58368
0	0	0	0	0	0	0	0	0	0	0	0	0	0	0	0	0	0	0	0	0	0	0	20992	20992	20992	20992	20992	20992	20992	20992	20992	20992	20992	20992	20992	20992	21504	21504	21504	21504	21504	21504	21504	21504	22016	22016	22528	23552	0	25600	25600	26112	26112	26112	26112	26112	26112	26112	26112	26112	26112	26112	26112	26112	26112	26112	26112	26112	26112	26112	26112	26112	26112	26624	26624	26624	26624	27136	27136	27136	27136	27136	27136	27648	28672	29696	31744	31744	32768	33280	33280	33280	33792	33792	33792	33792	33792	34304	34304	34816	34816	35328	35840	35840	36352	36352	36864	36864	37376	37376	37376	37376	0	0	49152	46080	46080	46080	46080	46080	46080	46080	46080	46080	46080	46080	43008	40448	40448	37376	34304	34304	34304	34304	37376	40448	43008	46080	46080	46080	46080	43008	40448	34304	28160	22528	16896	11264	5632	3072	0	0	0	0	0	3072	5632	8192	11264	13824	19456	28160	43008	61952	19456	4096	11776	39936	9216	36864	60928	10752	10752	15872	15872	10752	512	46080	27136	9216	52736	35840	19968	4096	51200	36864	29696	23040	19456	19456	15872	15872	12800	12800	12800	15872	19456	23040	29696	36864	44032	51200	54784	62464	512	512	512	512	512	512	62464	58368	54784	51200	47616	47616	44032	36864	36864	29696	26112	23040	19456	12800	9216	65024	52224	49152	43008	34304	25600	11264	0	41984	19968	60416	38912	23040	9728	64000	55296	55296	0	0	0	0	0	0	0	0	0	0	0	512	60928	60928	60928	56320	56320	46080	46080	36864	22528	13312	0	39936	27648	512	36864	12800	58880	40448	25600	19456	11264	11264	5632	3072	0	62976	62976	0	0	3072	8192	11264	19456	25600	34304	43008	46080	49152	49152	52224	55808	55808	55808	55808	55808	55808	55808	52224	52224	49152	49152	46080	46080	46080	46080	46080	0	0	0	0	0	0	0	0	0	0	0	0	0	0	0	0	0	0	0	0	0	0	0	0	0	0	0	0	0	0	0	0	0	0	0	0	0	0	0	0	0	0	0	0	0	0	0	0	0	0	0	0	0	0	0	0	0	0	0	0	0	0	0	0	0	0	0	0	0	0	0	0	0	0	0	0	0	0	0	0	0	0	0	0	0	0	0	0	0	0	2048	2048	2048	2048	2048	1536	1536	1536	1536	0	0	0	0	0	0	0	0	0	0	0	3072	3072	3072	3072	3072	3072	3072	3072	3072	3072	3072	3072	3584	3584	3584	3584	3584	3584	3584	3584	0	0	0	0	0	0	0	0	0	0	0	0	0	0	0	0	58880	58880	58880	58880	58880	58880	58880	58880	58880	58880	58880	58880	58880	58880	58880	58880	58880	58880	58880	0	0	0	0	0	0	0	0	0	0	0	0	0	0	0	0	61952	61952	61952	61952	61952	61952	62464	62464	62464	62464	62464	62464	62464	61952	61952	61952	61952	61952	61952	61952	61952	61440	61440	61440	60928	60928	60928	60928	60928	60928	60928	60928	61440	0	0	0	0	0	0	0	0	0	0	0	0	0	61440	61440	61440	61440	0	0	61440	60928	60928	0	0	0	0	0	0	0	0	0	0	0	0	0	0	3072	3072	3072	3072	3072	3072	3072	3072	0	0	0	0	0	0	0	0	0	65024	65024	65024	65024	65024	65024	65024	49664	5120	53760	3584	7680	6656	9728	21504	15872	36864	36352	29696	45056	40448	44544	63488	12800	30208	29696	44544	42496	33280	3072	38400	45056	16896	28160	2048	16896	53248	39936	38912	38912	0	11264	26624	512	56320	51200	41472	36864	27136	22528	17920	9216	4608	56832	52736	48640	39936	35840	35840	31744	31744	27648	24064	24064	19968	15872	11776	8192	4096	512	62464	58368	54784	51200	47616	47616	44032	36864	33280	26112	23040	19456	15872	15872	12800	12800	12800	15872	26112	40448	44032	51200	54784	62464	8192	15872	19968	24064	24064	24064	24064	19968	19968	11776	8192	4096	512	512	62464	62464	58368	58368	58368	58368	58368	58368
0	0	0	50176	50176	50176	0	0	0	0	0	0	0	0	0	0	0	0	0	0	0	0	0	20992	20992	20992	20992	20992	20992	20992	20992	20992	20992	20992	20992	20992	21504	21504	21504	21504	21504	21504	21504	21504	21504	22016	22016	22528	23552	0	25600	25600	26112	26624	26624	26624	26624	26624	26624	26624	26112	26112	26112	26112	26112	26112	26112	26112	26112	26112	26112	26112	26112	26112	26112	26624	26624	26624	27136	27136	27136	27136	27136	27136	27648	28672	0	31744	31744	32768	33280	33280	33280	33792	33792	33792	33792	33792	34304	34304	34816	34816	35328	35840	35840	36352	36352	36864	37376	37376	37376	37376	37888	0	0	40448	40448	40448	40448	40448	40448	40448	40448	40448	40448	40448	40448	40448	37376	37376	37376	34304	34304	34304	34304	37376	40448	43008	46080	46080	46080	43008	37376	34304	28160	22528	13824	11264	5632	3072	62976	62976	60416	60416	60416	60416	0	3072	5632	8192	11264	13824	19456	34304	49152	65024	23040	44032	4096	27648	48640	4608	9216	17920	22528	27136	27136	27136	13312	0	52736	35840	19968	8192	62464	47616	36864	29696	26112	23040	19456	19456	19456	19456	19456	15872	15872	19456	26112	29696	33280	40448	47616	51200	54784	58368	58368	62464	512	512	512	62464	62464	54784	51200	51200	47616	44032	36864	33280	29696	26112	19456	15872	12800	9216	3072	58880	52224	46080	43008	31232	31232	11264	11264	36864	10752	60416	60416	0	0	0	0	0	0	0	0	0	0	0	0	0	0	0	56320	56320	51200	46080	46080	41472	36864	31744	22528	9216	61440	44032	27648	8192	51200	29696	3072	49152	34304	22528	13824	11264	5632	0	62976	60416	60416	60416	60416	62976	0	3072	8192	13824	22528	31232	34304	40448	40448	43008	46080	49152	52224	52224	49152	49152	49152	49152	49152	46080	46080	46080	46080	43008	43008	46080	46080	0	0	0	0	0	0	0	0	0	0	0	0	0	0	0	0	0	0	0	0	0	0	0	0	0	0	0	0	0	0	0	0	0	0	0	0	0	0	0	0	0	0	0	0	0	0	0	0	0	0	0	0	0	0	0	0	0	0	0	0	0	0	0	0	0	0	0	0	0	0	0	0	0	0	0	0	0	0	0	0	0	0	0	0	0	0	0	0	0	0	2048	2048	2048	2048	2048	2048	2048	1536	1536	2048	0	0	0	0	0	0	0	0	0	0	3072	3072	3072	3072	3072	3072	3072	3072	3072	3072	3072	3072	3584	3584	3584	3584	3584	3584	3584	3584	0	0	0	0	0	0	0	0	0	0	0	0	0	0	0	0	58880	58880	58880	58880	58880	58880	58880	58880	58880	58880	58880	58880	58880	58880	58880	58880	58880	58880	58880	58880	58368	58368	58368	58368	0	0	0	0	0	0	0	0	0	0	0	0	0	61952	61952	61952	61952	61952	61952	61952	61952	61952	61952	61952	61952	61952	61952	61952	61952	61952	61952	0	0	0	0	60416	60416	60416	60416	60416	60416	60928	60928	0	0	0	0	0	0	0	0	0	0	0	0	0	0	0	61440	61440	0	0	0	0	0	0	0	0	0	0	0	0	0	0	0	0	0	0	0	3072	3072	3072	3072	3072	3072	3072	3072	3072	3072	0	0	0	0	0	0	0	0	65024	65024	65024	65024	49664	49664	49664	53760	11264	3584	7680	6656	9728	2048	1536	4096	34304	29696	45056	5120	19456	44544	34816	12800	30208	44544	42496	33280	3072	45056	16896	55296	28160	28160	2048	57856	52736	44032	44032	0	0	48128	5632	56320	46080	46080	36864	31744	27136	22528	17920	9216	4608	61440	52736	48640	39936	35840	35840	31744	31744	27648	24064	24064	19968	15872	11776	8192	4096	512	62464	58368	58368	54784	51200	47616	44032	40448	33280	26112	26112	23040	19456	15872	15872	15872	15872	19456	26112	40448	44032	51200	58368	62464	8192	19968	24064	24064	24064	27648	24064	19968	15872	11776	4096	4096	512	62464	62464	62464	58368	58368	58368	58368	58368	58368
0	0	0	50176	50176	50176	0	0	0	0	0	0	0	0	0	0	0	0	0	0	0	0	20992	20992	20992	20992	20992	20992	20992	20992	20992	20992	20992	21504	21504	21504	21504	21504	21504	21504	21504	21504	21504	21504	22016	22016	22016	22528	23552	0	25600	25600	26112	26624	26624	26624	26624	26624	26624	26624	26112	26112	26112	26112	26112	26112	26112	26112	26112	26112	26112	26112	26112	26112	26112	26112	26624	26624	26624	26624	27136	27136	27136	27136	27648	28672	0	31744	31744	32768	33280	33280	33280	33792	33792	33792	33792	33792	34304	34304	34816	35328	35328	35840	35840	36352	36352	36864	37376	37376	37376	37888	0	0	0	31232	31232	31232	31232	31232	31232	31232	31232	31232	31232	31232	31232	31232	31232	31232	28160	28160	28160	28160	28160	31232	34304	37376	40448	40448	40448	37376	31232	28160	25600	16896	11264	5632	0	62976	60416	57856	57856	57856	57856	57856	62976	0	0	5632	8192	11264	16896	28160	37376	49152	3072	15872	33280	51200	512	15872	19968	27648	35840	39936	44032	48640	44032	35840	24064	15872	4096	62464	51200	40448	29696	29696	26112	23040	23040	23040	23040	23040	23040	23040	23040	23040	26112	29696	33280	36864	44032	44032	47616	54784	54784	58368	58368	62464	62464	62464	58368	54784	54784	51200	47616	40448	36864	33280	26112	26112	19456	15872	12800	12800	6144	61952	58880	58880	49152	40448	40448	0	0	0	0	0	0	0	0	0	0	0	0	0	0	0	0	0	0	0	0	0	41472	41472	36864	36864	36864	31744	22528	13312	4608	56832	39936	24064	8192	54784	36864	12800	61952	46080	31232	19456	11264	8192	3072	62976	60416	60416	57856	57856	57856	60416	60416	0	5632	11264	19456	28160	31232	34304	37376	40448	40448	43008	46080	46080	46080	46080	46080	43008	43008	43008	43008	43008	40448	40448	40448	0	0	0	0	0	0	0	0	0	0	0	0	0	0	0	0	0	0	0	0	0	0	0	0	0	0	0	0	0	0	0	0	0	0	0	0	0	0	0	0	0	0	0	0	0	0	0	0	0	0	0	0	0	0	0	0	0	0	0	0	0	0	0	0	0	0	0	0	0	0	0	0	0	0	0	0	0	0	0	0	0	0	0	0	0	0	0	0	0	0	0	0	2048	2048	2048	2048	2048	2048	2048	1536	1536	2048	0	0	0	0	0	0	0	0	3072	3072	3072	3072	3072	3072	3072	3072	3072	3072	3072	3072	3072	3072	3584	3584	3584	3584	3584	3584	3584	0	0	0	0	0	0	0	0	0	0	0	0	0	0	0	0	0	58880	58880	58880	58880	58880	58880	58880	58880	58880	58880	58880	58880	58880	58880	58880	58880	58880	58880	58880	58880	58368	58368	58368	58368	58368	58368	58368	58368	58368	58368	0	0	0	0	0	0	0	61952	61952	61952	61952	61952	61952	61952	61952	61952	61952	61952	61952	61440	61440	61440	61440	0	0	0	0	0	60416	60416	60416	60416	59904	59904	59904	59904	59904	0	0	0	0	0	0	0	0	0	0	0	0	0	0	0	0	0	0	0	0	0	0	0	0	0	0	0	0	0	0	0	0	0	0	0	2560	2560	2560	2560	2560	3072	3072	2560	2560	3072	3072	3072	0	0	0	0	0	0	0	0	0	65024	65024	5120	5120	53760	43008	57856	2560	59904	38400	21504	23552	4096	25600	36352	45056	5120	19456	1024	33792	25088	25088	0	27136	35840	3072	45056	55296	55296	28160	28160	41984	33792	52736	9216	27136	27136	0	0	31744	512	51200	46080	41472	36864	31744	27136	22528	17920	9216	4608	61440	56832	52736	48640	39936	35840	35840	35840	31744	27648	27648	19968	19968	11776	8192	4096	512	62464	62464	58368	54784	51200	47616	47616	40448	36864	29696	26112	23040	19456	19456	15872	15872	15872	19456	26112	40448	44032	51200	58368	4096	15872	19968	24064	24064	24064	27648	24064	19968	15872	11776	4096	512	512	62464	62464	58368	58368	58368	58368	58368	58368	58368
0	0	0	0	0	0	0	0	0	0	0	0	0	0	0	0	0	0	0	0	0	0	20992	20992	20992	20992	20992	20992	20992	20992	20992	21504	21504	21504	21504	21504	21504	21504	21504	21504	21504	21504	21504	22016	22016	22016	22016	22528	23552	0	25600	25600	26112	26624	26624	26624	26624	26624	26624	26624	26112	26112	26112	26112	26112	26112	25600	25600	25600	25600	26112	26112	26112	26112	26112	26112	26624	26624	26624	26624	26624	27136	27136	27136	27648	0	0	0	0	33280	33280	33280	33280	33792	33792	33792	33792	33792	34304	34304	34816	35328	35328	35840	35840	36352	36864	37376	37376	37376	37888	37888	0	0	0	22528	22528	22528	22528	22528	22528	22528	22528	22528	22528	22528	22528	25600	25600	25600	25600	25600	25600	25600	25600	28160	28160	31232	34304	34304	34304	31232	28160	22528	16896	11264	5632	0	60416	57856	54784	54784	54784	54784	54784	57856	60416	62976	0	5632	8192	11264	13824	22528	31232	43008	52224	61952	9216	23040	33280	40448	44032	44032	51200	54784	58368	62464	58368	58368	54784	51200	47616	44032	36864	29696	26112	26112	26112	26112	23040	23040	23040	23040	23040	23040	26112	26112	29696	29696	33280	33280	40448	44032	44032	47616	51200	54784	54784	58368	58368	58368	58368	54784	51200	47616	44032	40448	36864	29696	26112	23040	15872	12800	9216	9216	3072	61952	61952	61952	0	0	0	0	0	0	0	0	0	0	0	0	0	0	0	0	0	0	0	0	0	0	22528	22528	27136	27136	22528	22528	17920	13312	4608	61440	52736	39936	24064	8192	54784	40448	23040	3072	52224	34304	25600	13824	11264	5632	0	62976	60416	57856	57856	57856	57856	57856	60416	0	3072	8192	13824	22528	25600	28160	31232	34304	37376	37376	37376	40448	40448	40448	40448	40448	40448	40448	40448	34304	34304	34304	40448	0	0	0	0	0	0	0	0	0	0	0	0	0	0	0	0	0	0	0	0	0	0	0	0	0	0	0	0	0	0	0	0	0	0	0	0	0	0	0	0	0	0	0	0	0	0	0	0	0	0	0	0	0	0	0	0	0	0	0	0	0	0	0	0	0	0	0	0	0	0	0	0	0	0	0	0	0	0	0	0	0	0	0	0	0	0	0	0	0	0	0	0	2048	2048	2048	2048	2048	2048	2048	1536	1536	2048	0	0	0	0	0	0	0	2560	2560	2560	2560	2560	2560	2560	3072	3072	2560	2560	2560	2560	2560	2560	3072	3072	3072	3072	3072	3584	0	0	0	0	0	0	0	0	0	0	0	0	0	0	0	0	0	0	0	0	58880	58880	58880	58880	58880	58880	58880	58880	58880	58880	58880	58880	58880	58880	58880	58880	58880	58880	58368	58368	58368	58368	58368	58368	58368	58368	58368	58368	58368	58368	0	0	0	0	61440	61440	61440	61952	61952	61952	61952	61952	61952	61952	61952	61440	61440	61440	61440	61440	61440	0	0	0	0	0	60416	59904	59904	59904	59904	59904	59904	59904	59904	0	59904	59904	0	0	0	0	0	0	0	0	0	0	0	0	0	0	0	0	0	0	0	0	0	0	0	0	0	0	0	0	0	0	0	0	2560	2560	2560	2560	2560	2560	2560	2560	2560	2560	2560	2560	0	0	0	0	0	0	0	0	0	0	65024	53760	43008	3584	57856	2560	59904	2048	23552	15872	4096	25600	59904	29696	40448	19456	1024	10752	2048	14336	14336	0	42496	33280	8704	55296	2048	2048	2048	41984	10240	52736	27136	44032	27136	27136	0	0	20992	60928	51200	46080	41472	36864	31744	27136	22528	17920	9216	4608	61440	56832	52736	48640	39936	39936	35840	35840	31744	31744	27648	24064	19968	15872	11776	8192	4096	512	62464	58368	54784	54784	47616	47616	44032	36864	29696	29696	26112	23040	19456	19456	19456	19456	23040	33280	44032	47616	54784	62464	8192	19968	27648	27648	27648	31744	27648	27648	19968	19968	11776	4096	512	512	62464	62464	58368	58368	58368	58368	58368	58368	62464
0	0	0	0	0	0	0	0	0	0	0	0	0	0	0	0	0	0	0	0	0	0	20992	20992	20992	20992	20992	20992	20992	20992	20992	21504	21504	21504	21504	21504	21504	21504	21504	22016	22016	22016	22016	22016	22016	22016	22016	22528	0	25088	25088	25600	26112	26624	26624	26624	26624	26624	26624	26624	26112	26112	26112	26112	26112	25600	25600	25600	25600	25600	25600	25600	26112	26112	26112	26112	26112	26624	26624	26624	26624	26624	27136	0	0	0	0	0	0	33280	33280	33792	33792	33792	33792	33792	34304	34304	34304	34816	34816	35328	35328	35840	36352	36352	36864	37376	37376	37376	37888	37888	0	0	0	16896	13824	13824	13824	13824	13824	13824	13824	13824	16896	16896	16896	16896	19456	19456	19456	22528	22528	22528	25600	25600	25600	31232	31232	34304	31232	28160	25600	19456	13824	8192	3072	60416	57856	54784	52224	52224	52224	52224	54784	57856	60416	62976	0	5632	8192	11264	13824	19456	25600	28160	37376	43008	49152	55808	61952	65024	65024	3072	3072	6144	12800	15872	19456	23040	23040	23040	23040	26112	23040	19456	19456	19456	23040	26112	26112	26112	26112	26112	26112	26112	26112	26112	29696	29696	33280	33280	40448	44032	44032	47616	51200	51200	54784	58368	58368	58368	54784	54784	51200	47616	40448	40448	33280	29696	23040	19456	15872	12800	9216	6144	3072	61952	61952	61952	61952	61952	61952	61952	3072	9216	19456	26112	26112	26112	26112	26112	33280	36864	36864	36864	44032	54784	62464	8192	19968	39936	52736	61440	4608	4608	0	61440	52736	44032	31744	19968	4096	58368	44032	33280	26112	15872	3072	55808	40448	28160	16896	13824	8192	3072	0	62976	60416	57856	57856	57856	57856	57856	60416	62976	62976	3072	11264	16896	19456	22528	25600	28160	28160	31232	34304	34304	34304	34304	34304	34304	37376	34304	31232	31232	31232	34304	0	0	0	0	0	0	0	0	0	0	0	0	0	0	0	0	0	0	0	0	0	0	0	0	0	0	0	0	0	0	0	0	0	0	0	0	0	0	0	0	0	0	0	0	0	0	0	0	0	0	0	0	0	0	0	0	0	0	0	0	0	0	0	0	0	0	0	0	0	0	0	0	0	0	0	0	0	0	0	0	0	0	0	0	0	0	0	0	0	0	0	0	0	2048	2048	2048	2048	2048	2048	2048	2048	2048	2048	0	0	0	0	0	0	2560	2560	2560	2560	2560	2560	2560	2560	2560	2560	2560	2560	2560	2560	2560	2560	3072	3072	3072	3072	3072	0	0	0	0	0	0	0	0	0	0	0	0	0	0	0	0	0	0	0	0	0	58880	58880	58880	58880	58880	58880	58880	58880	58880	58880	58880	58880	58880	58880	58880	58880	58880	58880	58880	58880	58880	58880	58368	58368	58368	58368	58368	58368	58368	58368	58368	0	0	0	61440	61440	61440	61440	61952	61952	61952	61952	61952	61440	61440	61440	61440	61440	61440	61440	61440	60928	60928	0	0	0	60416	59904	59904	59904	59904	59904	59904	59904	59904	59904	59904	59904	0	0	0	0	0	0	0	0	0	0	0	0	0	0	0	0	0	0	0	0	0	0	0	0	0	0	0	0	0	0	0	0	2560	2560	2560	2560	2560	2560	2560	2560	2560	2560	2560	2560	0	0	0	0	0	0	0	0	65024	65024	49664	53760	3584	57856	2560	6656	9728	21504	1536	61440	36864	34304	26624	45056	19456	6144	2560	25088	40448	12800	13312	13312	35840	34304	45056	28160	41984	41984	16896	16896	8704	17408	55808	64512	64512	0	0	48128	15872	60928	51200	46080	41472	36864	31744	27136	22528	17920	9216	4608	0	56832	52736	48640	44032	39936	35840	35840	35840	31744	27648	24064	19968	15872	11776	8192	4096	512	62464	58368	58368	54784	47616	47616	44032	40448	33280	33280	29696	26112	23040	23040	23040	26112	29696	36864	47616	51200	58368	512	11776	19968	27648	31744	31744	35840	31744	27648	24064	19968	11776	8192	4096	4096	512	62464	62464	62464	62464	62464	62464	512	512
0	0	0	0	0	0	0	0	0	0	0	0	0	0	0	0	0	0	0	0	0	0	0	20992	20992	20992	20992	20992	20992	21504	21504	21504	21504	21504	21504	21504	21504	22016	22016	22016	22016	22016	22016	22016	22016	0	0	0	0	25088	25088	25600	26112	26624	26624	26624	26624	26624	26112	26112	26112	26112	26112	26112	25600	25600	25600	25600	25600	25600	25600	25600	25600	25600	26112	26112	26112	26112	26112	26112	26624	26624	0	0	0	0	0	0	0	34304	34304	34304	34304	34304	34304	34304	34304	34304	34816	34816	35328	35328	35840	35840	36352	36352	36864	37376	37376	37376	37888	37888	0	0	0	11264	11264	8192	8192	8192	8192	5632	5632	8192	11264	11264	13824	13824	16896	16896	16896	16896	19456	19456	22528	22528	25600	28160	31232	31232	31232	28160	22528	19456	13824	8192	0	60416	57856	54784	52224	52224	52224	52224	54784	57856	62976	0	3072	5632	8192	11264	13824	16896	19456	19456	25600	28160	28160	28160	34304	31232	31232	34304	34304	37376	40448	46080	49152	52224	58880	65024	6144	6144	9216	9216	12800	15872	15872	19456	23040	23040	26112	26112	26112	26112	26112	26112	26112	29696	33280	33280	36864	40448	44032	44032	47616	51200	51200	54784	54784	54784	54784	51200	44032	44032	36864	33280	29696	26112	23040	15872	15872	9216	6144	3072	65024	61952	58880	58880	58880	58880	61952	61952	3072	9216	19456	26112	26112	26112	26112	26112	29696	29696	33280	33280	36864	44032	54784	62464	8192	27648	31744	44032	48640	44032	31744	24064	15872	4096	58368	44032	36864	26112	15872	6144	3072	65024	55808	43008	34304	22528	16896	8192	5632	3072	0	62976	60416	60416	57856	57856	57856	57856	60416	62976	62976	0	5632	11264	13824	16896	19456	22528	25600	25600	28160	28160	31232	31232	31232	31232	31232	28160	28160	28160	31232	0	0	0	0	0	0	0	0	0	0	0	0	0	0	0	0	0	0	0	0	0	0	0	0	0	0	0	0	0	0	0	0	0	0	0	0	0	0	0	0	0	0	0	0	0	0	0	0	0	0	0	0	0	0	0	0	0	0	0	0	0	0	0	0	0	0	0	0	0	0	0	0	0	0	0	0	0	0	0	0	0	0	0	0	0	0	0	0	0	0	0	0	0	0	2048	2048	2048	2048	2048	2048	2048	2048	2048	2048	0	0	0	0	0	0	2560	2560	2560	2560	2560	2560	2560	2560	2560	2560	0	0	0	0	0	0	0	0	3072	3072	3072	0	0	0	0	0	0	0	0	0	0	0	0	0	0	0	0	0	0	0	0	0	0	0	58880	58880	58880	58880	58880	58880	58880	58880	58880	58880	58880	58880	58880	58880	58880	58880	58880	58880	58880	58880	58368	58368	58368	58368	58368	58368	58368	58368	58368	0	0	0	0	60928	60928	61440	61440	61440	61440	61440	61440	61440	61440	61440	61440	61440	60928	60928	60928	60928	60928	60928	0	0	0	59904	59904	59904	59904	59904	59392	59392	59392	59392	59392	0	0	0	0	0	0	0	0	0	0	0	0	0	0	0	0	0	0	0	0	0	0	0	0	0	0	0	0	0	0	0	0	2560	2560	2560	2048	2048	2048	2048	2048	2048	2048	2048	2048	2048	0	0	0	0	0	0	0	0	65024	65024	49664	11264	3584	7680	2560	59904	38400	23552	15872	4096	36864	59904	26624	45056	19456	1024	10752	44544	40448	12800	13312	2560	35840	3072	16896	2048	16896	57856	33792	53248	36864	39936	52736	64512	64512	0	28672	48128	15872	60928	56320	51200	41472	36864	31744	27136	22528	17920	13312	4608	0	56832	56832	48640	44032	39936	39936	39936	35840	31744	27648	24064	19968	15872	11776	8192	4096	512	62464	58368	58368	54784	51200	47616	47616	40448	36864	36864	33280	29696	29696	26112	26112	29696	33280	40448	47616	51200	58368	4096	11776	19968	27648	31744	31744	35840	35840	31744	24064	24064	15872	8192	8192	4096	4096	4096	4096	4096	4096	4096	4096	8192	8192
0	0	0	0	0	0	0	0	0	0	0	0	0	0	0	0	0	0	0	0	0	0	0	0	0	20992	20992	21504	21504	21504	21504	21504	21504	21504	21504	22016	22016	22016	22016	22016	22016	22016	22016	22016	22016	0	0	0	0	0	26112	26112	26112	26112	26112	26112	26112	26112	26112	26112	26112	26112	25600	25600	25600	25600	25600	25600	25600	25600	25600	25600	25600	25600	26112	26112	26112	26112	26112	26112	26112	0	0	0	0	0	0	0	0	0	0	34304	34304	34816	34816	34816	34816	34816	34816	35328	35328	35328	35840	35840	36352	36352	36864	37376	37376	37888	37888	37888	0	0	0	3072	3072	0	0	0	0	0	0	3072	3072	5632	8192	8192	11264	13824	16896	16896	16896	19456	19456	22528	25600	25600	28160	31232	28160	22528	19456	16896	13824	5632	0	57856	54784	54784	52224	52224	52224	52224	54784	57856	62976	3072	5632	8192	11264	13824	16896	16896	19456	19456	19456	16896	13824	13824	11264	8192	5632	5632	8192	8192	13824	19456	28160	34304	40448	49152	55808	58880	58880	65024	3072	6144	9216	12800	19456	19456	23040	23040	26112	26112	26112	26112	26112	29696	29696	33280	33280	36864	40448	40448	40448	47616	47616	47616	51200	47616	47616	44032	44032	36864	33280	26112	26112	23040	15872	12800	12800	6144	3072	65024	61952	58880	58880	58880	58880	58880	65024	6144	15872	19456	26112	29696	29696	29696	29696	29696	29696	26112	26112	33280	36864	44032	54784	62464	8192	15872	27648	35840	39936	35840	24064	11776	512	51200	40448	26112	12800	6144	61952	52224	52224	49152	43008	34304	28160	22528	13824	8192	5632	3072	0	62976	60416	60416	60416	60416	60416	60416	60416	60416	62976	0	3072	5632	8192	11264	11264	16896	16896	19456	22528	25600	25600	25600	28160	28160	28160	28160	28160	28160	0	0	0	0	0	0	0	0	0	0	0	0	0	0	0	0	0	0	0	0	0	0	0	0	0	0	0	0	0	0	0	0	0	0	0	0	0	0	0	0	0	0	0	0	0	0	0	0	0	0	0	0	0	0	0	0	0	0	0	0	0	0	0	0	0	0	0	0	0	0	0	0	0	0	0	0	0	0	0	0	0	0	0	0	0	0	0	0	0	0	0	0	0	0	0	0	0	2048	2048	2048	2048	2048	2048	2048	0	0	0	0	0	0	0	2560	2560	2560	2560	2560	2560	2560	2048	2048	2048	1536	1536	0	0	0	0	0	0	0	0	0	0	0	0	0	0	0	0	0	0	0	0	0	0	0	0	0	0	0	0	0	0	0	0	0	0	0	0	0	0	58368	58368	58368	58368	58368	58368	58368	58880	58880	58880	58880	58880	58880	58880	58880	58368	58368	58368	58368	58368	58368	58368	58368	58368	0	0	0	60928	60928	61440	61440	61440	61440	61440	61440	61440	61440	61440	61440	60928	60928	60928	60928	60928	60928	60416	60416	0	59904	59904	59904	59904	59392	59392	59392	59392	59392	59392	59392	59392	0	0	0	0	0	0	0	0	0	0	0	0	0	0	0	0	0	0	0	0	0	0	0	0	0	0	0	0	0	0	0	2048	2048	2048	2048	2048	2048	2048	2048	2048	2048	2048	2048	2048	2048	0	0	0	0	0	0	0	65024	65024	49664	11264	3584	7680	2560	59904	38400	23552	15872	4096	36864	59904	26624	45056	19456	1024	10752	44544	40448	14336	13312	2560	2560	38400	55296	41984	33792	10240	8704	11264	57344	39936	52736	52736	49664	14336	23040	53760	20992	512	60928	56320	51200	46080	41472	36864	31744	27136	17920	9216	4608	0	61440	52736	48640	44032	39936	39936	35840	31744	27648	24064	19968	15872	11776	8192	512	62464	62464	58368	58368	54784	51200	47616	47616	44032	40448	40448	36864	33280	33280	29696	29696	33280	36864	40448	47616	51200	58368	512	8192	15872	27648	31744	35840	35840	39936	35840	27648	24064	19968	11776	11776	8192	8192	8192	8192	11776	11776	11776	11776	15872	19968
0	0	0	0	0	0	0	0	0	0	0	0	0	0	0	0	0	0	0	0	0	0	0	0	0	0	21504	21504	21504	21504	21504	21504	21504	21504	22016	22016	22016	22016	22016	22016	22016	22016	22528	22528	0	0	0	0	0	0	0	26112	26112	26112	26112	26112	26112	26112	26112	26112	25600	25600	25600	25600	25600	25600	25600	25600	25600	25600	25600	25600	25600	25600	25600	25600	26112	26112	26112	26112	26112	0	0	0	0	0	0	0	0	35328	34816	34816	34816	34816	34816	34816	34816	35328	35328	35328	35840	35840	35840	36352	36352	36864	36864	37376	37376	37888	37888	37888	0	0	0	62976	62976	62976	62976	62976	62976	62976	62976	62976	0	3072	3072	5632	8192	11264	13824	16896	16896	19456	19456	22528	25600	25600	28160	31232	25600	22528	19456	16896	8192	5632	62976	57856	54784	54784	54784	52224	52224	54784	57856	60416	3072	5632	8192	11264	13824	16896	19456	19456	19456	16896	13824	11264	5632	3072	0	60416	60416	60416	60416	62976	0	5632	11264	19456	25600	34304	43008	49152	55808	55808	58880	65024	3072	9216	12800	15872	19456	19456	23040	23040	23040	23040	23040	26112	29696	29696	33280	36864	36864	36864	40448	44032	44032	44032	44032	40448	40448	40448	33280	33280	26112	23040	19456	15872	12800	12800	6144	3072	65024	61952	58880	55808	55808	55808	55808	58880	65024	3072	12800	19456	23040	26112	26112	26112	26112	26112	26112	26112	26112	29696	36864	44032	51200	58368	512	8192	19968	24064	24064	15872	4096	54784	44032	29696	15872	6144	61952	52224	43008	40448	37376	37376	34304	28160	28160	22528	13824	8192	5632	3072	0	0	62976	62976	60416	60416	60416	60416	60416	60416	62976	0	0	3072	5632	8192	8192	11264	13824	16896	19456	19456	22528	22528	28160	28160	28160	0	0	0	0	0	0	0	0	0	0	0	0	0	0	0	0	0	0	0	0	0	0	0	0	0	0	0	0	0	0	0	0	0	0	0	0	0	0	0	0	0	0	0	0	0	0	0	0	0	0	0	0	0	0	0	0	0	0	0	0	0	0	0	0	0	0	0	0	0	0	0	0	0	0	0	0	0	0	0	0	0	0	0	0	0	0	0	0	0	0	0	0	0	0	0	0	0	0	0	0	0	2048	2048	2048	2048	2048	0	0	0	0	0	0	0	0	2560	2560	2560	2560	2560	2560	2048	2048	1536	1536	1536	1536	0	512	512	512	0	0	0	0	0	0	0	0	0	0	0	0	0	0	0	0	0	0	0	0	0	0	0	0	0	0	0	0	0	0	0	58368	58368	0	58368	58368	58368	58368	58368	58368	58368	58880	58880	58880	58880	58880	58880	58880	58880	58880	58368	58368	58368	58368	58368	58368	58368	58368	0	0	0	0	0	0	0	0	61440	61440	61440	61440	61440	61440	60928	60928	60928	60928	60928	60928	60928	60416	60416	0	59904	59392	59392	59392	59392	59392	59392	59392	59392	59392	59392	59392	59392	0	0	0	0	0	0	0	0	0	0	0	0	0	0	0	0	0	0	0	0	0	0	0	0	0	0	0	0	0	0	2048	2048	2048	2048	2048	2048	1536	1536	1536	1536	1536	1536	1536	2048	0	0	0	0	0	0	0	65024	65024	49664	11264	3584	7680	2560	59904	38400	21504	15872	4096	36864	34304	36352	45056	19456	1024	10752	44544	2048	18432	50688	44544	44544	38400	55296	16896	53248	8704	56320	27136	58880	58880	0	0	62464	53760	16896	53760	26624	15872	10752	512	60928	56320	51200	51200	41472	36864	27136	22528	13312	4608	61440	56832	52736	44032	44032	39936	39936	35840	27648	24064	19968	15872	11776	8192	512	62464	62464	58368	58368	54784	54784	51200	47616	47616	44032	40448	40448	36864	36864	33280	33280	33280	36864	40448	47616	47616	54784	62464	4096	11776	19968	27648	31744	31744	31744	27648	27648	19968	15872	15872	11776	11776	11776	11776	11776	11776	15872	15872	19968	19968	24064
0	0	0	0	0	0	0	0	0	0	0	0	0	0	0	0	0	0	0	0	0	0	0	0	0	0	21504	21504	21504	21504	21504	21504	21504	22016	22016	22016	22016	22016	22016	22528	22528	22528	22528	22528	22528	22528	0	0	0	25600	25600	25600	26112	26112	26112	26112	26112	26112	25600	25600	25600	25600	25600	25600	25600	25600	25088	25088	25600	25600	25600	25600	25600	25600	25600	25600	25600	25600	25600	25600	26112	0	0	0	0	0	0	0	0	35328	34816	34816	34816	34816	34816	34816	34816	35328	35328	35328	35840	35840	35840	36352	36352	36864	37376	37376	37376	37376	37888	37888	0	0	0	60416	60416	60416	60416	60416	60416	60416	60416	62976	62976	0	3072	3072	8192	11264	11264	16896	16896	19456	22528	22528	22528	25600	28160	28160	25600	22528	19456	13824	8192	5632	62976	57856	54784	54784	54784	54784	54784	57856	60416	62976	5632	8192	11264	16896	19456	19456	19456	19456	19456	16896	13824	11264	5632	3072	62976	57856	57856	57856	57856	60416	62976	0	5632	11264	19456	28160	34304	43008	46080	52224	52224	58880	65024	3072	9216	12800	15872	19456	19456	23040	23040	23040	23040	26112	26112	29696	29696	33280	33280	36864	36864	36864	36864	36864	36864	36864	33280	29696	29696	23040	15872	15872	12800	12800	9216	6144	65024	61952	61952	58880	55808	55808	55808	55808	55808	55808	65024	3072	12800	15872	23040	23040	26112	23040	23040	23040	26112	26112	26112	29696	36864	44032	51200	58368	512	8192	11776	11776	4096	58368	47616	29696	19456	3072	58880	46080	40448	31232	25600	22528	22528	28160	25600	25600	25600	22528	16896	11264	8192	5632	3072	0	62976	62976	62976	62976	62976	62976	62976	62976	0	0	0	3072	5632	8192	8192	11264	13824	13824	16896	19456	22528	22528	0	0	0	0	0	0	0	0	0	0	0	0	0	0	0	0	0	0	0	0	0	0	0	0	0	0	0	0	0	0	0	0	0	0	0	0	0	0	0	0	0	0	0	0	0	0	0	0	0	0	0	0	0	0	0	0	0	0	0	0	0	0	0	0	0	0	0	0	0	0	0	0	0	0	0	0	0	0	0	0	0	0	0	0	0	0	0	0	0	0	0	0	0	0	0	0	0	0	0	0	0	0	0	0	0	0	0	0	0	0	0	0	0	0	0	0	0	0	2560	2560	2560	2560	2560	2048	1536	1536	1024	512	512	512	0	0	512	512	0	0	0	0	0	0	0	0	0	0	0	0	0	0	0	0	0	0	0	0	0	0	0	0	0	0	0	0	0	0	58368	58368	0	58368	58368	0	0	0	58368	58368	58880	58880	58880	58880	58880	58880	58880	58880	58880	58368	58368	58368	58368	58368	58368	0	58368	58368	58368	58368	0	0	0	0	0	61440	61440	61440	61440	61440	61440	60928	60928	60928	60928	60928	60928	60416	60416	60416	0	0	59392	59392	59392	58880	58880	58880	58880	58880	58880	58880	58880	58880	0	0	0	0	0	0	0	0	0	0	0	0	0	0	0	0	0	0	0	0	0	0	0	0	0	0	0	0	0	0	0	0	2048	1536	1536	1536	1536	1536	1536	1536	1536	1536	1536	1536	0	0	0	0	0	65024	65024	65024	65024	49664	53760	43008	57856	2560	6656	9728	21504	1536	61440	4096	25600	59904	29696	40448	19456	1024	25088	33792	34816	39424	22528	22528	34304	55296	16896	8704	11264	56320	39424	58880	58880	0	34304	34304	47616	16896	59392	37376	31744	20992	15872	10752	5632	512	60928	56320	51200	41472	31744	27136	17920	9216	4608	61440	56832	44032	39936	39936	35840	27648	24064	19968	11776	8192	4096	512	62464	58368	58368	58368	58368	54784	51200	47616	47616	47616	44032	44032	40448	36864	36864	36864	36864	36864	40448	44032	44032	47616	54784	62464	512	11776	15872	19968	19968	19968	19968	15872	15872	11776	11776	11776	11776	11776	11776	11776	15872	15872	15872	19968	24064	27648
0	0	0	0	0	0	0	0	0	0	0	0	0	0	0	0	0	0	0	0	0	0	0	0	0	0	0	21504	21504	21504	21504	21504	21504	22016	22016	22016	22016	22016	22528	22528	22528	22528	22528	22528	22528	22528	23040	0	0	25088	25088	25088	25600	25600	25600	25600	25600	25600	25600	25600	25600	25600	25088	25088	25088	25088	25088	25088	25088	25088	25600	25600	25600	25600	25600	25600	25600	25600	25600	25600	25600	0	0	0	0	0	0	0	0	35328	35328	35328	35328	35328	35328	35328	35328	35328	35328	35840	35840	35840	36352	36352	36352	36864	37376	37376	37376	37376	37888	0	0	0	0	60416	60416	60416	60416	60416	60416	60416	60416	62976	62976	62976	0	3072	5632	8192	11264	13824	16896	19456	22528	22528	22528	28160	28160	28160	25600	22528	19456	13824	11264	5632	0	60416	57856	57856	57856	60416	60416	62976	0	5632	11264	16896	19456	22528	25600	25600	25600	25600	22528	19456	16896	11264	5632	3072	62976	57856	57856	57856	57856	60416	62976	0	3072	8192	16896	25600	31232	37376	43008	49152	52224	52224	61952	65024	6144	9216	12800	15872	15872	19456	19456	19456	23040	23040	26112	26112	29696	29696	29696	29696	29696	29696	29696	29696	26112	23040	23040	19456	15872	12800	6144	3072	3072	65024	65024	61952	58880	55808	55808	52224	52224	49152	49152	52224	52224	55808	61952	3072	9216	15872	19456	23040	23040	23040	23040	23040	26112	26112	29696	29696	36864	47616	54784	62464	512	8192	8192	4096	58368	47616	29696	9216	58880	46080	34304	22528	16896	16896	11264	11264	13824	16896	19456	22528	25600	22528	19456	13824	11264	8192	8192	5632	3072	3072	3072	3072	3072	3072	3072	3072	3072	3072	3072	5632	8192	8192	11264	11264	13824	13824	16896	0	0	0	0	0	0	0	0	0	0	0	0	0	0	0	0	0	0	0	0	0	0	0	0	0	0	0	0	0	0	0	0	0	0	0	0	0	0	0	0	0	0	0	0	0	0	0	0	0	0	0	0	0	0	0	0	0	0	0	0	0	0	0	0	0	0	0	0	0	0	0	0	0	0	0	0	0	0	0	0	0	0	0	0	0	0	0	0	0	0	0	0	0	0	0	0	0	0	0	0	0	0	0	0	0	0	0	0	0	0	0	0	0	0	0	0	0	0	0	0	0	0	2560	2560	2560	2560	2048	1536	1536	1024	512	0	0	0	0	0	0	0	0	0	0	0	0	0	0	0	0	0	0	0	0	0	0	0	0	0	0	0	0	0	0	0	0	0	0	0	0	0	0	0	0	0	0	0	0	0	0	58880	58368	58368	58880	58880	58880	58880	58880	58880	58368	58368	58368	58368	58368	58368	58368	58368	58368	58368	58368	0	0	0	0	0	0	61440	61440	61440	61440	61440	60928	60928	60928	60928	60928	60928	60416	60416	0	0	0	0	0	0	58880	58880	58880	58880	58880	58880	58880	58880	58880	0	0	0	0	0	0	0	0	0	0	0	0	0	0	0	0	0	0	0	0	0	0	0	0	0	0	0	0	0	0	0	0	1536	1536	1536	1536	1536	1536	1536	1536	1536	1536	1536	1536	1536	0	0	0	0	65024	65024	65024	65024	65024	5120	11264	3584	7680	6656	9728	2048	23552	15872	61440	36864	34304	26624	5120	19456	1024	2560	44544	47616	22528	29696	29696	3072	41984	10240	17408	9216	8704	8704	512	59392	34304	41472	1024	34816	23040	65024	53760	48128	37376	37376	26624	20992	15872	15872	10752	512	60928	51200	46080	36864	27136	17920	13312	56832	48640	44032	39936	35840	27648	24064	15872	11776	8192	512	62464	58368	58368	58368	58368	58368	54784	54784	51200	47616	47616	44032	44032	40448	40448	36864	33280	33280	33280	36864	36864	40448	40448	44032	51200	58368	62464	4096	8192	11776	11776	11776	8192	8192	8192	8192	8192	11776	11776	11776	11776	15872	15872	15872	19968	24064	27648
0	0	0	0	0	0	0	0	0	0	0	0	0	0	0	0	0	0	0	0	0	0	0	0	0	0	0	21504	21504	21504	21504	21504	21504	22016	22016	22016	22016	22016	22528	22528	22528	22528	22528	22528	22528	22528	23040	23040	0	24064	24064	24576	25088	25088	25088	25088	25088	25600	25088	25088	25088	25088	25088	25088	25088	25088	25088	25088	25088	25088	25088	25600	25600	25600	25600	25600	25600	25600	25600	25600	25600	0	0	0	0	0	0	0	0	35328	35328	35328	35328	35328	35328	35328	35328	35328	35328	35840	35840	36352	36352	36352	36352	36864	37376	37376	37376	37376	37888	0	0	0	0	60416	60416	60416	60416	60416	60416	60416	60416	62976	62976	62976	0	3072	5632	8192	11264	13824	19456	22528	22528	25600	25600	28160	31232	31232	31232	25600	22528	16896	13824	11264	5632	3072	0	0	3072	5632	5632	8192	11264	16896	19456	22528	28160	34304	34304	34304	37376	31232	31232	28160	22528	16896	11264	8192	3072	62976	60416	57856	57856	60416	62976	0	3072	8192	16896	25600	28160	37376	43008	46080	52224	52224	58880	61952	3072	6144	9216	12800	15872	19456	19456	19456	19456	23040	23040	23040	26112	26112	23040	23040	23040	23040	19456	19456	15872	12800	12800	9216	3072	65024	58880	55808	52224	52224	49152	49152	46080	46080	46080	43008	43008	46080	46080	46080	49152	52224	58880	65024	6144	12800	15872	19456	19456	19456	23040	23040	23040	29696	33280	33280	40448	47616	54784	62464	4096	8192	4096	512	58368	40448	29696	9216	40448	22528	8192	0	62976	57856	57856	60416	62976	3072	8192	22528	25600	25600	25600	22528	19456	16896	16896	13824	11264	11264	8192	8192	8192	8192	8192	8192	8192	8192	8192	11264	11264	13824	13824	16896	19456	25600	0	0	0	0	0	0	0	0	0	0	0	0	0	0	0	0	0	0	0	0	0	0	0	0	0	0	0	0	0	0	0	0	0	0	0	0	0	0	0	0	0	0	0	0	0	0	0	0	0	0	0	0	0	0	0	0	0	0	0	0	0	0	0	0	0	0	0	0	0	0	0	0	0	0	0	0	0	0	0	0	0	0	0	0	0	0	0	0	0	0	0	0	0	0	0	0	0	0	0	0	0	0	0	0	0	0	0	0	0	0	0	0	0	0	0	0	0	0	0	0	0	0	0	0	0	2560	2560	2560	0	0	0	512	0	0	0	0	0	0	0	0	0	0	0	0	0	0	0	0	0	0	0	0	0	0	0	0	0	0	0	0	0	0	0	0	0	0	0	0	0	0	0	0	0	0	0	0	0	0	0	58368	58368	58368	58368	58368	58368	58880	58880	58368	58368	58368	58368	58368	58368	58368	58368	58368	58368	58368	58368	57856	57856	0	0	0	0	61440	61440	61440	61440	60928	60928	60928	60928	60928	60416	60416	60416	0	0	0	0	0	0	0	58368	58368	58880	58880	58880	58880	58880	58880	0	0	0	0	0	0	0	0	0	0	0	0	0	0	0	0	0	0	0	0	0	0	0	0	0	0	0	0	0	0	0	0	1536	1024	1024	1024	1024	1024	1024	1024	1024	1024	1024	1024	1024	0	0	0	0	65024	65024	65024	65024	65024	5120	11264	3584	7680	6656	59904	38400	21504	1536	15872	4096	25600	36352	29696	5120	40448	6144	10752	40448	40448	0	0	3072	41984	10240	45568	23040	8704	8704	30720	41984	41472	14336	53760	28672	23040	5120	65024	59392	53760	48128	42496	42496	37376	31744	20992	20992	10752	5632	512	56320	51200	17920	13312	4608	0	56832	48640	39936	31744	24064	15872	8192	4096	512	62464	58368	58368	54784	54784	54784	54784	54784	51200	47616	47616	47616	44032	40448	36864	33280	33280	29696	29696	29696	29696	33280	33280	36864	40448	47616	51200	58368	512	512	4096	4096	4096	4096	4096	4096	4096	8192	11776	11776	11776	11776	11776	11776	15872	19968	19968
0	0	0	0	0	0	0	0	0	0	0	0	0	0	0	0	0	0	0	0	0	0	0	0	0	0	0	0	21504	21504	21504	21504	22016	22016	22016	22016	22016	22016	22528	22528	22528	22528	22528	22528	22528	22528	23040	23040	0	24064	24064	24576	25088	25088	25088	25088	25088	25088	25088	25088	25088	25088	25088	25088	25088	25088	25088	25088	25088	25088	25088	25600	25600	25600	25600	25600	25600	25600	25600	25600	25600	25600	0	0	0	0	0	0	0	35328	35328	35328	35328	35328	35328	35328	35328	35328	35840	35840	35840	35840	36352	36352	36352	36864	37376	37376	37376	37376	37888	0	0	0	0	60416	60416	62976	62976	60416	60416	60416	60416	62976	62976	62976	0	3072	5632	8192	8192	13824	16896	22528	22528	25600	25600	31232	31232	34304	34304	28160	25600	22528	22528	16896	11264	8192	5632	5632	8192	8192	11264	13824	19456	22528	28160	31232	37376	43008	46080	46080	49152	46080	43008	40448	37376	31232	25600	22528	16896	13824	11264	8192	8192	8192	8192	8192	11264	13824	19456	25600	28160	37376	40448	46080	49152	55808	58880	61952	65024	6144	9216	12800	12800	15872	15872	15872	15872	19456	19456	23040	23040	23040	19456	19456	15872	15872	12800	12800	9216	3072	3072	65024	58880	52224	46080	40448	40448	37376	34304	31232	28160	28160	28160	31232	31232	31232	34304	37376	40448	43008	52224	58880	3072	6144	12800	15872	15872	19456	23040	23040	23040	29696	33280	40448	44032	58368	512	4096	11776	8192	4096	512	58368	40448	15872	55808	34304	8192	57856	49664	47104	44544	44544	47104	52224	57856	8192	13824	19456	25600	28160	28160	25600	25600	22528	19456	19456	16896	16896	16896	16896	16896	16896	16896	16896	16896	16896	16896	19456	22528	22528	28160	34304	43008	26112	0	0	0	0	0	0	0	0	0	0	0	0	0	0	0	0	0	0	0	0	0	0	0	0	0	0	0	0	0	0	0	0	0	0	0	0	0	0	0	0	0	0	0	0	0	0	0	0	0	0	0	0	0	0	0	0	0	0	0	0	0	0	0	0	0	0	0	0	0	0	0	0	0	0	0	0	0	0	0	0	0	0	0	0	0	0	0	0	0	0	0	0	0	0	0	0	0	0	0	0	0	0	0	0	0	0	0	0	0	0	0	0	0	0	0	0	0	0	0	0	0	0	0	0	0	0	0	0	0	0	512	0	0	0	0	0	0	0	0	0	0	0	0	0	0	0	0	0	0	0	0	0	0	0	0	0	0	0	0	0	0	0	0	0	0	0	0	0	0	0	0	0	0	0	0	0	0	0	0	58368	58368	58368	58368	58368	58368	58368	58368	58368	58368	58368	58368	58368	58368	58368	58368	58368	58368	58368	57856	57856	57856	0	0	0	0	61440	61440	61440	60928	60928	60928	60928	60928	60416	60416	0	0	0	0	0	0	57856	57856	57856	57856	57856	58368	58368	58368	0	0	0	0	0	0	0	0	0	0	0	0	0	0	0	0	0	0	0	0	0	0	0	0	0	0	0	0	0	0	0	0	0	0	0	1024	1024	1024	1024	1024	1024	1024	1024	1024	1024	1024	1024	0	0	0	0	65024	65024	65024	65024	65024	49664	53760	11264	3584	7680	6656	9728	38400	21504	23552	15872	4096	34304	36352	29696	45056	19456	2560	2048	25088	25088	0	34304	16896	8704	57344	23040	23040	0	33280	4096	14336	59904	40960	23040	16896	11264	11264	5120	65024	65024	65024	59392	53760	48128	37376	31744	26624	15872	5632	512	51200	41472	31744	22528	13312	0	56832	44032	31744	24064	15872	8192	512	62464	58368	54784	51200	51200	54784	54784	54784	51200	51200	47616	44032	44032	44032	40448	36864	29696	26112	23040	23040	23040	23040	23040	23040	26112	29696	33280	40448	47616	54784	58368	58368	62464	62464	62464	62464	512	512	4096	8192	8192	8192	8192	8192	8192	8192	8192	8192
0	0	0	0	0	0	0	0	0	0	0	0	0	0	0	0	0	0	0	0	0	0	0	0	0	0	0	0	21504	21504	21504	21504	22016	22016	22016	22016	22016	22528	22528	22528	22528	22528	22528	22528	22528	22528	23040	23040	23552	23552	24064	24064	24064	24576	24576	24576	24576	25088	25088	25088	24576	24576	24576	24576	25088	25088	25088	25088	25088	25088	25088	25600	25600	25600	25600	25600	25600	25600	25600	25600	25600	25600	0	0	0	0	0	0	0	35328	35328	35328	35328	35328	35328	35328	35328	35328	35840	35840	35840	35840	36352	36352	36352	36864	36864	37376	37376	37376	37376	0	0	0	0	0	0	0	62976	62976	62976	62976	62976	62976	62976	62976	0	3072	5632	8192	8192	13824	16896	22528	22528	25600	25600	31232	34304	37376	34304	31232	28160	25600	22528	19456	16896	11264	11264	11264	11264	11264	13824	19456	25600	31232	34304	40448	46080	49152	55808	55808	58880	58880	55808	52224	52224	46080	43008	37376	31232	25600	19456	19456	16896	13824	13824	16896	16896	19456	22528	25600	31232	37376	40448	46080	49152	55808	58880	61952	65024	3072	6144	9216	12800	12800	15872	15872	15872	19456	19456	19456	19456	15872	12800	9216	9216	6144	6144	3072	65024	58880	58880	52224	49152	40448	34304	28160	25600	22528	19456	16896	13824	13824	13824	13824	13824	16896	22528	25600	31232	37376	46080	55808	65024	6144	9216	15872	15872	19456	23040	23040	26112	29696	40448	51200	58368	512	11776	19968	24064	24064	19968	11776	62464	40448	15872	55808	31232	3072	44544	36864	34304	34304	36864	36864	41984	57856	0	5632	16896	19456	25600	28160	31232	31232	28160	28160	28160	25600	25600	25600	25600	37376	37376	25600	25600	25600	25600	28160	28160	31232	34304	43008	52224	65024	26112	0	0	0	5632	5632	0	0	0	0	0	0	0	0	0	0	0	0	0	0	0	0	0	0	0	0	0	0	0	0	0	0	0	0	0	0	0	0	0	0	0	0	0	0	0	0	0	0	0	0	0	0	0	0	0	0	0	0	0	0	0	0	0	0	0	0	0	0	0	0	0	0	0	0	0	0	0	0	0	0	0	0	0	0	0	0	0	0	0	0	0	0	0	0	0	0	0	0	0	0	0	0	0	0	0	0	0	0	0	0	0	0	0	0	0	0	0	0	0	0	0	0	0	0	0	0	0	0	0	0	0	0	0	0	0	0	0	0	0	0	0	0	0	0	0	0	0	0	0	0	0	0	0	0	0	0	0	0	0	0	0	0	0	0	0	0	0	0	0	0	0	0	0	0	0	0	0	0	0	58368	58368	58368	58368	58368	58368	58368	58368	58368	58368	58368	58368	58368	58368	58368	58368	58368	58368	58368	58368	58368	57856	57856	57856	0	0	0	0	0	0	0	0	0	0	0	0	0	0	0	0	0	0	0	57344	57344	57344	57344	57344	57344	57344	57344	57344	0	0	57344	57344	0	0	0	0	0	0	0	0	0	0	0	0	0	0	0	0	0	0	0	0	0	0	0	0	0	0	0	0	0	0	1024	1024	1024	1024	1024	1024	1024	1024	1024	1024	1024	1024	0	0	0	0	65024	65024	65024	65024	49664	49664	5120	53760	11264	3584	3584	7680	6656	59904	9728	2048	1536	61440	25600	59904	26624	45056	6144	4096	25088	22528	22528	0	16896	8704	57344	57344	0	0	18944	14336	40960	28672	16896	5120	65024	65024	65024	59392	59392	59392	59392	53760	53760	48128	37376	31744	20992	10752	512	512	51200	41472	36864	27136	17920	0	52736	39936	27648	15872	8192	512	58368	54784	54784	47616	47616	47616	51200	51200	51200	51200	47616	47616	44032	44032	40448	36864	33280	26112	23040	19456	15872	15872	15872	15872	15872	15872	19456	23040	26112	36864	44032	47616	47616	51200	51200	54784	58368	62464	512	4096	4096	4096	4096	4096	512	512	512	512	4096
0	0	0	0	0	0	0	0	0	0	0	0	0	0	0	0	0	0	0	0	0	0	0	0	0	0	0	0	0	0	22016	22016	22016	22016	22016	22016	22528	22528	22528	22528	22528	22528	22528	22528	22528	22528	23040	23040	23552	23552	23552	24064	24064	24064	24576	24576	24576	24576	24576	24576	24576	24576	24576	24576	24576	24576	24576	25088	25088	25088	25088	25088	25600	25600	25600	25600	25600	25600	25600	25600	25600	25600	0	0	0	0	0	0	35328	35328	35328	35328	35328	35328	35328	35328	35328	35328	35328	35840	35840	35840	36352	36352	36352	36864	36864	37376	37376	37376	37376	0	0	0	0	3072	3072	3072	3072	0	0	0	0	0	0	0	3072	5632	5632	8192	11264	13824	19456	22528	25600	25600	28160	34304	37376	37376	37376	34304	31232	28160	25600	22528	16896	16896	16896	16896	16896	19456	22528	25600	31232	37376	40448	46080	52224	55808	61952	61952	65024	65024	61952	61952	61952	58880	52224	49152	46080	40448	34304	31232	28160	25600	25600	25600	25600	25600	25600	28160	34304	37376	40448	46080	49152	55808	58880	61952	65024	3072	3072	6144	6144	6144	6144	6144	6144	6144	6144	6144	6144	65024	65024	61952	61952	61952	58880	52224	52224	49152	46080	40448	37376	28160	22528	16896	11264	8192	5632	3072	0	62976	62976	0	3072	5632	8192	13824	19456	31232	40448	49152	58880	3072	9216	15872	19456	23040	23040	26112	33280	40448	51200	62464	8192	19968	31744	35840	35840	44032	35840	27648	11776	51200	23040	58880	31232	3072	44544	34304	34304	34304	36864	36864	41984	52224	60416	3072	13824	19456	25600	31232	34304	34304	34304	37376	37376	37376	37376	37376	37376	37376	37376	37376	37376	37376	37376	40448	43008	46080	52224	61952	9216	33280	44032	44032	61440	22528	56320	5632	0	0	0	0	0	0	0	0	0	0	0	0	0	0	0	0	0	0	0	0	0	0	0	0	0	0	0	0	0	0	0	0	0	0	0	36352	36352	36352	0	0	0	0	0	0	0	0	0	0	0	0	0	0	0	0	0	0	0	0	0	0	0	0	0	0	0	0	0	0	0	0	0	0	0	0	0	0	0	0	0	0	0	0	0	0	0	0	0	0	0	0	0	0	0	0	0	0	0	0	0	0	0	0	0	0	0	0	0	0	0	0	0	0	0	0	0	0	0	0	0	0	0	0	0	0	0	0	0	0	0	0	0	0	0	0	0	0	0	0	0	0	0	0	0	0	0	0	0	0	0	0	0	0	0	0	0	0	0	0	0	0	0	0	0	56832	56832	56832	56832	57344	57344	57344	57344	57344	57856	57856	57856	57856	58368	58368	58368	58368	58368	58368	58368	58368	58368	58368	58368	58368	58368	58368	58368	57856	57856	57856	57856	57856	57344	57344	0	0	0	0	0	0	0	0	0	0	0	0	0	0	0	0	0	0	57344	56832	56832	56832	56832	56832	56832	56832	57344	0	0	57344	57344	0	0	0	0	0	0	0	0	0	0	0	0	0	0	0	0	0	0	0	0	0	0	0	0	0	0	0	0	0	1024	1024	1024	1024	1024	1024	1024	1024	1024	1024	1024	1024	1024	1024	0	0	0	0	5120	5120	5120	5120	53760	53760	11264	11264	43008	43008	57856	7680	2560	6656	9728	21504	15872	4096	25600	59904	45056	6144	25088	17408	22528	64000	64000	2048	2048	0	0	0	0	41472	47616	23040	5120	5120	59392	53760	48128	48128	48128	48128	48128	42496	42496	37376	31744	20992	10752	5632	5632	512	56320	46080	31744	22528	17920	4608	52736	39936	27648	15872	8192	4096	58368	54784	51200	51200	47616	47616	47616	47616	47616	47616	47616	47616	44032	44032	40448	40448	36864	33280	26112	19456	15872	9216	9216	9216	9216	6144	6144	9216	15872	19456	26112	33280	36864	40448	40448	44032	47616	51200	58368	62464	62464	512	512	512	62464	58368	58368	58368	58368	58368
0	0	0	0	0	0	0	0	0	0	0	0	0	0	0	0	0	0	0	0	0	0	0	0	0	0	0	0	0	0	22016	22016	22016	22016	22016	22528	22528	22528	22528	22528	22528	22528	22528	22528	22528	22528	23040	23040	23040	23552	23552	23552	24064	24064	24064	24064	24064	24576	24576	24576	24576	24576	24576	24576	24576	24576	24576	24576	25088	25088	25088	25088	25088	25600	25600	25600	25600	25600	25600	25600	25600	26112	0	0	0	0	0	0	35328	35328	35328	35328	35328	35328	35328	35328	35328	35328	35328	35840	35840	35840	35840	36352	36352	36864	36864	37376	37376	37376	37376	0	0	0	5632	5632	5632	5632	5632	5632	3072	3072	3072	3072	3072	3072	3072	5632	8192	8192	11264	13824	16896	22528	25600	25600	28160	31232	34304	40448	40448	37376	34304	34304	31232	28160	25600	25600	25600	25600	25600	25600	28160	31232	37376	43008	46080	49152	55808	58880	65024	3072	3072	3072	3072	3072	6144	3072	61952	61952	55808	49152	46080	43008	40448	37376	34304	34304	34304	34304	34304	37376	37376	40448	43008	43008	46080	49152	52224	55808	58880	58880	58880	55808	55808	55808	55808	55808	55808	55808	55808	55808	55808	55808	52224	49152	49152	49152	46080	43008	43008	37376	34304	31232	28160	19456	11264	8192	3072	62976	60416	57856	54784	52224	52224	52224	54784	60416	0	5632	13824	19456	34304	46080	55808	3072	9216	15872	23040	26112	29696	33280	44032	51200	62464	8192	19968	31744	39936	48640	52736	61440	56832	48640	27648	4096	4096	0	0	11264	47104	34304	34304	34304	36864	36864	41984	52224	60416	3072	13824	22528	28160	34304	37376	43008	46080	46080	52224	52224	52224	52224	55808	55808	55808	55808	55808	55808	58880	61952	65024	3072	12800	23040	36864	54784	39936	44032	61440	22528	56320	5632	0	0	0	0	0	0	0	0	0	0	0	0	0	0	0	0	0	0	0	0	0	0	0	0	0	0	0	0	0	0	0	0	0	34816	34816	35328	35328	35840	36352	36864	37888	37888	0	0	0	0	0	0	0	0	0	0	0	0	0	0	0	0	0	0	0	0	0	0	0	0	0	0	0	0	0	0	0	0	0	0	0	0	0	0	0	0	0	0	0	0	0	0	0	0	0	0	0	0	0	0	0	0	0	0	0	0	0	0	0	0	0	0	0	0	0	0	0	0	0	0	0	0	0	0	0	0	0	0	0	0	0	0	0	0	0	0	0	0	0	0	0	0	0	0	0	0	0	0	0	0	0	0	0	0	0	0	0	0	0	0	0	0	0	0	0	0	56832	56832	56832	56832	56832	56832	57344	57344	57344	57344	57856	57856	57856	57856	57856	58368	58368	58368	58368	58368	58368	58368	58368	58368	58368	58368	58368	58368	57856	57856	57856	57856	57344	57344	57344	57344	57344	0	0	0	0	0	0	0	0	0	0	0	0	0	0	0	0	0	0	56832	56832	56832	56832	56832	56832	56832	0	0	0	0	0	0	0	0	0	0	0	0	0	0	0	0	0	0	0	0	0	0	0	0	0	0	0	0	0	0	0	0	0	0	1024	512	512	512	512	512	512	512	512	512	512	512	512	512	0	0	0	0	7680	7680	57856	57856	57856	7680	7680	7680	57856	7680	2560	6656	6656	9728	2048	1536	4096	34304	36352	29696	40448	2560	4096	4096	0	64000	64000	0	0	0	0	0	0	41472	47616	53760	48128	42496	37376	31744	26624	20992	20992	20992	20992	10752	5632	512	60928	51200	46080	46080	56320	46080	36864	27136	13312	4608	0	52736	39936	27648	15872	8192	512	58368	54784	47616	44032	44032	40448	40448	40448	40448	40448	44032	44032	44032	44032	40448	36864	36864	33280	29696	23040	15872	9216	6144	3072	3072	65024	65024	65024	65024	3072	9216	19456	23040	26112	29696	33280	36864	40448	44032	54784	58368	62464	62464	62464	62464	58368	54784	54784	54784	54784	54784
0	0	0	0	0	0	0	0	0	0	0	0	0	0	0	0	0	0	0	0	0	0	0	0	0	0	0	0	0	0	22528	22528	22528	22528	22528	22528	22528	22528	22528	22528	22528	22528	22528	22528	22528	22528	23040	23040	23040	23040	23552	23552	23552	24064	24064	24064	24064	24064	24064	24064	24064	24576	24576	24576	24576	24576	24576	24576	24576	25088	25088	25088	25088	25088	25600	25600	25600	25600	25600	25600	26112	26112	26112	0	0	0	35328	35328	35328	35328	35328	35328	35328	35328	35328	35328	35328	35328	35328	35840	35840	35840	35840	36352	36352	36864	36864	37376	37376	37376	37376	0	0	0	5632	5632	5632	5632	5632	5632	5632	5632	5632	5632	3072	3072	5632	5632	8192	8192	8192	11264	13824	16896	19456	22528	22528	28160	31232	34304	37376	37376	34304	34304	34304	31232	31232	0	0	0	0	0	0	0	49152	49152	37376	28160	28160	31232	34304	43008	55808	58880	61952	65024	65024	9216	9216	6144	65024	61952	58880	52224	49152	46080	46080	40448	40448	37376	37376	40448	40448	40448	40448	43008	43008	46080	46080	46080	43008	43008	43008	40448	34304	34304	34304	31232	31232	31232	34304	37376	40448	40448	40448	40448	40448	40448	37376	37376	34304	28160	25600	22528	16896	11264	3072	62976	57856	52224	47104	47104	44544	41984	41984	44544	47104	49664	52224	60416	3072	13824	22528	37376	49152	61952	9216	19456	26112	29696	33280	40448	47616	58368	8192	15872	27648	44032	56832	61440	0	9216	9216	9216	0	48640	48640	52736	0	0	0	49664	39424	36864	36864	41984	47104	54784	62976	5632	13824	22528	34304	43008	52224	58880	65024	65024	6144	12800	12800	19456	19456	19456	19456	19456	19456	19456	19456	23040	26112	33280	40448	51200	512	15872	39936	56832	13312	31744	56320	5632	0	0	0	0	0	0	0	0	0	0	0	0	0	0	0	0	0	0	0	0	0	0	0	0	0	0	0	0	0	0	0	33792	33792	33792	33792	33792	33792	34816	35840	36352	36864	37376	38400	0	0	0	0	0	0	0	0	0	0	0	0	0	0	0	0	0	0	0	0	0	0	0	0	0	0	0	0	0	0	0	0	0	0	0	0	0	0	0	0	0	0	0	0	0	0	0	0	0	0	0	0	0	0	0	0	0	0	0	0	0	0	0	0	0	0	0	0	0	0	0	0	0	0	0	0	0	0	0	0	0	0	0	0	0	0	0	0	0	0	0	0	0	0	0	0	0	0	0	0	0	0	0	0	0	0	0	0	0	0	0	0	0	0	0	0	0	0	0	56832	56832	56832	56832	56832	56832	57344	57344	57344	57344	57344	57856	57856	57856	57856	57856	58368	58368	58368	58368	58368	58368	58368	58368	58368	57856	57856	57856	57856	57856	57856	57344	57344	57344	57344	57344	57344	0	0	0	0	0	0	0	0	0	0	0	0	0	0	0	0	0	0	56832	56832	56832	56832	56832	56832	0	0	0	0	0	0	0	0	0	0	0	0	0	0	0	0	0	0	0	0	0	0	0	0	0	0	0	0	0	0	0	0	0	0	0	0	512	512	512	512	512	512	512	512	512	512	512	512	512	512	0	0	0	7680	38400	38400	9728	38400	38400	9728	9728	9728	9728	38400	2048	2048	21504	1536	4096	34304	36352	36352	29696	40448	10752	33792	33792	0	0	0	0	0	0	0	0	0	0	0	53760	20992	20992	15872	10752	5632	512	512	60928	56320	46080	36864	31744	22528	9216	9216	36864	27136	22528	17920	4608	61440	52736	48640	35840	24064	15872	4096	62464	54784	51200	47616	44032	40448	40448	36864	36864	36864	36864	36864	40448	40448	40448	40448	36864	33280	33280	33280	26112	19456	12800	9216	3072	65024	61952	61952	61952	58880	58880	65024	6144	12800	19456	19456	23040	26112	29696	33280	40448	51200	58368	62464	62464	62464	62464	58368	54784	51200	51200	51200	51200
0	0	0	0	0	0	0	0	0	0	0	0	0	0	0	0	0	0	0	0	0	0	0	0	0	0	0	0	22528	22528	22528	22528	22528	22528	22528	22528	22528	22528	22528	22528	22528	22528	22528	22528	22528	22528	23040	23040	23040	23040	23552	23552	23552	24064	24064	24064	24064	24064	24064	24064	24064	24064	24064	24064	24576	24576	24576	24576	24576	24576	25088	25088	25088	25088	25088	25600	25600	25600	25600	25600	26112	26112	26112	0	0	0	35328	35328	35328	35328	35328	35328	35328	35328	35328	35328	35328	35328	35328	35840	35840	35840	36352	36352	36352	36864	36864	37376	37376	37376	0	0	0	0	5632	5632	8192	8192	8192	5632	5632	5632	5632	5632	5632	5632	5632	5632	5632	8192	8192	8192	11264	13824	13824	13824	19456	22528	25600	28160	28160	31232	31232	31232	31232	28160	28160	28160	0	0	0	0	0	0	0	0	37376	28160	28160	31232	49664	49664	62976	5632	16896	22528	31232	37376	43008	52224	61952	61952	55808	55808	55808	55808	52224	46080	46080	43008	43008	43008	40448	40448	40448	40448	40448	37376	34304	31232	25600	22528	16896	16896	11264	8192	5632	5632	8192	11264	13824	19456	22528	25600	28160	31232	28160	28160	28160	25600	22528	19456	16896	13824	8192	3072	60416	54784	47104	44544	39424	36864	36864	34304	34304	36864	39424	39424	44544	52224	60416	3072	13824	25600	37376	49152	61952	9216	15872	23040	29696	36864	51200	62464	8192	24064	35840	52736	61440	4608	13312	22528	22528	17920	13312	0	52736	52736	0	0	0	11264	39424	36864	36864	41984	47104	54784	62976	8192	16896	31232	43008	52224	65024	9216	15872	23040	33280	44032	44032	47616	51200	51200	51200	54784	51200	51200	51200	58368	62464	512	8192	19968	31744	44032	0	13312	27136	46080	56320	5632	0	0	0	0	0	0	0	0	0	0	0	0	0	0	0	0	0	0	0	0	0	0	0	0	0	0	0	0	0	0	0	33792	33792	33280	33280	33792	33792	34304	35328	36352	36864	36864	37888	38912	0	0	0	0	0	0	0	0	0	0	0	0	0	0	0	0	0	0	0	0	0	0	0	0	0	0	0	0	0	0	0	0	0	0	0	0	0	0	0	0	0	0	0	0	0	0	0	0	0	0	0	0	0	0	0	0	0	0	0	0	0	0	0	0	0	0	0	0	0	0	0	0	0	0	0	0	0	0	0	0	0	0	0	0	0	0	0	0	0	0	0	0	0	0	0	0	0	0	0	0	0	0	0	0	0	0	0	0	0	0	0	0	0	0	0	0	0	0	56832	56832	56832	56832	56832	56832	57344	57344	57344	57344	57344	57856	57856	57856	57856	57856	57856	57856	58368	58368	58368	58368	57856	57856	57856	57856	57856	57856	57856	57856	57856	57344	57344	57344	0	0	0	0	0	0	0	0	0	0	0	0	0	0	0	0	0	0	56320	56320	56320	56320	56832	56832	56832	56832	56320	56320	56320	56320	56320	56320	56320	0	0	0	0	0	0	0	0	0	0	0	0	0	0	0	0	0	0	0	0	0	0	0	0	0	0	0	0	0	0	0	512	512	512	512	512	512	512	512	512	512	512	512	512	0	0	0	0	61440	61440	15872	15872	15872	1536	23552	23552	23552	1536	1536	15872	61440	4096	25600	36352	45056	40448	19456	2560	4096	2048	17408	63488	63488	0	0	0	0	0	0	0	0	0	0	512	512	60928	60928	56320	46080	41472	36864	31744	22528	13312	4608	0	0	9216	9216	0	61440	56832	48640	39936	31744	31744	19968	8192	62464	54784	51200	47616	44032	40448	36864	36864	36864	33280	33280	33280	33280	33280	36864	36864	36864	36864	36864	33280	29696	29696	26112	19456	12800	9216	3072	65024	61952	58880	58880	58880	58880	61952	3072	9216	15872	19456	23040	26112	29696	33280	40448	51200	58368	62464	62464	62464	62464	58368	54784	51200	47616	44032	44032
0	0	0	0	0	0	0	0	0	0	0	0	0	0	0	0	0	0	0	0	0	0	0	0	0	23040	23040	23040	22528	22528	22528	22528	22528	22528	22528	22528	22528	22528	22528	22528	22528	22528	22528	23040	23040	23040	23040	23040	23040	23552	23552	23552	23552	23552	24064	24064	24064	24064	24064	24064	24064	24064	24064	24064	24064	24576	24576	24576	24576	24576	24576	25088	25088	25088	25088	25088	25600	25600	25600	25600	25600	26112	26112	0	0	0	35328	35328	35328	35328	35328	35328	35328	35328	35328	35328	35328	35328	35328	35328	35840	35840	35840	36352	36352	36864	36864	36864	37376	37376	0	0	0	0	3072	3072	5632	8192	5632	5632	5632	5632	5632	5632	5632	5632	3072	3072	5632	3072	3072	5632	5632	5632	8192	8192	11264	13824	16896	19456	19456	22528	22528	25600	25600	22528	22528	19456	19456	0	0	0	0	0	0	0	0	0	0	0	49664	49664	62976	5632	16896	22528	31232	37376	43008	46080	46080	61952	55808	55808	55808	55808	58880	55808	49152	49152	43008	43008	40448	40448	37376	37376	34304	31232	25600	16896	11264	3072	57856	52224	52224	49664	47104	47104	49664	52224	60416	0	5632	13824	16896	22528	22528	22528	22528	19456	16896	13824	11264	5632	0	57856	52224	44544	41984	36864	34304	32256	29696	29696	29696	32256	34304	34304	39424	47104	52224	60416	3072	11264	22528	34304	46080	58880	65024	3072	15872	23040	33280	47616	512	15872	31744	52736	4608	13312	17920	31744	31744	31744	31744	22528	22528	31744	0	0	0	11264	57856	44544	44544	44544	47104	54784	0	8192	19456	37376	49152	3072	15872	29696	40448	51200	62464	4096	8192	8192	8192	8192	8192	8192	11776	11776	15872	24064	31744	35840	44032	56832	0	13312	27136	36864	46080	56320	512	5632	0	0	0	0	0	0	0	0	0	0	0	0	0	0	0	0	0	0	0	0	0	0	0	0	0	0	0	0	0	0	0	33792	33280	33280	33280	33280	33792	34304	35328	36352	36352	36864	37888	38912	0	0	0	0	0	0	0	0	0	0	0	0	0	0	0	0	0	0	0	0	0	0	0	0	0	0	0	0	0	0	0	0	0	0	0	0	0	0	0	0	0	0	0	0	0	0	0	0	0	0	0	0	0	0	0	0	0	0	0	0	0	0	0	0	0	0	0	0	0	0	0	0	0	0	0	0	0	0	0	0	0	0	0	0	0	0	0	0	0	0	0	0	0	0	0	0	0	0	0	0	0	0	0	0	0	0	0	0	0	0	0	0	0	0	0	0	0	0	56832	56832	56832	56832	56832	56832	57344	57344	57344	57344	57344	57856	57856	57856	57856	57856	57856	57856	57856	57856	57856	57856	57856	57856	57856	57856	57856	57856	57856	57344	57344	57344	56832	56832	56832	56832	56320	56320	0	0	0	0	0	0	0	0	0	0	0	0	56320	56320	56320	56320	56320	56320	56320	56320	56320	56320	56320	56320	56320	56320	56320	56320	55808	55808	55808	0	0	0	0	0	0	0	0	0	0	0	0	0	0	0	0	0	0	0	0	0	0	0	0	0	0	0	0	0	0	0	0	0	0	0	0	0	0	0	512	512	0	0	0	0	0	61440	34304	34304	34304	34304	36864	36864	4096	4096	4096	36864	25600	25600	34304	26624	5120	19456	1024	2560	44544	33792	17408	63488	63488	63488	0	0	0	0	0	0	0	0	0	0	46080	46080	41472	41472	41472	36864	27136	22528	13312	9216	0	56832	56832	56832	52736	48640	39936	35840	31744	24064	19968	11776	8192	512	54784	47616	44032	40448	36864	36864	33280	29696	29696	29696	29696	33280	33280	33280	33280	36864	36864	36864	36864	36864	33280	29696	29696	26112	19456	12800	6144	65024	65024	61952	58880	55808	55808	55808	61952	65024	9216	15872	19456	23040	26112	29696	33280	40448	51200	58368	62464	62464	62464	62464	58368	54784	47616	44032	40448	36864
0	0	0	0	0	0	0	0	0	0	0	0	0	0	0	0	0	0	0	0	0	0	0	0	23040	23040	23040	23040	23040	23040	23040	23040	23040	23040	23040	23040	23040	23040	23040	23040	23040	23040	23040	23040	23040	23040	23040	23040	23040	23552	23552	23552	23552	23552	24064	24064	24064	24064	24064	24064	24064	24064	24064	24064	24064	24576	24576	24576	24576	24576	24576	24576	25088	25088	25088	25088	25600	25600	25600	25600	25600	26112	26112	0	0	0	35328	34816	34816	34816	34816	34816	34816	34816	34816	34816	34816	35328	35328	35328	35840	35840	35840	36352	36352	36864	36864	36864	37376	37376	37376	0	0	0	3072	3072	5632	5632	5632	5632	5632	5632	5632	5632	3072	3072	0	0	0	0	0	0	0	0	3072	3072	5632	5632	8192	11264	11264	11264	16896	16896	16896	13824	8192	5632	57856	57856	0	0	0	0	0	0	0	0	0	0	0	0	0	0	0	0	0	0	0	46080	46080	0	0	0	0	52224	52224	55808	49152	46080	40448	37376	34304	34304	31232	31232	28160	22528	13824	3072	54784	54784	34304	29696	24576	22528	22528	24576	24576	32256	39424	47104	57856	0	8192	13824	13824	16896	16896	13824	11264	8192	3072	62976	57856	52224	44544	39424	36864	32256	32256	29696	27136	27136	27136	27136	29696	32256	34304	39424	47104	54784	62976	5632	13824	25600	34304	46080	52224	58880	65024	6144	19456	33280	47616	512	19968	39936	61440	4608	17920	31744	36864	41472	36864	36864	31744	22528	9216	9216	0	0	0	49664	47104	44544	44544	54784	62976	5632	16896	34304	52224	6144	26112	47616	54784	4096	15872	27648	31744	31744	31744	31744	31744	31744	39936	39936	44032	52736	61440	4608	9216	13312	22528	31744	41472	51200	56320	56320	512	5632	0	0	0	0	0	0	0	0	0	0	0	0	0	0	0	0	0	0	0	0	0	0	0	0	0	0	0	0	0	0	0	33792	33280	33280	33280	33280	33792	34304	35328	36352	36352	36864	37888	38912	39936	0	0	0	0	0	0	0	0	0	0	0	0	0	0	0	0	0	0	0	0	0	0	0	0	0	0	0	0	0	0	0	0	0	0	0	0	0	0	0	0	0	0	0	0	0	0	0	0	0	0	0	0	0	0	0	0	0	0	0	0	0	0	0	0	0	0	0	0	0	0	0	0	0	0	0	0	0	0	0	0	0	0	0	0	0	0	0	0	0	0	0	0	0	0	0	0	0	0	0	0	0	0	0	0	0	0	0	0	0	0	0	0	0	0	0	0	0	56832	56832	56832	56832	56832	56832	57344	57344	57344	57344	57344	57344	57856	57856	57856	57856	57856	57856	57856	57856	57856	57856	57856	57856	57344	57344	57344	57344	57344	57344	56832	56832	56832	56832	56832	56320	56320	56320	0	0	56320	56320	56320	56320	0	0	0	0	0	56320	56320	56320	56320	56320	56320	56320	56320	56320	56320	56320	56320	56320	56320	56320	56320	56320	55808	55808	55808	55808	0	0	0	0	0	0	0	0	0	0	0	0	0	0	0	0	0	0	0	0	0	0	0	0	0	0	0	0	0	0	0	0	0	0	0	0	0	0	0	0	0	0	0	0	45056	45056	29696	26624	26624	26624	36352	36352	59904	34304	59904	36352	36352	26624	29696	5120	6144	2560	25088	44544	33792	2048	17408	63488	63488	63488	0	0	0	0	0	0	0	0	0	0	27136	27136	27136	27136	27136	27136	13312	9216	4608	61440	61440	56832	48640	35840	31744	27648	15872	11776	8192	512	58368	51200	51200	44032	36864	33280	29696	26112	26112	26112	26112	23040	23040	26112	29696	29696	29696	29696	33280	33280	33280	36864	36864	33280	33280	29696	26112	26112	19456	12800	6144	65024	65024	61952	58880	55808	55808	55808	61952	65024	9216	15872	19456	23040	26112	29696	33280	40448	54784	62464	512	512	62464	62464	58368	54784	47616	40448	36864	33280
0	0	0	0	0	0	0	0	0	0	0	0	0	0	0	0	0	0	0	0	0	0	22528	22528	23040	23040	23040	23040	23040	23040	23040	23040	23040	23040	23040	23040	23040	23040	23040	23040	23040	23040	23040	23040	23040	23040	23040	23040	23552	23552	23552	23552	23552	23552	24064	24064	24064	24064	24064	24064	24064	24064	24064	24064	24064	24064	24576	24576	24576	24576	24576	24576	24576	25088	25088	25088	25088	25600	25600	25600	25600	25600	26112	0	0	0	34816	34816	34816	34816	34816	34816	34816	34816	34816	34816	34816	34816	35328	35328	35328	35840	35840	36352	36352	36864	36864	36864	36864	36864	36864	0	0	0	0	3072	3072	3072	3072	3072	3072	3072	3072	0	0	62976	62976	62976	60416	60416	60416	60416	60416	60416	60416	60416	60416	0	0	0	3072	5632	8192	8192	8192	5632	0	62976	49664	32256	32256	0	0	0	0	13312	13312	15360	0	0	0	25088	25088	28672	30720	34816	0	0	0	0	0	0	0	0	0	52224	52224	46080	43008	37376	34304	34304	28160	25600	22528	16896	13824	11264	62976	52224	39424	27136	15360	8192	3584	1536	1536	6144	12800	12800	22528	32256	44544	54784	3072	8192	11264	11264	11264	8192	8192	3072	62976	57856	52224	47104	41984	36864	34304	32256	29696	29696	27136	27136	27136	27136	27136	29696	32256	36864	41984	47104	54784	62976	3072	13824	22528	31232	37376	43008	49152	58880	3072	15872	33280	51200	512	24064	44032	56832	4608	22528	31744	27136	22528	17920	17920	9216	0	48640	48640	0	0	0	47104	44544	44544	54784	60416	3072	13824	28160	49152	6144	26112	47616	58368	11776	27648	35840	48640	48640	48640	56832	56832	56832	61440	4608	4608	13312	22528	27136	31744	36864	41472	46080	56320	60928	60928	60928	512	0	0	0	0	0	0	0	0	0	0	0	0	0	0	0	0	0	0	0	0	0	0	0	0	0	0	0	0	0	0	0	0	33792	33792	33280	33280	33792	34304	34816	35328	36352	36864	37376	38400	39424	39936	0	0	0	0	0	0	0	0	0	0	0	0	0	0	0	0	0	0	0	0	0	0	0	0	0	0	0	0	0	0	0	0	0	0	0	0	0	0	0	0	0	0	0	0	0	0	0	0	0	0	0	0	0	0	0	0	0	0	0	0	0	0	0	0	0	0	0	0	0	0	0	0	0	0	0	0	0	0	0	0	0	0	0	0	0	0	0	0	0	0	0	0	0	0	0	0	0	0	0	0	0	0	0	0	0	0	0	0	0	0	0	0	0	0	0	0	0	56832	56832	56832	56832	56832	56832	56832	57344	57344	57344	57344	57344	57856	57856	57856	57856	57856	57856	57856	57856	57856	57856	57344	57344	57344	57344	56832	56832	56832	56832	56832	56832	56832	56832	56832	56320	56320	56320	0	0	56320	56320	56320	56320	0	0	0	0	56320	56320	56320	56320	56320	56320	56320	56320	56320	56320	56320	56320	56320	56320	56320	56320	56320	56320	55808	55808	55808	55808	55808	55808	55808	55808	55808	55808	0	0	0	56320	56320	56320	56320	56320	56320	56320	56320	0	0	0	0	0	0	0	0	0	0	0	65024	65024	65024	65024	65024	65024	65024	0	0	0	0	0	0	0	0	0	6144	6144	19456	40448	40448	5120	45056	29696	29696	29696	29696	29696	45056	5120	40448	6144	2560	25088	4096	33792	40448	17408	47616	47616	47616	0	0	0	0	0	0	0	0	0	0	0	27136	17920	17920	17920	27136	13312	9216	0	61440	61440	52736	44032	31744	24064	11776	4096	512	54784	51200	44032	36864	29696	26112	23040	19456	15872	12800	12800	12800	12800	19456	19456	19456	23040	26112	26112	26112	29696	29696	33280	33280	36864	33280	33280	29696	29696	26112	26112	19456	12800	6144	3072	65024	61952	58880	55808	55808	55808	58880	65024	6144	9216	12800	15872	23040	26112	33280	40448	54784	62464	4096	512	62464	58368	54784	51200	44032	36864	33280	29696
0	0	0	0	0	0	0	0	0	0	0	0	0	0	0	0	0	0	22528	22528	22528	22528	22528	22528	23040	23040	23040	23040	23040	23040	23040	23040	23040	23040	23040	23040	23040	23040	23040	23040	23040	23040	23040	23040	23040	23040	23040	23552	23552	23552	23552	23552	23552	23552	24064	24064	24064	24064	24064	24064	24064	24064	24064	24064	24064	24064	24064	24576	24576	24576	24576	24576	24576	24576	25088	25088	25088	25088	25600	25600	25600	25600	0	0	0	0	34816	34816	34816	34816	34816	34816	34816	34816	34816	34816	34816	34816	35328	35328	35328	35840	35840	36352	36352	36864	36864	36864	36864	36864	36864	36864	36864	36864	0	0	0	0	0	62976	62976	62976	62976	62976	60416	60416	57856	57856	57856	54784	54784	52224	52224	52224	52224	54784	54784	54784	57856	60416	60416	62976	0	0	0	60416	57856	49664	36864	22528	3584	3584	0	0	0	9728	7680	7680	7680	9728	9728	7680	7680	9728	11264	11264	13312	0	16896	16896	28672	45056	3584	0	0	0	0	46080	34304	31232	25600	22528	16896	13824	11264	5632	3072	62976	52224	39424	27136	15360	3584	60416	55808	53760	53760	58368	64512	10752	10752	22528	34304	47104	57856	0	3072	5632	3072	0	62976	57856	54784	49664	44544	41984	39424	34304	32256	29696	29696	29696	27136	27136	27136	27136	27136	29696	32256	36864	41984	47104	52224	57856	62976	5632	13824	19456	25600	28160	37376	40448	52224	61952	12800	23040	36864	54784	4096	19968	44032	61440	4608	9216	9216	9216	4608	0	0	48640	15872	15872	0	0	0	0	54784	54784	60416	3072	11264	25600	43008	65024	23040	47616	4096	19968	35840	48640	61440	0	4608	9216	13312	13312	22528	27136	31744	36864	46080	46080	51200	51200	51200	56320	60928	60928	60928	60928	512	0	0	0	0	0	0	0	0	0	0	0	0	0	0	0	0	0	0	0	0	36864	36864	37376	37376	0	0	0	0	0	0	0	35840	34304	34304	33792	33792	34304	34816	35328	36352	36352	37376	37888	38400	39424	40448	0	0	0	0	0	0	0	0	0	0	0	0	0	0	0	0	0	0	0	0	0	0	0	0	0	0	0	0	0	0	0	0	0	0	0	0	0	0	0	0	0	0	0	0	0	0	0	0	0	0	0	0	0	0	0	0	0	0	0	0	0	0	0	0	0	0	0	0	0	0	0	0	0	0	0	0	0	0	0	0	0	0	0	0	0	0	0	0	0	0	0	0	0	0	0	0	0	0	0	0	0	0	0	0	0	0	0	0	0	0	0	0	0	0	0	0	0	0	0	0	56832	56832	56832	56832	57344	57344	57344	57344	57344	57344	57856	57856	57856	57856	57856	57856	57856	57856	0	57344	56832	56832	56832	56832	56320	56320	56320	56320	56320	56320	56320	56320	56320	56320	56320	0	56320	56320	56320	56320	56320	56320	56320	56320	56320	56320	56320	56320	56320	56320	56320	56320	56320	56320	56320	56320	56320	56320	56320	56320	56320	56320	55808	55808	55808	55808	55808	55808	55808	55808	55808	55808	55808	0	0	0	56320	56320	56320	56320	56320	56320	56320	56320	56320	0	0	0	0	0	0	0	0	0	0	65024	65024	65024	65024	65024	65024	65024	65024	65024	65024	65024	65024	65024	65024	0	0	10752	10752	2560	2560	2560	2560	1024	6144	6144	6144	6144	19456	6144	1024	2560	2560	44544	33792	40448	17408	63488	47616	47616	47616	47616	0	0	0	0	0	0	0	0	0	0	0	0	17920	17920	17920	17920	9216	0	61440	61440	52736	39936	31744	19968	8192	62464	51200	44032	36864	29696	23040	19456	12800	9216	6144	3072	3072	65024	65024	3072	6144	9216	9216	12800	15872	19456	23040	26112	29696	29696	29696	33280	33280	33280	33280	29696	29696	26112	19456	19456	12800	9216	3072	65024	61952	58880	55808	55808	55808	58880	58880	65024	3072	9216	12800	19456	23040	29696	40448	54784	58368	62464	62464	58368	54784	54784	47616	40448	36864	29696	26112
0	0	0	0	0	0	0	0	0	0	0	0	0	0	0	0	0	22528	22528	22528	22528	22528	22528	22528	23040	23040	23040	23040	23040	23040	23040	23040	23040	23040	23040	23552	23552	23552	23552	23552	23040	23040	23040	23040	23040	23040	23552	23552	23552	23552	23552	23552	23552	23552	24064	24064	24064	24064	24064	24064	24064	24064	24064	24064	24064	24064	24064	24064	24576	24576	24576	24576	24576	24576	24576	25088	25088	25088	25088	25600	25600	25600	0	0	0	0	0	34816	34816	34816	34816	34816	34816	34816	34816	34816	34816	34816	35328	35328	35328	35840	36352	36352	36864	36864	36864	36864	36864	36864	36864	36864	36864	36864	0	57856	57856	60416	57856	57856	60416	60416	60416	57856	57856	54784	54784	52224	52224	49664	47104	47104	44544	44544	44544	44544	44544	44544	47104	47104	49664	52224	54784	54784	54784	54784	47104	41984	27136	12800	64512	45056	28672	18944	16896	9728	7680	7680	7680	9728	7680	7680	5632	4096	2048	512	512	0	16896	16896	28672	45056	3584	0	0	0	0	0	34304	31232	19456	13824	8192	5632	3072	62976	60416	52224	41984	39424	27136	15360	58368	47616	40960	38912	38912	40960	47616	58368	8192	8192	22528	36864	52224	60416	62976	0	62976	60416	54784	52224	47104	44544	39424	36864	34304	32256	29696	29696	29696	29696	29696	27136	27136	29696	29696	29696	32256	36864	39424	44544	49664	52224	60416	0	5632	8192	13824	16896	19456	25600	34304	43008	52224	58880	3072	12800	4096	19968	44032	31744	31744	44032	48640	52736	56832	52736	52736	48640	15872	15872	0	0	0	0	54784	54784	57856	62976	5632	16896	37376	61952	19456	40448	58368	24064	39936	56832	4608	13312	17920	22528	27136	36864	41472	51200	51200	60928	512	512	512	512	512	512	5632	512	512	512	0	0	0	0	0	0	0	0	0	0	0	0	0	0	0	38912	38912	38400	38400	37888	37888	36864	36864	37376	37376	38912	38912	38912	38912	38912	38400	37888	35840	35840	35328	34816	34816	35328	35840	36352	36352	37376	38400	38400	38912	0	0	0	0	0	0	0	0	0	0	0	0	0	0	0	0	0	0	0	0	0	0	0	0	0	0	0	0	0	0	0	0	0	0	0	0	0	0	0	0	0	0	0	0	0	0	0	0	0	0	0	0	0	0	0	0	0	0	0	0	0	0	0	0	0	0	0	0	0	0	0	0	0	0	0	0	0	0	0	0	0	0	0	0	0	0	0	0	0	0	0	0	0	0	0	0	0	0	0	0	0	0	0	0	0	0	0	0	0	0	0	0	0	0	0	0	0	0	0	0	0	0	0	0	0	57344	57344	57344	57344	57344	57344	57344	57344	57856	57856	57856	57856	57856	57856	57856	0	57344	56832	56320	56320	56320	56320	56320	56320	56320	56320	56320	56320	56320	56320	56320	56320	56320	56320	56320	56320	56320	56320	56320	56320	56320	56320	56320	56320	56320	56320	56320	56320	56320	56320	56320	56320	56320	56320	56320	56320	56320	56320	56320	55808	55808	55808	55808	55808	55808	55808	55808	55808	55808	55808	0	0	0	0	56320	56320	56320	56320	56320	56320	56320	56320	56320	0	0	0	0	0	0	0	0	0	0	65024	65024	65024	64512	64512	65024	65024	65024	65024	65024	65024	65024	65024	0	0	10752	4096	4096	44544	44544	44544	25088	10752	10752	10752	2560	10752	25088	25088	44544	4096	2048	17408	63488	47616	34816	34816	34816	47616	0	0	0	0	0	0	0	0	0	0	0	0	17920	17920	17920	13312	13312	9216	0	61440	56832	44032	31744	24064	4096	58368	47616	36864	26112	19456	9216	6144	65024	61952	61952	55808	52224	52224	52224	55808	58880	61952	65024	6144	9216	12800	15872	23040	23040	26112	26112	29696	29696	33280	33280	29696	29696	29696	26112	19456	19456	15872	9216	6144	3072	65024	61952	58880	55808	55808	58880	58880	65024	3072	9216	12800	19456	23040	29696	36864	51200	58368	62464	58368	54784	51200	51200	44032	36864	29696	26112	19456
0	0	0	0	0	0	0	0	0	0	0	0	0	0	0	0	22528	22528	22528	22528	22528	22528	22528	22528	22528	23040	23040	23040	23040	23040	23040	23040	23040	23040	23552	23552	23552	23552	23552	23552	23552	23040	23040	23040	23552	23552	23552	23552	23552	23552	23552	23552	23552	23552	23552	23552	23552	23552	23552	24064	24064	24064	24064	24064	24064	24064	24064	24064	24064	24576	24576	24576	24576	24576	24576	24576	25088	25088	25088	25088	25088	25600	0	0	0	0	0	34816	34816	34816	34816	34816	34816	34816	34816	34816	34816	34816	35328	35328	35328	35840	36352	36352	36864	36864	36864	36864	36864	36864	36864	36864	36864	36864	0	52224	52224	52224	52224	52224	52224	52224	52224	52224	52224	49664	49664	49664	47104	44544	41984	39424	36864	36864	34304	34304	32256	32256	34304	36864	36864	39424	39424	39424	39424	36864	32256	24576	12800	1536	55808	40960	28672	18944	16896	11264	11264	9728	9728	13312	7680	7680	5632	4096	2048	512	512	62464	55296	55296	0	0	0	0	0	0	0	0	0	0	19456	5632	3072	62976	60416	54784	52224	52224	41984	41984	0	64512	53760	43008	36864	34816	34816	36864	43008	53760	8192	8192	19968	36864	52224	60416	62976	0	62976	57856	52224	47104	41984	36864	34304	32256	29696	29696	27136	27136	29696	29696	29696	29696	29696	29696	32256	32256	32256	36864	39424	44544	47104	52224	54784	57856	62976	3072	3072	5632	8192	11264	16896	25600	31232	37376	43008	49152	61952	0	51200	51200	4096	15872	27648	31744	35840	35840	35840	44032	27648	27648	0	0	0	0	57856	57856	57856	62976	3072	11264	31232	52224	9216	33280	58368	19968	44032	0	17920	27136	31744	41472	46080	51200	56320	512	10752	15872	20992	26624	20992	20992	20992	0	0	0	0	0	0	0	0	0	0	0	0	0	0	0	0	0	0	0	0	38912	38912	38400	38400	37888	37888	37888	38400	38912	38912	38912	38912	38912	38912	38912	38400	37888	36864	36864	36352	36352	36352	36352	36864	37376	37376	37888	38400	38400	38912	39424	39936	0	0	0	0	0	0	0	0	0	0	0	0	0	0	0	0	0	0	0	0	0	0	0	0	0	0	0	0	0	0	0	0	0	0	0	0	0	0	0	0	0	0	0	0	0	0	0	0	0	0	0	0	0	0	0	0	0	0	0	0	0	0	0	0	0	0	0	0	0	0	0	0	0	0	0	0	0	0	0	0	0	0	0	0	0	0	0	0	0	0	0	0	0	0	0	0	0	0	0	0	0	0	0	0	0	0	0	0	0	0	0	0	0	0	0	0	0	0	0	0	0	0	0	0	0	57344	57344	57344	57344	57344	57344	57856	57856	57856	57856	0	0	0	0	56320	56320	56320	56320	56320	56320	56320	56320	56320	56320	56320	56320	56320	56320	56320	56320	56320	56320	56320	56320	56320	56320	56320	56320	56320	56320	56320	56320	56320	56320	56320	56320	56320	56320	56320	56320	56320	56320	56320	56320	56320	56320	56320	55808	55808	55808	55808	55808	55808	55808	55808	55808	55808	55808	56320	56320	56320	56320	56320	56320	56320	56320	56320	56320	56320	56320	56320	0	0	0	0	0	0	0	0	0	0	0	0	64512	64512	64512	64512	64512	64512	64512	64512	64512	65024	65024	65024	0	0	4096	4096	2048	2048	2048	33792	4096	4096	4096	4096	4096	33792	33792	2048	40448	17408	63488	34816	25088	25088	34816	34816	0	0	0	0	0	0	0	0	0	0	0	0	13312	13312	13312	13312	13312	9216	0	0	52736	48640	35840	24064	11776	512	47616	36864	23040	12800	6144	65024	58880	52224	49152	49152	43008	43008	43008	43008	46080	49152	52224	58880	61952	3072	6144	12800	15872	19456	19456	23040	26112	26112	29696	29696	29696	29696	26112	26112	19456	19456	19456	12800	9216	9216	3072	3072	61952	61952	61952	61952	65024	3072	6144	9216	12800	15872	23040	29696	33280	44032	51200	54784	51200	47616	47616	40448	36864	33280	26112	19456	15872
0	0	0	0	0	0	0	0	0	0	0	0	0	0	0	0	22528	22528	22528	22528	22528	22528	22528	22528	22528	22528	23040	23040	23040	23040	23040	23040	23040	23040	23552	23552	23552	23552	23552	23552	23552	23552	23552	23552	23552	23552	23552	23552	23552	23552	23552	23552	23552	23552	23552	23552	23552	23552	23552	23552	24064	24064	24064	24064	24064	24064	24064	24064	24064	24064	24576	24576	24576	24576	24576	24576	25088	25088	25088	25088	25088	25600	25600	0	0	34816	34816	34816	34816	34816	34816	34816	34816	34816	34816	34816	34816	34816	35328	35328	35328	35840	36352	36352	36864	36864	36864	36864	36864	36864	36864	36864	36864	36864	0	44544	44544	47104	44544	44544	47104	47104	47104	49664	47104	47104	44544	44544	41984	39424	36864	36864	32256	32256	29696	27136	24576	24576	24576	27136	27136	27136	27136	27136	24576	22528	17408	10752	64512	53760	47616	34816	27136	20992	16896	15360	13312	13312	13312	13312	13312	13312	13312	11264	7680	5632	4096	62464	55296	55296	0	0	0	0	0	0	0	0	0	0	0	5632	3072	57856	54784	54784	52224	44544	36864	27136	27136	64512	53760	43008	36864	34816	34816	36864	43008	53760	0	19968	19968	36864	52224	62976	62976	0	62976	57856	49664	47104	36864	32256	32256	29696	27136	27136	27136	27136	27136	29696	32256	32256	32256	34304	34304	34304	36864	36864	39424	44544	47104	49664	52224	54784	57856	60416	60416	60416	62976	0	3072	8192	11264	13824	16896	25600	34304	0	51200	51200	54784	54784	4096	8192	15872	19968	35840	31744	15872	15872	0	0	0	0	3072	0	0	0	3072	11264	28160	52224	9216	33280	19968	19968	48640	4608	36864	41472	46080	56320	60928	10752	15872	26624	37376	37376	42496	0	0	0	0	0	0	0	0	0	0	0	0	0	0	0	0	0	0	0	0	0	0	43008	43008	40960	40960	40448	39936	39424	39424	39936	39936	40448	40448	39936	39936	39936	39936	39936	39936	39424	38912	38912	38912	38912	38912	38400	38400	38912	38912	38912	38912	38912	38912	39424	39936	0	0	0	0	0	0	0	0	0	0	0	0	0	0	0	0	0	0	0	0	0	0	0	0	0	0	0	0	0	0	0	0	0	0	0	0	0	0	0	0	0	0	0	0	0	0	0	0	0	0	0	0	0	0	0	0	0	0	0	0	0	0	0	0	0	0	0	0	0	0	0	0	0	0	0	0	0	0	0	0	0	0	0	0	0	0	0	0	0	0	0	0	0	0	0	0	0	0	0	0	0	0	0	0	0	0	0	0	0	0	0	0	0	0	0	0	0	0	0	0	0	0	0	0	0	0	0	0	57344	57344	57344	57856	57856	57856	0	0	0	0	0	56320	56320	55808	55808	55808	55808	55808	55808	55808	55808	55808	55808	55808	55808	56320	56320	56320	56320	56320	56320	56320	56320	56320	56320	56320	56320	56320	56320	56320	56320	56320	56320	56320	56320	56320	56320	56320	56320	56320	56320	56320	56320	56320	55808	55808	55808	55808	55808	55808	55808	55808	55808	55808	55808	56320	56320	56320	56320	56320	56320	56320	56320	56320	56320	56320	56320	56320	56320	0	0	0	0	0	0	0	0	0	64512	64512	64512	64512	64512	64512	64512	64512	64512	64512	64512	64512	64512	64512	0	0	0	0	63488	63488	63488	63488	17408	17408	40448	40448	17408	63488	63488	63488	47616	25088	18432	12800	12800	25088	0	0	0	0	0	0	0	0	0	0	0	0	0	0	56832	56832	61440	61440	0	0	0	61440	52736	39936	31744	15872	4096	54784	44032	29696	19456	6144	61952	55808	52224	46080	43008	43008	40448	37376	37376	37376	40448	43008	49152	52224	58880	61952	3072	6144	12800	15872	15872	19456	23040	23040	26112	26112	26112	29696	26112	26112	23040	23040	19456	15872	12800	12800	9216	3072	3072	61952	61952	65024	65024	3072	6144	9216	12800	15872	19456	26112	29696	40448	44032	47616	44032	40448	36864	33280	29696	26112	19456	12800	12800
