4224	1280	61184	58432	55744	48000	40768	29568	19392	8320	8320	56256	45184	37760	29824	24576	18752	14208	10816	7488	3584	640	63360	61312	59968	59328	58688	58048	58048	57408	57408	58048	59328	60672	62656	64768	2112	2112	3584	5952	7488	8320	9984	10816	12480	11648	9984	6720	2880	64768	61312	56768	52544	49728	47552	45952	44416	43968	42944	42432	42432	42432	42432	42432	42432	42432	43456	43968	43968	44416	44928	45440	46464	47040	48064	48640	49152	49728	50304	50816	50816	50816	50816	50304	49728	49152	48064	47040	47040	46464	46464	46464	46464	46464	46464	47040	47040	47552	47552	47552	47552	47552	47552	47552	47040	47040	47040	46464	46464	47040	47040	47040	47040	47552	48064	49152	49728	50304	51392	51968	52544	53760	54336	55552	56192	57408	58688	58688	59968	61312	62656	64064	640	2112	3584	4352	5120	7488	10816	14208	16896	20672	0	0	0	0	0	56256	56256	59200	65408	1536	4864	6592	8320	11840	13696	0	0	0	0	0	0	0	0	0	0	0	0	0	0	0	0	0	0	0	0	0	0	0	0	0	0	15488	15488	15488	15744	16000	16256	16832	17408	17984	18304	19200	19776	20416	20992	21312	21312	21632	21632	21632	21632	21312	20992	20992	20416	20096	19200	18880	18880	18880	19456	20096	20096	21312	22592	25280	28864	32320	36032	39616	43456	45440	47040	49152	48640	47040	45952	44928	44416	43968	43456	43456	42944	42944	42944	43456	43968	44416	45440	46464	47040	48064	48640	49152	49728	49728	50304	50304	50304	49728	49728	49728	49728	49728	49728	49728	49728	49728	50304	50304	50816	50816	51392	51968	52544	52544	53120	53120	53120	53760	53760	53120	53120	52544	51968	51392	50816	50304	50304	50304	49728	49728	49728	49728	49728	49728	49728	49728	49728	49152	49152	48640	48064	47552	47040	46464	46464	45952	45952	45440	45440	45440	45440	45952	46464	47040	47552	48640	48640	49728	49728	49728	50304	50304	49728	49728	49152	49152	49152	48640	48640	48640	48640	48640	48640	48640	49152	49152	49728	49728	49728	50304	50304	50304	50304	49728	49728	49152	48640	48064	47040	46464	45952	44928	44416	42944	42944	42944	42944	42944	42944	42944	43456	43968	43968	44928	46464	47552	48640	49152	50816	51968	53760	54336	54912	55552	56192	56192	56192	56768	56768	56768	57408	57408	57408	57408	57408	57408	57408	57408	57408	57408	57408	56768	56768	56192	56192	55552	55552	55552	55552	55552	55552	54912	54912	54912	54912	55552	55552	56192	56768	56768	57408	58048	58048	58688	58048	58048	57408	56768	56192	56192	56192	56192	56192	56768	56768	56768	56768	56768	56768	57408	58048	59328	60672	61312	62016	63360	64064	64768	640	65472	64768	64064	62656	62016	59968	58688	57408	56192	55552	54336	54336	53760	53760	53760	53760	53760	53760	53760	53760	53760	53760	53760	53760	54336	54912	55552	55552	55552	55552	55552	54912	54912	52544	48640	48640	0	0	28480	24576	23616	22592	22272	21952	21312	20992	20992	20672	20672	20672	20672	20672	20416	20416	20416	20416	20672	0	0	0	0	0	0	0	0	0	0	0	0	0	0	0	0	0	0	0	0	0	0	0	58432	58432	4224	13440	19904	23296	26688	30208	33856	41344	49216	57536	61824	5312	19776	24896	35584	41152	46912	46912	52864	52864	46912	41152	24896	768	49216	37568	7232	61184	53120	53120	0	0	0	13440	13440	41344	0	0	13120	13120	42688	59136	2304	20736	30528	40704	40704	30528	30528	20736	20736	20736	20736	20736	20736	11328	11328	11328	2304	2304	59136	59136	59136	2304	20736	40704	62400	20608	60480	10624	0	0	0	0	0	0	0	0	0	0	0	0	0	38272	38272	38272	38272	38272	38272	38272	38720	39168	39616	40576	41472	42432	44416	45952	48640	51392	54336	59328	62656	2112	4352	4352	7488	5952	5952	0	56192	52544	49152	45952	43456	41984	41984	0	0	0	0	0	0	0	0	0	58688	58688	58048	58048	58048	58048	58048	58048	59328	59328	59968	60672	62016	62656	62656	63360	64064	64768	64768	65472	65472	640	640	640	640	1408	1408	1408	640	640	640	65472	65472	65472	64768	64768	64768	64768	65472	640	1408	2112	2880
7232	4224	1280	64000	58432	50560	45568	33920	23360	11840	10048	60736	51968	42624	35392	29824	23616	18752	15104	9984	5952	3584	65472	64064	62016	61312	60672	59968	59328	59328	59328	59328	59968	61312	62656	64064	65472	1408	1408	2880	4352	4352	5952	6720	7488	7488	6720	4352	640	64064	60672	56768	53120	50304	48064	46464	44928	44416	43968	43456	43456	42944	42944	42944	42944	42944	43456	43968	43968	44416	44416	44928	45952	46464	47040	48064	48640	49152	49728	49728	50304	50304	50304	49728	49152	48064	47552	46464	45952	45440	45440	45440	45440	45440	45952	46464	46464	47040	47552	47552	48064	48064	48640	48640	48064	48064	47552	47552	47552	47552	47552	47040	47040	47552	48064	48640	49152	49728	50816	51392	52544	53120	54336	54912	56192	57408	58688	58688	59968	61312	62656	64064	640	1408	2880	2880	4352	5952	8320	9984	11648	13376	0	0	0	35392	35392	37760	42624	46528	50560	54784	57728	62272	63872	3200	13696	0	0	0	0	0	0	0	0	0	0	0	0	0	0	0	0	0	0	0	0	0	0	0	0	0	0	15488	15488	15744	16000	16256	16832	17152	17728	18304	18880	19456	20096	20672	20992	21312	21312	21312	21632	21312	21312	21312	20992	20992	20416	20096	19776	19456	19456	19456	19776	20096	21312	21312	22272	24960	27776	31104	34368	37824	41984	45440	47552	49152	48640	48064	47040	46464	45952	45440	44928	44416	44416	44416	44416	44416	45440	45952	46464	47040	47552	48640	49152	49728	50304	50304	50304	50304	50304	50304	50304	50304	50304	49728	49728	50304	50304	50304	50304	50304	50816	51392	51968	51968	52544	53120	53760	53760	53760	53760	54336	53760	53120	53120	52544	51968	51392	50816	50816	50304	50304	49728	49728	49728	49728	50304	50304	49728	49728	49152	49152	48640	48064	47552	47040	46464	46464	45952	45952	45440	45440	45440	45440	45952	46464	47040	47552	48064	48640	49728	49728	49728	50304	50304	50304	49728	49728	49152	49152	49152	49152	49152	49152	49152	49152	49152	49152	49728	49728	49728	50304	50304	50304	50304	50304	49728	49728	49152	48640	48064	47040	46464	45952	44928	44416	42944	42944	42944	42944	42944	42944	42944	43456	43968	43968	44928	46464	47552	48640	49152	50304	51968	53120	54336	54912	55552	56768	56768	56768	57408	57408	58048	58048	58048	58048	58048	58048	58688	58688	58688	58048	58048	57408	56768	56768	56192	55552	55552	55552	54912	54912	54912	54336	54336	54336	54336	54336	54912	54912	55552	55552	56192	56768	56768	57408	58048	56768	56768	55552	54912	54912	54912	54912	54912	54912	54912	55552	55552	56192	56192	56192	56768	57408	58688	59968	61312	62016	62656	64064	64768	65472	65472	64064	63360	62016	60672	59968	58688	57408	56192	54912	54336	53760	53760	53760	53760	53760	53760	53760	53760	53760	53760	53760	53760	53760	53760	54336	54912	54912	55552	55552	55552	54912	54912	53760	49152	49152	0	32320	27776	24576	23616	22592	22272	21952	21312	21312	21312	20992	20992	21312	21312	21632	21632	21632	21632	0	0	0	0	0	0	0	0	0	0	0	0	0	0	0	0	0	0	0	0	0	0	65408	65408	10048	21312	31744	45568	55744	1280	7232	13440	16640	19904	26688	33856	41344	45248	53312	768	9984	24896	35584	46912	59008	65344	65344	59008	59008	46912	19776	57536	37568	10304	61184	53120	48000	48000	0	0	13440	13440	41344	0	0	52864	52864	13120	34880	42688	59136	2304	2304	11328	11328	11328	11328	2304	2304	2304	2304	2304	2304	59136	50752	50752	50752	50752	50752	50752	59136	11328	30528	40704	62400	33280	9536	0	0	0	0	0	0	0	0	0	0	0	0	0	0	0	38720	38272	38272	38272	38272	38720	38720	39168	39616	40064	40576	41984	43456	44928	49152	54336	55552	58048	0	4352	4352	0	0	0	0	0	0	0	0	0	0	0	0	0	0	0	0	0	0	0	0	62016	61312	60672	59328	58688	58688	58048	58048	59328	59328	60672	62016	62656	63360	64064	64064	64768	65472	640	1408	1408	2112	2112	2112	2112	2112	2112	2112	1408	1408	1408	640	640	640	65472	65472	65472	65472	65472	640	1408	1408	2112
10304	7232	4224	64000	61184	53120	48000	38464	27456	17472	10048	3200	59200	50560	41408	36608	29824	24576	19712	15104	9984	6720	3584	1408	65472	64064	62656	62016	60672	60672	60672	60672	61312	61312	62656	63360	64768	65472	640	640	1408	2112	2112	2112	2880	2880	1408	640	63360	62016	59328	56768	53760	51392	49152	47040	45952	45440	44928	44416	44416	43968	43968	43456	43456	43456	43968	43968	43968	43968	44416	44416	45440	45952	47040	47040	48064	48640	49152	49728	49728	49728	49152	48640	48064	47040	46464	45440	44928	44416	44416	44416	44928	44928	45440	45440	45952	46464	47040	47552	48064	48640	49152	49152	49152	49152	49152	48640	48064	48064	48064	48064	48064	48064	48064	48640	49152	49728	50816	51392	51968	53120	54336	54912	56768	57408	58688	59328	60672	62016	62656	64768	65472	1408	2112	2880	2880	4352	5120	5952	6720	6720	9152	10816	14208	18752	22592	25600	29824	34240	37760	42624	46528	50560	53376	3200	0	0	0	0	0	0	0	0	0	0	0	0	0	0	0	0	0	0	0	0	0	0	0	0	0	0	0	15744	15744	16256	16256	16832	17408	17728	18304	18880	19456	20096	20416	20992	20992	21312	21312	21312	21632	21312	21312	21312	20992	20992	20992	20672	20096	19776	19776	19776	20096	20416	21312	21312	22272	24256	27008	29632	32704	36032	40064	43456	46464	49728	49152	48640	47552	47040	46464	46464	45952	45440	45440	45440	45440	45440	45952	46464	46464	47552	48064	48640	49728	49728	50304	50304	50304	50304	50304	50304	50304	50304	50304	50304	50304	50304	49728	49728	50304	50304	50816	51392	51968	51968	52544	53120	53760	54336	54336	54336	54336	54336	53760	53120	52544	51968	51392	50816	50816	50816	50304	49728	49728	49728	50304	50304	50304	49728	49728	49152	49152	48640	48640	47552	47552	46464	46464	45952	45952	45440	45440	45440	45440	45952	46464	47040	47552	48064	48640	49728	49728	49728	50304	50304	50304	50304	49728	49728	49728	49728	49728	49728	49728	49728	49728	49728	50304	50304	50304	50304	50816	50816	50816	50816	50816	50304	50304	49728	49152	48064	47552	47040	46464	45440	44928	43968	43968	43456	43456	43456	43456	43456	43968	43968	44416	45440	46464	47552	48640	49728	50304	51968	53120	54336	54912	56192	56768	57408	57408	58048	58688	58688	59328	59968	59968	59968	59968	59968	59968	59328	58688	58048	58048	57408	56192	56192	55552	54912	54912	54336	54336	54336	53760	53760	53760	53760	53760	53760	54336	54336	54912	54912	55552	56192	56768	56768	56192	55552	54912	54336	53760	53760	54336	54336	54336	54336	54912	54912	55552	55552	56192	56768	57408	58048	59968	60672	62016	62656	63360	64064	64064	64064	63360	62016	61312	59968	59328	58048	56768	55552	54912	54336	53760	53760	53760	53760	53760	53760	53760	53120	53120	53760	53760	53760	53760	53760	54336	54912	54912	54912	54912	54912	54912	54336	53120	48640	48640	0	32320	27776	24576	23616	22912	22592	21952	21632	21632	21632	21632	21952	21952	22272	22592	22592	22592	23936	0	0	0	0	0	0	0	0	0	0	0	0	0	0	0	0	35392	35392	36608	42624	42624	46528	51968	57728	1536	10048	17472	29568	40768	48000	58432	64000	1280	4224	13440	19904	26688	33856	41344	53312	768	14784	35584	59008	65344	13120	13120	6336	59008	52864	41152	41152	37568	13440	64000	53120	48000	48000	0	0	0	0	0	0	0	24896	24896	52864	65344	20160	27392	42688	50752	50752	59136	59136	59136	59136	59136	59136	59136	59136	50752	42688	42688	42688	34880	34880	34880	34880	42688	59136	2304	11328	11328	11328	30528	0	0	0	0	0	0	0	0	0	0	0	0	0	0	0	0	38720	38720	38720	38720	38720	38720	39168	39616	40064	39616	39616	43456	44928	49152	55552	55552	58048	0	0	0	0	0	0	0	0	0	0	0	0	0	0	0	0	0	0	0	0	0	1408	65472	64768	63360	61312	59968	58688	58688	58688	58688	59328	59328	60672	62016	62656	64064	64768	64768	65472	640	1408	2112	2112	2880	3584	3584	3584	3584	3584	3584	2880	2112	2112	2112	1408	1408	1408	640	640	640	640	640	1408	1408	2112
13440	7232	4224	4224	64000	58432	50560	40768	31744	23360	17472	10048	1536	57728	49216	42624	35392	29824	24576	18752	13376	9152	5952	3584	2112	640	64768	64064	63360	62016	62016	62016	62016	62016	62016	62016	62656	63360	64064	64064	64064	64064	63360	63360	63360	63360	63360	60672	59968	58048	56192	54336	52544	50304	48064	47040	45952	44928	44928	44416	44416	44416	44416	43968	43968	43968	43968	43968	43968	43968	43968	44416	44416	45440	45952	46464	47040	48064	48064	48640	48640	48640	48064	47552	47040	45952	45440	43968	43456	43456	43456	43456	43968	43968	44416	44928	45952	45952	47040	47040	48064	48640	49152	50304	50304	50304	49728	49728	49152	48640	48064	48064	48064	48064	48640	48640	48640	49152	50304	50816	51392	52544	54336	54912	56768	58048	58688	59968	60672	62656	63360	64768	65472	1408	2112	2880	2880	3584	3584	3584	4352	5120	5952	7488	10816	13376	16896	19712	24576	28736	32000	35392	40192	42624	45184	0	0	0	0	0	0	0	0	0	0	0	0	0	0	0	0	0	0	0	0	0	0	0	0	0	0	0	0	0	16576	16576	16832	17152	17728	17984	18560	19200	19776	20416	20672	20992	21312	21312	21312	21312	21312	21312	21312	21312	21312	21312	20992	20992	20672	20416	20416	20096	20096	20416	21312	21952	21952	23616	27008	28096	31104	33920	37376	40064	43968	46464	48640	48640	48640	48064	47552	47040	47040	46464	45952	45952	45952	45952	45952	46464	47040	47552	48064	48640	49152	49728	50304	50304	50304	50304	50304	50304	50304	49728	49728	49728	49728	49728	49728	49728	49728	50304	50304	50816	51392	51968	52544	53120	53760	54336	54336	54336	54336	54336	53760	53120	53120	52544	51968	51392	50816	50816	50304	50304	50304	50304	50304	50304	50304	49728	49728	49152	49152	48640	48064	47552	47552	46464	46464	45952	45952	45440	45440	45440	45440	45952	46464	47040	47552	48640	48640	49152	49728	49728	49728	50304	50304	50304	50304	50304	49728	49728	49728	50304	50304	50304	50304	50816	50816	50816	50816	50816	51392	51392	51392	51392	51392	50816	50816	50304	49728	48640	48064	47552	47040	46464	45440	44416	44416	44928	44416	44416	44928	44928	44928	44928	45440	46464	47552	48064	49152	49728	51392	52544	53760	55552	56192	57408	58048	58688	59328	59968	59968	60672	61312	61312	62016	62016	61312	61312	61312	59968	59328	58688	58048	56768	56192	55552	54912	54336	54336	53760	53760	53120	53120	53120	53120	53120	53120	53120	53120	53120	53760	54336	54336	54912	55552	55552	56192	54912	54336	53760	53760	53760	53760	53760	53760	53760	54336	54912	54912	55552	55552	56768	57408	58048	59328	59968	60672	61312	62016	62656	62656	62656	62016	60672	59968	59328	58048	56768	56192	55552	54912	54336	53760	53760	53760	53760	53760	53760	53760	53120	53120	53760	53760	53760	53760	53760	53760	54336	54336	54336	54336	54336	53760	53760	51392	47552	47552	0	33920	28864	25984	24960	23616	22912	22592	22272	22272	22272	22592	22592	23232	23936	24256	24576	24576	0	0	0	0	0	0	0	0	0	0	0	32000	30912	30912	0	33152	33152	33152	34240	35392	36608	40192	43904	49216	53376	60736	1536	8320	19392	29568	36160	43136	48000	48000	53120	58432	4224	10304	13440	19904	30208	49216	5312	30144	65344	6336	20160	20160	13120	6336	59008	41152	41152	37568	13440	64000	53120	53120	0	0	0	58432	58432	0	0	49216	49216	5312	30144	46912	65344	13120	13120	27392	42688	42688	50752	50752	42688	42688	42688	42688	50752	42688	34880	27392	27392	6336	65344	65344	34880	42688	59136	2304	6336	59008	59008	65344	0	0	0	0	0	0	0	0	0	0	0	0	0	0	0	0	0	38720	38720	38720	38272	38272	38272	0	0	39616	39616	0	0	0	0	0	0	0	0	0	0	0	0	0	0	0	0	0	0	0	0	0	0	0	0	0	0	2880	1408	65472	64768	64064	61312	59968	59968	59328	59328	59328	59328	59968	60672	62016	63360	64768	65472	65472	640	1408	2112	2880	3584	4352	4352	5120	5120	5120	5120	4352	3584	3584	2880	2880	2880	2112	2112	2112	2112	1408	1408	1408	1408	2112	2112
16640	10304	7232	4224	64000	58432	53120	45568	38464	29568	23360	17472	8320	65408	56256	49216	41408	35392	29824	22592	16896	11648	8320	5952	3584	2880	1408	65472	64768	63360	63360	62656	62656	61312	60672	60672	61312	61312	61312	61312	61312	59968	59328	58688	58688	58048	56768	55552	54336	53120	51968	50304	49152	48064	46464	45440	44416	44416	43968	43968	43456	43456	43456	43456	42944	42944	42944	42944	43456	43456	43456	43456	43968	44416	45440	45440	46464	46464	47040	47552	47552	47552	47040	46464	45440	44416	43968	42944	42432	42432	42432	42432	42944	43456	43968	44416	44928	45440	46464	47040	48064	48640	49728	50304	50816	50816	50816	50816	50304	49728	49152	49152	48640	48640	48640	48640	48640	48640	49728	50304	51392	52544	53760	55552	56768	58688	59968	60672	62016	63360	64064	65472	1408	1408	2112	2880	2880	3584	3584	3584	4352	5120	5952	7488	10816	13376	16000	17856	21632	24576	28736	32000	34240	38976	42624	45184	51968	54784	0	63872	63872	65408	0	0	0	0	0	0	0	0	0	0	0	0	0	0	0	0	0	0	0	0	0	0	16576	16576	17152	17408	17984	18560	18880	19456	20096	20416	20992	20992	21312	21312	21312	21312	21312	21312	21312	21312	21312	21312	20992	20992	20992	20672	20416	20416	20416	20416	20992	21632	21952	22912	24960	26688	28864	31552	33920	36480	39168	42432	44416	45952	47552	47552	47552	47040	47040	46464	46464	45952	45952	45952	45952	46464	47040	47552	47552	48640	48640	49152	49728	49728	50304	50304	50304	50304	49728	49728	49728	49728	49728	49728	49728	49728	49728	49728	50304	50816	51392	51968	52544	53120	53760	54336	54336	54336	54336	54336	53760	53120	53120	52544	51968	51392	51392	50816	50304	50304	50304	50304	50304	50304	50304	49728	49728	49728	49152	48640	48064	47552	47552	47040	46464	46464	45952	45440	45440	45440	45440	45952	46464	47040	47552	48640	48640	49152	49728	49728	49728	50304	50304	50304	50304	50304	50304	50304	50816	50816	51392	51392	51392	51392	51392	51968	51968	51968	51968	51968	51968	51968	51968	51392	51392	50816	50304	49152	48640	48640	48064	47552	46464	45952	45440	45440	45440	45440	45440	45952	45952	45952	45952	47040	48064	49152	49728	50816	51968	53760	54912	56768	57408	58688	59968	60672	61312	62016	62656	63360	64064	63360	63360	63360	63360	62656	62016	60672	59968	58688	58048	56768	56192	55552	54912	54336	53760	53120	53120	53120	53120	52544	52544	51968	51968	52544	52544	53120	53120	53120	53760	54336	54912	55552	56192	54912	54336	53760	53760	53760	53760	53760	53760	53760	54336	54912	54912	55552	55552	56768	57408	58048	58688	59328	59968	60672	61312	61312	61312	60672	59968	59328	58688	58048	57408	56768	55552	54912	54336	54336	53760	53760	53760	53760	53760	53760	53760	53120	53120	53760	53760	53760	53760	53760	53760	54336	54336	53760	53760	53760	53120	52544	50304	47040	43456	39616	33920	30336	28096	26688	25280	24576	24256	23936	23936	23936	23936	24256	25280	28864	30336	31104	31936	34752	36480	0	0	0	0	0	0	0	0	0	29824	29824	30912	30912	30912	32000	32000	33152	33152	36608	38976	42624	47872	51968	56256	60736	3200	10048	19392	23360	27456	29568	29568	53120	45568	45568	50560	55744	64000	13440	30208	53312	19776	65344	13120	34880	34880	20160	13120	59008	41152	9984	37568	16640	1280	1280	0	0	0	0	58432	58432	13440	0	41344	41344	61824	14784	35584	46912	59008	6336	13120	27392	27392	27392	27392	27392	27392	27392	27392	27392	20160	13120	6336	6336	6336	65344	65344	0	0	0	0	6336	59008	59008	65344	0	0	0	0	0	0	0	0	0	0	0	0	0	0	0	0	0	39168	38720	38720	38272	38272	38272	0	0	0	0	0	0	0	0	0	0	0	0	0	0	0	0	0	0	0	0	0	0	0	0	0	0	0	0	0	0	2880	2112	1408	640	64064	62656	61312	59968	59968	59968	59968	59968	60672	60672	62016	63360	64768	65472	1408	1408	2112	2880	4352	5120	5952	5952	6720	6720	6720	5952	5952	5120	4352	4352	3584	3584	3584	2880	2880	2880	2880	2112	2112	2112	2112	2112
16640	10304	7232	4224	1280	61184	53120	45568	40768	33920	27456	21312	15552	8320	63872	56256	56256	41408	35392	28736	20672	14208	9984	6720	5120	3584	2112	1408	64768	64064	63360	62656	62656	61312	60672	59968	59328	59328	58688	58048	58048	56768	55552	55552	54912	54336	53120	51968	50816	49728	49152	48064	47552	46464	45440	44416	43968	43456	43456	42944	42944	42944	42944	42944	42944	42944	42944	42944	42944	42944	42944	43456	43968	43968	44928	44928	45440	45952	46464	46464	46464	46464	45952	45440	44416	43456	42944	41984	41472	41472	41984	41984	42432	42432	42944	43456	44416	45440	46464	47040	48064	48640	50304	50816	51392	51392	51392	51392	50816	50304	49152	49152	48640	48640	48640	48640	48640	48640	49152	50304	50816	51968	53120	55552	57408	58688	60672	61312	63360	64064	65472	640	1408	2880	2880	3584	3584	4352	5120	5120	5952	6720	7488	8320	10816	13376	16000	17856	20672	23616	27712	30912	33152	37760	41408	43904	47872	51968	54784	57728	60736	62272	62272	0	0	0	0	0	0	0	0	0	0	0	0	0	0	0	0	0	0	0	0	0	0	0	17728	17728	18304	18880	19456	19776	20416	20672	20992	21312	21312	21312	21312	21312	21312	21312	20992	20992	20992	20992	21312	20992	20672	20672	20416	20416	20416	20416	20992	21312	22272	22912	24256	25600	27776	31552	33920	36480	39168	40064	42432	44928	46464	46464	47552	47552	47040	47040	46464	46464	46464	46464	46464	46464	47040	47552	47552	48064	48640	49152	49152	49728	49728	50304	50304	49728	49728	49728	49728	49728	49728	49728	49728	49728	49728	49728	50304	50304	51392	51392	51968	53120	53760	53760	54336	54336	54336	54336	53760	53120	53120	52544	51968	51392	51392	50816	50816	50304	50304	50304	50304	50304	50304	49728	49728	49728	49152	48640	48064	48064	47552	47040	47040	46464	46464	45952	45952	45952	45952	46464	47040	47040	47552	48640	48640	49152	49728	49728	50304	50304	50304	50816	50816	50816	50816	51392	51968	51968	51968	52544	52544	52544	52544	53120	53120	53120	53120	53120	53120	53120	52544	51968	51968	51392	50816	50304	49728	49152	48640	48064	47552	47040	47040	47040	46464	46464	46464	46464	46464	46464	46464	47552	48064	49152	50304	51392	52544	53760	55552	57408	59328	60672	61312	62656	62656	64064	64768	65472	65472	65472	64768	64768	64064	63360	62016	60672	59328	58688	57408	56768	55552	54912	54336	53760	53120	53120	53120	52544	52544	51968	51968	51968	51968	51968	51968	52544	52544	53120	53760	54336	54912	55552	56192	56192	54912	54336	54336	54336	54336	54336	54336	54336	54336	54912	54912	55552	55552	56192	56768	57408	58048	58688	58688	59328	59328	59968	59968	59328	58688	58688	58048	57408	56768	56192	55552	54912	54336	54336	53760	53760	53760	53760	53760	53760	53760	53760	53760	53760	53760	53760	53760	53760	53760	53760	53760	53120	53120	52544	52544	51392	49728	47040	43456	39616	36032	33536	31104	29248	28096	27392	26688	26688	26688	26688	26688	27392	28864	28864	30336	31104	31936	34752	36480	0	0	0	0	0	0	0	0	0	29824	28736	28736	29824	29824	30912	32000	33152	33152	35392	38976	41408	45184	49216	54784	57728	63872	3200	10048	11840	15552	15552	29568	21312	21312	25408	29568	36160	45568	61184	16640	41344	14784	65344	20160	34880	34880	34880	27392	6336	52864	9984	9984	0	0	0	0	0	0	0	1280	1280	13440	26688	33856	41344	57536	9984	30144	41152	52864	65344	13120	20160	20160	20160	20160	13120	13120	13120	13120	13120	65344	65344	65344	65344	0	0	0	0	0	0	0	0	0	45248	45248	0	0	0	0	0	0	0	0	0	0	0	0	0	0	0	0	0	0	0	0	0	0	0	0	0	0	0	0	0	0	0	0	0	0	33536	33536	33536	33920	33920	0	0	0	0	0	0	0	0	0	0	0	0	0	5952	5120	3584	1408	640	64768	63360	62656	61312	60672	60672	60672	60672	60672	61312	62656	64064	64768	640	2112	2112	3584	4352	5952	6720	7488	8320	8320	8320	7488	7488	6720	5952	5120	5120	4352	3584	3584	3584	3584	2880	2880	2880	2112	2112	2112	2112
16640	13440	10304	7232	1280	61184	55744	48000	43136	38464	31744	27456	21312	15552	8320	65408	56256	49216	41408	33152	24576	17856	11648	8320	6720	5120	3584	2112	65472	64768	64064	64064	62656	61312	60672	59328	59328	58688	58048	55552	54336	54336	53120	52544	51968	51392	50304	49152	48064	47552	47040	46464	45952	44928	43968	43456	43456	43456	42944	42944	42944	42944	42944	42944	42944	42944	42944	42944	42944	42944	42944	43456	43968	43968	44416	44928	45440	45440	45440	45952	45952	45440	44928	44416	43968	42944	42432	41984	41472	41472	41472	41472	41984	41984	42944	43456	44416	44928	45952	47040	48064	49152	50304	51392	51392	51968	52544	51968	51392	50816	50304	49728	49152	49152	48640	48640	48640	48640	49152	50304	50816	51968	53120	55552	57408	59328	60672	62016	63360	64768	640	1408	2112	2880	3584	3584	4352	5120	5120	5120	5952	6720	8320	9984	11648	14208	16000	17856	20672	23616	27712	29824	33152	36608	40192	42624	46528	50560	53376	54784	57728	59200	60736	60736	0	0	0	0	0	0	0	0	0	0	29952	29952	0	0	0	0	0	0	0	0	0	0	18880	18880	19456	19776	20096	20416	20992	20992	21632	21632	21632	21632	21632	21312	21312	20992	20992	20992	20992	20992	20992	20992	20672	20672	20672	20416	20416	20416	20672	20992	21952	22912	22912	24256	25600	27392	0	0	40064	40064	42432	44928	46464	46464	46464	48064	47552	47552	47040	47040	47040	47040	47040	47040	47040	47040	48064	48064	48640	48640	49152	49152	49728	49728	49728	49728	49728	49728	49728	49728	49728	49728	49152	49152	49152	49728	49728	50304	50816	51392	51968	51968	53120	53760	53760	53760	53760	53760	53760	53120	52544	52544	51968	51392	51392	50816	50816	50304	50304	50304	50304	50304	50304	49728	49728	49728	49152	49152	48640	48640	48064	47552	47552	47552	47040	46464	46464	46464	46464	47040	47040	47552	48064	48640	49152	49152	49728	49728	50304	50304	50304	50816	51392	51392	51392	51968	52544	53120	53120	53760	53760	54336	54336	54336	54336	54336	54336	54336	54336	53760	53760	53120	53120	52544	51392	50816	50304	49728	49152	49152	48640	48064	47552	47552	47552	47552	47552	47552	47552	47552	47552	48064	49152	49728	50816	51968	53120	54912	56768	58048	59968	61312	62656	63360	64768	65472	640	1408	1408	65472	64768	64768	63360	62656	61312	59968	58688	57408	56768	56192	55552	54912	53760	53760	53120	53120	52544	52544	51968	51968	51968	51392	51392	51392	51968	51968	52544	53120	53120	54336	55552	56192	56768	56768	56768	56192	55552	55552	55552	54912	54912	54912	54912	54912	54912	55552	55552	56192	56768	56768	57408	57408	58048	58048	58688	58688	58688	58048	57408	57408	56768	56192	56192	55552	55552	54912	54336	54336	53760	53760	53760	53760	53760	53760	53760	53760	53760	53760	53760	53760	53760	53760	53760	53760	53120	53120	52544	51968	51968	51392	49728	47040	43968	41024	38720	36480	33536	32320	30720	29632	28864	28480	28480	28480	28480	28864	31104	31104	32320	33536	34368	36928	39616	0	0	0	0	0	0	0	0	0	28736	28736	28736	28736	29824	30912	32000	32000	33152	35392	37760	40192	43904	46528	50560	51968	57728	62272	65408	3200	4864	15552	0	21312	8320	8320	10048	17472	25408	61184	16640	41344	5312	6336	34880	59136	59136	59136	2304	42688	20160	46912	46912	0	0	0	0	0	0	0	16640	16640	19904	26688	33856	41344	57536	5312	24896	35584	46912	59008	65344	6336	6336	6336	6336	65344	65344	65344	65344	59008	52864	41152	41152	65344	0	0	0	0	0	0	0	0	0	13440	10304	4224	4224	0	0	58432	58432	58432	0	0	0	64000	64000	1280	0	0	0	0	0	0	0	0	0	0	0	0	0	0	0	0	0	0	34368	33920	33920	33536	33536	33536	33920	33920	34368	0	0	0	0	0	0	0	0	0	0	0	0	5952	5120	3584	3584	2880	1408	65472	64768	63360	62656	62016	62016	62016	62016	62016	63360	64768	65472	1408	2880	2880	4352	5952	6720	7488	9152	9984	9984	9152	9152	8320	7488	6720	5952	5120	5120	4352	4352	3584	3584	2880	2880	2112	1408	1408	1408	1408
19904	13440	10304	7232	4224	64000	58432	50560	45568	40768	33920	31744	27456	21312	15552	6592	63872	63872	57728	40192	29824	21632	13376	9984	7488	5952	4352	2880	1408	65472	64768	64768	63360	62016	60672	59328	59328	58688	58048	55552	53120	51968	51968	50816	50304	49152	48064	47040	45952	45440	44928	44928	44928	44416	43456	43456	43456	43456	42944	42944	42944	42944	42944	42944	42944	42944	42944	42944	42944	42944	43456	43456	43968	44416	44416	44928	44928	44928	44928	45440	45440	44928	44416	43968	42944	42432	41984	41472	41024	41024	41024	41024	41472	41984	42944	43456	44416	44928	45952	47040	48064	49152	50304	51392	51968	52544	52544	52544	51968	51392	50816	50304	50304	49728	49152	49152	49152	49152	50304	50816	51392	53120	54336	55552	58688	60672	62016	62656	64064	65472	1408	2112	2880	3584	4352	4352	5120	5120	5952	5952	6720	7488	9152	10816	12480	14208	16896	17856	21632	23616	25600	28736	32000	34240	38976	41408	45184	47872	50560	51968	54784	54784	56256	57728	56256	56256	53376	46528	37760	37760	0	0	0	0	29952	29952	0	0	0	0	0	0	0	0	0	0	21632	20992	20992	21952	22272	22592	22912	22912	22912	22912	22592	21952	21632	21312	21312	20992	20992	20672	20672	20992	20992	20992	20672	20672	20672	20416	20416	20416	20672	20992	21632	22272	22912	23232	24256	25600	26688	28864	0	0	0	0	0	45952	45952	48064	48064	48640	48064	48064	47552	47552	47552	47040	47040	47040	47040	47552	48064	48640	48640	49152	49152	49152	49728	49152	49152	49152	49152	49152	49152	49152	49152	49152	49152	49152	49728	49728	50304	50816	51392	51968	52544	52544	53120	53120	53120	53120	53120	52544	52544	52544	51968	51968	51392	50816	50816	50304	50304	50304	50304	50304	50304	50304	49728	49728	49728	49152	49152	48640	48640	48064	48064	48064	48064	47552	47552	47552	47552	48064	48064	48640	48640	49152	49152	49152	49728	49728	50304	50304	50304	50816	51392	51968	52544	53120	53760	54336	54912	55552	55552	55552	55552	56192	56192	56192	56192	55552	55552	55552	54912	54336	54336	53760	52544	51968	51392	50816	50304	49728	49152	49152	48640	48640	48640	48640	48640	48640	48640	48640	48640	49152	49728	50816	51392	51968	53120	54912	57408	59328	60672	62016	63360	64768	64768	640	1408	1408	65472	64768	64064	62656	62016	61312	59968	58688	57408	56768	56192	54912	54912	53760	53760	53120	52544	52544	52544	51968	51968	51392	51392	51392	51392	51392	51968	51968	52544	52544	53120	53760	54912	56192	56768	57408	57408	57408	57408	56768	56192	55552	55552	55552	54912	54912	54912	55552	55552	55552	56192	56192	56768	56768	56768	56768	57408	57408	57408	56768	56192	56192	55552	55552	55552	55552	54912	54336	54336	54336	54336	54336	54336	54336	53760	53760	53760	53760	53760	53760	53760	53760	53760	53120	53120	53760	53120	53120	52544	51968	51968	51392	50304	48064	45952	44416	41984	40064	37824	35648	34752	33152	32320	31936	31552	31552	31552	32320	33536	34752	35200	36928	37824	41024	42944	0	0	0	0	0	0	0	0	0	28736	28736	28736	28736	29824	30912	30912	32000	33152	34240	35392	38976	41408	43904	46528	49216	53376	56256	57728	59200	60736	0	0	59200	59200	62272	65408	6592	25408	0	0	5312	5312	13120	42688	2304	2304	2304	0	59136	42688	42688	0	0	0	0	0	0	0	0	53312	37568	37568	37568	37568	45248	57536	5312	19776	30144	41152	52864	59008	65344	65344	65344	65344	59008	59008	59008	52864	46912	46912	41152	41152	0	0	0	0	0	13440	13440	0	0	0	13440	53120	53120	55744	55744	53120	53120	55744	55744	58432	61184	64000	64000	64000	1280	7232	0	0	0	0	0	0	0	0	0	0	0	0	0	0	0	0	35648	34368	33920	33920	33920	33920	34368	34368	34368	34368	35648	0	0	0	0	0	0	0	0	0	0	0	5952	5120	4352	3584	2880	2880	1408	1408	65472	64768	64064	63360	63360	63360	64064	64768	65472	1408	2880	3584	5120	5120	7488	8320	9984	10816	10816	11648	10816	9984	9152	7488	7488	5952	5952	5120	4352	4352	3584	3584	2880	2112	1408	1408	640	640	640
19904	16640	13440	10304	7232	1280	61184	53120	48000	43136	38464	33920	29568	25408	21312	13696	8320	65408	57728	47872	36608	26624	17856	11648	9152	6720	5120	4352	2112	1408	640	640	64768	63360	61312	59968	59968	58688	57408	54912	52544	50816	49728	49728	48640	48064	47040	45440	44928	44416	43968	43968	43968	43968	42944	42944	42944	43456	43456	43456	42944	42944	43456	43456	43456	43456	43456	43456	43456	43456	43968	43968	43968	44416	44416	44928	44928	44928	44928	44928	44928	44416	43456	43456	42432	41984	41472	41472	41024	41024	41024	41024	41472	41984	42944	43456	44416	45440	45952	47040	48064	49152	50304	51392	52544	53120	53760	53760	53760	53120	52544	51968	51392	51392	50304	50304	50304	50304	51392	51968	52544	53760	54912	56768	58688	61312	62656	64064	65472	1408	2880	2880	4352	5120	5120	5120	5952	5120	5120	5952	6720	7488	9152	10816	12480	14208	16896	17856	19712	21632	24576	26624	28736	32000	34240	36608	38976	42624	43904	46528	47872	49216	50560	50560	46528	42624	35392	26624	16896	9152	9152	0	0	0	0	0	0	0	63360	63360	62016	61312	61312	0	0	0	0	24960	24960	24960	24960	24960	24576	24576	24576	23936	23936	21952	21952	21632	21312	20992	20672	20672	20672	20992	20992	21312	20992	20992	20992	20672	20672	20672	20672	20992	21312	21952	22272	22272	22912	23936	24960	26304	27776	33152	33152	0	0	45952	45952	48064	48064	48064	48064	48640	48064	48064	47552	47040	47040	47040	47040	47552	47552	47552	47552	48640	48640	48640	48640	49152	49152	49152	49152	49152	49152	49152	49152	48640	48640	49152	49152	49728	49728	50304	50816	51392	51968	51968	52544	52544	52544	52544	52544	52544	52544	52544	51968	51968	51392	50816	50816	50304	50304	50304	50304	50304	50304	50304	49728	49728	49728	49728	49728	49152	49152	49152	48640	48640	48640	48640	48640	48640	48640	48640	48640	49152	49152	49152	49728	49728	49728	49728	50304	50304	50304	50816	51392	51968	53120	53760	54336	55552	56192	56768	56768	57408	57408	57408	57408	57408	57408	57408	57408	56768	56192	55552	54912	54336	53760	53120	51968	51392	51392	50816	50304	49728	49728	49728	49152	49152	49152	49152	49152	49152	49152	49728	49728	50816	51968	52544	53760	54912	57408	59328	61312	62656	64064	64768	65472	640	640	65472	64064	62656	62016	61312	59968	59328	58688	56768	55552	54912	54336	53760	53760	53120	53120	52544	52544	51968	51968	51968	51392	51392	51392	50816	50816	51392	51392	51392	51968	51968	52544	53120	54336	55552	56192	56768	56768	57408	58048	57408	56768	56192	55552	55552	54912	54912	54912	54912	54912	55552	55552	55552	55552	56192	56192	56192	56192	56192	56192	55552	55552	54912	54912	54912	54912	54912	54336	54336	54336	54336	54336	54336	54336	54336	54336	53760	53760	53760	54336	53760	53760	53760	53760	53120	53120	53120	53120	53120	52544	51968	51968	51392	50304	49152	47552	46464	44928	43456	41024	39616	38720	37376	36928	36480	36032	36032	36032	37376	38272	39168	39616	41024	42432	44416	0	0	0	0	0	0	0	0	0	0	26624	26624	26624	26624	28736	28736	29824	30912	32000	33152	35392	36608	40192	42624	42624	45184	49216	51968	51968	51968	60736	49216	49216	49216	50560	51968	54784	59200	1536	0	0	0	27392	27392	0	2304	2304	2304	20736	2304	59136	59136	59136	27392	20160	13120	52864	35584	24896	14784	53312	49216	49216	49216	49216	49216	57536	5312	19776	30144	41152	52864	59008	65344	65344	59008	59008	52864	46912	46912	41152	35584	30144	30144	0	0	0	41344	26688	26688	13440	13440	0	0	40768	40768	40768	40768	40768	43136	48000	48000	48000	50560	50560	55744	55744	58432	61184	64000	1280	10304	16640	23296	0	0	0	0	0	0	0	0	0	0	0	0	0	35648	35200	34752	34752	34752	34752	34752	35200	35200	35200	35648	39168	0	0	0	0	0	0	0	0	0	0	0	5120	4352	4352	3584	3584	2880	2880	1408	1408	640	65472	65472	65472	65472	640	2112	2880	4352	5952	7488	7488	9152	9984	10816	12480	12480	12480	11648	10816	9984	8320	7488	6720	5952	5120	4352	4352	3584	2880	2880	2112	1408	640	65472	65472	65472
23296	19904	16640	13440	7232	1280	61184	55744	50560	45568	38464	36160	33920	29568	25408	21312	15552	10048	10048	10048	45184	33152	22592	16000	11648	9152	6720	5120	3584	2112	1408	1408	65472	64768	62656	61312	59968	59328	57408	54912	52544	50816	48640	48064	48064	47040	45952	44416	43456	42944	42944	42944	42944	42944	42944	42944	42944	43456	43456	43456	43456	43968	43456	43456	43968	44416	43968	43968	44416	44416	44928	44928	44928	44928	44928	45440	44928	44928	44928	44928	44416	43968	42944	42944	41984	41472	41472	41024	41024	40576	40576	41024	41472	41984	42944	43456	44416	45440	45952	47040	48064	49152	50304	51392	52544	53120	53760	54336	54336	54336	53760	53120	52544	51968	51392	51392	51392	51392	51968	51968	52544	53760	54336	55552	58048	59968	61312	62656	64064	640	2112	2880	4352	4352	4352	4352	3584	3584	4352	4352	5120	5952	7488	9152	10816	13376	15104	16000	17856	19712	20672	21632	23616	25600	28736	29824	32000	34240	36608	38976	40192	41408	40192	38976	34240	28736	21632	12480	5120	64064	58688	58688	0	0	0	0	0	0	58048	57408	56192	55552	53760	53760	0	0	0	30336	29632	29248	27392	27392	26304	26304	25600	25280	23936	23232	23232	21952	21632	21312	20672	20672	20992	20992	21312	21312	20992	20992	20992	20992	20992	20992	20992	20992	21312	21632	21952	22272	22272	22912	23616	26304	27008	27008	30336	0	0	0	0	0	0	48064	48064	48064	48064	48064	47552	47040	46464	46464	46464	47040	47040	47040	47040	47552	48064	48064	48640	48640	49152	48640	48640	48640	48640	48640	48640	48640	48640	48640	48640	49152	49152	49728	50304	50816	51392	51968	51968	51968	51968	52544	52544	52544	52544	52544	51968	51968	51392	51392	50816	50304	50304	50304	49728	49728	49728	49728	49728	49728	49728	49728	49728	49728	49728	49728	49152	49152	49152	49152	49728	49152	49152	49152	49152	49152	49728	49728	49728	49728	50304	50304	50304	50304	50304	50816	51392	51968	52544	53120	54336	55552	56192	56768	57408	58048	58048	58048	58048	58048	58048	58048	58048	57408	56768	56192	55552	54912	54336	53760	52544	52544	51968	51392	50816	50816	50304	50304	50304	50304	50304	50304	50304	50304	50304	50816	50816	51392	52544	53120	53760	54912	56768	58688	60672	62016	63360	64064	64768	65472	64768	64064	62656	61312	60672	58688	58048	56768	56192	54912	54336	53760	53120	53120	52544	52544	52544	51968	51968	51968	51968	51968	51392	51392	50816	50816	50816	50816	51392	51392	51392	51968	51968	53120	53760	54912	55552	56192	56768	57408	57408	57408	56768	56192	55552	55552	54912	54912	54912	54336	54336	54336	54336	54336	54912	54912	54912	54912	54912	54912	54912	54912	54912	54912	54336	54336	54336	54336	54336	54336	54336	54336	54336	54336	54336	54336	54336	54336	54336	54336	54336	53760	53760	53760	53760	53120	53120	53120	53120	53120	52544	52544	51968	51968	50816	50304	49152	48064	46464	45440	43968	43456	41984	41024	40576	40576	41024	40576	40576	41024	41472	41984	41984	42432	0	0	0	0	0	0	0	0	0	0	0	25600	25600	25600	26624	26624	28736	28736	29824	30912	32000	33152	35392	36608	38976	41408	42624	43904	46528	46528	51968	51968	0	42624	42624	42624	42624	42624	43904	47872	54784	0	0	0	27392	27392	0	11328	11328	11328	20736	11328	11328	59136	50752	27392	20160	13120	52864	35584	24896	14784	5312	768	61824	61824	61824	61824	768	5312	19776	30144	41152	46912	52864	59008	59008	52864	52864	46912	41152	35584	35584	30144	19776	14784	9984	5312	53312	41344	26688	13440	1280	55744	48000	43136	36160	36160	33920	33920	33920	36160	38464	40768	43136	43136	48000	50560	53120	53120	55744	58432	64000	1280	7232	16640	0	0	0	0	0	0	0	0	0	41024	40064	39168	38272	37824	36032	36032	35648	35648	35648	36032	36480	36480	37376	38272	39168	0	0	0	0	0	0	0	0	0	0	0	0	4352	2880	2880	2880	2880	2880	2880	2112	2112	1408	1408	2112	2112	2112	3584	4352	5952	7488	9152	9152	9984	10816	11648	12480	13376	12480	11648	10816	9152	8320	7488	6720	5952	5120	4352	3584	3584	2880	2112	2112	640	65472	64768	64768	64064
19904	19904	16640	13440	10304	1280	64000	55744	50560	45568	40768	36160	33920	31744	29568	25408	23360	15552	10048	10048	54784	41408	29824	21632	16000	12480	9152	6720	4352	3584	2112	1408	640	64768	63360	61312	59968	59328	57408	54336	51968	50304	48064	47040	45952	45952	44928	43456	42432	41984	41984	41984	41984	42432	42432	42432	42944	43456	43456	43968	43968	43968	43968	43968	44416	44416	44416	44928	44928	45440	45440	45440	45440	45440	45440	44928	44928	44416	44416	43968	43456	42944	42432	41984	41472	41024	41024	40576	40576	40576	40576	40576	41472	41984	42944	43456	44416	45440	45952	47040	48064	49152	50304	51968	52544	53120	53760	54336	54912	54336	54336	53760	53760	53120	51968	51968	51968	51968	51968	52544	52544	53760	54336	55552	57408	58688	59328	59968	62016	63360	64768	640	1408	2112	2880	2880	2880	2880	2112	2112	2880	4352	5952	7488	9984	11648	13376	14208	15104	16896	17856	18752	19712	21632	23616	24576	25600	27712	27712	29824	32000	32000	29824	26624	22592	17856	11648	4352	63360	63360	58688	58688	0	0	46464	46464	0	0	58048	57408	52544	51968	49152	49152	0	0	33536	30336	29632	29248	28864	28480	28096	27392	27392	25280	24576	24256	24256	0	0	21632	21632	20992	20992	20992	21312	21312	21312	21312	21312	21312	21312	21312	21312	21312	21632	21632	21952	22272	22272	22912	23616	24256	24960	25984	28864	32320	36032	38272	40064	43456	44928	45952	46464	47552	48064	48064	47552	47040	46464	46464	46464	46464	46464	46464	46464	47040	47040	47040	47552	47552	48064	48064	48064	48640	48640	48064	48064	48064	48064	48064	48064	48064	48640	49152	49728	50304	50816	51392	51392	51392	51968	51968	52544	52544	52544	52544	51968	51968	51392	51392	50816	50304	50304	50304	49728	49728	49728	49728	49728	49728	49728	49728	49728	49728	49728	49728	49728	49728	49728	49728	49728	49728	49728	49728	49728	49728	49728	49728	49728	49728	49728	50304	50304	50304	50304	50816	51392	51968	52544	53120	54336	54912	56192	57408	58048	58048	58048	58688	58688	58688	58688	58688	58048	58048	57408	56768	56192	54912	54912	53760	53120	52544	51968	51968	51392	51392	50816	50816	50816	50816	50816	50816	50816	50816	50304	50304	50816	51392	51968	52544	53760	54912	56768	58048	60672	61312	62656	62656	63360	63360	63360	62016	60672	59328	58048	56768	55552	54912	54336	53120	52544	51968	51968	51968	51968	51968	51968	51968	51968	51968	51392	51392	51392	51392	50816	50816	50816	50816	50816	51392	51392	51968	51968	52544	53760	54336	54912	55552	56192	56768	56768	57408	56192	56192	55552	54336	54336	54336	54336	53760	53760	53760	53760	53760	53760	53760	54336	54336	54336	54336	54336	54336	54336	54336	54336	54336	54336	54336	54336	54336	54336	54336	54336	54336	54336	54336	54336	54336	54336	54336	54336	53760	53760	53760	53760	53120	53120	53120	53120	53120	53120	52544	52544	52544	51968	50816	50304	49728	48640	47040	45952	44928	43968	42432	42432	0	0	0	0	0	0	0	0	0	0	0	0	0	0	0	0	0	0	0	0	25600	25600	25600	0	0	27712	27712	29824	29824	32000	33152	35392	37760	38976	41408	42624	43904	46528	46528	0	0	0	36608	36608	36608	36608	42624	43904	47872	54784	0	0	0	0	0	0	11328	11328	11328	20736	11328	2304	59136	50752	34880	27392	20160	65344	46912	35584	30144	19776	9984	5312	5312	5312	5312	9984	14784	24896	30144	41152	46912	52864	59008	59008	52864	41152	41152	41152	35584	35584	24896	19776	9984	5312	5312	49216	41344	23296	13440	1280	55744	48000	43136	36160	33920	31744	31744	31744	31744	36160	38464	40768	40768	43136	45568	48000	50560	50560	55744	61184	64000	4224	13440	16640	23296	0	0	0	0	0	0	0	41024	40064	39168	38272	37824	37376	36928	36928	36928	36928	36928	37376	38272	38720	39616	41024	0	0	0	0	0	0	0	0	0	0	0	64064	64064	65472	640	1408	2112	2880	3584	2880	2880	2880	2880	3584	3584	3584	4352	5952	6720	7488	9152	9152	9984	10816	11648	11648	11648	11648	10816	9984	9152	8320	7488	5952	5952	5120	4352	3584	2880	2880	2112	640	640	64768	64064	63360	62656
13440	13440	16640	13440	10304	4224	64000	55744	53120	48000	40768	38464	36160	33920	31744	29568	27456	23360	17472	17472	8320	51968	38976	28736	22592	16896	13376	9152	6720	5120	3584	2880	1408	65472	63360	61312	59968	58688	56192	54336	51968	49152	48064	46464	45440	45440	44416	42944	41984	41472	41472	41472	41984	41984	42432	42432	42944	43456	43968	43968	43968	43968	44416	44416	44928	45440	45440	45440	45440	45440	45952	45952	45952	45440	44928	44928	44416	43968	43456	43456	43456	42944	41984	41984	41024	41024	40576	40576	40576	40576	40576	40576	41472	42432	42944	43968	44416	45440	46464	47552	48640	49728	50816	51968	52544	53760	53760	54912	54912	54912	54912	54336	54336	53760	53120	52544	52544	52544	53120	53120	53760	53760	54336	54912	56192	57408	57408	58048	58688	59968	61312	62656	64064	64768	65472	65472	65472	65472	65472	640	1408	2112	3584	5120	7488	9152	10816	12480	13376	15104	15104	16000	16000	16896	18752	19712	20672	22592	22592	24576	25600	24576	22592	18752	16000	11648	5120	4352	63360	63360	0	49728	47552	44928	44928	45952	47040	49728	51968	51968	50816	49728	48064	43968	40576	37376	33536	31552	30720	30336	29952	29952	29632	27392	27392	27008	26688	25600	25600	0	0	0	0	21312	21312	21312	21632	21632	21632	21632	21632	21632	21632	21632	21632	21632	21952	21952	22272	22592	22592	23232	23616	24256	24960	25984	28864	32320	36032	38272	38272	41024	42944	44416	44928	45952	47040	47552	47552	47040	46464	45952	45952	45440	45440	45952	45952	45952	45952	46464	46464	47040	47552	47552	47552	48064	48064	47552	47552	47040	47040	47552	47552	48064	48640	48640	49152	49728	50304	50816	51392	51392	51392	51968	51968	51968	51968	51968	51968	51392	50816	50816	49728	49728	49728	49728	49728	49728	49728	49728	49728	49728	49728	49728	49728	49728	50304	50304	50304	50304	50304	50304	50304	49728	49728	49728	49728	49728	49728	49728	49728	49728	49728	50304	50304	50304	50304	50816	50816	51392	51968	52544	53760	54912	55552	56768	57408	57408	58048	58688	58688	58688	58688	58688	58048	58048	57408	56768	56192	55552	54912	54336	52544	52544	51968	51968	51392	51392	50816	50304	50304	50304	50304	50304	50304	50304	50304	50304	50304	50816	51392	51968	53120	54336	55552	56768	59328	59968	61312	61312	61312	61312	61312	59968	58688	56768	56192	54336	53760	53120	52544	51392	50816	50816	50816	50816	50816	50816	50816	51392	51392	51392	51392	51392	51392	51392	51392	50816	50816	50816	50816	50816	50816	51392	51392	51968	53120	53760	54336	54912	55552	56192	56768	56768	55552	55552	54912	54336	53760	53760	53120	53120	53120	53120	53120	52544	52544	53120	53120	53120	53760	53760	54336	54336	54336	54336	54336	54336	53760	53760	53760	53760	53760	53760	53760	53760	53760	53760	53760	53760	54336	54336	54336	53760	53760	53760	53760	53120	53120	53120	53120	53120	53120	53120	53120	52544	52544	51968	51392	50816	49728	48640	47040	46464	44928	44928	0	0	0	0	0	0	0	0	0	0	0	0	0	0	0	0	0	0	0	0	0	0	0	0	0	0	27712	27712	29824	29824	32000	34240	35392	37760	40192	41408	42624	45184	46528	0	0	38976	35392	35392	36608	36608	36608	0	0	0	0	0	0	0	0	0	0	2304	2304	11328	11328	2304	59136	59136	50752	42688	27392	20160	6336	59008	46912	41152	30144	24896	24896	24896	19776	19776	24896	30144	41152	41152	46912	52864	59008	59008	52864	46912	41152	41152	41152	35584	30144	24896	14784	9984	5312	768	49216	41344	23296	13440	1280	58432	48000	43136	36160	31744	29568	29568	29568	31744	36160	36160	38464	38464	40768	45568	48000	48000	48000	53120	55744	61184	1280	7232	10304	13440	26688	0	0	0	0	0	42944	41472	40576	39616	39168	38720	38272	38272	38272	37824	37824	38272	38720	39616	40576	41984	0	0	0	0	0	0	0	0	0	0	0	0	63360	63360	64768	65472	1408	2112	2880	3584	3584	4352	4352	3584	3584	4352	5120	5120	5952	6720	7488	9152	9984	9984	9984	10816	10816	10816	10816	9984	9152	8320	7488	6720	5952	5120	4352	3584	3584	2880	2112	1408	640	64768	64768	63360	62656	62656
7232	10304	10304	13440	10304	4224	64000	58432	53120	48000	43136	40768	36160	33920	33920	31744	29568	25408	23360	17472	8320	8320	8320	38976	29824	23616	16896	13376	9152	7488	5120	3584	2112	640	64064	62016	59968	58688	56192	53760	51392	49152	47552	46464	44928	43968	43968	42944	41984	41024	41024	41024	41472	41984	42432	42432	42944	43456	44416	44928	44928	44928	44928	44928	45952	45952	45952	45952	45952	45952	46464	45952	45440	44928	44416	43968	43968	43456	43456	42944	42944	42432	41984	41472	41024	41024	40576	40576	40576	40576	40576	41024	41472	42432	42944	43968	44928	45440	46464	47552	48640	49728	50816	52544	53120	53760	54336	55552	56192	55552	55552	55552	54912	54912	53760	53120	53120	53120	53760	53760	53760	54336	54336	54336	54912	54912	54912	54912	55552	56192	58048	58688	59968	61312	62016	63360	63360	63360	63360	64064	64768	640	2880	4352	6720	8320	9984	11648	11648	12480	13376	13376	14208	15104	16000	16000	16896	16896	17856	18752	19712	17856	17856	12480	9152	5120	640	61312	57408	54336	51968	49152	47552	44928	44928	45952	47040	49152	50816	50304	49152	48064	46464	43456	40064	37376	34368	32704	31936	31552	31104	30720	29632	28864	28096	27776	27392	26688	26688	0	0	0	0	0	0	21632	21632	21952	21952	21952	21952	21952	21952	22272	22272	22272	22272	22592	22912	22912	23616	23616	24256	24960	25600	26688	28864	31552	0	36928	36928	39616	41472	42944	43968	44928	45952	46464	47040	46464	45952	45952	45440	45440	44928	44928	44928	45440	45440	45440	45440	45440	46464	46464	46464	47040	47040	47040	46464	46464	46464	46464	47040	47040	47552	48064	48640	49152	49728	50304	50304	50816	50816	50816	50304	50304	50304	49728	49728	49728	49728	49152	49152	48640	48640	48640	48064	48064	48640	48640	48640	49152	49152	49152	49152	49728	49728	49728	50304	50304	50816	50816	50816	50304	50304	50304	50304	50304	49728	49728	49728	49728	50304	50304	50304	50304	50304	50816	50816	51392	51968	52544	53760	54336	55552	56192	57408	57408	57408	58048	58048	58048	58048	58048	58048	57408	56768	56768	56192	55552	54912	54336	52544	52544	51968	51968	51392	51392	50816	50304	50304	50304	50304	50304	50304	50304	50304	50304	50304	50816	51392	51968	52544	53760	54912	56768	58048	59328	59328	59968	59968	59328	58688	58048	56192	54912	53760	52544	51392	50816	50816	49728	49728	49152	49152	49728	49728	50304	50304	50816	51392	51392	51392	51392	51392	51392	51392	50816	50816	50816	50816	50816	50816	51392	51392	51968	53120	53120	53760	54336	54336	56192	56192	56192	54912	54912	54336	54336	53120	52544	52544	52544	51968	51968	51968	51968	51968	51968	52544	53120	53120	53120	53760	53760	53760	53760	53760	53760	53760	53760	53760	53760	53760	53760	53760	53760	53760	53760	53760	53760	53760	53760	53760	53760	53760	53760	53760	53120	53120	53120	53120	53120	53760	53760	53760	54336	54336	53760	53760	54912	54336	53760	53120	49152	47552	47552	0	0	0	0	0	0	0	0	0	0	0	0	0	0	0	0	0	0	0	0	0	0	0	0	0	0	0	0	38976	38976	41408	42624	45184	46528	47872	47872	47872	47872	0	0	0	38976	35392	35392	0	0	0	0	0	0	0	0	0	0	0	0	0	27392	27392	50752	2304	59136	50752	42688	34880	27392	20160	6336	59008	52864	52864	46912	41152	35584	35584	35584	35584	35584	35584	35584	41152	46912	52864	52864	52864	46912	46912	46912	41152	41152	35584	35584	24896	19776	9984	5312	5312	768	49216	41344	26688	16640	4224	58432	48000	38464	29568	23360	19392	17472	17472	17472	21312	23360	25408	27456	29568	36160	38464	40768	43136	45568	50560	55744	64000	1280	4224	10304	26688	0	0	0	0	0	42944	42432	41472	40576	40064	39616	39616	39616	39616	39616	39616	40064	40576	41472	42944	47040	48640	49728	0	0	0	0	0	0	0	0	0	0	62656	62656	64064	65472	1408	2112	2880	4352	5120	5120	5120	5120	5120	5120	5952	5952	6720	7488	7488	8320	8320	8320	9984	9984	9984	9984	9152	8320	8320	6720	6720	5952	5120	4352	3584	3584	2880	2880	2112	1408	65472	64768	64064	63360	62656	62016
64000	4224	7232	7232	7232	4224	61184	58432	53120	48000	45568	40768	38464	36160	33920	33920	33920	31744	29568	25408	17472	8320	8320	62272	50560	30912	23616	16896	12480	9152	5952	4352	2880	640	64768	62016	59968	58048	55552	53120	50304	48640	47040	45440	44416	43456	42432	42432	41984	41024	41024	41024	41472	41472	41984	42944	43968	44416	45440	45440	45952	46464	46464	46464	47040	47040	47040	47040	46464	46464	45952	45440	44928	43968	43456	43456	42944	42432	42432	41984	41472	41472	41024	41024	40576	40576	40064	40064	40064	40064	40064	41024	41472	42432	42944	43968	44928	45952	47040	47552	49152	49728	50816	51968	52544	53760	54336	54912	56192	56192	56192	56192	56192	55552	54336	54336	54336	53760	53760	54336	53760	53760	53120	53120	53760	53120	53120	53760	53760	54912	54912	56192	56768	58048	58688	59968	59968	61312	61312	62656	63360	64768	1408	2880	5952	7488	9152	9984	11648	12480	13376	13376	13376	13376	14208	14208	14208	14208	14208	15104	14208	12480	12480	7488	4352	1408	62656	58688	55552	53120	50816	49152	47552	45952	45952	46464	47040	47552	48064	47552	46464	44928	43456	41024	38720	36480	34368	32704	31936	31104	31104	30720	29952	29632	28864	28480	28096	27392	27392	0	0	0	0	0	0	22272	22272	22272	22272	22272	22272	22272	22272	22592	22592	22912	22912	23232	23616	23936	24256	24256	24960	25600	26304	27392	29248	31552	0	36032	36032	38272	39616	41024	42432	43456	44928	45440	45952	45952	45440	45440	44928	44928	44416	44416	44416	43968	43968	44416	44416	44928	44928	44928	45440	45952	45952	45952	45440	45440	45440	45952	46464	46464	47040	47552	48064	48640	49152	49728	49728	49152	49152	49152	48640	48640	48064	48064	47552	47552	47552	47552	47040	47040	47040	47040	47040	47040	47040	47040	47552	47552	48064	48640	48640	49152	49152	49728	50304	50304	50304	50816	50816	50304	50304	50304	50304	50304	50304	50304	50304	50304	50816	50816	50304	50304	50304	50816	50816	51392	51968	51968	53120	53760	54912	55552	56192	56768	56768	57408	57408	57408	57408	57408	56768	56768	56768	56192	56192	54912	54912	53760	53120	52544	51968	51968	51392	51392	50816	50304	50304	50304	49728	49728	49728	49728	49728	49728	49728	50304	51392	51392	51968	53120	54336	55552	56768	58048	57408	57408	57408	57408	56768	55552	54336	53120	51968	50816	50304	49728	49152	48640	48640	48640	48640	49152	49152	49728	49728	50304	50816	50816	51392	51392	51392	51392	51392	51392	51392	51392	51392	51392	50816	50816	51392	51968	51968	52544	53120	54336	54336	54912	55552	55552	54336	54336	53760	53760	51968	51968	51968	51968	51392	51392	51392	51392	51392	51392	51968	51968	52544	52544	53120	53120	53120	53120	53120	53120	53120	53120	53120	53120	53120	53120	53120	53120	53760	53760	53760	53760	53760	53760	53760	53760	53120	53120	53120	53120	53120	53120	53120	53760	54336	54336	54336	54912	55552	55552	55552	54912	54336	53760	53120	51968	51968	0	0	0	0	0	0	0	0	0	0	0	0	0	0	0	0	0	0	0	0	0	0	0	0	0	0	0	0	0	0	0	0	0	0	56256	56256	0	0	0	0	0	0	0	0	0	0	0	0	0	0	0	0	0	0	0	0	0	0	41152	41152	13120	20160	13120	13120	13120	6336	6336	65344	59008	59008	52864	52864	52864	46912	41152	35584	35584	35584	41152	35584	35584	41152	41152	41152	41152	41152	35584	35584	30144	24896	24896	24896	24896	19776	9984	5312	768	61824	57536	49216	37568	23296	13440	4224	61184	48000	38464	27456	17472	13696	10048	8320	8320	8320	11840	13696	17472	21312	25408	29568	31744	36160	40768	45568	50560	58432	61184	64000	64000	0	0	0	0	0	0	43968	43456	42944	41984	41472	41024	41024	41024	41024	41472	41472	41984	42944	43968	45440	47040	48640	49728	51392	53120	55552	56768	57408	57408	57408	57408	57408	58688	60672	62656	64064	64768	640	1408	3584	4352	5120	5952	5952	5952	5952	5952	6720	6720	6720	6720	7488	8320	8320	8320	8320	8320	8320	8320	7488	6720	6720	5952	5120	4352	4352	3584	3584	2880	2112	1408	1408	65472	64768	64064	63360	62656	61312	61312
55744	61184	64000	1280	4224	1280	61184	58432	53120	50560	48000	45568	40768	38464	36160	36160	36160	36160	33920	31744	27456	19392	8320	62272	50560	40192	30912	21632	16000	11648	8320	5120	3584	640	64064	62016	59328	57408	55552	52544	50304	48640	47040	45440	44416	43456	42432	41984	41984	41024	41024	41024	41024	41024	41984	42944	43456	44928	45952	46464	47040	47040	47552	47552	47552	47552	47552	47040	45952	45440	44928	44416	43456	42432	41984	41984	41472	41024	41024	41024	40576	40576	40576	40576	40064	40064	39616	39616	39616	40064	40064	41024	41472	41984	42944	43968	44928	45952	47040	47552	48064	49152	50304	51392	51968	52544	53760	54336	55552	55552	55552	56192	56192	55552	54912	54336	54336	54336	53760	53760	53760	53120	52544	52544	53120	52544	51968	51968	52544	52544	53760	54336	54912	55552	56768	57408	58688	59968	59968	60672	62016	64064	65472	1408	4352	6720	7488	9152	10816	11648	12480	12480	12480	13376	13376	12480	12480	11648	10816	10816	9984	7488	5952	3584	65472	62656	59328	56768	54336	52544	50816	49152	47552	46464	46464	46464	47040	47040	46464	45440	43968	41984	41024	39168	37376	35648	33920	32704	31936	31104	31104	30720	29952	29632	29248	28864	28864	28096	27776	27776	0	0	0	0	0	22912	22592	22592	22592	22592	22592	22912	22912	23232	23616	23616	23616	23936	24256	24576	24960	0	0	0	0	29952	29952	31936	33152	34368	35648	36928	38272	39616	41024	41984	42944	43968	43968	44416	44416	44416	43968	43968	43968	43456	43456	43456	43456	43456	43456	43456	43456	43968	43968	44416	44928	44928	44928	44416	44416	44928	45440	45952	46464	46464	47552	48064	48064	48640	48640	48064	47552	47552	46464	45952	45440	44928	44928	44928	44928	44416	44416	44416	44416	44416	45440	44928	44928	45440	45952	46464	46464	47040	48064	48640	48640	49152	49728	50304	50304	50816	50816	50816	50816	50304	50304	50304	50304	50816	50816	50816	51392	50816	50816	50816	50816	50816	51392	51392	51392	51392	52544	53120	53760	54336	54912	54912	55552	55552	56192	56192	56192	56192	56192	56192	55552	55552	54912	54336	53760	53760	53120	53120	52544	51968	51392	51392	51392	50816	50816	50304	49728	49728	49728	49728	49728	49728	49728	50304	50816	50816	51392	51968	53120	54336	54912	55552	56192	56192	56192	55552	54912	53760	52544	51392	50816	50304	49152	48640	48640	48064	48064	48064	48064	48640	48640	49152	49728	50304	50304	50816	51392	51392	51392	51392	51392	51392	51392	51392	51392	51392	50816	50816	51392	51392	51392	51968	53120	53760	53760	54336	54912	54336	53760	53120	53120	52544	51968	51968	51392	51392	51392	50816	50816	50816	50816	51392	51392	51392	51968	51968	51968	52544	51968	51968	51968	51968	51968	51968	51968	52544	52544	52544	52544	52544	53120	53120	53120	53120	53760	53120	53120	53120	53120	53120	53120	53120	53120	53120	53120	53760	53760	54336	54336	54912	55552	56192	56192	55552	55552	55552	54912	54912	54912	0	0	0	0	0	0	0	0	0	0	0	0	0	0	0	0	0	0	0	0	0	0	0	0	0	0	0	0	0	0	0	0	0	0	65408	65408	0	0	0	0	0	0	0	0	0	0	0	0	0	0	0	0	0	0	0	0	0	0	768	768	41152	46912	46912	46912	46912	46912	46912	46912	46912	46912	46912	46912	46912	41152	41152	35584	35584	35584	30144	30144	30144	30144	24896	24896	24896	24896	19776	14784	9984	9984	5312	5312	5312	768	61824	57536	53312	49216	45248	37568	26688	16640	7232	1280	1280	43136	38464	27456	17472	13696	10048	8320	8320	8320	3200	3200	6592	10048	17472	21312	25408	31744	36160	40768	48000	53120	55744	55744	58432	50560	50560	0	0	0	0	44928	44416	43968	43456	42432	41472	41472	42432	42944	43456	43968	44416	45952	47552	47040	47040	48640	49728	51392	53120	55552	56768	57408	57408	57408	57408	57408	58688	60672	62656	63360	64768	65472	1408	2880	4352	5120	5952	6720	6720	6720	6720	6720	6720	6720	6720	7488	7488	7488	7488	6720	6720	6720	5952	5952	5120	4352	4352	3584	3584	2880	2112	2112	1408	1408	640	65472	64768	64064	62656	62016	61312	61312	60672
50560	55744	58432	61184	64000	1280	64000	58432	55744	53120	50560	48000	43136	40768	38464	38464	38464	38464	38464	38464	38464	29568	21312	10048	63872	53376	40192	29824	21632	15104	9152	6720	2880	65472	62656	60672	58048	56192	54336	51968	50304	48064	47040	45440	44416	43456	42944	41984	41472	41024	41024	41024	41024	41024	41472	41984	42944	43968	44928	45440	45952	47040	46464	46464	47040	47040	46464	45952	44928	44416	43456	42944	41984	40576	40064	40064	39616	39168	39168	39168	38720	38720	38720	38720	38720	38720	38720	38720	38720	39168	39616	40064	41024	41984	42944	43968	44928	45952	47040	47552	48064	49152	49728	50816	51968	51968	53120	53760	54336	54912	54912	54912	54912	54912	54336	54336	53760	53120	53120	53120	52544	51968	51392	51392	51392	50816	50816	50816	50816	51392	51968	52544	53120	54336	54912	56192	56768	57408	58688	59328	60672	62656	64768	1408	3584	5120	6720	9152	10816	11648	12480	12480	12480	13376	13376	11648	11648	9152	9152	7488	5952	3584	3584	64768	62016	59968	57408	54912	53120	51968	50816	49152	48064	47552	47040	47040	47040	47040	46464	45440	43968	41984	40064	38720	36480	34368	33152	31552	31552	31104	30720	30336	29952	29248	28864	28480	28096	27392	27392	26304	25984	25280	25280	23616	23232	22912	22912	22912	22912	22912	22912	23232	23232	23616	23936	23936	24256	24576	24576	25280	25600	26304	27008	27008	28480	28480	29952	31104	31936	32704	33920	35200	36480	37824	38720	40064	41024	41472	42432	42944	42944	42944	43456	42944	42944	42944	42944	42432	42432	42432	42432	42432	42432	42432	42944	43456	43456	43456	43456	43456	43456	43968	44416	44928	45440	45952	46464	47040	47552	48064	47552	47040	45952	45440	44928	44416	43456	42944	42944	42432	41984	41984	42432	42432	42432	42944	42944	42944	43456	43968	44928	45440	45952	46464	47040	47552	48064	49152	49728	50304	50304	50816	50816	50816	50816	50816	50816	50816	50816	50816	50816	50816	51392	51392	51392	50816	50816	50816	50816	50816	50816	50816	51392	51968	52544	53120	53120	53760	53760	53760	53760	53760	53760	53760	54336	54336	54336	54336	53760	53760	53760	53120	52544	52544	52544	52544	52544	51968	51968	51392	50816	50816	50304	50304	50304	49728	49728	49728	49728	50304	50304	50304	50816	50816	51968	51968	53120	53760	53760	54336	54336	54336	53120	52544	51392	50816	50304	49152	48640	48640	48064	48064	48064	47552	47552	48064	48640	48640	49728	49728	50304	50816	51392	51392	51392	51392	51392	51392	51392	51392	51392	51392	50816	50816	51392	51392	51392	51968	51968	52544	52544	52544	53120	53120	53120	52544	52544	52544	51968	51392	50816	50816	50816	50816	50816	50816	50816	50816	51392	51392	51392	51392	51968	51968	51968	51968	51392	51392	50816	50816	50816	50816	51392	51392	51968	51968	52544	53120	53120	53120	53120	52544	52544	52544	53120	52544	52544	52544	52544	52544	53120	53120	53760	53760	54336	54336	54912	55552	54912	54912	54912	53760	53760	53760	53760	0	0	0	0	0	0	0	0	0	0	0	0	0	0	0	0	0	0	0	0	0	0	0	0	0	0	0	0	0	0	0	0	0	0	0	0	0	0	0	0	0	0	0	0	0	0	0	0	0	0	0	0	0	0	0	0	0	0	26688	26688	5312	14784	14784	14784	14784	19776	24896	24896	30144	30144	30144	35584	35584	35584	24896	24896	24896	19776	19776	19776	14784	9984	9984	9984	9984	5312	768	61824	53312	49216	49216	49216	49216	45248	41344	41344	33856	33856	30208	26688	16640	7232	64000	58432	58432	43136	43136	0	0	0	0	0	0	0	3200	3200	6592	4864	4864	11840	17472	21312	27456	33920	38464	43136	40768	40768	36160	25408	25408	0	0	2112	56768	48640	47040	45952	44928	43968	42944	42944	43456	44416	45440	45952	47040	47552	47552	49152	50816	52544	53120	54912	56192	57408	58688	58688	58688	58048	58048	58048	59328	60672	62656	63360	64768	65472	1408	2880	4352	5120	5952	6720	6720	6720	7488	6720	6720	6720	6720	5952	5952	5952	5952	5952	5120	4352	4352	4352	3584	2880	2880	2112	2112	1408	640	640	640	65472	65472	64064	63360	63360	62016	61312	60672	59968	58688
45568	50560	53120	55744	61184	61184	61184	58432	55744	53120	50560	50560	45568	43136	40768	38464	38464	40768	43136	43136	43136	40768	36160	25408	15552	1536	1536	40192	27712	18752	10816	6720	2112	64064	61312	58688	56768	54912	53120	51392	49728	48064	47040	45440	44928	43968	42944	41984	41472	41472	41024	41024	41024	41024	41472	41984	42944	43456	43968	44416	45440	45952	45440	45440	45440	45440	44928	44416	43456	42944	41984	41472	40576	39616	38720	38272	38272	37824	37376	37376	36928	36928	36928	37376	36928	36928	37376	37824	37824	38272	39168	40064	40576	41472	42432	43456	44416	45440	46464	47040	47552	48640	49152	50304	50816	51392	51968	52544	53120	53120	53760	53760	53760	53760	53760	53120	52544	52544	51968	51968	51968	51392	50816	50816	50304	50304	50304	50304	50304	50304	50816	51392	51392	51968	53120	53760	54336	56192	56768	58048	59328	62656	64064	640	2880	5120	6720	9152	10816	11648	12480	12480	13376	13376	13376	11648	10816	8320	6720	5120	2880	65472	63360	61312	59328	57408	55552	54336	52544	51968	50816	49728	49152	48640	48640	48640	48640	48640	47552	45952	44416	42432	40064	37376	34752	31552	30336	30336	31104	30720	30336	29952	29248	28480	28096	27776	27392	26688	26304	25984	25280	24960	23936	23616	23232	23232	22912	22912	22912	22912	23232	23232	23616	23936	23936	24256	24576	24960	24960	25280	25600	26304	27008	27008	27392	28480	29632	30336	31104	31936	32704	33920	34752	36032	36928	37824	39168	40064	40576	41472	41472	41984	42432	42432	42432	42432	42432	42432	42432	42432	41984	41984	41984	41984	41984	42944	42944	42944	42944	42944	42944	43456	43968	44416	44928	45440	46464	46464	47552	47040	46464	45440	44928	44416	43456	42432	41984	41024	40576	40576	40576	40064	40064	40064	40576	40576	41024	41984	41984	42432	43968	44416	44928	45952	46464	47552	48064	48640	49728	50304	50304	50816	50816	51392	51392	51392	51392	51968	51968	51968	51968	51968	52544	51968	51968	51392	51392	51392	50816	50816	50816	50816	50816	50816	50816	51392	51392	51392	51968	51968	51968	51968	51968	51968	52544	52544	52544	52544	52544	52544	52544	52544	52544	52544	52544	52544	52544	52544	51968	51968	51392	51392	50816	50304	50304	50304	49728	49728	49728	49728	49728	50304	50304	50304	50816	50816	51392	51968	51968	51968	51968	51968	51968	51392	50816	50304	49728	49152	48640	48640	48064	47552	47552	47552	47552	48064	48064	48640	49152	49728	50304	50816	50816	51392	51392	51392	51392	51392	51392	51968	51968	51392	51392	51392	51392	51392	51392	51392	51392	51392	51968	51968	52544	52544	52544	52544	51968	51968	51968	51392	50816	50816	50816	50816	50816	50816	50816	50816	50816	51392	51392	51392	51392	51392	51392	51392	50816	50816	50816	50816	50816	50816	50816	51392	51392	51968	51968	52544	52544	52544	52544	52544	52544	52544	52544	52544	51968	51968	51968	52544	52544	52544	53120	53120	53120	53760	53760	53760	53760	53120	53120	52544	51968	51968	50304	50304	0	0	0	0	0	0	0	0	0	0	0	0	0	0	0	0	0	0	0	0	0	0	0	0	0	0	0	0	0	0	0	0	0	0	0	0	0	0	0	0	0	0	0	0	0	0	0	0	0	0	0	0	0	15104	15104	32000	0	26688	10304	10304	26688	37568	41344	45248	49216	53312	57536	61824	768	5312	5312	9984	14784	9984	9984	5312	5312	5312	768	61824	61824	57536	57536	53312	53312	45248	41344	33856	33856	30208	30208	30208	26688	23296	19904	19904	19904	16640	13440	4224	58432	53120	48000	40768	31744	31744	0	57728	53376	47872	46528	45184	45184	46528	50560	51968	56256	60736	1536	6592	10048	15552	21312	23360	25408	23360	21312	15552	3200	3200	0	0	2112	56768	52544	50304	48640	47040	45440	44416	44416	44928	46464	48064	49152	48640	48640	50816	52544	54912	56192	56768	58048	58688	59328	59968	59328	59328	59328	59328	59328	59968	61312	62656	63360	64768	65472	1408	2112	3584	4352	5952	6720	6720	7488	7488	7488	6720	6720	5952	5120	4352	4352	4352	4352	3584	2880	2880	2112	2112	1408	640	640	65472	65472	64768	64768	64768	64064	64064	62656	62656	62016	60672	59968	59328	59328	57408
40768	43136	48000	53120	55744	58432	58432	58432	55744	53120	53120	50560	48000	43136	43136	43136	43136	43136	45568	45568	48000	50560	45568	38464	29568	17472	3200	1536	37760	35392	15104	7488	2112	64064	61312	58688	56192	54336	52544	50816	49728	48064	47040	45952	44928	44416	43456	42432	41984	41984	41472	41024	41024	41024	41472	41984	42432	42944	43456	43968	44416	44928	44416	44416	44416	44416	43968	42944	42432	41472	41024	40064	39616	38272	37824	37376	36928	36928	36480	36032	36032	36032	36032	36480	36480	36480	36928	36928	37376	38272	38720	39616	40576	41472	41984	43456	43968	44928	45952	46464	47552	48064	48640	49728	50304	50816	51392	51968	52544	52544	53120	53120	53120	53120	53120	52544	51968	51968	51968	51968	51392	50816	50816	50816	50304	50304	50304	49728	49728	49728	50304	50304	50304	50816	51392	51392	51968	53760	54912	56768	58688	61312	64064	640	2880	5120	6720	9152	11648	12480	13376	14208	14208	14208	13376	12480	10816	8320	6720	4352	1408	64768	62656	60672	59328	57408	55552	54336	52544	51968	50816	50816	50304	49728	49728	49728	50304	50816	50304	48640	46464	42432	38272	35200	31936	28864	28864	29248	28864	28096	28096	27776	27008	27008	26688	26688	26304	25600	25280	24960	24960	24576	23936	23616	23232	23232	22912	22912	22912	22912	23232	23232	23616	23936	24576	24576	24576	24960	25280	25280	25600	25984	26688	27008	27392	28096	29248	30336	30720	31104	31936	33152	33920	34752	35648	36480	37376	38272	39168	40064	40576	41024	41472	41984	42432	42432	42432	42432	42432	42432	41984	41984	41984	41984	41984	41984	42432	42432	42432	42944	42944	43456	43968	44416	44928	45440	45952	46464	46464	47040	45952	44928	43968	42944	41984	41024	40064	39616	39168	39168	38720	38272	38272	38272	39168	39168	39616	40064	41024	41984	42944	43968	44416	45440	46464	47552	48064	48640	49728	50304	50304	50816	51392	51968	52544	52544	53120	53120	53120	53120	53120	53760	53120	52544	52544	51968	51392	51392	50816	50816	50816	50816	50816	50816	50816	50816	50816	50816	50816	50816	51392	51392	51392	51392	51392	51392	51392	51968	51968	51968	51968	51968	51968	51968	51968	51968	51968	52544	51968	51968	51392	51392	50816	50304	50304	50304	50304	49728	49728	49728	49728	49728	50304	50304	50304	50816	51392	51392	51392	51392	51392	51392	51392	50816	50304	50304	49728	49152	48640	48064	48064	47552	47552	47552	48064	48064	48064	48640	49152	49728	50304	50304	50816	50816	51392	51392	51392	51968	51968	51968	51968	51392	51392	51392	50816	50816	50816	50816	51392	51392	51392	51968	52544	52544	52544	51968	51968	51968	51968	51392	51392	51392	50816	50816	50816	50816	50816	50816	50816	50816	50816	50816	50816	50816	50304	50304	50304	50304	49728	49728	49728	50304	50816	50816	50816	51392	51392	51968	51968	51968	51968	51968	51968	51968	51968	51968	51968	51968	51968	51968	51968	52544	52544	52544	52544	53120	52544	52544	52544	51968	51392	50816	50304	50304	50304	50304	0	0	0	0	0	0	0	0	0	0	0	0	0	0	0	0	0	0	0	53760	53760	54336	58048	58048	62016	0	0	0	0	0	0	0	0	0	0	0	0	0	0	0	0	0	0	0	0	0	0	0	0	0	0	0	0	10816	10816	32000	0	0	45568	45568	58432	4224	10304	10304	13440	19904	23296	30208	33856	37568	41344	49216	53312	57536	57536	57536	57536	57536	53312	49216	45248	41344	37568	37568	33856	30208	23296	19904	16640	13440	13440	10304	10304	7232	4224	4224	4224	1280	61184	53120	45568	40768	36160	36160	31744	31744	0	57728	53376	47872	38976	38976	38976	41408	42624	45184	47872	51968	57728	62272	1536	6592	10048	11840	13696	10048	6592	1536	59200	47872	47872	0	0	62016	56768	53760	51392	49152	47040	45952	45952	47040	49152	49152	49152	50816	53120	55552	57408	59328	59968	59968	60672	61312	61312	60672	60672	60672	59968	59968	59968	61312	62016	62656	64064	64768	65472	1408	2112	3584	4352	5952	5952	6720	6720	7488	6720	6720	5952	5120	4352	3584	3584	2880	2880	2880	2112	1408	1408	640	65472	64768	64064	63360	63360	63360	62656	62656	62656	62016	61312	60672	59968	58688	58688	58048	57408	55552
33920	38464	43136	48000	50560	55744	55744	55744	55744	55744	53120	53120	48000	45568	43136	43136	43136	45568	48000	50560	50560	53120	53120	48000	43136	33920	19392	1536	65408	35392	30912	11648	5120	64768	61312	59328	56192	54336	52544	50816	49728	48064	47040	45952	45440	44928	44416	43456	42432	41984	41984	41984	41472	41472	41472	41984	42432	42944	42944	43456	43968	43968	43456	43456	43456	42944	42432	41984	41024	40576	40064	39616	38720	37824	36928	36928	36480	36032	36032	36032	36032	36032	36032	36032	36480	36480	36928	36928	37376	37824	38272	39168	40064	41024	41472	42432	43456	44416	45440	45952	47040	47552	48064	49152	49728	49728	50816	51392	51968	52544	52544	52544	52544	52544	51968	51968	51968	51968	51968	51968	51392	50816	50816	50816	50304	50304	50304	49728	49728	49728	49152	49152	49152	49152	49728	50304	50816	51968	53760	55552	58688	61312	64768	1408	4352	6720	8320	9984	12480	14208	15104	15104	15104	15104	14208	12480	11648	8320	6720	4352	1408	64768	62656	60672	58688	57408	55552	54336	53760	53120	51968	51392	51392	50816	50816	50816	50816	51968	50816	49152	47040	42432	38272	34752	30720	28864	27392	26304	25600	24960	24960	25280	24960	24960	24960	24960	24960	24960	24960	24576	24576	24256	23936	23616	23232	23232	23232	23232	23232	23232	23232	23616	23616	24256	24576	24576	24960	25280	25280	25280	25600	25984	26688	27008	27008	28096	28864	29952	30336	30720	31552	32320	33152	33920	34752	35648	36032	36928	38272	39168	39616	40064	41024	41472	41984	42432	42944	42432	42432	42432	42432	41984	41984	41984	41984	41984	42432	42432	42432	42944	42944	43456	43968	44416	44928	45440	45952	46464	46464	45952	45440	43968	42944	41984	40576	39616	39168	38720	38272	37824	37824	37824	37824	37824	38272	38720	38720	39168	40576	41472	41984	43456	44416	45440	46464	47552	48064	49152	49728	50304	50816	51392	51968	52544	53120	53120	53760	54336	54336	54912	54912	54912	54912	54336	53120	53120	52544	52544	51392	51392	50816	50816	50816	50816	50816	50304	50304	50304	50304	50304	50816	50816	50816	50816	50816	50816	51392	51392	51392	51392	51392	51392	51392	51392	51968	51968	51968	51968	51968	51968	51392	51392	51392	50304	50304	50304	50304	50304	50304	50304	49728	49728	50304	50304	50304	50816	50816	50816	50816	50816	50816	50816	50816	50816	50304	50304	49728	49152	48640	48064	48064	48064	48064	48064	48064	48064	48064	48640	49152	49728	49728	50304	50304	50816	50816	51392	51392	51392	51968	51968	51392	51392	51392	51392	50816	50816	50816	50816	50816	50816	51392	51392	51968	51968	51968	51968	51968	51968	51968	51968	51392	51392	51392	51392	50816	50816	50816	50816	50816	50304	50304	49728	49152	49152	49152	48640	48640	48064	48064	48064	48640	49152	49728	50304	50304	50816	51392	51392	51968	51968	51968	51968	51968	51968	51392	51392	51968	51968	51968	51968	51968	51968	52544	51968	51968	51968	51392	51392	50816	50816	50304	49728	49728	48064	47552	47552	0	0	0	0	0	0	0	0	0	0	0	0	0	0	0	0	0	0	0	53760	53760	54336	58048	58048	62016	0	0	0	0	0	0	0	0	0	0	0	0	0	0	0	0	0	0	0	0	0	0	0	0	64768	64768	64768	65472	1408	7488	0	0	1536	1536	33920	33920	45568	50560	53120	53120	58432	61184	1280	7232	10304	16640	19904	33856	37568	41344	37568	37568	37568	33856	30208	26688	23296	19904	19904	16640	13440	10304	4224	1280	64000	64000	61184	61184	58432	55744	55744	55744	53120	48000	40768	33920	29568	25408	25408	0	0	0	0	0	0	38976	35392	35392	37760	38976	41408	43904	47872	57728	62272	63872	63872	1536	4864	6592	4864	65408	60736	54784	43904	33152	23616	14208	640	61312	61312	54336	51968	49728	48064	48064	49152	49152	50816	52544	54912	57408	59968	62016	63360	63360	63360	62656	62656	62016	62016	61312	61312	61312	61312	61312	62016	62656	63360	64768	65472	640	2112	2880	3584	5120	5120	5952	6720	6720	7488	6720	6720	5952	5120	4352	3584	2880	2880	2880	2112	1408	1408	640	65472	64768	64064	63360	62656	62016	62016	62016	61312	61312	61312	59968	59328	58688	58048	58048	56768	56768	55552
23360	29568	36160	40768	45568	50560	53120	55744	55744	55744	55744	53120	50560	50560	48000	48000	48000	48000	50560	55744	55744	58432	61184	61184	55744	48000	36160	19392	65408	65408	30912	17856	9152	2112	63360	59968	56768	54336	52544	50816	49728	49152	48064	47040	46464	45952	44928	43968	43456	42944	42432	42432	41984	41984	41984	42432	42432	42432	42944	42944	42944	42944	42432	42432	42432	41984	41472	41024	40576	39616	39168	38720	38272	37376	36480	36480	36480	36032	36032	36032	36032	36032	36032	36032	36480	36480	36928	36928	37376	37824	38272	39168	40064	40576	41472	41984	43456	43968	44928	45440	45952	47040	47552	48064	48640	49728	49728	50816	50816	51392	51392	51392	51392	51968	51392	51392	51392	51392	51392	51392	51392	51392	50816	50816	50304	50304	50304	49728	49728	49152	48640	48640	48640	48640	48640	49152	49728	51392	53120	55552	58688	62656	640	2880	6720	8320	10816	13376	15104	16000	17856	17856	17856	16896	16000	14208	12480	9984	6720	5120	2112	64768	62656	60672	58688	57408	56768	55552	54912	54336	53760	53120	53120	53120	53120	53120	53760	54336	53120	51392	49152	43456	38720	34752	30720	27008	25280	24256	23232	22592	22592	22912	22912	22912	22912	22912	23616	23616	23936	24256	24256	24256	23936	23616	23616	23232	23232	23232	23232	23232	23232	23616	23616	24256	24576	24576	24960	25280	25280	25280	25600	25984	26304	27008	27008	27776	28480	29632	29952	30336	31104	31552	32320	33152	33920	34368	35200	35648	36480	37824	38272	39168	40064	40576	41472	41984	42944	42944	42944	42944	42432	42432	42432	42432	42432	42432	42432	42432	42432	42432	42944	42944	43456	44416	44928	45440	45440	45952	45952	45440	44928	43968	42432	41472	40576	39616	39168	38720	38272	37824	37824	37824	37824	37824	38272	38720	38720	39168	40064	40576	41472	42944	43968	45440	45952	47040	48064	49152	49728	50304	51392	51968	51968	53120	53760	54336	55552	55552	56192	56768	56768	56768	56192	54912	54912	54336	53120	53120	52544	51968	50816	50816	50816	50816	50304	50304	50304	50304	50304	50304	50304	50304	50304	50304	50304	50816	50816	51392	51392	51392	51392	51392	51392	51392	51968	51968	51968	51968	51968	51968	51968	51392	51392	50816	50304	50304	50304	50304	50304	50304	50304	50304	50304	50304	50816	50816	50816	50816	50816	50816	50816	50304	50304	50816	50304	49728	49728	49728	48640	48640	48640	48064	48064	48064	48064	48064	48064	48640	48640	49152	49728	49728	50304	50304	50816	50816	50816	51392	51392	51392	51392	51392	50816	50816	50304	50304	50816	50816	50304	50304	50816	50816	51392	51392	51392	51968	51968	51968	51968	51968	51968	51968	51392	51392	50816	50816	50304	50304	50304	49728	49152	48640	48064	48064	47552	47552	47040	47040	47040	47040	47552	48064	48640	49152	50304	50816	50816	51392	51392	51392	51392	51392	51392	51392	51392	51392	51392	51968	51968	51968	51968	51968	51968	51392	51392	51392	50816	50304	49728	49728	49152	48640	48064	47040	45952	44928	44928	0	0	0	0	0	0	0	0	0	0	0	0	0	41024	41024	42432	43456	45440	0	0	0	0	0	0	0	0	0	0	0	0	0	0	0	0	0	0	0	0	0	0	0	0	0	0	0	0	0	63360	63360	64064	64768	64768	640	5952	0	0	53376	53376	13696	13696	25408	29568	31744	31744	36160	40768	45568	48000	53120	58432	1280	7232	16640	23296	23296	23296	16640	16640	13440	7232	7232	4224	4224	1280	64000	61184	58432	55744	53120	53120	50560	50560	45568	43136	43136	43136	43136	36160	29568	25408	19392	15552	11840	4864	4864	0	0	0	0	0	35392	35392	37760	38976	40192	42624	45184	47872	51968	54784	59200	62272	63872	63872	62272	62272	53376	47872	38976	30912	23616	14208	5120	65472	61312	61312	55552	53120	51392	49152	49152	51392	53760	59328	59328	62016	5120	2880	2880	2112	1408	640	640	65472	64768	64064	63360	63360	63360	63360	64064	64064	64768	65472	640	2112	2112	2880	3584	5120	5120	5952	6720	6720	6720	6720	6720	5952	5120	4352	3584	2880	2880	2880	2112	1408	640	65472	64768	64064	63360	62016	61312	60672	60672	60672	59968	59968	59968	59328	58048	57408	56768	56192	56192	56192	54912
11840	19392	25408	31744	38464	45568	48000	53120	55744	55744	58432	55744	55744	53120	50560	50560	50560	53120	53120	58432	61184	64000	1280	4224	4224	64000	53120	36160	31744	31744	0	25600	15104	5952	64768	61312	57408	54912	52544	51392	50816	49728	48640	48064	47040	46464	45440	44928	43968	43456	42944	42944	42944	42432	42432	42432	42432	42432	42432	42432	41984	41984	41472	41472	41024	41024	40064	39616	39168	39168	38720	38272	37824	37376	36480	36480	36480	36032	36032	36032	36032	36480	36480	36480	36928	36928	36928	37376	37824	37824	38272	39168	40064	40576	41024	41984	42944	43456	44416	44928	45952	46464	47040	48064	48640	48640	49728	49728	50304	50304	50816	50816	50816	50816	50816	50816	50816	50816	50816	50816	50816	50816	50304	50304	50304	50304	49728	49152	49152	48640	48064	48064	47552	47552	48064	48064	49152	50304	52544	56192	59968	65472	5120	8320	11648	13376	16000	17856	18752	20672	20672	20672	20672	19712	18752	16896	14208	11648	9152	5120	2112	65472	62656	61312	59328	58048	57408	56768	56192	56192	56192	55552	55552	55552	56192	56768	56768	56768	56192	54912	51968	51968	39616	34752	28864	24960	22912	21632	20992	20416	20416	20416	20416	20672	20992	21312	21952	22272	22912	23616	23616	23616	23936	23616	23616	23616	23232	23232	23232	23232	23616	23616	23616	24256	24576	24576	24960	25280	25280	25280	25600	25984	26304	0	27776	27776	28480	29632	29952	30336	30720	31552	31936	32704	33152	34368	34368	35200	35648	36480	37376	38272	39168	40064	41472	41984	42944	43456	43456	43456	43456	43456	42944	42944	42944	42944	42944	42432	42432	42432	42944	42944	43456	44416	44928	45440	45440	45952	45952	45440	44928	43456	42432	41472	40576	39616	39168	38720	38272	37824	37824	37824	37824	37824	38272	38720	38720	39168	39616	40576	41472	42432	43968	44928	45952	47040	48064	49152	49728	50816	51392	51968	53120	53760	54336	55552	56192	56768	57408	57408	57408	57408	56768	55552	55552	54912	54336	53760	53120	51968	51968	51392	50816	50816	50304	50304	49728	49728	49728	49728	49728	49728	50304	50304	50304	50816	50816	50816	50816	51392	51392	51392	51392	51392	51968	51968	51968	51968	51968	51968	51968	51968	51392	51392	50816	50816	50816	50304	50304	50304	50304	50304	50304	50816	50816	50816	50816	50816	50816	50304	50304	50304	50304	50816	50304	49728	49728	49728	49152	49152	48640	48640	48064	48064	48064	48064	48064	48064	48640	48640	49152	49152	49728	49728	50304	50304	50816	50816	50816	51392	51392	50816	50816	50304	50304	50304	50304	50304	50304	49728	49728	50304	50304	51392	51392	51392	51392	51392	51968	51968	51968	51968	51968	51968	51392	50816	50304	50304	50304	49728	48640	48064	47552	47040	47040	46464	46464	46464	46464	47040	47552	48064	48640	49152	49728	50304	50816	51392	51392	51392	51392	51392	51392	51392	51392	51392	51392	51392	51392	51392	51392	51392	51392	50816	50304	50304	49728	48640	48640	48064	48064	47040	46464	45440	44416	44416	44928	0	40064	39616	39168	39168	0	0	0	40576	40576	40576	40576	41472	41024	41024	42432	43456	45440	47040	48640	49152	49728	49728	50816	0	0	0	0	0	0	0	0	0	0	0	0	0	0	0	0	0	0	0	0	0	1408	65472	63360	63360	64064	64768	64768	640	4352	9984	19712	30912	43904	57728	65408	10048	13696	13696	15552	17472	21312	23360	27456	29568	36160	43136	50560	61184	1280	4224	4224	4224	1280	1280	61184	61184	61184	58432	55744	53120	50560	48000	48000	45568	43136	43136	40768	40768	38464	38464	36160	33920	29568	23360	17472	11840	10048	4864	1536	1536	0	0	0	0	0	36608	36608	37760	38976	40192	40192	42624	45184	47872	50560	53376	56256	56256	56256	54784	50560	47872	42624	36608	29824	23616	16896	9984	5120	640	63360	63360	53120	51392	51392	53760	56192	58688	5120	1408	1408	5120	7488	7488	6720	5952	5120	5120	4352	2880	2112	1408	640	640	640	640	640	1408	1408	2112	2880	2880	3584	4352	4352	5120	5120	5952	5952	6720	6720	5952	5120	4352	3584	3584	2880	2112	1408	1408	640	65472	64768	63360	62656	62016	61312	59968	59328	59328	59328	58688	58688	58048	56768	56192	56192	55552	54912	54912	54912	54912
65408	6592	13696	19392	27456	33920	38464	45568	53120	55744	58432	58432	58432	55744	55744	55744	55744	55744	61184	64000	1280	4224	7232	10304	10304	10304	1280	53120	31744	25408	25408	47872	21632	11648	2880	63360	59328	55552	53120	51968	51392	50304	49728	48640	48064	47040	46464	45440	44416	43968	43456	43456	43456	42944	42944	42432	42432	42432	41984	41984	41472	41024	40576	40576	40576	40064	39616	39616	39168	38720	38720	38272	37824	37376	36928	36928	36928	36480	36480	36480	36480	36480	36480	36928	36928	36928	37376	37376	37824	37824	38272	39168	39616	40064	41024	41472	42432	43456	43968	44928	45440	45952	46464	47040	47552	48064	48640	49152	49152	49728	49728	49728	49728	49728	49728	49728	49728	49728	49728	49728	49728	49728	49728	49728	49152	49152	48640	48064	48064	47552	47040	46464	46464	46464	46464	47040	47552	49152	51968	56192	63360	4352	11648	15104	19712	22592	23616	24576	25600	25600	24576	23616	22592	21632	19712	17856	15104	11648	8320	5120	1408	64064	62016	59328	58048	57408	56768	56768	56192	56192	56192	56192	0	0	59328	59328	59328	59328	58688	56768	54336	54336	39616	39616	28864	21312	20096	18880	17984	17728	17728	17984	17984	18560	19200	19776	20096	20992	21952	22592	23232	23232	23936	23616	23616	23616	23616	23616	23232	23232	23616	23616	23616	23936	24256	24576	24960	25280	25280	25280	25600	25984	0	0	0	0	0	0	0	30720	30720	31104	31936	32320	33152	34368	34368	34368	35200	36032	36480	37376	38272	39616	41024	42432	43456	44416	44928	44928	44928	45440	45440	45440	45440	45440	45440	45440	45440	45440	45440	45440	45952	45952	46464	46464	46464	46464	45952	45952	44928	43456	42432	41472	40576	40064	39168	38720	38720	38720	38272	38272	38720	38720	38720	38720	39168	39168	39616	40576	41472	42432	43968	44928	45952	47040	48064	49152	50304	51392	51968	53120	53760	54336	55552	56192	56768	57408	58048	58048	58048	57408	57408	56192	54912	54912	54336	53760	53120	53120	51968	51968	50816	50816	50304	50304	49728	49728	49728	49728	49728	49728	49728	50304	50304	50816	50816	50816	50816	51392	51392	51392	51392	51392	51968	51968	51968	52544	51968	51968	51968	51968	51968	51392	51392	50816	50816	50816	50816	50816	50816	50816	50816	50816	50816	50816	50304	50304	50304	50304	50304	50304	50304	50816	50304	50304	49728	49152	49152	48640	48640	48640	48064	48064	48064	48064	48064	48064	48064	48064	48640	48640	48640	49152	49152	49728	49728	50304	50816	50816	50816	50816	50304	50304	50304	49728	49728	49728	49728	49728	49728	49728	50304	50816	50816	51392	51392	51392	51968	52544	52544	52544	52544	51968	51968	51392	50816	50816	50304	49728	48640	48064	47552	47040	47040	46464	46464	46464	46464	47040	47552	48064	49152	49152	49728	50304	50816	51392	51392	51392	51392	51392	51392	51392	51392	51392	51392	51392	51392	51392	51392	50816	50816	50304	50304	49728	49152	48064	47552	47040	47040	46464	45440	44416	44416	44416	0	41024	40064	39616	39168	39168	40576	41024	41472	40576	40576	40576	40576	41472	41984	41984	42944	43968	44928	45440	47040	48064	47552	47552	47552	47552	46464	46464	0	0	0	0	55552	55552	0	0	0	0	0	0	0	0	0	0	0	4352	1408	65472	64768	64768	64768	64768	64768	640	4352	9152	17856	27712	38976	49216	57728	65408	1536	3200	3200	4864	6592	8320	11840	13696	15552	23360	31744	40768	48000	50560	50560	53120	53120	53120	50560	50560	50560	48000	48000	45568	43136	40768	40768	40768	38464	36160	36160	36160	33920	31744	29568	27456	21312	15552	11840	6592	1536	62272	60736	60736	0	0	0	0	0	0	0	41408	41408	40192	40192	41408	43904	45184	47872	50560	51968	51968	51968	49216	45184	42624	37760	33152	28736	24576	19712	14208	10816	6720	63360	63360	0	56192	56192	58048	61312	0	5120	5120	7488	11648	14208	12480	11648	9984	9152	8320	6720	5952	4352	3584	2880	2880	2880	3584	4352	4352	5120	5120	4352	4352	4352	4352	4352	5120	5120	5952	5952	5952	6720	5952	5120	4352	3584	2880	2880	2112	1408	1408	640	65472	64064	62656	62016	61312	59968	59328	58688	58048	57408	57408	56768	56192	55552	54912	54336	54336	53760	53760	54336	54336
57728	62272	1536	8320	17472	23360	31744	38464	45568	50560	55744	58432	61184	61184	61184	61184	61184	64000	1280	4224	7232	10304	13440	16640	16640	13440	10304	64000	43136	25408	15552	47872	32000	19712	9152	1408	61312	56768	54336	52544	51392	50816	50304	49152	48640	48064	47040	46464	45440	44928	44416	43968	43968	43456	43456	42944	42432	42432	41984	41472	41024	40576	40576	40064	40064	39616	39616	39616	39168	38720	38720	38720	38272	37824	37824	37824	37376	37376	37376	36928	36928	37376	37376	37376	37376	37376	37376	37824	37824	38272	38272	39168	39616	40064	40576	41472	42432	42944	43456	44416	44928	45440	45952	46464	47040	47552	48064	48640	48640	48640	48640	48640	48640	48640	48640	48640	48640	48640	48640	48640	48640	48640	48640	48640	48064	48064	48064	47040	47040	46464	45952	45440	45440	45440	45440	45952	46464	47552	50304	54912	64064	7488	15104	21632	26624	28736	30912	30912	33152	30912	29824	28736	25600	23616	21632	18752	15104	10816	6720	3584	65472	62016	59328	57408	56192	55552	55552	54912	54912	54912	54912	55552	0	0	0	0	640	65472	65472	65472	0	0	0	0	0	18880	17728	16832	16256	16256	16256	16256	16576	16832	17408	17984	18560	19776	20992	21952	22592	23232	23616	23616	23616	23616	23616	23616	23616	23616	23616	23616	23616	23616	24256	24576	24960	24960	25280	25280	25600	25984	0	0	0	0	0	0	0	30720	30720	31104	31936	32320	33152	0	34368	34368	34752	36032	36480	36928	38272	39616	41024	42432	43968	45440	46464	47552	47552	48064	48640	48640	49152	49152	49152	48640	48640	48064	47552	47552	47552	47552	47040	47040	47040	47040	46464	45952	45440	43968	43456	41984	41472	40576	40064	39616	39168	39168	39168	39168	39168	39168	39168	39168	39168	40064	40064	40576	41472	42944	43968	44928	45952	47040	48064	49152	50816	51392	52544	53120	53760	54912	56192	56768	57408	58048	58688	58048	58048	57408	56768	56192	54912	54336	53760	53120	53120	52544	51968	51392	50816	50816	50304	49728	49728	49728	49152	49152	49728	49728	49728	50304	50304	50816	50816	51392	51392	51392	51968	51968	51968	52544	52544	53120	52544	52544	52544	52544	52544	52544	51968	51392	51392	51392	51392	51392	50816	50816	50816	50816	50816	50816	50816	50816	50304	50304	50304	50304	50304	50304	50304	50304	50304	50304	49728	49152	49152	48640	48640	48064	48064	47552	47552	47552	47552	47552	47552	48064	48064	48064	48064	48064	48640	49152	49728	50304	50304	50816	50816	50304	50304	50304	49728	49728	49728	49728	49152	49152	49152	49152	49728	50304	50816	50816	50816	51392	51392	51968	53120	53120	53120	53120	52544	52544	51392	51392	50816	50304	49152	48640	48064	47552	47040	47040	46464	46464	47040	47040	47552	48640	49152	49728	49728	50304	50816	51392	51392	51392	51392	51392	51392	51392	51392	51392	51392	51392	51392	50816	50816	50816	50816	50304	49728	49728	48640	48064	47552	47040	47040	46464	45440	44416	44416	0	0	41024	40064	40064	40064	40064	40576	41024	41472	41472	41472	41984	41472	41472	42432	42944	43456	43968	44928	45440	45440	45952	45440	45440	44928	44928	44928	44416	44416	44416	0	0	55552	55552	0	0	0	0	0	0	0	0	0	9984	8320	4352	2880	1408	640	65472	65472	64768	64768	1408	5120	9152	16000	25600	35392	42624	50560	57728	57728	59200	60736	60736	60736	62272	63872	65408	3200	8320	15552	25408	31744	36160	38464	40768	43136	40768	40768	40768	40768	40768	40768	38464	38464	36160	33920	33920	33920	33920	31744	31744	29568	29568	29568	23360	21312	15552	10048	6592	1536	62272	57728	57728	0	0	27456	27456	8320	65408	65408	50560	45184	40192	38976	38976	41408	42624	45184	46528	51968	47872	47872	45184	41408	37760	34240	29824	26624	24576	21632	18752	15104	6720	2880	2880	5952	0	0	0	0	0	14208	14208	16896	20672	20672	18752	16896	15104	14208	13376	11648	10816	9152	8320	7488	7488	7488	7488	7488	8320	8320	7488	6720	5952	5952	5952	5120	5120	5120	5952	5952	5952	5952	5952	5952	4352	3584	2880	2880	2112	1408	1408	640	64768	64064	62016	61312	59968	59328	58048	57408	57408	56192	56192	55552	55552	54336	53760	53120	53120	53120	53120	54336	54336
47872	51968	57728	63872	6592	13696	19392	31744	43136	48000	53120	58432	61184	61184	64000	1280	1280	4224	7232	7232	13440	16640	16640	16640	16640	16640	13440	4224	53120	33920	15552	10048	42624	28736	28736	5952	64064	58688	55552	53760	52544	51968	51968	50816	49728	49152	48064	47552	46464	45952	44928	44416	44416	43456	43456	43456	42944	42432	41984	41472	41024	40576	40576	40064	40064	39616	39616	39616	39616	39168	39168	39168	39168	39168	39168	38720	38720	38720	38272	38272	37824	37824	37824	37824	37824	37824	37824	38272	38272	38720	38720	39168	39616	40064	40576	41472	41984	42944	43456	43968	44416	45440	45952	45952	46464	47040	47040	47552	47552	47552	47552	47552	47552	47552	47552	47552	47552	47040	47040	47040	47040	47040	47040	47552	47040	47040	46464	45952	45952	44928	44416	44416	44416	44416	44416	44416	44928	46464	48640	54912	16896	16896	21632	27712	32000	34240	36608	36608	36608	34240	33152	29824	26624	24576	21632	17856	13376	8320	5120	1408	63360	59968	57408	55552	54336	53760	53120	53120	53120	53120	53120	53760	54336	0	0	0	640	65472	65472	65472	0	0	0	0	0	18880	17728	16832	15168	14912	14912	14912	15168	15744	16256	16832	17728	18560	20096	21312	22272	22912	23616	23616	23616	23616	23616	23616	23616	23616	23616	23616	23616	23616	24256	24576	24960	24960	25280	25600	25984	0	0	0	0	0	0	0	0	0	0	0	0	0	0	33536	33536	33920	34368	35200	35648	36480	39616	39616	0	0	0	47552	47552	48640	49152	50304	50816	50816	51392	51392	51392	50816	50304	49728	48640	48640	48640	48064	47552	47040	47040	46464	46464	45952	44928	43968	43456	42432	41984	41472	41024	40576	40576	40064	40064	40064	39616	39616	39616	39616	40064	40064	40576	41024	41984	42944	43968	44928	45952	47040	48064	49152	50816	51968	53120	53760	54912	55552	56768	57408	58048	58048	58048	58048	57408	56768	56192	54912	54912	53760	53120	52544	51968	51968	51392	50816	50304	49728	49728	49728	49152	49152	49152	49152	49152	49728	49728	50304	50816	50816	51392	51392	51968	51968	52544	52544	52544	53120	53120	53760	53760	53760	53760	53760	53120	53120	52544	51968	51392	51392	51392	51392	51392	51392	50816	50816	50816	50816	50816	50304	50304	50304	49728	49728	49728	49728	49728	50304	49728	49728	49152	49152	48640	48064	48064	47552	47552	47040	47040	47040	47040	47040	47040	47040	47040	47552	47552	47552	47552	49152	49152	49728	49728	50304	50304	50304	50304	50304	49728	49152	49152	49152	49152	49152	49152	49152	49728	50304	50304	50816	50816	51392	51392	51968	53120	53120	53120	53120	52544	52544	51968	51968	50816	50304	49728	49152	48064	48064	48064	48064	47552	47552	47552	47552	48640	49152	49728	49728	50304	50816	50816	51392	51392	51392	51392	51392	51392	51392	51392	51392	51392	51392	51392	50816	50816	50816	50816	50304	49728	49728	48640	48064	47552	47040	47040	46464	45440	45440	0	0	42944	41984	41984	41472	41024	41024	41472	41984	41984	41984	42432	42432	42432	42944	43456	43456	43968	44416	44928	45440	45440	45952	45440	45440	44928	44928	44928	44416	44416	44416	0	0	0	0	0	0	0	0	0	0	0	0	12480	9984	8320	5952	5120	2880	640	640	640	640	640	2112	5120	9152	16000	24576	33152	38976	43904	49216	53376	51968	51968	51968	54784	54784	54784	57728	59200	63872	4864	11840	17472	21312	23360	27456	27456	31744	31744	29568	29568	29568	31744	31744	31744	31744	29568	29568	29568	29568	29568	29568	29568	29568	27456	23360	21312	15552	10048	6592	1536	62272	57728	57728	0	0	27456	27456	8320	65408	65408	56256	49216	40192	38976	38976	40192	41408	41408	46528	42624	42624	42624	40192	37760	35392	32000	28736	25600	24576	21632	18752	15104	11648	8320	5952	5952	0	14208	14208	0	20672	20672	20672	23616	26624	27712	22592	20672	17856	16896	15104	13376	12480	11648	10816	10816	10816	10816	11648	11648	11648	12480	11648	9984	9152	7488	6720	6720	5952	5952	5952	5952	5952	5952	5120	4352	4352	3584	2880	2880	2112	1408	640	640	64768	63360	62016	60672	59328	58688	57408	56768	56192	55552	55552	54912	54912	53760	53120	53120	53120	53120	53120	54336	54336
40192	45184	49216	54784	60736	3200	13696	23360	33920	45568	50560	55744	61184	64000	1280	7232	7232	10304	10304	13440	16640	19904	23296	19904	19904	19904	13440	10304	64000	48000	31744	10048	59200	42624	42624	14208	5120	62656	58688	56192	54336	53760	53120	51968	50816	50304	49728	48640	47552	47040	46464	45440	45440	44416	44416	44416	43456	42944	42944	41984	41472	41024	40576	40576	40064	40064	40064	40064	40064	40064	40064	40064	40576	40576	40064	40064	40064	39616	39168	38720	38720	38720	38272	38272	38272	38272	38272	38720	38720	38720	38720	39168	39616	40064	41024	41472	41984	42944	43456	43968	44416	44928	45440	45440	45952	46464	46464	46464	46464	46464	46464	46464	45952	45952	45952	45952	45952	45440	45440	45952	45440	45440	45440	45440	45952	45440	44928	44928	44416	43968	43456	43456	42944	42944	42944	43456	43456	44416	48640	0	16896	16896	28736	35392	37760	40192	41408	41408	38976	35392	32000	27712	23616	20672	17856	14208	9984	6720	2112	64768	60672	58048	55552	53760	53120	51968	51968	51968	51968	51968	51968	51968	53120	0	0	0	2880	2880	65472	65472	0	0	0	0	0	0	0	14400	14400	14400	14400	14656	15168	15168	15744	16576	17152	17984	19776	20992	21952	22912	23616	23616	23936	23936	23936	23936	23936	24256	24256	24256	24256	24256	24576	24576	25280	25600	25984	25984	26688	0	0	0	0	0	0	0	0	0	0	0	0	0	0	33152	33152	33920	34368	35200	35648	36480	0	0	0	0	0	48064	48064	50304	50304	51968	53120	53120	53760	53760	53760	53760	53120	51392	49728	49152	48064	47552	47552	45952	45952	45952	45440	45440	44416	43968	43456	42944	42432	41984	41472	41472	41472	41472	41472	41024	41024	41024	41024	41024	41024	41024	41024	41472	42432	42944	43968	44928	45952	47040	48064	49728	50816	51968	53120	53760	54912	55552	56768	57408	57408	57408	57408	56768	56192	56192	54912	54336	53760	53120	52544	51968	51392	51392	50816	50304	49728	49728	49152	48640	48640	49152	49152	49152	49152	49728	49728	50304	50816	51392	51968	51968	52544	52544	53120	53120	53120	53760	53760	54336	54336	54336	54912	54336	54336	53760	53120	52544	52544	51968	51968	51968	51968	51968	51968	51968	51392	51392	50816	50304	50304	49728	49728	49728	49728	49152	49152	49728	49152	48640	48064	48064	47552	47040	47040	46464	45952	45952	45952	45952	45952	45952	45952	45952	45952	46464	46464	47552	47552	48064	48640	49152	49152	49728	49728	50304	50304	50304	49728	49152	49152	49152	49152	49152	48640	48640	48640	49728	50304	50304	50304	50816	51392	51968	53120	53120	53120	53120	53120	53120	53120	52544	51392	51392	50816	50304	49728	49728	49152	48640	48640	48640	48640	49152	49728	49728	50304	50816	50816	51392	51392	51392	51392	51392	51392	51392	51392	51392	51392	51392	51392	51392	51392	51392	51392	50816	50816	50304	50304	49728	49152	48064	48064	47552	47040	47040	47040	0	44416	44416	42944	42432	42432	41984	41024	41024	41024	41024	41472	41472	41984	41984	41984	42944	43968	44416	44928	45440	46464	46464	47040	47040	47040	45952	45952	45952	44928	44416	44416	44416	0	0	0	0	0	0	0	0	0	0	0	16000	12480	10816	9984	8320	5952	5120	2880	2112	1408	1408	2112	3584	6720	10816	16896	23616	29824	34240	40192	45184	47872	46528	46528	46528	47872	47872	49216	49216	51968	54784	60736	1536	4864	8320	11840	13696	17472	19392	19392	21312	21312	23360	25408	27456	27456	27456	27456	27456	29568	29568	29568	29568	29568	29568	27456	23360	21312	17472	10048	6592	3200	1536	1536	1536	0	0	24896	24896	53312	27456	27456	3200	56256	56256	38976	38976	40192	41408	41408	38976	37760	37760	37760	36608	35392	33152	30912	27712	25600	24576	21632	19712	17856	15104	13376	10816	10816	0	14208	14208	0	20672	20672	24576	26624	28736	0	0	22592	20672	18752	17856	16000	14208	13376	13376	13376	17856	15104	15104	15104	15104	15104	14208	12480	10816	9984	8320	7488	6720	6720	5952	5952	5120	5120	5120	4352	4352	3584	2880	2880	2112	1408	640	640	64768	63360	62016	59968	59328	58048	57408	56192	55552	54912	54912	54336	54336	53120	53120	52544	52544	53120	53760	54336	54336
