14656	14656	14912	15488	16000	16256	16256	17728	17984	18304	18880	19200	19776	20416	20992	21952	24256	26688	0	0	0	0	0	0	0	0	0	0	0	0	0	0	60672	60672	59968	59968	59968	59328	59328	0	0	0	0	0	0	0	0	0	0	0	0	0	0	0	0	0	0	0	0	0	0	0	0	0	0	0	0	0	0	0	0	0	0	27008	27008	28480	29248	30336	30336	30720	31104	31552	31936	31936	31936	32320	32704	32704	33152	33152	33152	33152	33152	33152	33536	34368	34368	34752	35200	36032	36480	37376	38272	39168	39616	39616	40576	41472	42432	43456	44416	45440	47552	48064	48640	48640	49152	49152	49728	0	0	0	0	0	0	0	0	0	0	0	0	0	0	0	0	0	0	0	0	0	0	0	0	0	0	14400	14400	14400	14656	14656	14656	14656	14656	14656	14400	14400	14400	0	0	0	0	0	0	0	0	0	0	0	0	0	0	0	0	0	0	0	0	0	0	0	0	0	0	0	0	0	30720	30720	33152	35648	36928	38272	39168	40064	41024	41472	42432	43456	44416	45952	47040	47552	48064	48640	48640	48640	48064	48064	48640	48064	48064	48064	48064	48064	48064	47552	47552	47552	47552	47552	47552	47552	47040	47040	47040	47040	47040	47040	47040	47040	47040	47040	47040	47040	46464	46464	47040	47040	48064	49152	50816	51968	53120	53760	53760	53760	51392	50304	49728	48640	47552	47552	46464	45952	44928	43968	43456	42432	41472	40576	40064	40064	39616	39616	39616	40064	40064	40064	40064	40576	41024	41472	41472	42432	43968	46464	46464	50304	52544	54912	56768	58048	57408	56192	53760	51392	49152	47040	44928	42944	41024	41024	41024	41024	41472	42432	43456	47552	52544	57408	62016	3584	16896	16896	22592	23616	19712	16896	14208	7488	2112	64064	58688	54336	49728	46464	42944	41472	39616	38272	37824	37376	37376	37376	37376	37376	37824	38720	39168	39616	40064	41024	41024	41984	42432	42944	43456	44416	44928	44928	45440	45440	45440	45440	44928	44416	43968	42944	42432	42432	41984	41984	41472	41472	41984	41984	41984	41984	42432	42432	42432	42432	42432	42432	42432	41984	41472	40064	38720	36928	35648	33920	31936	30336	28480	26688	25280	24256	23936	23232	23232	0	0	0	0	0	0	0	0	0	0	0	0	0	0	0	0	0	0	0	0	0	0	0	0	0	0	0	0	0	0	0	0	0	0	0	0	0	0	0	0	0	0	0	0	0	0	0	0	2176	1984	1984	1984	2176	2368	2752	3328	3776	4160	4544	4800	5376	5824	6016	6016	5824	5632	5632	0	0	0	0	0	0	0	0	0	0	0	0	0	0	0	0	0	0	0	0	0	0	45184	34240	32000	27712	22592	22592	28736	0	0	0	0	0	0	0	0	0	0	0	0	14656	14400	14400	14400	15168	16256	17408	18560	20992	23232	25280	27392	29248	30336	31104	31936	32320	33152	35200	36928	38720	41472	44416	47552	51392	55552	58688	59968	59968	57408	56192	54336	51968	50304	48064	46464	45440	44416	43968	43456	43456	43456	43456	43968	43968	44928	45440	46464	47040	47552	48640	49728	50816	51392	51968	52544	54336	55552	55552	55552	55552	0	0	56192	56192	58688	0	65472	65472	640	1408	2112	640	640	65472	64768	63360	62656	61312	59328	58688	56768	56192	56192	54912	54336	53120	53120	53120	53120	53760	53760	54336	56192	58048	59328	62656	64064	65472	65472	640	640	64768	64064	63360	62016	60672	58688	56768	54912	53760	51968	50816	49728	48640	47552	47040	46464	45952	45952	45952	45440	45440	44928	44928	44928	44928	45440	45440	45440	45440	45440	45440	45440	0	0	0	0	0	0	0	12032	10816	9856	9600	9600	10112	10816	11584	12544	13312	14144	14656	14912	15168	16000	16256	17152	17408	17984	18880	19776	20096	0	0	0	0	0	0	0	0	0	0	0	0	0	0	0	0	0	0	0	0	0	0	0	0	0	0	0	0	0	0	29952	29952	0	36480	36480
13824	13824	13824	14400	14400	14656	16256	16576	17152	17408	17984	18560	19456	20096	20992	21952	24256	26688	0	0	0	0	0	0	0	0	0	0	0	0	0	0	60672	60672	59968	59968	59328	58688	58688	0	0	0	0	0	0	0	0	0	0	0	0	0	0	0	0	0	0	0	0	0	0	0	0	0	0	0	0	0	0	0	0	0	0	26688	26688	28096	29248	29632	30336	30720	31104	31104	31552	31936	31936	32320	32320	32704	32704	33152	33152	33152	33152	33152	33536	34368	34368	34752	35200	36032	36928	37824	38720	39168	39616	39616	40576	41472	42432	43456	44416	45440	47552	48064	48640	48640	49152	49152	49728	0	0	0	0	0	0	0	0	0	0	0	0	0	0	0	0	0	0	0	0	0	0	0	0	0	0	13824	13824	13824	13824	13824	13824	13824	13824	13568	13568	13568	13568	0	0	0	0	0	0	0	0	0	0	0	0	0	0	0	0	0	0	0	13312	13312	13312	0	0	0	0	0	0	0	30720	30720	35648	37824	40064	41024	41472	42432	42432	42944	43968	44928	45952	46464	47040	47552	47552	48064	47552	47552	47552	47552	47552	47040	47040	47040	47040	47040	47040	47040	47040	47040	46464	46464	45952	45952	45952	45952	45440	45440	45440	45952	45952	45952	45952	45952	45952	45952	45952	45952	45952	45952	47040	48064	49728	50816	51392	52544	52544	52544	51392	50304	49728	48640	47552	47552	47040	45952	45440	44928	43968	43456	42432	41984	41024	41024	41024	40576	40576	40576	40576	41024	41024	41472	41472	41984	42944	43456	45952	48640	48640	52544	56192	58048	59968	61312	59328	57408	54912	52544	49728	47040	44928	42432	41024	41024	41024	41024	41472	41984	42944	45952	50304	53760	57408	62656	2112	7488	11648	14208	12480	10816	9152	4352	64768	61312	56768	53120	48640	44928	41984	40064	38272	37824	36928	36480	36032	36032	36480	36480	36928	37376	37824	38272	39168	39616	40064	40576	41472	42432	42944	43456	44416	44416	44928	44928	44928	44928	44416	44416	43968	42944	42432	41984	41984	41472	41472	41472	41984	41984	41984	41984	42432	42432	42432	42432	42432	42432	42432	41984	41472	40576	39168	37376	36480	34752	33536	31552	29632	28096	28096	25280	25280	23232	23232	0	0	0	0	0	0	0	0	0	0	0	0	0	0	0	0	0	0	0	0	0	0	0	0	0	0	0	0	0	0	0	0	0	0	0	0	0	0	0	0	0	0	0	0	0	0	0	5824	3584	3584	3584	3584	3776	3968	4352	4800	5184	5184	5632	5824	6016	6272	6272	6016	5824	5376	5184	4800	4160	4160	0	0	0	0	0	0	0	0	0	0	0	0	0	0	0	0	0	0	0	0	34240	32000	27712	22592	22592	0	0	0	0	0	0	0	0	0	0	0	0	0	13824	13824	13824	14144	15168	16576	17408	19200	21312	23616	25280	27008	28096	28864	29632	30336	30720	31936	33536	35648	37824	41472	44928	48640	52544	56192	59328	59328	57408	54912	53120	51392	49152	47040	45440	43968	42944	41984	41472	41024	41024	41024	41024	41472	41472	41984	41984	42432	42944	43968	44416	45440	45952	47552	48064	49152	50816	51392	52544	53120	53760	0	0	54912	54912	56768	59968	63360	63360	64064	64768	64768	64064	63360	62016	61312	59968	58688	57408	56768	55552	53760	52544	52544	51392	50304	50304	49728	49152	49152	49152	49152	49728	51968	53120	54912	57408	59328	61312	63360	63360	64064	63360	63360	62656	62016	60672	58688	57408	55552	53760	52544	50816	49728	48640	48064	47040	46464	46464	45952	45952	45440	45440	45440	44928	44928	44928	44928	44928	44928	44928	44928	44416	44416	43968	43968	42944	40064	36480	36480	0	25984	16256	14144	13056	12800	12800	12800	12800	13056	13824	14144	14400	14400	14400	14656	14912	15488	16000	16256	18304	18304	18880	0	0	0	0	0	0	0	0	0	0	0	0	0	0	0	0	0	0	0	0	0	0	0	0	0	0	0	0	0	0	0	0	0	0	37824
13312	13056	13056	13056	13312	14656	14912	15488	15744	16576	16832	17728	18560	19776	21312	22912	25600	0	0	0	0	0	0	0	0	0	0	0	0	0	0	62656	62016	62016	61312	59968	59328	58688	56768	56768	0	0	0	0	0	0	0	0	0	0	0	0	0	0	0	0	0	0	0	0	0	0	0	0	0	0	0	0	0	0	0	0	0	26688	26688	28096	29248	29632	30336	30720	31104	31104	31552	31936	31936	32320	32320	32704	32704	33152	33152	33152	33152	33536	33920	34752	34752	35200	35648	36480	37376	38272	39168	39616	40064	40064	41024	41984	42432	43456	44416	45440	47552	48064	48640	48640	49152	0	0	0	0	0	0	0	0	0	0	0	0	0	0	0	0	0	0	0	0	0	0	0	0	0	0	0	13312	13312	13312	13312	13312	13312	13312	13312	13312	13056	12800	12800	12544	12544	0	0	0	0	0	0	0	0	0	0	0	0	0	0	0	0	14144	13824	13312	13312	13312	13056	13056	0	0	0	0	0	0	0	0	42432	42432	43456	43456	43968	43968	44928	44928	45952	46464	47040	47552	47552	47552	47040	47040	47552	47040	46464	46464	45952	45952	45952	45952	45952	45952	45952	46464	46464	46464	45952	45440	45440	45440	44928	44928	44416	44416	44416	44416	44416	44416	44416	44416	44416	44416	44928	45440	45440	46464	47040	48640	49152	50304	50816	51392	51392	51392	50304	50304	49152	49152	48640	48064	47552	46464	45440	44928	43968	43456	42432	41984	41472	41472	41472	41024	41024	41024	41472	41984	42432	42944	42944	43456	44928	47552	51392	51392	54912	58048	60672	62656	63360	62016	58688	56192	53120	50304	47040	44928	42432	41024	41024	41024	41024	41024	41984	42944	45440	48064	50816	53120	57408	61312	65472	3584	5952	4352	4352	3584	65472	61312	58048	54336	50816	46464	43456	41024	39168	37376	36928	36032	35648	35648	35648	35648	36032	36032	36480	36928	37376	38272	38720	39168	40064	41024	41984	42432	43456	43968	44416	44928	44928	44928	44928	44416	44416	43968	43456	42944	41984	41984	41472	41472	41984	41984	41984	41984	41984	42432	42432	42432	42432	42432	42432	42432	42432	41984	41024	40064	38720	37824	36480	34752	33152	31552	31552	28480	27392	27008	25280	25280	0	0	0	0	0	0	0	0	0	0	0	0	0	0	0	0	0	0	0	0	0	0	0	0	0	0	0	0	0	0	0	0	0	0	0	0	0	0	0	0	0	0	0	0	0	0	8448	5824	5824	5824	5824	6016	6272	6272	6464	6656	6656	6656	6656	6656	6656	6656	6272	6016	5376	5184	4800	4352	3776	3136	3136	0	0	0	0	0	0	0	0	0	0	0	0	0	0	0	0	0	0	0	0	0	7488	1408	1408	0	0	0	35200	35200	0	0	0	0	0	0	0	0	12800	12800	12800	13312	14656	16256	17408	19200	21312	23616	25280	26304	27392	28096	28480	28864	29632	30336	31936	34752	36928	40064	43456	47552	51968	54912	58048	56768	54912	52544	50304	48064	45952	43968	42432	41024	40064	39616	39168	39168	39168	39168	39168	39168	39168	39168	39168	39616	39616	39616	40576	41024	42432	43456	43968	45952	47040	48640	49728	50816	51968	52544	51968	51968	53760	56192	58048	63360	63360	64064	62016	62016	61312	60672	59328	58048	56768	55552	54336	53120	51968	50816	49152	48640	48640	48064	47552	46464	45952	45440	45440	45952	46464	47552	49152	50304	52544	54912	56768	58048	59328	60672	61312	60672	60672	60672	59968	58688	56768	55552	53760	51968	50816	49728	48640	48064	47552	47040	46464	45952	45952	45952	45440	45440	45440	44928	44928	44928	44928	44928	44416	44416	43968	43968	42944	42432	41984	40064	36480	35648	35648	25984	21952	19200	16832	14912	14144	13568	13568	14144	13824	13824	13824	13824	13824	13824	13824	14144	14656	14912	16832	16832	17728	20672	20672	21952	0	0	0	0	0	0	0	0	0	0	0	0	0	0	0	0	0	0	0	0	0	0	0	0	0	0	0	0	0	0	0	0
12800	12544	12544	12544	13312	13568	13824	14400	14656	15488	16256	17152	18560	19776	21312	22912	25600	0	0	0	0	0	0	0	0	0	0	0	0	0	63360	62656	62016	62016	62016	60672	59968	58688	56768	54912	53120	53120	0	0	0	0	0	0	0	0	0	0	0	0	0	0	0	0	0	0	0	0	0	0	0	0	0	0	0	0	0	0	0	0	0	0	29952	29952	30336	30720	31104	31104	31552	31936	31936	32320	32704	32704	33152	33152	33152	33152	33536	33536	33920	35200	35648	36032	36480	37376	0	0	0	0	0	0	0	0	0	0	0	0	0	0	0	0	0	0	0	0	0	0	0	0	0	0	0	0	0	0	0	0	0	0	0	0	0	0	0	0	0	0	0	12544	12544	12800	12544	12544	12288	12288	12288	12288	12288	12032	12032	11776	11776	12544	0	0	0	0	0	0	0	0	0	0	0	0	0	0	0	0	14144	13824	13568	13568	13312	13056	12800	12800	0	0	0	0	0	0	42432	42432	42432	44416	44416	44928	45440	45440	45952	46464	47040	47040	47552	47552	47552	47040	47040	47040	46464	45952	45952	45440	45440	45440	45440	45440	45952	45952	45952	45440	45440	45440	44928	44416	44416	43968	43456	43456	42944	42944	43456	42944	42944	42944	42944	43456	43456	43456	43968	44928	45440	46464	47552	48640	49152	49728	50304	50816	50816	50304	50304	49728	49728	49728	48640	48064	47552	46464	45440	44928	44416	42944	42432	42432	41984	41984	41472	41472	41472	41984	42432	42944	43456	43968	44928	46464	49728	53120	57408	57408	60672	62656	65472	640	63360	60672	56768	53760	50816	48064	45440	42944	41472	41024	41024	41024	41024	41984	42944	44416	46464	48640	50304	53120	56192	59328	62016	64064	64768	64064	63360	60672	57408	54912	51968	48064	44928	41472	39616	38272	36928	36032	35200	34752	34752	34752	34752	34752	35200	35648	36032	36480	37824	38272	38720	40064	40576	41472	42432	43456	43968	44416	44928	45440	45440	45440	44928	44416	43968	43968	42944	42944	42432	41984	41984	41984	41984	41984	41984	41984	42432	42432	42432	42944	42944	42944	42432	42432	42432	41984	41024	39616	39168	37824	36480	34752	34752	31552	30336	29632	29632	29632	0	0	0	0	0	0	0	0	0	0	0	0	0	0	0	0	0	0	0	0	0	0	0	0	0	0	0	0	0	0	0	0	0	0	0	0	0	0	0	0	0	0	0	0	0	0	0	8448	8448	8704	8448	8448	8448	8448	8256	8256	8256	8000	7808	7808	7552	7360	6912	6272	5632	5376	4800	4544	4160	3584	3136	3136	0	0	0	0	0	0	0	0	0	0	0	0	0	0	0	0	0	0	0	0	0	45952	39616	34752	30336	25280	20672	16576	15168	14912	14912	13056	13056	0	12800	12800	0	12800	12800	12288	12288	13824	15168	16832	18560	20992	22592	23936	24960	25984	26304	26688	27392	28096	29248	31104	33920	36928	40064	43456	47040	51392	54336	56192	54336	52544	50304	48064	45952	43968	41984	40576	39168	38272	37824	37376	37376	37376	37376	37376	37376	37376	37376	36928	36928	37376	37376	37824	38720	39616	40576	41984	42944	44416	45952	47040	48064	49152	50816	50816	51392	51968	53760	55552	57408	58688	58688	59328	59328	58688	58048	56768	55552	54336	53120	51968	50816	49728	48064	47552	46464	46464	45952	45440	44416	43456	43456	43456	43968	43968	44416	45440	46464	48640	50816	51968	54336	56192	57408	57408	58048	58048	58048	58048	56768	55552	53760	52544	51392	50304	49152	48640	48064	47552	47040	46464	46464	45952	45952	45952	45440	45440	44928	44928	44928	44416	44416	44416	43456	43456	42432	41984	41472	41024	39616	38272	35648	34368	31936	25984	22272	19200	16832	15168	14144	13824	13568	13056	12800	12544	12544	12288	12032	12032	12288	12544	12800	15168	15168	16000	17728	19456	20992	0	0	0	0	0	0	0	0	0	0	0	0	0	0	0	0	0	0	0	0	0	0	0	0	0	0	0	0	0	0	0	0
12288	12032	12032	12544	12544	12800	13056	13312	13824	14656	15488	16832	18304	20096	21312	23936	27008	31552	35648	38272	40576	0	0	0	0	0	60672	60672	62656	64064	63360	63360	63360	63360	62016	61312	59968	58688	56768	54912	52544	50304	48064	45952	43968	42432	40576	38720	37824	36480	35200	34368	34368	0	0	0	0	0	0	0	0	0	0	0	0	0	0	0	0	0	0	0	0	0	0	0	0	0	30720	30720	31104	31104	31936	31936	32320	32320	32704	32704	33152	33536	33536	33536	33536	33920	34368	35648	36032	36480	36928	37824	0	0	0	0	0	0	0	0	0	0	0	0	0	0	0	0	0	0	0	0	0	0	0	0	0	0	0	0	0	0	0	0	0	0	0	0	0	0	0	0	0	0	0	12032	12032	11776	11776	11776	11584	11328	11072	11072	11072	11072	11072	11776	11776	0	0	0	0	0	0	0	0	0	0	0	0	0	0	0	0	15168	14656	14144	13824	13824	0	0	12800	12800	0	0	0	0	0	0	42432	42432	43968	44928	45952	46464	47040	47040	47040	47552	47552	47552	47552	47552	47552	47040	47040	47040	46464	45952	45952	45440	45440	45440	45440	45440	45440	45440	45440	45440	44928	44416	44416	43968	43456	42944	42432	42432	42432	41984	41984	41984	41984	41984	41984	42432	42432	42944	43456	43968	44416	45440	45952	47040	47552	48064	48640	49728	49728	49728	49728	49152	49152	49152	49152	48640	48640	47552	47040	46464	45440	44416	43968	43968	43456	42944	42944	42944	42944	43456	43456	43968	44416	44928	45440	47552	50816	54912	59328	59328	62656	65472	2880	2880	64768	61312	58048	54912	51392	48064	45440	42944	41472	41472	41472	41472	41472	41984	42432	43968	45440	47040	48640	50816	53120	54912	57408	59328	59968	59328	58688	57408	54912	53120	50304	47552	44416	41472	39616	37824	36032	35648	34752	34368	34368	34368	34368	34368	34752	35200	35648	36032	37376	38272	38720	39616	40576	41472	42432	43456	44416	44416	45440	45952	45952	45952	45440	45440	44416	44416	43456	42944	42432	42432	41984	41984	41984	41984	41984	41984	42432	42432	42944	42944	42944	42944	42944	42944	42944	42432	41984	41024	40576	39616	37824	37824	36480	33536	32320	31552	31552	31936	33152	0	0	0	0	0	0	0	0	0	0	62656	62656	62656	62016	61312	61312	0	0	0	0	0	0	0	0	0	0	0	0	0	0	0	0	0	0	0	0	0	0	0	0	0	0	0	0	0	0	12032	11584	11328	10560	10304	10304	10112	9856	9600	9152	8704	8256	8000	7808	7360	6656	6016	5376	4992	4544	4160	3776	3328	2752	2752	0	0	0	0	0	0	0	0	0	0	0	0	0	0	0	0	0	0	0	0	0	45952	22912	20992	18880	16256	13824	11072	10816	10816	14912	13056	13056	0	12800	12800	0	0	0	12288	12288	13824	14400	15744	17408	19456	20992	21952	23232	23936	24576	24960	25600	26304	27392	29632	33152	36480	40064	43456	47040	50816	53120	54912	53120	50816	48640	45952	44416	41984	40576	38720	37824	37376	36480	36032	35648	35648	35648	35648	36032	36032	36032	36032	35648	35648	36032	36032	36928	37824	38272	39616	40576	41984	43968	45440	46464	48064	49728	50304	50816	51392	52544	54336	55552	56192	57408	57408	57408	57408	56768	54912	53760	52544	51392	49728	49152	48064	46464	45952	44928	44416	44416	43968	42944	42432	41984	41984	41984	41984	42432	43456	44416	45952	47552	48640	50816	52544	54336	54336	54912	55552	55552	55552	54912	53760	52544	51392	50304	49728	49152	48640	48064	47552	47040	46464	46464	46464	45952	45952	45440	45440	44928	44928	44416	43968	43968	43456	42944	42432	41984	41024	40576	40064	39616	38272	36480	34368	31936	31104	31104	21312	18304	16256	14400	13824	12800	12032	11584	11328	10816	10560	9856	9856	10304	10304	12800	15168	14400	14400	17728	18304	19776	20672	0	0	0	0	0	0	0	0	0	0	0	0	0	0	0	0	0	0	0	0	0	0	0	0	0	0	0	0	0	0	0
12288	12032	11776	11776	11776	11776	12032	12288	12800	13824	14912	16256	17728	20096	21312	24256	28096	31552	35648	38272	40576	45440	47552	49152	0	0	60672	60672	62656	64064	64064	64768	64768	64064	62656	61312	59328	58048	55552	53760	51968	50304	48064	45952	43968	42432	40576	38720	37824	36480	35200	34368	34368	0	0	0	0	0	0	0	0	0	0	0	0	0	0	0	0	0	0	0	0	0	0	0	0	0	31552	31552	31552	31936	32320	32704	32704	33152	33152	33152	33152	33536	33536	33536	33920	34368	34752	35648	36032	36480	37376	37824	38720	0	0	0	0	0	0	0	0	0	0	0	0	0	0	0	0	0	0	0	0	0	0	0	0	0	0	0	0	0	0	0	0	0	0	0	0	0	0	0	0	0	0	11584	11584	11328	11328	11072	10816	10304	10304	10304	10304	10112	10112	0	0	0	0	0	0	0	0	0	0	0	0	0	0	0	0	0	0	15168	14912	14912	14400	14400	0	0	13056	13056	0	0	0	0	0	0	44416	44416	45952	46464	47552	48064	48064	47552	47552	48064	47552	47552	47552	47552	47040	47040	47040	46464	46464	45952	45952	45440	45440	45440	45440	45440	45440	45440	45440	44928	44928	44416	43968	43456	42944	42432	41984	41984	41472	41472	41472	41472	41472	41472	41472	41984	41984	41984	42432	42944	43456	43456	44416	44928	45952	46464	47040	47552	47552	48064	48064	48064	48064	48640	48640	48064	48064	48064	47552	47040	46464	45952	45440	45440	44928	44416	43968	43968	43968	43968	43968	44416	44928	44928	45952	48640	52544	56768	60672	60672	64064	2112	5120	5120	640	62656	58688	54912	51968	48640	45440	42944	41984	41984	41472	41472	41984	41984	42432	43456	44928	45952	47552	49152	50816	52544	54336	55552	56192	56192	55552	53760	51968	50304	48640	45952	43456	40576	38720	37376	36032	35200	34368	33920	33920	33920	33920	34368	34368	34752	35648	36032	36928	37824	38720	39616	40576	41472	42432	43456	44928	45440	45440	46464	46464	46464	45952	45952	44928	44928	43968	43456	42944	42432	42432	42432	42432	42432	42432	42432	42432	42432	42944	42944	42944	42944	42944	42944	43456	42944	42944	41984	41984	41024	39616	38272	36480	35200	34368	33536	33536	33152	33152	39168	45952	45952	0	56768	56768	58688	58688	59968	61312	62016	62656	62656	62016	61312	60672	59328	58688	58048	56768	56768	0	0	0	0	0	0	0	0	0	0	0	0	0	0	0	0	24256	24256	0	0	0	0	0	0	0	13824	13568	12800	12288	11776	11328	11072	10816	10304	9856	9152	8704	8000	7808	6912	6464	5632	4992	4544	4160	3776	3328	2944	2368	1984	1600	1408	1408	0	0	0	0	0	0	0	0	0	0	0	0	0	0	0	0	0	0	0	22912	20992	18880	16256	13824	11072	10816	10816	0	0	0	0	0	0	0	9856	9856	10112	11072	12544	14144	15488	17152	19200	20672	21312	21952	22912	23232	23936	24576	25600	27008	29632	33152	36480	40064	43968	47040	50816	53120	54912	52544	50304	48064	45440	43456	41472	39616	38272	37376	36480	35648	35200	35200	34752	34752	34752	34752	35200	35200	34752	34752	34752	34752	34752	35648	36480	37376	38272	39616	41472	42432	44416	45952	48064	49152	49728	50816	51392	51968	53120	54336	55552	56192	56192	56192	56192	55552	54336	52544	50816	49728	48640	47552	46464	45952	44416	43968	43456	43456	42944	42432	41984	41024	41024	41024	41024	41472	41472	42944	43968	44416	45952	47552	48640	50816	50816	51968	52544	52544	53120	53120	51968	51392	50304	49728	49728	49152	48064	48064	47552	47040	46464	46464	46464	45952	45952	45440	44416	44416	43968	43968	43456	42944	42432	41472	41024	40576	40064	39616	39168	38720	38272	37376	35648	33920	31104	31104	23936	23936	17408	14912	13824	12800	11776	11072	10304	9856	9408	8896	8896	8896	9152	9408	10304	14400	14400	14912	17152	18560	20096	20672	0	0	0	0	0	0	0	0	0	0	0	0	0	0	0	0	0	0	0	0	0	0	0	0	0	0	0	0	0	0
12288	11584	11328	11328	11328	11328	11584	11776	12288	13056	14400	16256	17728	20096	21952	25984	29632	33920	38272	41024	43456	45440	47552	49152	52544	54912	57408	59968	62016	62016	62656	62656	63360	62656	61312	59328	57408	56192	54336	52544	50816	49152	47552	45952	43968	42432	40576	39168	38272	36480	35648	34368	33536	33536	32704	32704	32704	0	0	0	0	0	0	0	0	0	0	0	0	0	0	0	0	0	0	0	0	33152	32320	32320	32704	32704	33152	33152	33536	33536	33536	33536	33536	33536	33920	33920	33920	34368	34752	35648	36032	36480	36928	37824	38272	39168	40064	0	0	0	0	0	0	0	0	0	0	0	0	0	0	0	0	0	0	0	0	0	0	0	0	0	0	0	0	0	0	0	0	0	0	0	0	0	0	0	0	11584	11328	11072	10816	10560	10304	9856	9600	9600	9600	9408	9152	9152	0	0	0	0	0	0	0	0	0	0	0	0	0	0	0	0	16576	15744	15488	15488	15488	15488	0	0	0	0	0	0	0	0	0	47552	47040	47040	47552	47552	47552	47552	47552	47040	47040	47040	47040	47040	47552	47040	47040	47040	47040	46464	46464	45952	45952	45952	45440	45440	45440	45440	45440	45440	45440	44928	44928	43968	43968	42944	42432	41984	41472	41472	41024	41024	40576	40576	41024	41024	41024	41472	41472	41472	41984	41984	42432	42944	43456	43968	44416	44928	45440	45440	46464	46464	46464	47040	47552	47552	48064	48064	47552	47552	48064	47552	47552	47040	46464	45952	45440	44928	44416	44416	43968	43968	43968	44416	44416	44928	45952	49728	53120	58048	62016	1408	1408	4352	6720	5952	2112	63360	59328	55552	51968	48640	45440	43456	41984	41984	41984	41984	41984	41984	42432	42944	43968	44928	46464	47552	48640	49728	50816	52544	53120	53120	52544	51392	50304	48640	47040	44928	42432	40576	38720	37376	36032	35200	34368	33920	33920	33920	33920	34368	34368	34752	35200	36032	36928	37824	38720	39616	41024	41984	42944	43968	44928	45440	46464	47040	46464	46464	46464	45952	45952	45440	44416	43968	43456	42944	42944	42432	42432	42432	42432	42432	42432	42432	42944	42944	42944	42944	43456	43456	43456	43456	43456	42944	42944	41984	41024	39616	37824	36928	36032	36032	36032	36928	36928	39168	45440	45952	53120	56192	56768	58688	58688	59968	61312	62016	62656	62656	62016	61312	60672	59328	58688	58048	56768	55552	55552	0	0	0	0	0	0	0	0	0	24960	24576	24576	24256	24256	23936	23936	23936	0	0	0	0	0	0	0	16832	14912	14144	13312	12800	12288	12032	11328	10816	10112	9408	8704	8256	7552	6912	6016	5184	4800	4160	3776	3328	2752	2368	2176	1792	1600	1408	1408	0	0	0	0	0	0	0	0	0	0	0	0	0	0	0	0	0	0	0	0	0	0	0	0	0	0	7360	6912	6656	6656	6912	6912	6912	6912	8000	9152	9856	10816	12288	13824	15168	17152	19200	19776	20416	21312	21952	22592	23232	24256	25280	27008	29632	33536	37376	41472	48640	48640	52544	54336	53760	51968	49728	47552	44928	42432	40576	39168	37824	37376	36480	35648	35200	34752	34752	34368	34368	34368	34368	34368	33920	33920	33920	33920	33920	34368	35200	36032	37376	38720	40064	41984	44416	45952	47552	49152	49728	50304	50816	51392	52544	53760	54912	55552	55552	55552	54912	54336	53120	51392	49728	48640	47552	46464	45440	44928	43968	43456	42944	42944	42432	41984	41024	41024	40576	40576	40576	40576	41024	41472	42432	42432	43456	44928	45952	47040	47552	48064	48640	49152	50304	50304	50304	49728	49152	49152	49152	48640	48064	48064	47552	47040	47040	46464	46464	45952	45440	44928	44416	43968	43968	42944	41984	41984	41024	40576	40064	39616	39168	38720	38272	38272	38272	37376	36480	34752	32704	31936	31936	0	19456	16256	14656	13056	11776	11072	9856	8896	8448	8000	7808	7808	8000	8256	9408	11072	14912	14912	16576	17984	19456	20672	0	0	0	0	0	0	0	0	0	0	0	0	0	0	0	0	0	0	0	0	0	0	0	0	0	0	0	0	0	0
12288	11584	11328	11072	10560	10560	10560	10816	12288	13056	14400	0	0	0	0	0	37824	37824	44416	44416	46464	47040	49152	50304	52544	54912	56768	58688	59968	60672	61312	61312	61312	59968	59328	57408	55552	54336	52544	51392	49728	48640	47040	45440	43968	42944	41024	39168	38272	36928	35648	34368	33536	33536	32704	32704	32704	0	0	0	0	0	0	0	0	0	0	0	0	0	0	0	0	0	0	0	0	33152	33152	33152	33152	33152	33536	33536	33536	33536	33536	33536	33536	33920	33920	33920	34368	34368	34752	35648	36032	36480	36928	37376	37824	38720	39616	39616	40064	40576	0	0	0	0	0	0	0	0	0	0	0	0	0	0	0	0	0	0	0	0	0	0	0	0	0	0	0	0	0	0	0	0	0	0	0	0	0	0	11328	10816	10112	9856	9408	8896	8704	8448	8256	8256	8000	8000	0	0	0	0	0	0	0	0	0	0	0	0	0	0	0	0	16576	16576	16576	16832	16832	16832	0	0	0	0	0	0	0	0	47040	47040	47040	47040	47040	46464	46464	45952	45952	45952	45952	45952	45952	46464	46464	46464	46464	46464	46464	46464	46464	45952	45952	45952	45440	45440	45440	45440	45440	45440	45440	44928	44928	43968	43456	42944	42432	41984	41472	41472	41024	41024	40576	40576	41024	41024	41024	41472	41472	41472	41984	41984	41984	42432	42944	42944	43456	43456	43968	44416	44928	44928	45440	45952	45952	46464	47040	47040	47040	47552	47552	47552	47552	47040	46464	45952	45952	44928	44416	44416	43968	43968	43968	44416	44416	44928	46464	49728	54336	59328	64064	2880	2880	5952	9152	7488	2880	64064	59968	56192	52544	48640	45440	43456	42432	42432	41984	41984	41984	41984	42432	42432	43456	44416	45440	46464	47040	48064	49152	49728	50816	50816	50304	49152	48640	47552	45952	44416	42432	40576	39168	37376	36032	35200	34752	34368	33920	33920	34368	34752	34752	35200	35200	36032	36928	37824	38720	39616	41024	41984	43456	44416	45440	45952	46464	47040	47040	47040	47040	46464	46464	45952	44928	44416	43968	43456	43456	42944	42944	42944	42944	42944	42944	42944	42944	42944	42944	43456	43456	43456	43968	43968	43456	43456	43456	42944	41984	40576	39616	38720	38272	38272	38272	39168	40064	42432	45440	49152	53120	56192	58688	59328	59328	59968	61312	62656	62656	62656	62016	60672	59968	59328	58688	58048	56768	55552	53760	51392	51392	0	0	35200	30720	27776	26688	25600	24960	24576	24256	23936	23936	23936	23936	23616	23616	0	0	21312	20416	19456	18560	16832	16000	15488	14656	13824	13568	12800	12288	11584	10560	9856	9152	8256	7552	6912	5824	4992	4352	3968	3584	3136	2560	2176	1984	1600	1408	1216	1216	0	0	0	0	0	0	0	0	0	0	0	0	0	0	0	0	0	0	0	0	0	10560	9600	8256	7360	6912	6464	6016	5824	5632	5632	5824	6272	6272	7360	8704	9408	10304	11776	13312	15168	0	18560	18560	19200	20416	21312	21952	22912	23936	25280	27392	29952	34368	38720	42944	50304	50304	53120	54912	53760	51968	49728	47040	44416	42432	40576	39168	37824	37376	36480	35648	35200	34752	34752	34368	34368	34368	34368	34368	33920	33920	33920	33920	33920	34368	35200	36032	37376	38720	40064	41984	44416	45952	47552	49152	50304	50304	50816	51392	52544	53760	54912	55552	55552	55552	54912	54336	53120	51392	49728	48640	47552	46464	45440	44928	43968	43456	42944	42432	42432	41472	41024	40576	40576	40064	40064	40576	41024	41472	41472	41984	42432	43456	43968	44928	44928	45440	45440	45952	47040	47552	47552	48064	49152	48640	48640	48640	48064	47552	47552	47040	47040	46464	46464	45952	45440	44928	44416	43968	43456	42432	41984	41024	40576	39616	38720	38720	38272	37824	37824	37824	37824	37824	37376	36032	34368	31936	31936	0	0	18880	16576	14400	12544	10816	8896	8000	7552	7104	6912	6912	6912	7360	8256	9600	11328	13056	15168	16576	18304	19200	20416	0	0	0	0	0	0	0	0	0	0	0	0	0	0	0	0	0	0	0	0	0	0	0	0	0	0	0	0	0
14656	14656	0	11072	10560	10560	10560	10816	0	0	0	0	0	0	0	0	37824	37824	44416	44416	46464	48064	49728	50816	52544	54912	56768	58048	58688	59328	59328	59328	59328	58688	57408	55552	54336	53120	51392	50304	48640	48064	46464	45440	43968	42944	41024	39616	38720	36928	36032	34752	33920	33536	32704	32704	32704	0	0	0	0	0	0	0	0	0	0	0	0	0	0	0	0	0	0	0	35200	34368	33920	33920	33920	33920	33920	33920	33536	33536	33536	33536	33920	33920	34368	34368	34368	34752	35200	35648	36032	36480	36928	37376	37824	38720	39168	39616	40064	40576	0	0	0	0	0	0	0	0	0	0	0	0	0	0	0	0	0	0	0	0	0	0	0	0	0	0	0	0	0	0	0	0	0	0	0	0	0	0	0	10112	9408	8896	8704	8256	7808	7808	7552	7552	7104	7104	0	0	0	0	0	0	0	0	0	0	0	0	0	0	0	0	0	17728	17728	17728	17984	0	0	0	0	0	0	0	0	0	45952	45952	45952	45952	45952	45952	45440	45440	44928	44928	44928	44928	45440	45440	45440	45952	45952	45952	45952	46464	46464	46464	46464	46464	45952	45952	45952	45952	45952	45440	45440	45440	44928	44416	43456	43456	42432	42432	41472	41472	41024	41024	40576	40576	41024	41024	41024	41024	41024	41472	41472	41472	41472	41984	41984	41984	41984	41984	41984	42432	42944	43456	43968	44416	44416	45440	45952	46464	46464	47040	47040	47552	47552	47040	47040	46464	45952	45440	44928	44416	44416	43968	43968	44416	44416	45440	47040	50816	55552	60672	65472	4352	4352	7488	10816	8320	3584	64768	60672	56192	52544	49152	45440	43456	42432	42432	42432	41984	41984	42432	42432	42432	42944	43968	44416	44928	45952	46464	47040	48064	48640	48640	48064	47552	47040	46464	45440	43968	42432	40576	39168	37376	36480	35648	35200	34752	34752	34752	34752	34752	34752	35200	35648	36032	36928	37824	38720	40064	41024	42432	43456	44416	45952	46464	47040	47552	47552	47552	47552	47040	47040	46464	45952	44928	44416	43968	43456	43456	43456	42944	42944	42944	42944	42944	43456	43456	43456	43456	43456	43456	43968	43968	43968	43968	43968	43968	42944	41984	41024	41024	40576	40576	41024	41984	43456	45440	48064	51392	54336	57408	58688	59968	60672	60672	61312	62656	62656	62016	61312	60672	59328	59328	58688	57408	56192	55552	53760	51392	48640	48640	41024	35200	30720	27776	26688	25600	24960	24576	24256	23936	23936	23616	23616	23232	22912	22592	22272	21312	20416	19456	18560	17984	17408	16832	16000	15168	14656	13824	12800	12032	11072	10304	9152	8448	7552	6656	5632	4800	4160	3584	3136	2752	2368	1984	1600	1600	1408	1088	1088	0	0	0	0	0	0	0	0	0	0	0	0	0	0	0	0	0	0	0	0	0	7360	6656	5824	5184	4992	4800	4800	4800	4800	4800	4800	5184	5184	6272	8256	8256	9408	10560	13312	13568	15168	16576	17408	17984	19200	20672	21632	22912	23936	25600	28096	0	0	0	50304	50304	51392	54336	54912	54336	51968	49728	47040	44416	42432	41024	39616	38272	37376	36480	36032	35648	35200	34752	34752	34752	34752	34368	34368	33920	33920	33920	33920	34368	34752	35648	36480	37824	39168	41024	42944	44416	46464	48064	49728	50304	50816	51392	51968	53120	54336	55552	55552	55552	55552	55552	54336	53120	51392	49728	48640	47552	47040	46464	45440	44416	43456	42944	42432	42432	41472	41472	40576	40576	40064	40064	40576	41024	41024	41472	41984	42432	42944	42944	43456	43968	43968	43968	44416	44928	45440	47552	48064	47552	47552	47552	47552	47552	47552	47040	47040	47040	47040	47040	46464	45440	44928	44416	43968	42944	41984	41472	40576	39616	38272	37824	37376	36928	36928	36928	36928	36928	37376	37376	37376	36032	34752	34752	35200	0	21632	18880	15488	13056	10816	8896	6912	6272	5824	5632	5632	5824	6016	7104	8000	9856	11584	13568	15168	16832	17984	19200	0	0	0	0	0	0	0	0	0	0	0	0	0	0	0	0	0	0	0	0	0	0	0	0	0	0	0	0	38720
0	0	0	0	0	0	0	0	0	0	0	0	0	0	0	0	0	47552	45952	45952	47552	49152	50816	51968	53120	54912	56192	56768	58048	57408	57408	58048	57408	56768	55552	54336	52544	51392	50304	49152	48064	47040	45952	44928	43968	42944	41024	39616	38720	36928	35648	34368	33920	33536	32704	32704	32704	0	0	0	0	0	0	0	0	0	0	0	0	0	0	0	0	0	0	36032	35200	34752	34752	34752	34368	33920	33920	33920	33920	33920	33920	33920	33920	34368	34368	34368	34752	35200	35200	35648	36032	36480	36928	37376	37824	38272	39168	39616	40064	0	0	0	0	0	0	0	0	0	0	0	0	0	0	0	0	0	0	0	0	0	0	0	0	0	0	0	0	0	0	0	0	0	0	0	0	0	0	0	0	10112	9408	8256	8000	7808	7360	7104	7104	7104	7104	7104	0	0	0	0	0	0	0	0	0	0	0	0	0	0	0	0	0	0	0	0	0	0	0	0	0	0	0	0	0	0	45952	45952	45952	45952	45440	45440	44928	44416	44416	44416	44416	44928	44928	44928	44928	44928	45440	45440	45952	46464	46464	46464	46464	46464	47040	47040	46464	46464	46464	45952	45952	45440	44928	44416	43968	43456	42432	42432	41984	41472	41024	41024	40576	40576	41024	41024	41024	41024	41024	41472	41472	41472	41472	41472	41472	41472	41472	41472	41472	41984	41984	42432	42944	43456	43968	44416	44928	45440	45952	46464	46464	47040	47552	47552	47040	46464	45952	45440	44928	44416	44416	43968	43968	44416	44928	45952	48064	51968	57408	62016	1408	5952	9984	9984	12480	9984	4352	640	62016	56768	53120	49728	45952	44416	43456	42944	42944	42432	41984	41984	41984	41984	42432	42944	43456	43968	44416	44416	44928	45952	46464	45952	45952	45952	45440	44928	44416	43456	41984	40576	39168	37824	36928	36032	35648	35200	34752	34752	35200	35200	35200	35648	36032	36480	36928	37824	38720	40064	41472	42944	43456	44416	45952	46464	47040	47552	48064	48064	48064	48064	47552	47040	46464	45440	44928	44416	43968	43456	43456	43456	42944	42944	42944	43456	43456	43456	43456	43456	43456	43968	43968	43968	43968	43968	43968	43968	43456	42432	41984	41024	41024	41024	41472	42944	44416	46464	48640	51392	54336	56768	58688	59328	59968	59968	60672	61312	61312	60672	59968	59968	59328	58688	58048	57408	56192	54912	53760	51392	48064	48064	41024	36480	31936	28480	27008	25984	25280	24960	24576	24256	24256	23616	23616	23232	22912	22592	21952	21312	20672	20416	19456	18880	18304	17728	16832	16256	15488	14400	13568	12288	11072	10112	9152	8256	7360	6272	5376	4544	3968	3328	2944	2368	1984	1600	1600	1408	1216	1088	1088	0	0	0	0	0	0	0	0	0	0	0	0	0	0	0	0	0	0	0	0	0	3968	3968	3968	3776	3776	3776	3968	3968	4160	4160	4160	4800	5184	6272	8256	8256	9408	10560	13568	13568	15168	15744	15744	16256	17984	19456	21632	22912	23936	26304	28480	0	0	48640	48640	50304	53120	55552	55552	54336	52544	50304	47552	45952	43456	41984	40064	38720	37824	37376	37376	36928	36480	36032	36032	36032	35648	35648	35648	35648	35200	35200	35648	36032	36480	36928	38272	39168	41024	42432	43968	45952	47552	49152	50304	50816	51392	51968	53120	54336	54912	56192	56768	56768	56768	56192	54912	53120	51968	50304	48640	48064	47552	46464	45952	44928	43968	42944	42432	42432	41984	41472	41024	40576	40576	40576	40576	41024	41024	41472	41984	41984	42432	42944	43456	43456	43456	43968	44416	44928	45440	45952	46464	46464	46464	46464	47040	47040	47040	47040	47040	47552	47040	47040	46464	46464	45440	44928	44416	42944	41984	41024	39616	38720	37376	37376	36480	36480	36480	36480	36480	36928	37376	37376	37824	37824	36480	35200	35200	34368	30720	30720	0	0	0	0	6912	5824	5632	5632	5376	5376	5824	6656	7808	9152	11072	12800	14144	15744	17152	18304	19200	19200	0	0	0	0	0	0	0	0	0	0	0	0	0	0	0	0	0	0	0	0	0	0	0	0	0	38720	38720
0	0	0	0	0	0	0	0	0	0	0	0	0	0	0	51968	51968	47552	47552	49152	50816	51968	52544	53120	53760	54912	56192	56768	56768	56192	56192	56192	55552	54912	53120	52544	51392	50304	49152	48064	47552	47040	45952	44928	43968	42944	41472	39616	38720	36928	35648	34368	33536	33152	32704	32704	32704	0	0	0	0	0	0	0	0	0	0	0	0	0	0	0	0	0	0	36032	35200	35200	35200	34752	34368	34368	34368	33920	33920	33920	33920	33920	34368	34368	34368	34752	34752	35200	35200	35648	36032	36480	36928	37376	37824	38272	38720	39616	40064	0	0	0	0	0	0	0	0	0	0	0	0	0	0	0	0	0	0	0	0	0	0	0	0	0	0	0	0	0	0	0	0	0	0	0	0	0	0	0	0	0	0	8256	7360	7104	6912	6912	7104	7104	0	0	0	0	0	0	0	0	0	0	0	0	0	0	0	0	0	0	0	0	0	0	0	0	0	0	0	0	0	0	0	45952	45952	45440	45440	45440	45440	44928	44416	44416	44416	44416	44416	44416	44416	44416	44416	44928	44928	45440	45952	46464	47040	47040	47552	47552	47552	47552	47552	47552	47552	47040	47040	46464	45952	44928	44416	43968	43456	42944	42432	41984	41472	41472	41472	41472	41472	41472	41472	41472	41472	41472	41472	41472	41024	41024	41024	41024	41024	40576	40576	41024	41024	41472	41472	41984	41984	42944	43456	44416	44416	44928	45952	46464	47040	47040	47040	46464	46464	45952	45440	44928	44928	44928	44928	45440	45952	47040	50304	54912	59968	65472	4352	8320	11648	11648	14208	10816	5120	1408	62016	57408	53120	49728	45952	44416	43456	43456	42944	42432	41984	41472	41472	41472	41472	42432	42432	42944	42944	42944	43456	43968	43968	43968	43968	43968	43456	43456	42944	41984	40576	39616	39168	38272	36928	36480	35648	35648	35200	35200	35200	35200	35648	36032	36032	36480	37376	37824	39168	40064	41984	42944	43968	44928	45440	46464	47040	47552	48064	48064	48064	48064	48064	47552	47040	46464	45440	44928	44416	43968	43456	43456	42944	42944	42944	43456	43456	43456	43456	43456	43456	43456	43968	43968	43968	43968	43968	43968	43456	42432	42432	41472	41472	41984	41984	43456	44928	46464	48640	51392	54336	56192	57408	58688	59328	59328	59328	59968	59968	59328	59328	59328	58688	58048	57408	56768	55552	54912	53120	50816	48064	48064	41024	36480	31936	29248	27392	26304	25984	25280	24960	24576	24256	23936	23616	23232	22912	22592	21952	21632	20992	20416	20096	19456	19200	18560	17728	16832	16000	14400	13056	11776	10560	9600	8896	8000	7104	6272	5376	4352	3776	3136	2752	2176	1792	1408	1216	1088	896	896	0	0	0	0	0	0	0	0	0	0	0	0	0	0	0	0	0	0	0	0	0	0	3968	3968	3584	3584	3776	3776	3968	3968	4160	4160	4160	4800	0	0	0	0	0	0	0	0	0	15744	15488	15488	17984	19456	21632	22912	31936	31936	35200	44928	44928	48640	48640	51392	54336	56192	55552	54336	53120	51392	48640	46464	44928	42944	41472	40064	39168	38720	38720	38272	37824	37824	37824	37376	37376	37824	37824	37824	37376	37376	37376	37824	38272	39168	40064	41472	42432	43968	45952	47040	48640	49728	50816	51392	51968	52544	53760	54912	56192	57408	57408	58048	58048	57408	56192	54336	53120	51392	50304	48640	48064	47552	46464	45440	44416	43968	42944	42944	42432	41984	41472	41024	41024	41024	41024	41472	41472	41984	41984	41984	42432	42944	43456	43456	43456	43456	44416	44416	44928	45440	45440	45440	45952	45952	46464	46464	47040	47552	47552	47552	47552	48064	47552	47040	45952	44928	44416	43456	41984	41024	39616	38720	37376	37376	36480	36480	36480	36480	36480	36928	37376	37824	38720	38720	39168	38272	36928	34368	30720	30720	34368	0	0	0	0	5824	5632	5632	5376	5376	5824	6656	7808	8896	10304	12032	13568	15168	16256	17728	19200	19200	0	0	0	0	0	0	0	0	0	0	0	0	0	0	0	0	0	0	0	0	0	0	0	0	0	38720	38272
36032	0	0	0	0	0	0	0	0	0	0	0	0	0	0	51968	51968	52544	53120	53760	54336	54336	54912	54912	54912	55552	56192	55552	54912	54912	54336	53760	53120	52544	51392	50304	49152	48640	48064	47040	46464	46464	45952	44928	44416	42944	41472	40064	38720	36928	35648	34368	33536	33152	32704	32704	32704	0	0	0	0	0	0	0	0	0	0	0	0	0	0	0	0	0	0	36032	35648	35200	35200	34752	34752	34368	34368	34368	34368	34368	34368	34368	34368	34368	34752	34752	34752	35200	35200	35200	35648	36032	36032	36480	37376	37824	38272	39168	39616	0	0	0	0	0	0	0	0	0	0	0	0	0	0	0	0	0	0	0	0	9216	9216	9216	9216	9216	9216	9216	9216	9216	0	0	0	0	0	0	0	0	0	0	0	0	0	0	7360	7104	6912	6912	0	0	0	0	0	0	0	0	0	0	0	0	0	0	0	0	0	0	0	0	0	0	0	0	0	0	0	0	0	0	0	0	0	45952	45440	45440	45440	44928	44928	44416	43968	43968	43968	43968	43968	43968	43968	43968	43968	44416	44928	45440	45952	46464	47040	47552	48064	48064	48640	48640	48640	48640	48640	48064	48064	48064	47040	46464	45440	44928	44416	43456	42944	42944	41984	41984	41984	41472	41472	41472	41984	41984	41472	41472	41472	41024	41024	40576	40064	40064	40064	39616	39616	39616	39616	39616	40064	40064	41024	41472	41472	42432	43456	43968	44928	45952	46464	47040	47040	47040	46464	46464	45952	45952	45952	45952	45952	47040	47552	49728	53120	58048	64064	2880	7488	11648	14208	14208	15104	11648	6720	2880	2880	58048	53760	49152	45952	44416	43456	42944	42432	42432	41472	41024	41024	41024	41024	41472	41472	41472	41472	41472	41984	42432	42432	42432	41984	41984	41472	41472	41024	40576	39616	39168	38272	37376	37376	36480	36032	35648	35648	35648	35648	35648	35648	36480	36480	36928	37824	38720	39616	41024	41984	42944	43968	44416	45440	45952	46464	47040	47552	48064	48064	48064	48064	47552	47040	46464	45440	44928	44416	44416	43968	43456	43456	43456	43456	43456	43456	43456	43456	43456	43456	43456	43968	43968	43968	43968	43456	43456	43456	42944	42432	41984	41984	41984	42432	43456	45440	46464	48640	50816	53120	54912	56192	57408	57408	58048	58048	58688	58688	59328	58688	58048	58048	57408	56768	56192	54912	54336	52544	50304	47552	44416	41024	36928	32704	29952	28480	27392	26304	25984	25280	24960	24576	24256	23616	23232	22912	22272	21952	21632	20992	20672	20096	19456	19200	18560	17728	16576	15168	14400	12032	11072	10112	9152	8448	7808	7104	6272	5184	4352	3776	3136	2752	2176	1792	1216	1216	1088	896	896	0	0	0	0	0	0	0	0	0	0	0	0	0	0	0	0	0	0	0	0	0	0	0	0	3584	3584	3776	3776	3968	3968	4160	4160	4352	0	0	0	0	0	0	0	0	0	0	0	15488	15488	19776	22592	24960	27008	31936	31936	35200	44928	44928	49152	51968	54336	55552	56768	56192	55552	54336	52544	50304	48640	46464	44928	42944	41472	40576	40064	40064	39616	39616	39616	39616	39616	39616	40064	40576	40064	40064	40064	40064	40576	41024	41472	42432	43968	44928	46464	47552	48640	49728	50816	51392	51968	52544	53120	54336	55552	57408	58048	59328	59328	59968	58688	57408	56192	54336	53120	51392	50304	49728	48640	47552	46464	45440	44416	43968	43968	43456	42944	42432	41984	41984	41984	41984	41984	42432	42432	42432	42432	42432	42944	43456	43456	43456	43456	43968	44416	44928	45440	45440	45440	45440	45952	46464	46464	47040	47552	48064	48064	48640	49152	49152	48640	48064	48064	47552	45952	44416	42432	41024	39168	37824	37376	36480	36480	36480	36928	37376	38272	38720	39616	40576	41472	42432	41984	41984	40064	37824	34368	34368	0	0	0	6272	5824	5376	5376	5376	5376	5824	6464	7808	8704	10304	11776	13312	14656	16000	17408	0	0	0	0	0	0	0	0	0	0	0	0	0	0	0	0	0	0	0	0	0	0	0	0	0	0	0	38720	38272
36032	40064	41472	0	0	0	0	0	0	0	0	0	0	0	54912	54336	54336	54336	55552	55552	56192	56192	56192	56192	56192	56192	55552	54336	53760	53120	52544	51968	50816	50304	49152	48064	47552	46464	46464	45952	45952	45440	45440	45440	44416	43456	41984	40576	39168	37376	37376	0	0	0	0	0	0	0	0	0	0	0	0	0	0	0	0	0	0	0	0	0	0	0	0	0	35648	35200	35200	34752	34752	34752	34752	34368	34368	34368	34368	34368	34368	34752	34752	34752	34752	35200	35200	35200	35648	35648	36032	36480	36928	37376	37824	38272	39616	0	0	0	0	0	0	0	0	0	0	0	0	0	0	0	9152	9152	9152	9152	9216	9216	9216	9216	9216	9216	9216	9216	9216	9216	9280	9280	9280	9280	9280	9280	9280	0	0	0	0	0	0	0	0	0	0	0	0	0	0	0	0	0	0	0	0	0	0	0	0	0	0	0	0	0	0	0	0	0	0	0	0	0	0	0	0	0	0	0	0	0	45440	44928	44928	44928	44416	43968	43968	43968	43456	42944	42944	42944	42944	42944	43456	43968	44416	44928	45440	45952	47040	47552	48064	48640	49152	49152	49728	49728	49728	49152	49152	48640	48064	47040	46464	45952	44928	44928	44416	43968	43456	43456	43456	43968	43968	43968	43456	43456	42944	42432	41984	41024	41024	40576	39616	39616	39616	38720	38720	38720	38720	38720	38720	39168	39168	40064	40576	41472	42432	42944	43968	45440	45952	47040	47552	47552	47552	47552	48064	48064	48064	48640	48640	49152	50816	53120	57408	62016	2112	6720	11648	15104	16000	16896	16896	11648	7488	2880	2880	58048	52544	48640	45952	44416	43456	42944	42432	41472	41024	40576	40064	40064	40576	40576	40576	40576	40576	40576	40576	40576	41024	40576	40064	40064	40064	39616	39616	39168	38720	37824	37376	37376	37376	36480	36032	36032	36032	36032	36032	36032	36480	36928	36928	37824	38272	39168	40064	41472	42432	43456	43968	44416	44928	45952	45952	46464	47040	47552	47552	48064	48640	47552	47552	47040	46464	45440	44928	44416	44416	43968	43968	43456	43456	43456	43456	43456	43456	43968	43968	43968	43968	43968	43968	43968	43456	43456	43456	42944	42432	41984	41984	41984	42432	43968	45440	46464	48064	49728	51968	53760	54912	55552	55552	56192	56768	56768	58688	58048	56768	56768	56768	56192	55552	54912	54336	53760	51968	49728	47040	44416	41024	36928	33152	30336	28864	27392	26304	25984	25280	24960	24576	24256	23616	23232	22592	21952	21952	21312	20992	20416	20096	19776	19200	18560	17152	15744	15168	15168	11072	10304	9408	8704	8000	7552	6912	6272	5184	4352	4352	0	0	0	0	1088	1088	0	0	0	0	0	0	0	0	0	0	0	0	0	0	0	0	0	0	0	0	0	0	0	0	0	0	0	0	3776	3776	3968	3968	3968	4160	0	0	0	0	0	0	0	0	0	0	0	0	0	0	0	0	0	0	34368	34368	37824	41984	45440	50304	51968	54912	55552	55552	55552	54912	54336	53760	52544	50816	49152	47552	45952	44928	43456	42432	41984	41984	41472	41472	41024	41024	41472	41472	41984	42432	42432	42432	42432	42944	43456	43456	44416	44928	45952	47040	48064	49152	49728	50816	51392	51968	52544	52544	53120	54336	55552	57408	58688	59328	59968	59968	59328	58688	57408	55552	53760	52544	51968	50816	49728	48640	47552	46464	45440	44928	44928	44928	44416	43456	43456	43456	43456	43456	43456	43456	43456	42944	42944	43456	43456	43456	43456	43456	43456	43968	44416	44928	45440	45440	45440	45440	45952	46464	47040	48064	48640	49152	50304	50816	52544	53120	53120	52544	51968	51392	49728	48064	45440	43968	42432	41472	40576	39616	39616	39616	39616	40064	41024	41024	42432	43456	43968	44928	45952	46464	46464	45952	45952	0	0	0	0	6272	5632	5376	5376	5376	5632	5824	6464	7552	8448	9856	11328	12544	14144	15488	17408	0	0	0	0	0	0	0	0	0	0	0	0	0	0	0	0	0	0	0	0	0	0	0	0	0	0	0	38720	38272
39168	40064	41472	43968	45440	46464	48064	0	0	0	0	0	0	54912	54912	54912	54912	55552	56192	56768	56768	57408	56768	56768	56192	54912	53760	52544	51968	50816	50304	49152	48640	47552	47040	45952	45440	45440	45440	44928	44928	44928	45440	0	0	0	0	0	0	0	0	0	0	0	0	0	0	0	0	0	0	0	0	0	0	0	0	0	0	0	0	0	0	0	0	0	35648	35648	35200	35200	34752	34752	34752	34368	34368	34368	34368	34368	34368	34752	34752	35200	35200	35200	35200	35200	35200	35648	35648	36032	36480	37376	37824	38272	0	0	0	0	0	0	0	0	0	0	0	0	0	0	0	9152	9152	9152	9152	9152	9216	9216	9216	9216	9216	9216	9216	9216	9216	9216	9216	9280	9280	9280	9280	9280	9280	0	0	0	0	0	0	0	0	0	0	0	0	0	0	0	0	0	0	0	0	0	0	0	0	0	0	0	0	0	0	0	0	0	0	0	0	0	0	0	0	0	0	0	0	0	0	44928	44928	44928	44416	43968	43456	43456	42432	42432	42432	41984	41984	42432	42944	43456	43968	44928	45440	45952	47040	47552	48640	49152	49728	49728	50816	50816	50816	50816	50304	49728	49152	48640	48064	47552	47040	47040	47040	47040	47040	47040	48064	48640	48640	48640	48064	47552	46464	45952	43968	42944	41472	41024	39616	39616	39168	38272	37824	37824	37824	37824	38272	38272	38720	39168	39616	40576	41472	42432	43456	44928	45952	46464	47552	47552	47552	48640	48640	48640	49152	49728	50304	51392	53120	56768	62016	1408	6720	10816	15104	17856	18752	18752	16896	12480	7488	3584	3584	57408	51968	48064	45440	44416	43456	42432	41984	41024	40576	40064	39616	39616	39616	39616	39616	39616	39616	39616	39616	39168	39168	38720	38272	38272	38272	37824	37824	37376	37376	36928	36480	36480	36928	36480	36480	36480	36480	36480	36928	36928	37376	37824	38272	38720	39168	40064	41024	41984	42432	43456	43968	44416	44928	45440	45440	45952	46464	47552	47552	48064	48640	48064	47552	47040	46464	45952	45440	44928	44928	44416	43968	43968	43968	43968	43968	43968	43968	43968	43968	43968	43968	43968	43968	43968	43456	43456	43456	42944	42432	41984	41984	41984	42432	43968	44928	45952	47552	49152	50816	52544	53120	53760	54336	56192	56768	56768	56768	55552	54912	54912	54912	54336	54336	54336	53120	52544	51392	49728	47040	44928	41472	38272	33920	31104	28864	27776	26688	25984	25280	24960	24576	24256	23616	23232	22592	21952	21952	21312	20992	20416	19776	19456	19200	18560	17152	15744	15744	0	11072	10112	9152	8448	7808	7552	6912	6272	5376	5376	0	0	0	0	0	1088	1088	0	0	0	0	0	0	0	0	0	0	0	0	0	0	0	0	0	0	0	0	0	0	0	0	0	0	0	0	0	3968	3968	4160	4160	4160	0	0	0	0	0	0	0	0	0	0	0	0	0	0	0	47040	47040	52544	40064	40064	42432	45952	48640	51968	52544	53760	54336	54336	53760	53120	52544	51968	51392	49728	49152	48064	47040	45440	44928	43968	43456	43456	43456	43456	42944	42944	43456	43456	43968	44416	44928	44928	44928	45440	45952	46464	47040	47552	48640	49728	50304	51392	51968	51968	52544	53120	53120	53120	53760	54912	56192	57408	58688	59328	59968	60672	59968	59328	58048	56768	54912	54336	52544	51968	51392	50304	48640	48064	47040	46464	45952	45952	45440	44928	44928	44416	44416	44928	44928	44928	44416	43968	43968	43968	43456	43456	43456	43456	43456	43968	44416	44928	45440	45952	45952	45952	46464	47040	47552	49152	50304	51968	53120	54912	57408	58048	58048	58048	57408	56768	54912	54912	0	0	47040	45440	44416	43968	43456	43456	43456	43968	44416	44928	45952	47040	48064	48640	49728	50816	52544	53760	54336	56192	57408	0	0	0	5632	5376	5376	5376	5632	6016	6464	7360	8256	9408	10816	12288	13824	15168	0	0	0	0	0	0	0	0	0	0	0	0	0	0	0	0	0	0	0	0	0	0	0	0	0	0	0	0	0	38272
40576	41472	42432	43456	44928	46464	47552	0	0	0	0	0	54336	54336	54336	55552	55552	56192	57408	57408	57408	57408	56768	56192	55552	54336	52544	51392	50304	49152	48064	47552	46464	45440	44928	44416	44416	43968	43968	43456	43456	43968	0	0	0	0	0	0	0	0	0	0	0	0	0	0	0	0	0	0	0	0	0	0	0	0	0	0	0	0	0	0	0	0	0	0	0	0	0	35648	35200	35200	34752	34752	34368	34368	34368	34368	34368	34752	34752	35200	35200	35200	35200	35200	35200	35648	35648	36032	36480	0	0	0	0	0	0	0	0	0	0	0	0	0	0	0	0	0	0	9152	9152	9152	9152	9152	9216	9216	9216	9216	9216	9216	9216	9216	9216	9216	9216	9280	9280	9280	9280	9280	9280	0	0	0	0	0	0	0	0	0	0	0	0	0	0	0	0	0	0	0	0	0	0	0	0	0	0	0	0	0	0	0	0	0	0	0	0	0	0	0	0	0	0	0	0	0	0	45440	44928	44416	44416	43456	42944	42432	41984	41472	41472	41472	41472	41984	42432	42944	43456	44416	45440	45952	47040	48064	48640	49152	49728	50816	50816	50816	50816	50816	50816	50816	50304	50304	50304	49728	49728	50304	50304	50816	51392	51968	52544	53760	53760	53760	53760	53120	52544	50816	48064	45952	44416	42432	41024	39616	39168	38272	37824	37376	37376	37376	37376	37376	37824	38272	38720	40064	41024	41472	42944	44416	45440	46464	47552	48064	48640	49152	50304	51968	53120	51968	51968	54912	60672	63360	2112	5952	11648	15104	18752	20672	19712	18752	18752	13376	7488	2112	2112	55552	50304	46464	44416	43456	42432	41984	41472	41024	40064	39616	39168	39168	39168	38720	38720	38720	38272	38272	38272	38272	37824	37376	36480	36480	36480	36480	36480	36480	36032	35648	35648	35648	36480	36480	36480	36480	36480	36480	36928	37376	37824	38720	39168	39616	40064	41024	41472	41984	42944	43456	43968	44416	44928	45440	45440	45952	46464	47040	47552	47552	48064	48064	48064	47552	47040	46464	45952	45440	45440	44928	44928	44928	44416	44416	44416	44416	44416	44416	44416	44416	44416	43968	43968	43968	43456	43456	43456	42944	42432	41984	41984	42432	42944	43968	44928	45440	46464	48064	49728	50816	51392	51392	53760	53760	54336	54336	54336	53760	53120	53120	52544	52544	51968	51968	51392	51392	50304	48640	47040	44928	42432	38720	35200	32320	29952	28864	27776	27008	26304	25984	25280	24576	24256	23616	22912	22272	21632	20992	20672	20416	19776	19456	19200	18560	17152	14912	14912	0	10112	9408	8448	7808	7360	7360	6912	6272	5376	5376	0	0	0	0	0	0	0	0	0	0	0	0	0	0	0	0	0	0	0	0	0	0	0	0	0	0	0	0	0	0	0	0	0	0	0	0	4160	4160	4160	4160	4352	0	0	0	0	0	0	0	0	0	0	0	0	0	0	48640	47040	47040	49728	50816	49152	49152	50816	51968	51968	51968	51968	51968	51392	51392	49728	49152	48064	47552	45952	45952	44928	44928	43968	43968	43968	44416	44416	44928	44928	44928	44928	44928	45440	45952	46464	46464	47040	47552	48064	48640	49152	50304	50816	51392	52544	53120	53120	53760	53760	53760	54336	53760	53760	54336	55552	56192	57408	58688	58688	59328	59968	59968	59328	58048	56768	56192	54912	53760	53120	51968	51392	49728	48640	47552	47552	47040	47040	46464	45952	45952	45440	45440	45440	45440	45440	45440	44928	43968	43968	43968	43968	43968	43968	43968	44416	44416	44928	45440	45952	46464	46464	47040	48064	49728	50816	52544	54912	56768	59328	62016	64064	64064	64064	64064	64064	2112	64768	61312	58048	58048	50304	49152	48640	48064	48064	48064	49152	49728	50304	50816	51968	52544	52544	53760	54336	54912	55552	56192	56192	57408	0	0	0	0	5632	5376	5376	5632	5824	6464	7360	8256	8896	10304	11584	13824	15168	0	0	0	0	0	0	0	0	0	0	0	0	0	0	0	0	0	0	0	0	0	0	0	0	0	0	0	0	0	38272
40576	41472	41984	42944	44416	45440	46464	47552	0	0	0	51968	51968	53760	54336	55552	56192	56768	57408	58048	57408	57408	56768	55552	54336	53120	51968	50816	49152	48064	47552	46464	45440	44928	44416	43968	43968	43456	43456	42944	42944	43456	43456	0	0	0	0	0	0	0	0	0	0	0	0	0	0	0	0	0	0	0	0	0	0	0	0	0	0	0	0	0	0	0	0	0	0	0	0	35648	35648	35648	35648	0	0	34752	34752	35200	35200	35200	35200	35200	35200	0	0	0	0	0	0	0	0	0	0	0	0	0	0	0	0	0	0	0	0	0	0	0	0	0	0	9216	9152	9152	9152	9152	9216	9216	9216	9216	9216	9216	9216	9216	9216	9216	9216	9216	9216	9280	9280	9216	9216	0	9216	9216	9152	9152	9152	9152	9152	9152	9152	0	0	0	0	0	0	0	0	0	0	0	0	0	0	0	0	0	0	0	0	0	0	0	0	0	0	0	0	0	0	0	0	0	0	0	0	45440	44928	44416	43968	43456	42432	41984	41472	41024	41024	41024	41024	41024	41984	42432	42944	44416	44928	45952	47040	48064	48640	49728	50304	50816	51392	51392	51968	51968	51968	51392	51392	51968	51968	51968	52544	53120	54336	54912	56192	56768	58048	59328	59328	59968	59968	59328	58048	56192	53120	50304	47552	44928	41984	40576	39616	37824	37376	36928	36928	36928	36928	36928	37376	37376	37824	38720	39616	40576	41472	43456	44928	45440	46464	48064	49152	50304	58048	2880	3584	22592	4352	4352	5952	8320	10816	13376	16896	19712	22592	22592	20672	17856	17856	11648	5120	2112	59328	53120	48640	45440	43968	42944	42432	41472	41024	40576	39616	39168	38720	38272	38272	37824	37824	37824	37376	37376	36928	36480	36480	36032	35200	35200	35200	35200	34752	34752	34752	34752	34752	35200	36032	36032	36032	36480	36480	36480	37376	37824	38272	39168	39616	40064	41024	41472	41984	42432	43456	43968	43968	44416	44416	44928	44928	45440	45952	46464	47040	47552	48064	48064	48064	48064	47552	47040	46464	45952	45952	45440	45440	44928	44928	44928	44928	44928	44928	44928	44416	44416	44416	44416	44416	43968	43456	43456	43456	42944	42432	42432	42432	42432	42944	43456	44416	44928	45952	46464	48064	49152	49728	51392	51968	51968	51968	51968	51968	51968	51392	50816	50816	50304	50304	49728	49728	49728	49152	48064	46464	44928	42432	39616	36032	33152	30720	29632	28864	28096	27392	26688	25600	25280	24256	23616	22912	22272	21632	20992	20672	20096	19776	19456	19200	18880	18880	14912	14912	0	9152	8704	7808	7360	7104	7104	0	0	0	0	0	0	0	0	0	0	0	0	0	0	0	0	0	0	0	0	0	0	0	0	0	0	0	0	0	0	0	0	0	0	0	0	0	0	0	0	0	0	0	0	0	0	0	0	0	0	0	0	0	0	0	0	0	0	0	48640	48640	49728	49728	50816	50816	51392	51968	51392	50816	50304	49728	49152	48064	47040	45952	44416	43456	41984	41024	41024	40576	40576	40576	40576	41472	42432	43456	44928	45440	46464	47040	47040	47552	48064	48640	49152	49728	50304	50816	51392	51968	53120	53760	54336	55552	55552	55552	55552	55552	54912	54912	54336	54336	54912	55552	56192	57408	58048	58688	59328	59328	59328	59328	58048	57408	56192	54912	54336	53760	52544	51392	50304	49728	48640	48064	47552	47040	47040	47040	46464	46464	46464	46464	46464	46464	45440	44928	44928	44416	44416	44416	44416	44416	44416	44416	44416	44928	45440	45952	46464	47040	47552	49152	50816	52544	54912	57408	59968	64064	640	2880	3584	3584	4352	3584	2112	64768	61312	58048	58048	59968	59328	58688	58048	58048	54336	54336	54912	55552	56192	56768	56768	56768	56768	56768	57408	57408	58048	58688	0	0	0	0	0	0	0	5632	5632	5824	6464	0	8896	8896	10304	11584	0	0	0	0	0	0	0	0	0	0	0	0	0	0	0	0	0	0	0	0	0	0	0	0	0	0	0	0	0	0	0	0
40576	41024	41984	42432	43456	44928	44928	45952	45952	46464	48064	48064	50304	51968	53760	55552	56192	56768	57408	57408	57408	56768	56192	54912	54336	52544	51392	50304	48640	48064	47040	45952	45440	44416	43968	43968	43456	42944	42944	42944	42944	43456	43456	0	0	0	0	0	0	0	0	0	0	0	0	0	0	0	0	0	0	0	0	0	0	0	0	0	0	0	0	0	0	0	0	0	0	0	0	0	0	35648	35648	0	0	0	0	0	0	0	0	0	0	0	0	0	0	0	0	0	0	0	0	0	0	0	0	0	0	0	0	0	0	0	0	0	0	0	9216	9216	9216	9216	9152	9152	9216	9216	9216	9216	9216	9216	9216	9216	9216	9216	9216	9216	9216	9216	9216	9216	9216	9216	9216	9216	9152	9152	9152	9152	9152	9152	9152	0	0	0	0	0	0	0	0	9216	9216	9216	0	0	0	0	0	0	0	0	0	0	0	0	0	0	0	0	0	0	0	0	0	0	0	0	0	45440	44928	44416	43968	43456	42432	41984	41472	40576	40576	40576	40576	40576	41024	41472	42944	43456	44416	45440	47040	48064	48640	49728	50304	51392	51392	52544	52544	52544	52544	52544	52544	53120	53760	54336	54912	56192	57408	58688	60672	62016	63360	64768	64768	65472	65472	65472	2112	640	640	0	0	0	43968	41472	39616	37824	37376	36928	36928	36480	36480	36928	36928	37376	37824	38272	39168	39616	41024	42944	43968	44416	45952	48064	56192	16000	16000	22592	22592	22592	22592	22592	22592	22592	22592	23616	23616	26624	25600	23616	19712	16000	9152	9152	3584	3584	56768	51392	47040	44928	43456	42432	41984	41472	40576	40064	39616	38720	38272	37824	37824	37376	37376	36928	36480	36480	36032	35648	35200	34752	33920	33920	33920	33536	33536	33536	33920	34368	34368	34368	35648	36032	36032	36480	36480	36928	37824	38272	39616	39616	40576	41024	41472	42432	42432	42944	43456	43968	43968	43968	43968	44416	44928	44928	45440	45952	46464	47040	47552	48064	48064	48064	47552	47040	47040	46464	46464	45952	45952	45952	45952	45440	45440	45440	45440	45440	44928	44928	44928	44416	44416	43968	43968	43456	43456	43456	42432	42432	42944	42944	42944	43456	44416	44928	44928	45952	47040	49152	49728	50304	50816	50816	50816	50816	50816	50304	49728	49152	49152	48640	48640	48640	48064	48064	47552	47040	45952	44416	42432	40064	37376	34368	34368	0	0	29248	28480	27776	27008	25984	25600	24256	23616	22592	22272	21312	20672	20096	20096	0	0	0	0	0	0	0	8256	7552	7552	7360	7104	7104	0	0	0	0	0	0	0	0	0	0	0	0	0	0	0	0	0	0	0	0	0	0	0	0	0	0	0	0	0	0	0	0	0	0	0	0	0	0	0	0	0	0	0	0	0	0	0	0	0	0	0	0	0	0	0	0	0	0	0	49152	49152	49728	49728	50816	50816	50816	49728	49152	48064	47040	46464	45440	44416	42944	41472	39616	38272	36928	36928	36928	36928	36928	37376	37376	38272	39616	41024	43456	44416	45440	47040	48064	48640	50304	50816	51392	52544	52544	53120	54336	54912	55552	56192	56768	57408	57408	57408	56768	56768	56192	55552	54912	54912	54912	54912	55552	56192	56768	57408	57408	58048	57408	56768	56192	55552	54912	54336	53760	53120	51968	51392	50304	49728	48640	48064	47552	47552	47552	47040	47040	47040	47040	47040	47040	46464	46464	45952	45440	44928	44928	44928	44928	44928	44928	44928	44928	45440	45440	45952	46464	47040	48064	49728	51968	54336	57408	59968	62656	640	3584	5952	7488	8320	9152	8320	7488	5120	2112	65472	62016	59968	59328	58688	58048	58048	58048	59328	59968	60672	61312	61312	60672	60672	60672	59968	59968	60672	61312	61312	0	0	0	0	0	0	0	0	0	0	0	0	0	0	0	0	0	0	0	0	0	0	0	0	0	0	0	0	0	0	0	0	0	0	0	0	0	0	0	0	0	0	0	0	0	0	0	0
40576	40576	41024	41472	42432	42432	42432	42432	42944	43968	44416	45952	48064	50816	52544	54336	55552	56192	56768	57408	57408	56192	55552	54336	53120	51968	50304	49152	48064	47552	46464	45440	44928	44416	43968	43968	43456	42944	42944	42944	42944	0	0	0	0	0	0	0	0	0	0	0	0	0	0	0	0	0	0	0	0	0	0	0	0	0	0	0	0	0	0	0	0	0	0	0	0	0	0	0	0	0	0	0	0	0	0	0	0	0	0	0	0	0	0	0	0	0	0	0	0	0	0	0	0	0	0	0	0	0	0	0	0	0	9280	9216	9216	9216	9216	9216	9216	9152	9152	9152	9152	9216	9216	9216	9216	9216	9216	9216	9216	9216	9216	9216	9216	9216	9216	9216	9216	9216	9216	9216	9152	9152	9152	9152	9152	9152	9152	9152	9216	9216	9216	0	0	0	9216	9216	9216	9216	0	0	0	0	0	0	0	0	0	0	9088	9088	9088	9088	9088	0	0	0	0	0	0	0	0	0	0	0	45440	44928	43968	43456	42432	41984	41472	40576	40576	40576	40576	40576	41024	41472	42432	43456	43968	44928	46464	47040	48064	49728	50304	51392	51968	52544	52544	52544	53120	53760	53760	54336	54912	56192	57408	58688	60672	62016	64064	64768	640	2112	2880	3584	3584	3584	2112	640	64064	60672	56192	56192	44928	42944	40576	38720	37376	37376	36928	36480	36480	36928	36928	37376	37824	38272	39168	39616	41024	42432	42944	44416	45952	0	0	55744	55744	55744	53120	29568	29568	37760	36608	34240	30912	28736	28736	29824	27712	23616	19712	14208	7488	7488	640	60672	54336	49152	45952	43968	42944	42432	41984	41024	40576	40064	39168	38720	38272	37824	37376	36928	36928	36480	36032	35648	35200	34752	34368	33920	33536	33152	33152	33152	33152	33152	33536	33920	33920	34368	35200	36032	36032	36928	37376	38272	39168	40064	40576	41024	41984	41984	42944	42944	43456	43456	43968	43968	43968	43968	43968	44416	44416	44928	44928	45952	45952	46464	47040	47552	48064	48064	47552	47552	47552	47040	47040	46464	46464	46464	45952	45952	45952	45952	45952	45440	45440	45440	44928	44928	44928	44416	43968	43968	43968	43456	42944	42944	42944	43456	43456	43968	44416	44928	44928	45952	47040	47552	48064	48640	49152	49152	49152	49728	49152	48640	48064	47552	47552	47552	47040	46464	46464	46464	45952	45440	44416	43456	42432	41024	41024	0	0	34368	33920	33152	30336	29632	28480	27392	26688	25280	24256	22912	22272	22272	0	0	0	0	0	0	0	0	0	0	8256	7552	7552	0	0	0	0	0	0	0	0	0	0	0	0	0	0	0	0	0	0	0	0	0	0	0	0	0	0	0	0	0	0	0	0	0	0	0	0	0	0	0	0	0	0	0	0	0	0	0	0	0	0	0	0	0	0	0	0	0	0	0	0	0	0	48640	48640	48640	49152	49152	49152	48640	47552	46464	45440	44416	42944	41984	40064	38272	36480	34752	33536	32320	31936	31936	31936	32320	33152	33920	34752	36032	38720	40064	41024	43456	44928	45952	48064	49152	50816	52544	54336	54912	55552	56192	56768	57408	58048	58048	58688	58688	58688	57408	56768	56192	56192	54912	54912	54336	54336	54912	54912	54912	54912	55552	54912	54912	54336	53760	52544	51968	51968	51392	50816	50304	49728	49152	49152	48640	48064	47552	47552	47040	47040	47040	47040	47040	47040	47040	47040	47040	45952	45952	45952	45440	45440	45440	44928	44928	44928	44928	45440	45440	46464	46464	47552	48640	50304	53120	55552	58688	62016	65472	3584	6720	9152	10816	11648	12480	13376	12480	10816	8320	7488	5120	3584	2880	1408	65472	65472	65472	640	1408	1408	1408	640	65472	64768	64064	63360	63360	63360	63360	0	0	0	0	0	0	0	0	0	0	0	0	0	0	0	0	0	0	0	0	0	0	0	0	0	0	0	0	0	0	0	0	0	0	0	0	0	0	0	0	0	0	0	0	0	0	0	0	0
40064	40064	40064	40576	40576	40064	40064	40064	41024	41472	41472	43456	45440	47552	50304	52544	54336	54912	55552	56192	56192	54912	54336	53120	51968	50816	49728	48640	48064	47040	45952	44928	44416	43968	43456	42944	42944	42944	42944	0	0	0	0	0	0	0	0	0	0	0	0	0	0	0	0	0	0	0	0	0	0	0	0	0	0	0	0	0	0	0	0	0	0	0	0	0	0	0	0	0	0	0	0	0	0	0	0	0	0	0	0	0	0	0	0	0	0	0	0	0	0	0	0	0	0	0	0	0	0	0	0	0	9280	9280	9280	9216	9216	9216	9216	9216	9216	9152	9152	9152	9152	9152	9216	9216	9216	9216	9216	9216	9216	9216	9216	9216	9216	9216	9216	9216	9216	9216	9216	9216	9152	9152	9152	9152	9152	9152	9152	9152	9216	9216	9216	9216	9216	9216	9216	9216	9216	9152	9152	9152	0	0	0	0	0	0	0	0	9088	9024	9024	9024	9024	9024	9024	9024	0	0	0	0	0	0	0	0	0	44928	43968	43456	42432	41472	41024	40064	39616	39168	39168	39616	40064	40064	41024	41984	42432	43968	44416	45952	47040	48064	49152	49728	50816	51392	52544	52544	52544	53120	53760	54336	56192	57408	58688	60672	62016	63360	64768	640	2112	2880	3584	3584	2880	2112	640	64768	60672	56768	53120	49152	49152	0	40064	38720	37376	37376	36928	36480	36480	36480	36928	37376	37824	38272	38720	39616	41024	41984	42944	0	0	0	0	55744	55744	55744	53120	29568	21312	21312	0	0	38976	35392	35392	33152	28736	24576	18752	12480	5120	5120	640	58048	52544	47552	44928	43456	42944	42432	41472	41024	40576	40064	39168	38720	38272	37376	36928	36928	36480	36032	35648	35648	34752	34368	33920	33536	33152	32704	32704	32704	32704	32704	33536	33920	33920	34368	35200	36032	36928	37376	38720	39168	40576	41472	41984	42944	43456	43456	43968	43968	43968	43968	43968	43968	43968	43968	43968	43968	43968	44416	44928	44928	45440	45952	46464	47040	47552	48064	48064	47552	47552	47552	47552	47040	47040	46464	46464	46464	46464	46464	45952	45952	45440	45440	45440	45440	44928	44416	44416	44416	44416	43968	43968	43968	43968	43968	43968	44416	44416	44928	45440	45952	46464	47040	47552	47552	48064	48064	48064	48640	48064	47552	47040	46464	45952	45440	45440	44928	44416	44416	44416	43968	43968	43456	43456	0	0	0	0	34368	33920	33152	31936	31104	29952	28864	27776	26304	24960	23616	23616	0	0	0	0	0	0	0	0	0	0	0	0	0	0	0	0	0	0	0	0	0	0	0	0	0	0	0	0	0	0	0	0	0	0	0	0	0	0	0	0	0	0	0	0	0	0	0	0	0	0	0	0	0	0	0	0	0	0	0	0	0	0	0	0	0	0	0	0	0	0	0	0	0	0	0	0	48640	48064	47552	47552	48640	48640	47552	47040	45440	44416	42944	41024	39616	37376	35200	33920	31936	31936	32320	28864	28864	28864	29632	29952	31104	32320	33920	36032	37824	39168	41024	42432	44928	45952	47552	49728	51392	53760	54912	55552	56192	57408	58048	58688	59328	59328	59328	58688	58688	57408	56768	56192	54912	54336	53760	53120	53120	53120	53120	52544	52544	52544	51968	51392	50816	49728	49728	49152	48640	48640	48640	48064	48064	47552	47552	48064	47552	47040	47040	47040	46464	46464	47040	47040	47040	47040	47040	47040	46464	46464	46464	46464	45952	45952	45952	45952	45952	45952	46464	46464	47040	48064	49152	51392	54336	56768	60672	64064	2112	5952	9984	11648	13376	13376	14208	14208	13376	13376	12480	11648	10816	9984	9152	9152	7488	7488	7488	7488	7488	6720	6720	5120	3584	2880	1408	65472	65472	65472	0	0	0	0	0	0	0	0	0	0	0	0	0	0	0	0	0	0	0	0	0	0	0	0	0	0	0	0	0	0	0	0	0	0	0	0	0	0	0	0	0	0	0	0	0	0	0	0	0	0
40064	39616	39616	39168	39168	38720	38720	38720	38720	38720	39616	41024	42432	44416	47040	49152	51392	52544	54336	54912	54336	53760	53120	52544	51392	49728	48640	47552	47040	46464	45440	44416	43968	43456	42944	42944	42944	42944	42944	0	0	0	0	0	0	0	0	0	0	0	0	0	0	0	0	0	0	0	0	0	0	0	0	0	0	0	0	0	0	0	0	0	0	0	0	0	0	0	0	0	0	0	0	0	0	0	0	0	0	0	0	0	0	0	0	0	0	0	0	0	0	0	0	0	0	0	0	0	0	0	0	9280	9280	9280	9280	9216	9216	9216	9216	9216	9216	9152	9152	9152	9152	9152	9152	9152	9216	9216	9216	9216	9216	9216	9216	9216	9216	9216	9216	9216	9216	9216	9216	9216	9152	9152	9152	9152	9152	9152	9152	9152	9216	9216	9216	9216	9216	9216	9216	9216	9152	9152	9152	9152	9152	0	0	0	0	0	0	0	9024	9024	9024	9024	9024	9024	9024	9024	9024	9024	0	0	0	0	0	0	0	0	0	0	0	41472	41024	40064	38720	38720	38720	38720	38720	39168	40064	41024	41472	42432	43456	44416	45952	46464	47552	48640	49728	50816	50816	50816	51392	51968	52544	53760	54912	56192	58688	59968	62016	63360	64768	65472	640	1408	1408	1408	640	64768	63360	61312	57408	54336	50304	49152	49152	40064	39168	36928	36928	36480	36480	36480	36480	36480	36928	37376	37824	38720	38720	39616	41024	41984	0	0	0	0	9984	23296	23296	23296	7232	48000	21312	21312	0	59200	45184	40192	38976	36608	29824	24576	17856	10816	3584	62656	62656	56192	50816	47040	44416	43456	42944	42432	41472	41472	40576	40064	39168	38720	38272	37376	36928	36928	36480	36032	35648	35200	34752	34368	33536	33536	33152	32704	32704	32704	32704	32704	33536	33920	34368	34752	35648	36480	37376	38720	39616	41024	42432	43456	43968	44416	44928	44928	44928	44928	44416	44416	44416	43968	43968	43968	43968	43968	43968	43968	44416	44928	44928	45952	45952	47040	47040	47552	48064	48064	48064	47552	47552	47552	47040	47040	47040	46464	46464	46464	45952	45952	45952	45440	45440	45440	45440	44928	44928	44416	44416	44416	44416	43968	43968	44416	44416	44416	44928	44928	45440	45952	46464	46464	47040	47552	47552	47552	47552	47552	47552	47040	46464	45952	45440	44928	44416	44416	43968	43968	43456	43456	43968	0	0	0	0	0	0	0	0	0	33536	32320	31104	29952	29248	27776	26304	24960	24960	0	0	0	0	0	0	0	0	0	0	0	0	0	0	0	0	0	0	0	0	0	0	0	0	0	0	0	0	0	0	0	0	0	0	0	0	0	0	0	0	0	0	0	0	0	0	0	0	0	0	0	0	0	0	0	0	0	0	0	0	0	0	0	0	0	0	0	0	0	0	0	0	0	0	0	0	0	45440	45440	45440	45952	46464	45952	44928	43968	42944	41024	39168	36928	34752	31936	30336	28480	27008	26688	25984	25984	25984	26688	27008	28096	29632	31104	33536	35648	37376	38720	40576	42432	44416	46464	48640	50816	51968	54336	55552	56768	58048	59328	59328	59968	60672	59968	59328	58688	57408	56768	55552	54336	52544	51968	50816	50816	50816	50304	49728	49728	49152	48640	48064	47552	46464	46464	45952	45952	45952	45952	46464	46464	47040	47040	47040	47040	47040	47040	47040	46464	46464	46464	46464	47040	47040	47040	46464	45952	45952	45952	46464	46464	46464	46464	46464	47040	47040	47040	47552	48064	48640	50304	53120	55552	58688	62016	640	3584	7488	9984	11648	12480	12480	12480	12480	12480	11648	10816	10816	10816	10816	0	0	0	13376	12480	12480	11648	11648	9984	9984	0	0	0	0	0	0	0	0	0	0	0	0	0	0	0	0	0	0	0	0	0	0	0	0	0	0	0	0	0	0	0	0	0	0	0	0	0	0	0	0	0	0	0	0	0	0	0	0	0	0	0	0	0	0	0	0
40064	39168	39168	38720	38272	37376	37376	37376	37824	37824	38720	39616	41024	42944	45440	48064	49728	51392	52544	53120	53120	53120	51968	51392	50816	49152	48640	47552	46464	45952	45440	44416	43968	43456	42944	42944	42944	42944	0	0	0	0	0	0	0	0	0	0	0	0	0	0	0	0	0	0	0	0	0	0	0	0	0	0	0	0	0	0	0	0	0	0	0	0	0	0	0	0	0	0	0	0	0	0	0	0	0	0	0	0	0	0	0	0	0	0	0	0	0	0	0	0	0	0	0	0	0	0	0	9344	9344	9280	9280	9280	9280	9280	9216	9216	9216	9216	9152	9152	9152	9152	9152	9152	9152	9152	9152	9152	9152	9152	9152	9216	9216	9216	9216	9216	9216	9216	9216	9216	9216	9216	9152	9152	9152	9152	9152	9152	9152	9152	9216	9216	9216	9216	9216	9216	9216	9152	9152	9152	9152	9152	9152	9152	9088	9088	9088	9024	9024	9024	9024	9024	9024	9024	9024	9024	9024	8960	8960	9024	0	8960	8960	0	0	0	0	0	0	0	0	0	0	0	38720	38720	38720	36928	36928	37376	37824	38720	39168	40576	41984	42944	43968	45440	46464	47040	48640	49152	49728	50304	50304	50816	51392	52544	54336	56192	58688	59968	61312	62656	63360	64064	64064	64064	63360	63360	62016	60672	58688	56768	54336	51392	48064	44928	41472	39168	37376	36480	36032	36032	36032	36032	36480	36480	36928	37824	38272	39168	39168	40064	41024	41984	0	0	0	0	9984	768	768	53312	30208	4224	40768	40768	0	59200	50560	43904	42624	38976	30912	24576	16896	9152	2112	59968	54336	54336	49728	45440	43968	43456	42944	42432	41984	41472	41024	40064	39168	38720	38272	37376	36928	36928	36480	36032	35648	35200	34752	34368	33536	33536	33152	32704	32704	32704	33152	33152	33536	34368	34752	35648	36928	37824	38720	39616	41472	42944	43968	44928	45440	45952	45952	45952	45952	45440	44928	44928	44416	43968	43968	43456	43456	43456	43456	43456	43968	43968	44416	44928	45440	45952	46464	47040	47040	47552	47552	47552	47552	47040	47040	47040	46464	46464	45952	45952	45952	45952	45440	45440	45440	45440	44928	44928	44928	44928	44928	44928	44928	44416	44416	44928	44928	44928	44928	45440	45440	45440	45952	46464	46464	46464	47040	47040	47040	47040	47040	46464	45440	44928	44416	43968	43968	43456	42944	42432	42432	42432	42432	0	0	0	0	0	0	0	0	0	34368	33536	32320	31552	30720	29952	29952	0	0	0	0	0	0	0	0	0	0	0	0	0	0	0	0	0	0	0	0	0	0	0	0	0	0	0	0	0	0	0	0	0	0	0	0	0	0	0	0	0	0	0	0	0	0	0	0	0	0	0	0	0	0	0	0	0	0	0	0	0	0	0	0	0	0	0	0	0	0	0	0	0	0	0	0	0	0	0	45440	43968	43968	44928	45440	44416	43968	42944	41472	39616	37376	34752	31936	28864	27392	25600	24960	23936	23936	23936	23936	24256	24960	25600	27392	29248	31104	33152	35200	36928	39168	41024	43456	45440	47552	50304	51968	54336	55552	57408	58048	59328	59968	61312	61312	60672	59968	58688	57408	56192	54336	53120	51968	50816	50304	49728	49152	48640	48064	47552	47040	46464	45952	44928	44928	44416	44416	44416	44928	44928	45440	45440	45440	45952	46464	46464	47040	47040	47040	46464	46464	46464	46464	0	0	0	46464	44928	44928	44928	45440	45440	45952	45952	46464	46464	47040	48064	48640	49152	49728	51968	53760	56768	59328	62016	640	3584	6720	9152	9984	10816	10816	10816	10816	10816	9984	9984	9984	9984	9984	9984	10816	10816	11648	11648	12480	12480	11648	11648	11648	0	0	0	0	0	0	0	0	0	0	0	0	0	0	0	0	0	0	0	0	0	0	0	0	0	0	0	0	0	0	0	0	0	0	0	0	0	0	0	0	0	0	0	0	0	0	0	0	0	0	0	0	0	0	0	0
38720	38720	37824	37376	36480	36480	36032	36032	36032	36032	36928	38272	39168	41024	42944	45952	47552	49728	50816	51968	51968	51968	51392	50304	49728	48640	48064	47552	46464	45952	45440	45440	0	0	0	0	0	0	0	0	0	0	0	0	0	0	0	0	0	0	0	0	0	0	0	0	0	0	0	0	0	0	0	0	0	0	0	0	0	0	0	0	0	0	0	0	0	0	0	0	0	0	0	0	0	0	0	0	0	0	0	0	0	0	0	0	0	0	0	0	0	0	0	0	0	0	0	0	0	9344	9344	9344	9280	9280	9280	9280	9216	9216	9216	9152	9152	9152	9152	9152	9152	9152	9152	9152	9152	9152	9152	9152	9152	9152	9152	9152	9152	9152	9152	9152	9152	9216	9152	9152	9152	9152	9152	9152	9152	9152	9152	9152	9152	9152	9152	9152	9152	9152	9152	9152	9152	9152	9152	9152	9088	9088	9088	9088	9024	9024	9024	9024	9024	9024	9024	8960	8960	8960	8960	8960	8960	8960	8960	8960	8960	0	0	0	0	0	0	0	0	0	0	0	0	0	0	36928	36928	35648	35648	36480	36928	38272	39616	40576	41984	43456	44928	45952	47040	47552	48064	48640	49152	49728	50816	52544	53760	55552	57408	58048	59328	60672	60672	60672	60672	59968	58688	58688	57408	55552	53760	51968	50304	47552	45440	42944	40576	38272	36928	36032	35648	35648	35648	36032	36032	36480	36928	37824	38272	39168	40064	40576	41472	0	0	0	0	0	52864	46912	46912	41152	9984	37568	61184	61184	19392	1536	57728	49216	46528	40192	32000	24576	16000	8320	640	58688	53120	53120	48640	45440	43968	43456	42944	42432	42432	41984	41472	40576	39616	39168	38272	37824	37376	36928	36480	36032	35648	35200	34752	34368	33920	33536	33152	33152	33152	33152	33536	33536	34368	34752	36032	36928	37824	38720	39616	40576	42432	43456	44928	45440	46464	47040	47040	47040	46464	45952	45440	44928	44416	43968	43456	43456	43456	42944	42944	42944	43456	43456	43968	44416	44416	44928	45440	45952	46464	47040	47040	47040	47040	47040	46464	45952	45952	45952	45440	45440	45440	45440	44928	44928	44928	44928	44928	44928	44928	44928	44928	44928	44928	44928	44928	44928	44928	44928	45440	45440	45440	45440	45952	46464	46464	46464	47040	46464	46464	46464	46464	45952	45440	43968	43456	42944	42944	41984	41472	40576	40064	38720	38720	0	0	0	0	0	0	0	0	0	35648	34752	32704	31104	31104	0	0	0	0	0	0	0	0	0	0	0	0	0	0	0	0	0	0	0	0	0	0	0	0	0	0	0	0	0	0	0	0	0	0	0	0	0	0	0	0	0	0	0	0	0	0	0	0	0	0	0	0	0	0	0	0	0	0	0	0	0	0	0	0	0	0	0	0	0	0	0	0	0	0	0	0	0	0	0	0	0	0	43968	43968	44928	44416	43968	42944	41984	40576	38720	35200	31936	28864	25984	24256	23232	22592	21952	21632	21632	21952	22272	22912	24256	25600	27008	29248	31104	33152	35200	37376	39616	41984	43968	46464	48640	50304	52544	54912	56768	58048	59328	59968	60672	61312	60672	59328	58048	56768	54912	53120	51968	50304	49152	48640	47552	47040	46464	46464	45440	44928	44416	44416	43456	43456	42944	42944	43456	43456	43456	44416	44928	45440	45952	45952	46464	47040	46464	46464	45440	44928	44928	44928	0	0	0	0	43968	43968	43968	44416	44928	45440	45440	45952	46464	47040	48064	49152	49728	50816	52544	54912	57408	59968	63360	65472	2880	5120	6720	8320	8320	8320	8320	8320	8320	8320	8320	8320	8320	8320	8320	9152	9152	9152	9152	9984	9984	9984	9984	9984	0	0	0	0	0	0	0	0	0	0	0	0	0	0	0	0	0	0	0	0	0	0	0	0	0	0	0	0	0	0	0	0	0	0	0	0	0	0	0	0	0	0	0	0	0	0	0	0	0	0	0	0	0	0	0	0
38272	37376	37376	36480	36032	34752	34368	34368	34752	34752	35200	36480	37376	39168	41024	43456	45440	47552	49152	50304	50816	50304	50304	49728	49152	48064	47552	47040	46464	45952	45440	44416	44416	0	0	0	0	0	0	0	0	0	0	0	0	0	0	0	0	0	0	0	0	0	0	0	0	0	0	0	0	0	0	0	0	0	0	0	0	0	0	0	0	0	0	0	0	0	0	0	0	0	0	0	0	0	0	0	0	0	0	0	0	0	0	0	0	0	0	0	0	0	0	0	0	0	9344	9344	9344	9344	9344	9344	9280	9280	9280	9280	9216	9216	9216	9152	9152	9152	9088	9088	9088	9088	9088	9088	9088	9152	9152	9152	9152	9152	9152	9152	9152	9152	9152	9152	9152	9152	9152	9152	9152	9152	9152	9152	9152	9152	9152	9152	9152	9152	9152	9152	9152	9152	9152	9152	9152	9152	9152	9088	9088	9088	9088	9088	9024	9024	9024	9024	9024	8960	8960	8960	8960	8960	8960	8960	8960	8960	8960	8960	8960	8960	0	0	0	0	0	0	0	0	0	0	0	0	0	32320	32320	32704	33536	33920	34752	36032	37824	38720	40576	42432	43968	45440	46464	47040	48064	48640	49152	49728	50304	50816	52544	53760	54912	55552	56768	57408	57408	56768	56192	55552	54912	53760	51968	50304	48640	47552	45440	43968	41984	40576	38720	37376	36032	35200	35200	35200	35200	35200	35648	36032	36480	37376	37824	38720	39168	40576	41472	0	0	0	0	0	52864	46912	41152	35584	5312	37568	1280	1280	19392	6592	62272	54784	50560	42624	33152	24576	16000	6720	64064	56768	51392	47040	47040	44928	43456	43456	42944	42432	42432	41984	41472	41024	40064	39616	38720	37824	37376	36928	36480	36032	36032	35648	35200	34368	33920	33536	33536	33536	33536	33536	33536	34368	34752	35648	36480	37824	38720	39616	40576	41472	43456	44416	45440	46464	47040	47552	47552	47552	46464	46464	45440	45440	44416	43968	43456	42944	42944	42432	42432	42432	42432	42432	42944	43456	43968	44416	44928	44928	45952	46464	46464	46464	46464	46464	45952	45952	45440	45440	44928	44928	44928	44416	44416	44416	44928	44928	44928	44928	44928	44928	44928	44928	44928	44928	44928	44928	44928	44928	45440	45440	45440	45440	45952	45952	46464	46464	46464	45952	45952	45952	44928	44928	44416	43456	42432	41984	40576	39616	38272	36928	35200	33536	31104	31104	0	0	0	0	0	0	0	0	35648	34752	32704	31104	27392	25280	25280	0	0	0	0	0	0	0	0	0	0	0	0	0	0	0	0	0	0	0	0	0	0	0	0	0	0	0	0	0	0	0	0	0	0	0	0	0	0	0	0	0	0	0	0	0	0	0	0	0	0	0	0	0	0	0	0	0	0	0	0	0	0	0	0	0	0	0	0	0	0	0	0	0	0	0	0	0	0	0	0	0	0	44928	44416	43968	42944	41984	40576	38720	35200	31936	28864	22912	21632	20992	20416	20096	20096	20096	20416	20672	21632	22592	23936	25280	27776	29632	31552	33536	35648	38272	40576	42944	44928	47040	49152	50816	53120	54912	56768	58048	59328	59328	59328	59328	58048	56768	54912	53120	51968	49728	48640	48064	47040	45952	45952	45440	44928	44416	43968	43456	42944	42432	42432	42432	42432	42432	42944	43456	43968	44416	45440	45952	45952	46464	46464	45952	45952	45440	44928	44416	43968	43968	43456	43456	43456	43456	43456	43456	43968	44416	44928	45440	45952	46464	47552	49152	49728	50816	51392	53760	56192	58688	60672	63360	65472	1408	3584	5120	5952	5952	6720	6720	6720	6720	7488	7488	7488	6720	6720	7488	7488	7488	6720	6720	7488	7488	7488	7488	9984	0	0	0	0	0	0	0	0	0	0	0	0	0	0	0	0	0	0	0	0	0	0	0	0	0	0	0	0	0	0	0	0	0	0	0	0	0	0	0	0	0	0	0	0	0	0	0	0	0	0	0	0	0	0	0	0
38272	37376	37376	36032	34752	34368	33920	33536	33536	33920	34368	35200	36480	38272	39168	41984	43968	45440	47552	48640	48640	49152	49152	49152	48640	48064	47040	47040	46464	45952	45440	44416	44416	0	0	0	0	0	0	0	0	0	0	0	0	0	0	0	0	0	0	0	0	0	0	0	0	0	0	0	0	0	0	0	0	0	0	0	0	0	0	0	0	0	0	0	0	0	0	0	0	0	0	0	0	0	0	0	0	0	0	0	0	0	0	0	0	0	0	0	0	0	0	0	0	0	9344	9344	9344	9344	9344	9344	9280	9280	9280	9280	9216	9216	9216	9152	9088	9088	9088	9088	9088	9088	9088	9088	9088	9088	9088	9088	9088	9152	9152	9152	9152	9152	9152	9152	9152	9152	9152	9152	9152	9152	9152	9152	9152	9152	9152	9152	9152	9152	9152	9152	9152	9152	9152	9152	9152	9152	9152	9088	9088	9088	9088	9088	9024	9024	9024	9024	9024	8960	8960	8960	8960	8960	8960	8960	8960	8896	8896	8896	8896	8896	8896	8896	0	0	0	0	0	0	0	0	0	0	0	32320	32320	32704	32704	32704	33536	34368	36480	37376	39168	41472	43456	44928	45952	47040	48064	48640	48640	49152	49728	50304	50816	51968	53120	53760	54336	54912	54336	53760	52544	51392	50304	49152	47552	45952	44928	42944	41984	41024	39616	38272	36928	36032	35200	34752	34752	34752	34368	34368	35200	35200	36032	36480	37376	37824	38720	40576	41472	0	0	0	0	0	52864	35584	35584	24896	61824	26688	61184	61184	23360	11840	1536	59200	54784	45184	34240	24576	15104	5120	62656	55552	50304	45952	45952	44416	43456	42944	42944	42432	42432	42432	41472	41024	40576	39616	39168	38272	37824	37376	36928	36480	36032	36032	35200	34752	34368	33920	33920	33920	33920	33920	34368	34752	35648	36480	37824	39168	39616	40064	41024	42944	43968	45440	46464	47552	48064	48064	48640	48064	47552	46464	45952	45440	44416	43968	43456	42944	42432	42432	42432	41984	41984	42432	42432	42944	42944	43968	43968	44928	45440	45952	45952	45952	45952	45440	45440	44928	44416	44416	44416	43968	43968	43968	43968	43968	43968	43968	43968	43968	44416	44416	44416	44416	44416	44928	44928	44416	44416	44928	44416	44416	44928	45440	45440	45952	45952	45952	45952	45952	45952	44928	44928	44928	43968	43456	42432	41984	40064	38272	36032	34368	31552	29632	26688	26688	0	0	0	0	0	0	0	0	0	0	0	0	25280	22912	20416	18560	18560	0	0	0	0	0	0	0	0	0	0	0	0	0	0	0	0	0	0	0	0	0	0	0	0	0	0	0	0	0	0	0	0	0	0	0	0	0	0	0	0	0	0	0	0	0	0	0	0	0	0	0	0	0	0	0	0	0	0	0	0	0	0	0	0	0	0	0	0	0	0	0	0	0	0	0	0	0	0	0	0	0	0	0	0	0	0	0	0	0	0	22912	20672	20096	19776	19456	19456	19456	19776	20096	20672	21632	22912	24256	26304	28096	29952	32320	34368	36928	39168	41472	43968	46464	48064	49728	51392	53120	54912	56192	58048	58048	58048	57408	56192	54336	52544	50816	49728	48640	47040	46464	45952	44928	44928	44416	44416	43456	43456	42944	42432	41984	41984	41984	41984	42432	42944	43456	43968	44416	45440	45952	45952	46464	46464	45952	45952	45952	44928	44416	43968	43456	43456	42944	42944	42944	42944	42944	43456	43968	44928	45440	45952	46464	48064	49152	50816	52544	53120	54912	57408	58688	61312	63360	65472	1408	3584	4352	5120	5952	5952	5952	6720	6720	7488	7488	7488	6720	6720	7488	6720	5952	5120	5120	5120	4352	4352	7488	0	0	0	0	0	0	0	0	0	0	0	0	0	0	0	0	0	0	0	0	0	0	0	0	0	0	0	0	0	0	0	0	0	0	0	0	0	0	0	0	0	0	0	0	0	0	0	0	0	0	0	0	0	0	0	0	0
38720	37376	35648	35648	34752	33920	33152	33152	33152	33152	33536	34752	35648	36480	37824	40064	41984	43968	45440	47040	47552	48064	48064	48064	48064	47552	47040	46464	46464	45952	45440	44416	44416	0	0	0	0	0	0	0	0	0	0	0	0	0	0	0	0	0	0	0	0	0	0	0	0	0	0	0	0	0	0	0	0	0	0	0	0	0	0	0	0	0	0	0	0	0	0	0	0	0	0	0	0	0	0	0	0	0	0	0	0	0	0	0	0	0	0	0	0	0	0	0	0	0	9344	9344	9344	9344	9344	9344	9280	9280	9280	9280	9216	9216	9216	9152	9088	9088	9024	9024	9024	9024	9024	9088	9088	9088	9088	9088	9088	9088	9088	9152	9152	9152	9152	9152	9152	9152	9152	9152	9152	9152	9152	9152	9152	9152	9152	9152	9152	9152	9152	9152	9152	9152	9152	9152	9152	9152	9088	9088	9088	9088	9088	9088	9024	9024	9024	9024	9024	8960	8960	8960	8960	8896	8896	8896	8896	8896	8896	8896	8896	8896	8896	8896	0	0	0	0	0	0	0	0	0	0	0	0	28864	28864	31104	31104	32320	33536	35648	36928	38720	41024	42944	44416	45440	47040	47552	48640	48640	49152	49152	49728	50304	50816	51392	51968	52544	51968	51392	50304	49728	48640	47552	45952	44416	43456	41984	41024	40064	38720	37824	36928	36032	35200	34752	34368	34368	34368	33920	33920	34368	35200	35200	36480	36928	37824	38272	39616	0	0	0	0	0	0	30144	30144	24896	9984	49216	19904	61184	61184	23360	13696	6592	63872	57728	49216	36608	24576	14208	5120	62016	54336	49728	45952	44416	44416	43456	42944	42944	42432	42432	42432	41984	41472	41024	40064	39168	38720	38272	37824	37376	36928	36480	36032	35648	35200	34368	34368	34368	34368	34368	34752	34752	35200	36032	37376	38272	39616	40064	40576	41472	43456	44928	45952	47552	48640	49152	49152	49152	48640	47552	47040	45952	45440	44416	43968	43456	42944	42432	42432	41984	41984	41984	41984	42432	42944	42944	43456	43968	44416	44928	45440	45952	45952	45440	45440	44928	44416	44416	43968	43968	43456	43456	43456	43456	43456	43456	43456	43456	43968	43968	43968	43968	43968	44416	44416	44416	44416	44416	43968	43968	44416	44416	44928	44928	44928	45440	45440	45440	44928	44928	44928	43968	43456	43456	42432	41472	40064	38272	36032	34368	31552	29632	26688	23936	23936	0	0	0	0	0	0	0	0	0	0	0	0	25280	20416	18880	17152	16000	16000	0	0	0	0	0	0	0	0	0	0	0	0	0	0	0	0	0	0	0	0	0	0	0	0	0	0	0	0	36480	36480	0	0	0	0	0	0	0	0	0	0	0	0	0	0	0	0	0	0	0	0	0	0	0	0	0	0	0	0	0	0	0	0	0	0	0	0	0	0	0	0	0	0	0	0	0	0	0	0	0	0	0	0	0	0	0	0	0	0	0	0	19776	19200	18880	18880	18880	18880	19456	19456	20096	20992	21952	23232	24960	27008	28864	31104	33536	36032	38272	40576	42944	45440	47040	49152	50304	51968	53760	54912	56192	56768	56192	55552	54336	53120	51392	49152	48064	47040	45952	45440	44928	44928	44416	43968	43968	43456	43456	42944	42432	41984	41984	41984	41984	42432	42944	43456	43968	44416	44928	45952	46464	46464	47040	46464	45952	45952	45440	44416	43968	43456	43456	42944	42944	42944	42944	42944	43456	43968	44928	45440	45952	47040	48640	50816	52544	54336	54912	57408	59328	60672	62016	64064	640	1408	3584	4352	5120	5952	5952	5952	6720	6720	7488	7488	7488	7488	7488	7488	6720	5120	4352	3584	2880	2112	2112	0	0	0	0	0	0	0	0	0	0	0	0	0	0	0	0	0	0	0	0	0	0	0	0	0	0	0	0	0	0	0	0	0	0	0	0	0	0	0	0	0	0	0	0	0	0	0	0	17728	17728	17728	17728	17984	18304	18560	19200	19776	0
38720	37376	35200	34752	34752	33536	32704	32704	32704	32704	33152	33920	34752	36032	36928	38272	41024	42944	44416	45440	46464	47040	47552	47552	47552	47552	47040	46464	46464	45952	45440	45440	0	0	0	0	0	0	0	0	0	0	0	0	0	0	0	0	0	0	0	0	0	0	0	0	0	0	0	0	0	0	0	0	0	0	0	0	0	0	0	0	0	0	0	0	0	0	0	0	0	0	0	0	0	0	0	0	0	0	0	0	0	0	0	0	0	0	0	0	0	0	0	0	0	0	9344	9344	9344	9344	9344	9280	9280	9280	9280	9280	9216	9216	9152	9152	0	9024	9024	9024	9024	9024	9024	9024	9024	9024	9088	9088	9088	9088	9088	9088	9088	9088	9088	9152	9152	9152	9152	9152	9152	9152	9152	9152	9152	9152	9152	9152	9152	9152	9152	9152	9088	9088	9152	9152	9088	9088	9088	9088	9088	9088	9088	9024	9024	9024	9024	9024	8960	8960	8960	8896	8896	8896	8896	8896	8896	8896	8896	8896	8896	8896	8896	8896	0	0	0	0	0	0	0	0	0	0	0	0	28864	28864	30336	30336	31552	32704	34752	36032	38272	40576	42944	44416	45440	47040	47552	48640	48640	49152	49152	49728	49728	50304	50304	50816	50304	49728	49152	48064	47040	45440	44416	43456	41984	40064	39168	38272	37824	36928	36032	35648	35200	34752	34368	33920	33536	33536	33536	33536	33920	34368	35200	36032	36480	36928	37824	39168	0	0	0	0	0	0	19776	19776	9984	57536	49216	19904	19904	40768	23360	15552	10048	3200	59200	50560	37760	25600	14208	4352	61312	53120	49152	45440	44416	44416	43456	42944	42432	42432	42432	42432	41984	41472	41024	40576	39616	39168	38720	37824	37824	37376	36928	36480	36032	35648	34752	34752	34752	34752	34752	34752	34752	35200	36032	36928	38720	39616	40064	41024	41984	43968	45440	46464	47552	48640	49152	49728	49728	49152	48064	47552	46464	45440	44416	43968	43456	42944	42432	42432	41984	41984	41984	41984	42432	42432	42944	43456	43456	44416	44416	44928	45440	45440	44928	44928	44416	43968	43456	43456	42944	42944	42944	42944	42944	42944	42944	42944	42944	42944	42944	43456	43968	43968	43968	43456	43456	43456	43456	43456	43456	43456	43456	43968	43968	43968	44416	44416	44416	43968	43968	43456	42944	42432	42432	41024	39616	38272	36480	34368	32320	29632	29632	23936	23936	20096	17984	16576	14912	13312	13312	14144	0	0	0	0	0	0	20672	19456	18304	17152	16000	15744	14656	14144	13824	13824	13824	0	0	0	0	0	0	0	0	0	0	0	0	0	0	0	0	0	0	0	0	0	0	35648	35648	36032	36032	36032	36032	36032	0	0	0	0	0	0	0	0	0	0	0	0	0	0	0	0	0	0	0	0	0	0	0	0	0	0	0	0	0	0	0	0	0	0	0	0	0	0	0	0	0	0	0	0	0	0	0	0	0	0	0	0	0	0	0	0	18880	18560	18560	18560	18560	18560	18880	18880	19200	20096	20992	22272	23936	25600	27776	29952	32320	34752	37376	39616	41984	43968	45952	47552	49152	50304	51968	53120	53760	54336	53760	53760	51968	50304	49152	48064	47040	45952	44928	44928	44416	44416	44416	43968	43968	43456	43456	42944	42432	41984	41984	42432	42432	42432	42944	43456	43968	44416	44928	45952	46464	46464	47040	47040	46464	45952	45952	45440	44416	43968	43456	42944	42944	42944	42944	42944	43456	44416	44928	45952	47040	48064	50304	52544	54336	55552	57408	59328	61312	62656	64064	64768	640	2112	3584	5120	5952	5952	6720	6720	7488	7488	8320	8320	8320	8320	7488	6720	5952	4352	2880	2112	1408	640	64768	64768	0	0	0	0	0	0	0	0	0	0	0	0	0	0	0	0	0	0	0	0	0	0	0	0	0	0	0	0	0	0	0	0	0	0	0	0	0	0	0	0	0	0	0	0	0	0	0	17408	17408	17408	17408	17728	17728	17984	18560	19200	20096
38720	37376	35200	34368	33920	33536	32704	32704	32704	32704	33152	33920	33920	35200	36480	37824	39616	41984	43456	44928	45440	45952	46464	47040	47552	47040	47040	46464	46464	45952	45440	45440	0	0	0	0	0	0	0	0	0	0	0	0	0	0	0	0	0	0	0	0	0	0	0	0	0	0	0	0	0	0	0	0	0	0	0	0	0	0	0	0	0	0	0	0	0	0	0	0	0	0	0	0	0	0	0	0	0	0	0	0	0	0	0	0	0	0	0	0	0	0	0	9344	9344	9344	9344	9344	9344	9344	9344	9280	9280	9280	9280	9216	9216	9152	9152	9152	0	9024	8960	8960	8960	8960	8960	9024	9024	9024	9024	9024	9024	9088	9088	9088	9088	9088	9088	9088	9088	9088	9088	9088	9088	9088	9088	9088	9088	9088	9088	9088	9088	9088	9088	9088	9088	9088	9088	9088	9088	9088	9088	9088	9088	9088	9024	9024	9024	9024	9024	8960	8960	8960	8896	8896	8896	8896	8832	8832	8832	8832	8832	8832	8832	8832	8832	8832	8832	0	0	0	0	0	0	0	0	0	0	0	0	0	29248	29248	30336	31552	33920	35200	37824	40064	42432	44416	45952	47040	48064	48640	49152	49152	49152	49728	49728	49728	49728	49152	49152	48064	47040	46464	44928	43968	42944	41472	40064	39168	37824	37376	36928	35648	35200	35200	34368	34368	33920	33536	33536	33536	33536	33536	33920	34368	35200	36032	36480	36928	37824	39168	0	0	0	0	0	0	61824	61824	57536	45248	45248	0	0	40768	27456	19392	15552	6592	62272	53376	38976	26624	15104	4352	61312	53120	48640	45440	44416	43456	43456	42944	42432	42432	42432	42432	41984	41472	41024	40576	39616	39168	38720	38272	37824	37824	37376	36928	36480	36032	35200	34752	34752	34752	34368	34368	34752	34752	35200	36032	37376	38720	39616	40576	41472	42432	44416	45440	47040	48064	49728	49152	49152	49152	48064	47552	46464	45440	44416	43456	42944	42432	42432	42432	41984	41984	41984	41984	42432	42432	42944	42944	43456	43968	44416	44416	44928	44928	44928	44416	43968	43456	42944	42944	42944	42944	42432	42432	42432	42432	42432	42944	42944	42944	42944	43456	43456	42944	42944	42944	42944	42432	42432	42432	42432	42432	42432	42432	42432	42944	42944	42944	42432	42432	42432	41984	41472	40576	40576	39616	37824	36480	34368	31936	29952	29632	24576	22272	20416	18560	17152	15744	14656	13312	13312	13568	13568	0	0	0	0	0	19456	18880	17984	17408	16576	15744	14656	14144	13824	13824	13824	15744	0	0	0	0	0	0	0	0	0	0	0	0	0	0	0	0	0	0	0	0	0	35200	35200	35200	35200	35200	35200	34752	34752	0	0	0	0	0	0	0	0	0	0	0	0	0	0	0	0	0	0	0	0	0	0	0	0	0	0	0	0	0	0	0	0	0	0	0	0	0	0	0	0	0	0	0	0	0	0	0	0	0	0	0	0	0	0	17728	17728	17984	17984	17984	18304	18304	18560	18560	19200	19776	20416	21312	22912	24960	27008	29248	31552	33920	36480	38720	41024	42944	44416	45952	47552	49152	50304	51392	52544	52544	51968	51392	50816	48640	47552	45952	45440	44928	44416	43968	43968	43968	43968	43968	43968	43456	43456	42944	42944	42432	42432	42432	42432	42432	42944	43456	43968	44416	44928	45952	46464	46464	47040	47040	46464	45952	45952	45440	44416	43968	43456	42944	42944	42944	42944	42944	43968	44416	45440	47040	48064	49728	51968	54336	56192	57408	58688	59968	62016	63360	64064	65472	1408	2880	4352	5952	6720	6720	8320	8320	9984	9984	9984	9984	9152	9152	8320	6720	5952	4352	2880	1408	65472	64064	62656	62656	0	0	0	0	0	0	0	0	0	0	0	0	0	0	0	0	0	0	0	0	0	0	0	0	0	0	0	0	0	0	0	0	0	0	0	0	0	0	0	0	0	0	0	0	0	0	17408	17152	17152	17408	17408	17728	17728	17984	18560	19200	20096
39616	37824	36032	34368	33920	33920	33152	33152	32704	32704	33152	33536	33920	35200	36032	37376	39168	41024	42944	43456	44928	45440	45952	46464	47040	47040	47040	46464	46464	0	0	0	0	0	0	0	0	0	0	0	0	0	0	0	0	0	0	0	0	0	0	0	0	0	0	0	0	0	0	0	0	0	0	0	0	0	0	0	0	0	0	0	0	0	0	0	0	0	0	0	0	0	0	0	0	0	0	0	0	0	0	0	0	0	0	0	0	0	0	0	0	0	0	9344	9344	9344	9344	9344	9344	9344	9344	9280	9280	9280	9280	9216	9216	9152	9152	9024	8960	8960	8960	8960	8960	8960	8960	8960	8960	8960	9024	9024	9024	9024	9024	9024	9088	9088	9088	9088	9088	9088	9088	9088	9088	9088	9088	9088	9088	9088	9088	9088	9088	9088	9088	9088	9088	9088	9088	9088	9088	9088	9088	9024	9024	9024	9024	9024	9024	9024	8960	8960	8960	8896	8896	8896	8832	8832	8832	8832	8832	8832	8832	8832	8832	8832	8832	8832	8832	8832	0	0	0	0	0	0	0	0	0	0	0	0	29248	29248	29248	30720	33152	34752	37376	40064	42432	44416	45952	47040	48064	49152	49152	49152	49728	49728	49728	49728	49152	49152	48640	47552	46464	45440	44416	42944	41984	40576	39616	38272	37376	36928	36032	35648	35200	34752	34368	33920	33920	33536	33536	33536	33152	33152	33920	34368	35200	36032	36480	36928	37824	39168	44928	0	0	0	0	0	41344	37568	37568	30208	30208	0	0	43136	29568	25408	19392	11840	65408	57728	41408	41408	16000	16000	59968	51968	48064	44928	43968	43456	43456	42432	42432	41984	41984	41984	41472	41472	41024	40576	40064	39616	39168	38720	38272	38272	37824	37376	36928	36032	35200	34752	34752	34752	34368	34368	34368	34368	34752	35648	36928	38272	38720	40064	41024	41984	42944	43968	46464	47040	48064	48640	48640	48640	48064	47552	46464	45440	43968	43456	42944	42432	42432	42432	41984	41984	41984	41984	42432	42432	42944	42944	43456	43968	43968	44416	44416	44416	44416	43968	43968	42944	42944	42944	42432	42432	42432	42432	42432	42432	42432	42432	42432	42432	42944	42944	42944	42432	42432	41984	41984	41472	41472	41472	41024	41024	41024	40576	40576	40576	40064	40064	40064	39616	39616	39616	39616	38720	37376	37376	35648	34368	32320	31936	29952	29952	22592	20672	18880	17408	16000	15168	14656	13568	13568	13568	13568	0	0	0	0	0	19200	18560	17984	17728	17152	16256	15488	15168	15168	15168	15488	15744	17984	0	0	0	0	0	0	0	0	0	0	0	0	0	0	0	0	0	0	0	34752	34752	34752	34752	34752	34752	34368	33920	33920	33920	0	0	0	0	0	0	0	0	0	0	0	0	0	0	0	0	0	0	0	0	0	0	0	0	0	0	0	0	0	0	0	0	0	0	0	0	0	0	0	0	0	0	0	0	0	0	0	0	0	0	0	0	0	17408	17408	17728	17728	17728	17728	17984	17984	18560	18560	18880	19456	20416	21952	23936	25984	28096	30336	32704	35200	37824	39616	41024	42432	43968	45440	46464	47552	48640	49728	49728	49728	49152	48640	47040	45952	44416	44416	43968	43456	42944	42944	43456	42944	42944	42944	42944	42944	42944	42944	42944	42944	42432	42432	42944	43456	43968	44416	44928	45440	45952	46464	47040	47040	47040	46464	45952	45952	45440	44416	43968	43456	42944	42944	42944	42944	43456	43968	44928	46464	48064	49728	51392	53760	56192	58048	59328	60672	62016	63360	64064	65472	640	2112	3584	5120	6720	7488	9152	9984	11648	11648	12480	12480	11648	11648	9984	9152	7488	6720	4352	2880	640	65472	63360	62656	62656	0	0	0	0	0	0	0	0	0	0	0	0	0	0	0	0	0	0	0	0	0	0	0	0	0	0	0	0	0	0	0	0	0	0	0	0	0	0	0	0	0	0	0	0	0	0	17408	17152	17152	17408	17408	17728	17984	17984	18560	19200	20096
40576	38720	36480	35648	34752	34752	33536	33152	33152	33536	33536	33536	33920	35200	36032	36928	38720	40064	41472	42432	43456	43968	44416	45952	47040	47552	47040	47040	47040	0	0	0	0	0	0	0	0	0	0	0	0	0	0	0	0	0	0	0	0	0	0	0	0	0	0	0	0	0	0	0	0	0	0	0	0	0	0	0	0	0	0	0	0	0	0	0	0	0	0	0	0	0	0	0	0	0	0	0	0	0	0	0	0	0	0	0	0	0	0	0	9344	9344	9344	9344	9344	9344	9344	9344	9344	9344	9344	9280	9280	9280	9280	9216	9216	9088	9088	8960	8960	8960	8896	8896	8960	8960	8960	8960	8960	8960	8960	8960	8960	8960	9024	9024	9024	9024	9024	9024	9088	9088	9088	9088	9088	9088	9088	9088	9088	9088	9024	9024	9024	9024	9088	9088	9088	9088	9088	9024	9024	9024	9024	9024	9024	9024	9024	9024	9024	8960	8960	8960	8896	8896	8896	8832	8832	8832	8832	8832	8832	8832	8832	8832	8832	8832	8832	8832	8832	8832	0	0	0	0	0	0	0	0	0	0	0	0	0	29248	29248	30720	33152	34752	36928	40064	42944	44416	45952	47552	49152	49728	49728	49728	49728	49728	49728	49152	49152	48640	48064	47040	45952	44928	43968	42432	41024	40064	38720	37824	36928	36480	36032	35648	35200	34752	34368	33920	33920	33536	33536	33536	33152	33152	33920	34368	35200	36032	36928	37376	38272	39168	44928	0	0	0	0	0	19904	19904	19904	19904	19904	0	55744	45568	33920	29568	23360	13696	3200	60736	43904	29824	16000	16000	59328	50816	47040	44416	43968	42944	42432	42432	41984	41984	41472	41472	41472	41472	41024	40576	40064	39616	39168	38720	38720	38272	37824	37376	36928	36480	35648	35200	34752	34368	33920	33920	33920	33920	33920	34752	35648	36928	37824	39168	40064	41024	42432	43456	45952	45952	46464	47040	47552	47552	47040	46464	45952	44928	43968	43456	42944	42432	42432	42432	41984	41984	41984	41984	42432	42432	42944	42944	43456	43968	43968	43968	44416	44416	44416	43968	43456	42944	42944	42432	42432	42432	42432	42432	42432	41984	41984	41984	42432	42432	42432	41984	41984	41472	41472	41024	41024	40576	40064	39616	38720	38272	37824	36928	36032	35648	35200	34752	34752	34752	35200	35648	35648	35200	34368	34368	33152	31936	29952	27776	25280	22912	20992	19200	17728	16576	15488	14912	14656	13824	13824	13824	14400	0	0	0	0	0	17984	17728	17408	16832	16832	16576	16000	16000	16256	16832	17152	17152	17984	20096	0	0	0	0	0	0	0	0	0	0	0	33920	33920	34368	34368	34368	34368	34752	34752	34752	34752	34752	34368	34368	33920	33536	33152	32704	32704	0	0	0	0	0	0	0	0	0	0	0	0	0	0	0	0	0	0	0	0	0	0	0	0	0	0	0	0	0	0	0	0	0	0	0	0	0	0	0	0	0	0	0	0	0	0	0	0	0	16000	16000	16576	16832	17152	17408	17408	17408	17408	17728	17728	17984	18304	18304	18880	19456	21312	23232	24960	27008	29632	31936	34368	36480	38272	39616	40576	41984	42944	44416	45440	45952	47040	47552	47552	47040	47040	45440	44416	43968	43456	42944	42944	42432	42432	42432	42944	42944	42944	42944	42944	42944	42944	42944	42944	42944	42944	43456	43968	44416	44928	45440	45952	46464	46464	47040	47040	47040	47040	45952	45952	45440	44416	44416	43968	43456	43456	43968	43968	44416	45440	47040	48640	50304	51968	53760	56192	58688	59968	61312	62016	63360	64768	640	1408	2112	2880	5120	6720	9152	9984	11648	13376	14208	15104	15104	15104	14208	13376	11648	10816	8320	6720	4352	2112	640	64064	62016	62016	0	0	0	0	0	0	0	0	0	0	0	0	0	0	0	0	0	0	0	0	0	0	0	0	0	0	0	0	0	0	0	0	0	0	0	0	0	0	0	0	0	0	0	0	0	0	0	17408	17152	17152	17408	17728	17984	18304	18560	19200	20096	20672
