2677	2681	2684	2688	2695	2699	2706	2710	2714	2714	2714	2714	2710	2706	2699	2691	2670	2662	2648	2638	2627	2620	2606	2603	2603	2599	2599	2599	2603	2603	2606	2613	2617	2620	2627	2627	2631	2634	2638	2641	2645	2648	2652	2659	2670	2681	2691	2699	2706	2714	2721	2725	2725	2729	2732	2732	2736	2736	2732	2729	2729	2725	2721	2721	2721	2717	2717	2717	2717	2717	2721	2717	2717	2714	2714	2706	2706	2703	2695	2691	2688	2681	2673	2670	2666	2662	2662	2662	2659	2659	2659	2659	2659	2662	2662	2666	2666	2666	2666	2670	2670	2670	2666	2666	2662	2659	2652	2648	2645	2638	2627	2599	2576	2556	2530	2504	2451	2430	2418	2409	2400	2398	2392	2389	2383	2380	2380	2377	2377	2377	2374	2374	2374	2377	2377	2380	2389	2403	2415	2436	2460	2488	2520	0	2549	2572	2589	2606	2620	0	2638	2648	2659	2677	2691	2699	2714	2725	2736	2744	2748	2751	2751	2751	2751	2751	2751	2751	2748	2744	2740	2732	2725	2721	2710	2699	2688	2677	2659	2648	2624	2613	2610	2606	2603	2606	2610	2617	2620	2631	2638	2648	2655	0	2666	2677	2688	2695	2706	2710	2714	2717	2714	2714	2714	2699	2695	2688	2684	2677	2670	2666	2662	2659	2659	2655	2652	2655	2655	2659	2662	2673	2681	2688	2695	2703	2706	2706	2706	2710	2706	2706	2706	2703	2703	2703	2699	2691	2688	2681	2677	2670	2662	2655	2652	2648	2641	2641	2641	2645	2645	2648	2652	2655	2659	2662	2666	2670	2670	2673	2673	2673	2670	2666	2662	2662	2659	2659	2655	2652	2652	2652	2648	2648	2648	2652	2655	2659	2662	2662	2670	2677	2681	2684	2684	2688	2691	2695	2695	2695	2695	2695	2695	2691	2688	2684	2681	2677	2677	2677	2673	2673	2670	2666	2662	2659	2659	2652	2648	2645	2638	2620	2610	2599	2596	2593	2586	2576	2569	2569	2566	2566	2572	2576	2576	2589	2603	2620	2634	2652	2662	2673	0	2688	2695	2706	2714	2725	2732	2744	2755	2759	2763	2767	0	0	0	0	0	0	1642	1639	1637	1634	1633	1630	1625	1623	1619	1617	1614	1613	1611	1610	1609	1607	1606	1606	1605	1604	1604	1602	1602	1601	1600	1600	1598	1596	1593	1592	1589	1587	1586	1583	1580	1577	0	0	0	0	0	0	0	0	0	0	0	0	0	0	2662	0	2666	0	2670	0	2677	2681	2684	2688	2695	2703	2699	2699	2695	2691	2684	2677	2662	2645	2638	2634	2624	2617	0	0	0	0	0	0	0	0	0	0	0	0	0	0	0	1407	1405	1403	1401	1402	1403	1404	1404	1405	1403	1403	1403	1401	1400	1398	1397	1394	1392	1389	1383	1380	1375	1370	1364	1360	1354	1348	1338	1334	1329	1327	1322	1319	1314	1311	1308	1306	1302	1302	1301	1301	1301	1299	1298	1296	1295	1293	1290	1287	1284	1281	1279	1277	1275	1274	1273	1270	1270	1269	1268	1267	1266	1266	1266	1266	1266	1265	1265	1265	1264	1264	1263	1262	1262	1261	1260	1259	1259	1259	1260	1260	1261	1262	1263	1266	1268	1270	1273	1275	1277	1279	1283	1285	1288	0	1290	1292	1294	1295	1295	1295	1294	1292	1291	1290	1290	1290	1289	1288	1287	1287	1287	1287	1287	1287	1287	1288	1288	1288	1287	1287	1286	1286	1284	1283	1283	1281	1279	1279	1278	1278	1276	1275	1274	1272	1271	1270	0	0	0	0	0	0	0	0	0	0	0	0	0	0	0	0	0	0	0	0	0	0	0	0	0	0	0	0	1293	1290	1289	1287	1281	1279	1276	1273	1270	1266	1264	1262	1259	1257	1254	1253	1251	1250	1250	1250	1250	1250	1250	1250	1250	1251	1250	1250	1249	1248	1247	1245	1242	1240	1238	1236	1235	1233	1232	1230	1230	1229	1230	1232	1232	1234	1234	1235	1234	1234	1235	1235	1235	1234	1234	1235	1235	1237	1237	1238	1238	1239
2677	2677	2681	2684	2688	2695	2703	2703	2706	2706	2706	2706	2703	2699	2691	2684	2677	2659	2648	2634	2620	2613	2603	2596	2593	2593	2593	2593	2596	2599	2603	2606	2613	2617	2620	2620	2620	2620	2627	2627	2631	2634	2638	2645	2652	2662	2670	2677	2684	2695	2703	2706	2710	2710	2714	2717	2717	2717	2714	2710	2706	2706	2703	2703	2703	2703	2703	2703	2706	2706	2703	2703	2699	2695	2695	2691	2688	2681	2673	2673	2670	2666	2655	2652	2648	2648	2648	2648	2648	2648	2648	2652	2655	2655	2655	2659	2659	2662	2662	2666	2666	2666	2666	2662	2659	2655	2652	2648	2645	2638	2627	2603	2582	2562	2539	2517	2491	2445	2430	2421	2412	2406	2400	2398	2392	2389	2389	2386	2383	2383	2380	2383	2380	2383	2383	2386	2398	2409	2430	2451	2479	2507	0	2539	2569	2589	2603	2617	2624	2631	0	0	0	2666	2677	2684	2699	2710	2717	2729	2732	2736	2740	2744	2744	2748	2748	2748	2744	2740	2736	2729	2721	2710	2699	2688	2673	2659	2645	2617	2606	2606	2596	2593	2593	2593	2596	2603	2610	2613	2624	2631	2641	2655	2662	0	2677	2684	2691	2699	2706	2710	2714	2714	2710	2695	2688	2681	2677	2670	2662	2655	2652	2648	2645	2645	2641	2641	2641	2645	2652	2659	2666	2673	2677	2684	2688	2691	2691	2688	2688	2688	2684	2684	2684	2684	2681	2681	2677	2673	2662	2659	2652	2648	2641	2638	2634	2631	2631	2634	2638	0	2645	2648	2652	2655	2655	2662	2662	2662	2662	2659	2659	2655	2652	2648	2648	2645	2645	2645	2641	2641	2638	2638	2638	2641	2641	2645	2648	2655	2659	2666	2670	2673	2677	2677	2681	2681	2681	2681	2681	2677	2677	2673	2673	2670	2666	2662	2662	2666	2662	2662	2659	2659	2659	2655	2652	2648	2648	2645	2641	2634	2631	2617	2613	2610	2606	2599	2593	2593	2589	2586	2586	2586	2589	2596	2606	2617	2627	2638	2652	2662	2670	0	2681	2691	2703	2710	2725	2732	2748	2755	2755	0	0	0	0	0	0	1648	1645	1642	1641	1639	1637	1633	1630	1627	1623	1621	1618	1617	1614	1613	1611	1610	1609	1607	1607	1606	1606	1605	1604	1604	1602	1601	1600	1598	1597	1593	1592	1591	1588	1586	0	0	0	0	0	0	0	0	0	0	0	0	0	0	0	2659	2659	2662	2662	0	2670	2670	2673	2673	2673	2677	2677	2677	2673	2673	2673	2670	2666	2662	2652	2645	2638	2634	2627	2620	2613	2606	2599	2593	2593	2589	2589	2586	0	0	0	0	0	0	0	0	0	1400	1400	1400	1401	1403	1403	1403	1404	1403	1404	1403	1403	1401	1399	1397	1395	1393	1391	1384	1380	0	1369	1363	1357	1352	1347	1339	1336	1333	1330	1327	1323	1320	1316	1313	1310	1307	1306	1302	1301	1300	1299	1297	1295	1293	1290	1288	1284	1282	1279	1278	1276	1275	1273	1272	1270	1270	1269	1268	1267	1266	1266	1266	1266	1266	1266	1266	1265	1264	1264	1263	1262	1261	1259	1258	1258	1258	1257	1257	1258	1257	1257	1258	1258	1260	1262	1262	1263	1266	1269	1272	1275	1279	1282	1285	1287	1290	1290	1289	1289	1289	1288	1287	1287	1286	1285	1284	1284	1284	1284	1284	1284	1284	1285	1285	1286	1286	1286	1286	1284	1284	1284	1283	1281	1279	1279	1279	1278	1277	1275	1275	1273	1272	1270	1268	1266	1266	0	0	0	0	0	0	0	0	0	0	0	0	0	0	0	0	0	0	0	0	0	0	0	0	0	0	0	1290	1287	1281	1279	1277	1274	1270	1266	1262	1260	1258	1255	1253	1250	1249	1248	1248	1247	1248	1248	1249	1249	1250	1250	1250	1250	1249	1247	1246	1244	1241	1238	1235	1232	1229	1226	1225	1222	1221	0	0	1220	1222	1225	1228	1228	1230	1231	1232	1233	1233	1233	1232	1232	1232	1234	1235	1235	1235	1235	1236
2670	2673	2673	2673	2677	2681	2684	2688	2688	2688	2688	2688	2684	2684	2681	2673	2662	2652	2645	2631	2613	2603	2593	2586	2586	2582	2582	2579	2586	2589	2593	2596	2603	2606	2606	2610	2610	2610	2610	2610	2613	2617	2620	2627	2634	2641	2648	2655	2662	2670	2681	2684	2688	2691	2695	2695	2695	2695	2695	2695	2691	2691	2691	2688	2688	2691	2691	2691	2691	2691	2691	2684	2681	2681	2677	2670	2670	2662	2659	2655	2648	2645	2641	2638	2634	2631	2634	2634	2638	2638	2638	2645	2648	2648	2652	2652	2655	2659	2659	2662	2662	2662	2662	2659	2655	2652	2648	2645	2641	2634	2627	2620	2589	2572	2552	2530	2504	2479	2442	2430	2421	2415	2409	2403	2400	2398	2395	2392	2392	2389	2389	2389	2389	2389	2389	2395	2406	2424	2445	2466	2494	0	2523	2552	2582	2599	2610	2620	2624	2631	2638	2641	2648	2655	2666	2673	2684	2695	2703	2710	2717	2721	2729	2732	2736	2736	2736	2740	2736	2732	2729	2717	2714	2703	2688	2673	2662	2645	2617	2606	2599	2593	2589	2586	2586	2586	2589	2593	2599	2603	2610	2624	2634	2638	2648	2662	0	2677	2688	2695	2703	2710	2714	2710	2706	2695	2684	2677	2670	2662	2655	2648	2645	2638	2638	2638	2631	2631	2634	2638	2641	2648	2655	2655	2662	2666	2670	2666	2670	2670	2666	2666	2666	2662	2666	2666	2666	2662	2659	2655	2652	2645	2641	2638	2631	2624	2624	2620	2624	2627	2627	2631	2634	2641	2641	2645	2648	2652	2652	2652	2648	2648	2645	2641	2641	2638	2638	2634	2634	2634	2634	2631	2631	2631	2631	2634	2634	2638	2641	2645	2652	2655	2659	2662	2666	2666	2666	2670	2666	2662	2662	2659	2659	2655	2655	2648	2645	2641	2645	2648	2645	2652	2648	2648	2652	2652	2648	2645	2645	2645	2648	2645	2641	2638	2634	2631	2627	2624	2617	2613	2610	2610	2610	2610	2610	2613	2620	2627	2631	2634	2645	2648	2655	2666	2677	0	2684	2699	2714	2725	2740	2748	0	0	0	0	0	0	0	1656	1653	1650	1648	1645	1642	1639	1634	1631	1627	1625	1622	1619	1617	1615	1614	1613	1611	1611	1610	1609	1609	1609	1607	1606	1605	1604	1602	1601	1598	1597	1594	1593	1591	0	0	0	0	0	0	0	0	0	0	0	0	0	0	2655	2659	2659	2659	2662	0	2666	0	2670	2673	2670	2670	2670	2670	2666	2666	2662	2662	2662	2655	2652	2648	2641	2638	2634	2631	2620	2613	2606	2599	2593	2589	2586	2589	2586	2586	0	0	0	0	0	0	0	0	0	1398	1398	1398	1400	1402	1404	1404	1405	1404	1405	1404	1404	1402	1401	1399	1397	1394	1391	1383	1378	1373	1367	1362	1356	1351	1348	1341	1339	1338	1336	1332	1330	1326	1321	1318	1314	1311	1308	1304	1301	1299	1297	1295	1293	1290	1288	1285	1282	1279	1278	1276	1275	1274	1272	1271	1270	1270	1269	1268	1267	1267	1267	1266	1266	1266	1266	1266	1265	1264	1263	1262	1261	1259	1258	1257	1256	1255	1254	1254	1253	1252	1252	1253	1253	1254	1254	1255	1258	1260	1264	1266	1270	1273	1275	1279	1281	1283	1283	1284	1284	1284	1284	1284	1284	1283	1282	1282	1282	1282	1282	1282	1283	1282	1283	1284	1284	1284	1284	1284	1282	1281	1281	1280	1279	1279	1278	1277	1276	1275	1274	1273	1271	1269	1266	1265	1264	1264	1263	1264	1263	0	0	0	0	0	0	0	0	0	0	0	0	0	0	0	0	0	0	0	0	0	0	0	1288	1284	1279	1277	1274	1270	1266	1261	1257	1254	1250	1248	1243	1243	1242	1243	1243	1244	1244	1246	1246	1246	1247	1247	1246	1245	1244	1242	1240	1237	1234	1231	1227	1224	1220	1219	1216	1213	1212	0	0	0	1217	0	1221	1223	1226	1229	1231	1232	1232	1232	1232	1231	1232	1232	1233	1233	1234	1234	1234
2666	2666	2662	2666	2666	2670	2670	2673	2673	2673	2673	2670	2670	2666	2659	2655	2648	2641	2631	2617	2603	2593	2582	2576	2572	2569	2569	2572	2572	2572	2576	2582	2586	2586	2589	2589	2589	2589	2589	2593	2596	2596	2599	2603	2610	2613	2620	2631	2638	2645	2652	2659	2662	2666	2670	2673	2673	2673	2673	2673	2673	2670	2673	2673	2673	2677	2677	2673	2673	2673	2673	2670	2662	2662	2659	2655	2655	2648	2645	2641	2634	2631	2627	2624	2620	2617	2620	2620	2620	2627	2631	2638	2641	2645	2645	2648	2652	2655	2655	2655	2659	2659	2659	2655	2652	2648	2645	2641	2638	2634	2627	2603	2589	2576	2556	2539	2513	2491	2451	2442	2430	2421	2415	2409	2406	2403	2403	2400	2398	2398	2398	2395	2395	2395	2395	2403	2415	2433	2454	2479	2507	0	2533	2562	2593	2603	2613	2620	2624	2627	2627	2634	2638	2645	2652	2655	2666	2673	2684	2691	2699	2703	2710	2714	2721	2725	2725	2725	2725	2721	2717	2710	2699	2691	2677	2666	2652	2634	2606	2596	2589	2586	2579	2579	2579	2579	2582	2586	2593	2593	2599	2606	2620	2634	2645	2659	0	2673	2684	2695	2703	2706	2710	2710	2706	2695	2688	2677	2670	2662	2652	2645	2638	2634	2631	2627	2627	2624	2627	2627	2634	2634	2641	2641	2645	2645	2648	2648	2645	2645	2648	2648	2645	2648	2648	2648	2648	2648	2645	2641	2638	2634	2631	2624	2620	2617	2613	2617	2613	2617	2617	2620	2624	2631	2631	2631	2638	2641	2638	2638	2638	2634	2634	2631	2627	2624	2624	2624	2624	2624	2624	2624	2624	2620	2627	2627	2627	2631	2634	2638	2645	2648	2652	2655	2655	2659	2659	2659	2655	2652	2648	2645	2641	2638	2638	2631	2627	2627	2631	2634	2634	2638	2641	2641	2645	2648	2648	2648	2645	2648	2648	2648	2648	2648	2652	2648	2648	2648	2645	2638	2634	2634	2627	2627	2627	2624	2624	2627	2624	2627	2631	2638	2641	2652	2659	2670	0	2684	2703	2717	2736	0	0	0	0	0	0	0	1664	1664	1659	1656	1653	1652	1648	1644	1639	1635	1631	1629	1626	1623	1621	1619	1618	1617	1615	1614	1613	1613	1611	1610	1610	1609	1607	1606	1605	1602	1601	1600	1598	1596	0	0	0	0	0	0	0	0	0	0	0	0	0	0	0	2655	2655	2655	2659	2659	2662	0	2666	2670	2666	2666	2666	2666	2666	2662	2659	2655	2655	2652	2648	2648	2641	2641	2638	2631	2627	2620	2613	2603	2596	2593	2589	2586	2586	2586	2582	2582	2582	2576	2576	2572	0	0	0	0	0	0	0	0	1404	1404	1405	1406	1406	1406	1407	1406	1405	1404	1402	1400	1398	1396	1392	1382	1377	1372	1366	1362	1358	1354	1351	1349	1347	1344	1342	1338	1335	1329	1324	1321	1316	1313	1308	1301	1300	1297	1295	1293	1290	1289	1285	1283	1281	1279	1277	1276	1275	1274	1273	1272	1270	1270	1269	1268	1268	1268	1268	1267	1267	1267	1266	1266	1265	1264	1262	1262	1260	1258	1256	1254	1254	1252	1251	1250	1249	1247	1248	1248	1248	1248	1249	1252	1254	1256	1259	1262	0	1268	1270	1273	1275	1276	1277	1278	1279	1279	1280	1279	1279	1279	1279	1279	1279	1279	1279	1280	1280	1281	1282	1282	1282	1282	1282	1280	1280	1280	1279	1279	1277	1276	1275	1275	1275	1273	1271	1270	1269	1266	1265	1264	1262	1262	1262	1262	1261	1262	1264	0	0	0	0	0	0	0	0	0	0	0	0	0	0	0	0	1293	1290	1289	1286	1284	1277	1276	1272	1267	1262	1257	1251	1247	1242	1239	1238	1237	1237	1238	1239	1239	1240	1241	1242	1242	1242	1243	1242	1242	1240	1238	1235	1233	1230	1226	1223	1219	1216	1212	1210	1208	1205	1205	1205	1205	1208	1211	1214	0	1218	1222	1225	1228	1229	1232	1231	1230	1230	1230	1231	1232	1231	1232	1232	1232
2659	2659	2655	2655	2655	2655	2655	2659	2659	2659	2655	2655	2652	2648	2648	2641	2638	2634	2620	2606	2596	2586	2576	2569	2566	2559	2559	2556	2559	2559	2562	2566	2569	2569	2572	2572	2569	2569	2572	2576	2576	2576	2579	2579	2586	2593	2596	2603	2613	2620	2624	2634	2634	2641	2641	2648	2648	2648	2648	2648	2645	2645	2648	2648	2648	2648	2652	2652	2655	2659	2655	2652	2652	2652	2648	2648	2645	2641	2634	2631	2627	2624	2617	2613	2610	2606	2610	2613	2613	2617	2624	2631	2634	2638	2641	2645	2648	2648	2652	2652	2655	2655	2652	2652	2648	2645	2641	2638	2634	2631	2624	2617	2593	2576	2562	2546	2523	2501	2479	2451	2439	2430	2421	2415	2412	2409	2406	2406	2403	2403	2403	2403	2400	2400	2400	2409	2424	2442	2463	2485	2510	0	2539	2566	2593	2603	2610	2617	2620	2624	2624	2627	2631	2634	2641	2645	2652	2662	2670	2677	2681	2688	2691	2699	2706	2710	2714	2714	2714	2710	2706	2699	2691	2681	2670	2655	2641	2610	2599	2589	2582	2576	2572	2572	2576	2572	2572	2576	2582	2589	2596	2603	2617	2627	2641	2655	0	2670	2681	2691	2703	2710	2714	2710	2710	2695	2688	2681	2673	2666	2655	2648	2641	2631	2631	2627	2624	2620	2620	2620	2624	2627	2627	2631	2631	2631	2634	2631	2631	2631	2631	2631	2631	2631	2634	2631	2631	2631	2631	2627	2620	2620	2617	2613	2610	2610	2606	2606	2606	2610	2613	2613	2617	2620	2624	2624	2624	2631	2631	2627	2627	2624	2624	2620	2617	2617	2617	2617	2617	2617	2620	2617	2617	2617	2624	2624	2627	2631	2634	2638	2641	2648	2648	2648	2648	2652	2652	2648	2645	2641	2638	2634	2631	2627	2624	2624	2617	2617	2620	2624	2627	2631	2634	2634	2641	2645	2645	2645	2645	2648	2648	2652	2648	2652	2652	2652	2648	2648	2652	2645	2641	2634	2634	2631	2624	2624	2620	2620	2617	2617	2620	2624	2627	2634	2641	2652	2666	2681	0	2695	0	0	0	0	0	0	0	0	1670	1669	1666	1664	1659	1657	1655	1649	1645	1641	1637	1633	1630	1627	1625	1622	1621	1619	1618	1617	1617	1615	1615	1614	1611	1611	1610	1609	1606	1605	1602	1601	1601	1598	0	0	0	0	0	0	0	0	0	0	0	0	0	0	2652	2655	2652	2655	2655	2659	2662	0	2666	2662	2662	2662	2662	2662	2659	2655	2655	2652	2652	2648	2645	2641	2638	2634	2631	2627	2627	2617	2610	2603	2593	2589	2586	2586	2582	2579	2579	2576	2576	2576	2569	2559	0	0	0	0	0	0	0	0	0	1406	1407	1408	1408	1409	1408	1408	1406	1406	1404	1403	1401	1398	1395	1385	1382	1377	1371	1367	1364	1362	1359	1357	1354	1353	1351	1349	1342	1337	1331	1326	1322	1317	1311	1303	1301	1297	1295	1292	1290	1288	1286	1284	1281	1279	1279	1277	1275	1275	1274	1273	1272	1270	1270	1269	1269	1269	1268	1268	1268	1268	1267	1267	1266	1265	1264	1262	1261	1259	1256	1254	1254	1251	1250	1247	1246	1245	1243	1243	1243	1243	1244	1246	1246	1250	1252	1254	1257	1259	1262	1264	1266	1268	1270	1271	1272	1273	1274	1275	1275	1275	1275	1275	1275	1276	1277	1278	1279	1279	1279	1280	1280	1280	1279	1279	1279	1279	1278	1276	1276	1275	1275	1273	1273	1272	1270	1268	1267	1264	1263	1262	1262	1261	1260	1259	1258	0	0	0	0	0	0	1278	1286	1298	1303	1308	1310	1309	1307	1303	1299	1296	1290	1289	1287	1284	1279	1276	1272	1269	1266	1262	1255	1247	1237	1235	1232	1231	1230	1230	1231	1232	1233	1235	1236	1237	1239	1239	1239	1239	1238	1237	1235	1232	1229	1227	1223	1219	1216	1210	1208	1205	1203	1202	1200	1199	1199	1201	1202	1205	1208	1211	1216	0	1219	1222	1226	1227	1228	1228	1228	1229	1229	1229	1229	1229	1229	1230
2652	2652	2648	2648	2648	2648	2648	2648	2648	2648	2648	2645	2645	2641	2638	2634	2631	2627	2617	2606	2596	2586	2576	2566	2562	2559	2556	2552	2552	2552	2552	2556	2556	2556	2556	2556	2556	2556	2559	2559	2562	2566	2566	2569	2576	2579	2582	0	2589	2596	2603	2606	2613	2617	2620	2620	2624	2624	2624	2624	2620	2624	2624	2624	2631	2627	2634	2638	2638	2641	2641	2641	2641	2645	2641	2638	2638	2631	2627	2624	2617	2613	2610	2606	2599	2603	2603	2606	2610	2610	2617	2624	2631	2634	2638	2641	2641	2645	2645	2648	2648	2648	2648	2645	2645	2641	2638	2634	2631	2627	2620	2613	2593	2579	2569	2549	2530	2510	2488	2473	2445	2436	2427	2418	2415	2412	2412	2409	2409	2406	2406	2406	2406	2406	2406	2415	2427	2445	2463	2488	2507	0	2533	2559	2582	2596	2603	2606	2610	2613	2617	2617	2624	2627	2631	2634	2641	2648	2655	2659	2666	2673	2677	2684	2688	2695	2699	2699	2703	2699	2695	2688	2681	2670	2659	2645	2631	2603	2593	2582	2572	2569	2569	2566	2566	2569	2569	2576	2579	2586	2593	2603	2613	2627	2641	2655	0	2670	2681	2691	2703	2706	2714	2714	2710	2706	2695	2688	2677	2670	2659	2652	2641	2638	2634	2627	2620	2617	2613	2617	2617	2617	2617	2617	2617	2617	2617	2617	2617	2617	2617	2617	2620	2620	2620	2620	2620	2620	2617	2613	2606	2606	2606	2603	2603	2599	2603	2599	2599	2606	2606	2610	2613	2613	2617	2617	2617	2620	2620	2617	2617	2613	2613	2613	2610	2610	2606	2606	2610	2613	2613	2613	2613	2617	2620	2624	2624	2627	2634	2634	2641	2645	2648	2648	2648	2648	2648	2645	2638	2638	2631	2627	2624	2620	2620	2613	2613	2613	2613	2620	2620	2624	2631	2634	2638	2645	2648	2648	2648	2652	2652	2655	2655	2655	2655	2652	2652	2655	2652	2648	2645	2634	2631	2627	2624	2617	2613	2610	2606	2606	2606	2610	2610	2617	2624	2631	2641	2652	0	0	0	0	0	0	0	0	0	0	0	0	0	1669	1666	1660	1660	1656	1650	1646	1642	1638	1634	1631	1627	1626	1623	1622	1619	1618	1618	1617	1617	1617	1615	1614	1611	1610	1607	1606	1605	1604	1602	1602	0	0	0	0	0	0	0	0	0	0	0	0	0	0	2655	2655	2655	2655	2655	2659	2662	2662	2666	2666	2666	2662	2662	2662	2659	2655	2652	2648	2648	2645	2638	2638	2634	2631	2631	2627	2624	2617	2606	2599	2593	2589	2586	2582	2579	2579	2576	2572	2572	2572	2559	2556	2549	2543	0	0	0	0	0	0	0	0	1409	1410	1411	1411	1410	1409	1409	1408	1407	1405	1403	1400	1397	1393	1385	1381	1377	1373	1371	1367	1364	1363	1362	1361	1358	1356	1352	1344	1338	1333	1327	1321	1314	1310	1301	1298	1295	1293	1290	1289	1286	1284	1282	1280	1279	1278	1277	1275	1275	1275	1273	1272	1270	1270	1270	1269	1269	1268	1268	1268	1268	1267	1267	1266	1265	1264	1262	1259	1257	1255	1253	1250	1248	1246	1244	1240	1240	1239	1239	1239	1240	1241	1243	0	1246	1246	1248	1250	1253	1254	1256	1258	1258	1260	1261	1262	1262	1264	1266	1266	1267	1268	1270	1271	1273	1274	1275	1275	1277	1278	1279	1279	1279	1278	1277	1276	1276	1275	1274	1274	1272	1272	1270	1270	1268	1266	1263	1262	1262	1261	1259	1259	1259	1258	1258	1258	1258	0	0	0	0	0	0	0	1292	1296	1299	1301	1301	1299	1295	1292	1289	1287	1286	1278	1275	1269	1264	1260	1255	1251	1238	1234	1230	1229	1226	1226	1225	1225	1226	1228	1229	1232	1232	1233	1235	1235	1235	1235	1233	1232	1230	1227	1225	1222	1218	1214	1209	1206	1204	1202	1199	1197	1196	1196	1196	1197	1198	1199	1202	1205	1210	1213	1217	0	1220	1223	1225	1226	1226	1227	1227	1228	1228	1228	1228	1229
2648	2641	2641	2641	2638	2638	2638	2638	2638	2638	2638	2638	2634	2634	2631	2627	2627	2620	2613	2606	2596	2586	2576	2569	2566	2562	2559	2556	2552	2549	2549	2549	2549	2549	2549	2546	2546	2549	2549	2549	2552	2552	2556	2559	2562	2566	2569	2572	2579	2582	2586	2589	2596	2599	2599	2603	2603	2599	2599	2599	2596	2603	2599	2606	2610	2613	2613	2620	2624	2627	2631	2631	2634	2634	2631	2631	2627	2624	2617	2613	2610	2606	2599	2596	2593	2596	2596	2599	2603	2610	2613	2620	2627	2631	2634	2638	2638	2641	2641	2645	2645	2645	2641	2641	2638	2634	2634	2631	2627	2624	2620	2610	2593	2582	2569	2556	2539	2520	2501	2482	2454	2442	2430	2424	2418	2415	2412	2412	2412	2412	2409	2409	2409	2409	2409	2418	2433	2448	2463	2485	2504	0	2526	2549	2572	2586	2593	2596	2599	2606	2610	2610	2617	2620	2624	2627	2634	2641	2645	2652	2655	2662	2666	2670	2677	2681	2684	2688	2691	2688	2684	2677	2670	2659	2648	2634	2603	2593	2586	2576	2572	2569	2566	2566	2562	2566	2569	2572	2579	2582	2589	2599	2613	2627	2641	2655	2666	0	2677	2691	2699	2706	2710	2710	2710	2706	2703	2688	2684	2673	2666	2655	2645	2638	2631	2627	2620	2613	2610	2610	2610	2606	2606	2603	2603	2599	2603	2603	2603	2603	2606	2606	2606	2606	2606	2610	2606	2606	2603	2599	2599	2596	2596	2596	2593	2593	2593	2596	2596	2599	2603	2606	2610	2613	2613	2613	2613	2613	2613	2613	2610	2610	2606	2603	2603	2606	2606	2606	2610	2610	2613	2613	2617	2617	2620	2624	2627	2631	2634	2638	2641	2645	2648	2648	2648	2648	2648	2645	2638	2634	2631	2624	2624	2620	2617	2613	2610	2610	2610	2613	2617	2620	2624	2631	2634	2641	2645	2648	2648	2655	2655	2655	2659	2655	2655	2655	2652	2652	2648	2648	2638	2634	2627	2620	2617	2613	2606	2603	2599	2596	2596	2596	2596	2599	2599	2606	0	0	0	0	0	0	0	0	0	0	0	0	1674	1676	1674	1673	1671	1667	1663	1660	1655	1650	1646	1642	1638	1634	1630	1629	1626	1625	1622	1621	1619	1619	1618	1618	1617	1615	1614	1611	1610	1607	1606	1606	1605	1604	0	0	0	0	0	0	0	0	0	0	0	0	0	0	2655	2655	2655	2655	2659	2659	2659	2662	2666	2666	2666	2666	2662	2662	2659	2655	2655	2652	2648	2645	2638	2634	2631	2631	2631	2627	2620	2610	2603	2599	2589	2586	2582	2582	2579	2576	2576	2572	2569	2566	2562	2552	2543	2536	2530	0	0	0	0	0	0	0	0	0	1412	1412	1413	1411	1410	1409	1408	1405	1404	1400	1398	1394	1387	1383	1381	1377	1375	1373	1370	1369	1367	1364	1362	1360	1357	1353	1344	1338	1331	1323	1317	1310	1301	1297	1294	1291	1290	1287	1284	1283	1281	1279	1279	1278	1277	1275	1275	1275	1273	1272	1270	1270	1269	1269	1268	1268	1267	1267	1268	1267	1267	1266	1266	1264	1262	1260	1258	1254	1253	1250	1246	1245	1239	1239	1237	1236	1235	1235	1236	1235	1237	1238	1239	1241	1243	1244	1245	1246	1247	0	1249	1250	1250	1250	1251	1253	1254	1256	1258	1259	1262	1264	1266	1267	1270	1270	1273	1274	1275	1275	1275	1275	1275	1274	1274	1273	1273	1271	1271	1270	1269	1268	1266	1263	1262	1261	1259	1259	1258	1258	1258	1257	1256	1257	1258	1259	1260	1262	0	0	0	0	0	0	0	0	1294	1293	1289	1287	1284	1285	1277	1270	1266	1257	1250	1245	1234	1229	0	1219	1219	1218	1217	1218	1219	1220	1222	1224	1226	1228	1229	1230	1231	1232	1231	1231	1230	1228	1226	1224	1220	1218	1215	1208	1205	1203	1201	1199	1197	1195	1194	1193	1192	1193	1194	1196	1198	1199	1204	1208	1211	1215	1218	0	1220	1222	1224	1225	1225	1226	1226	1226	1226	1227
2641	2638	2634	2634	2634	2634	2631	2631	2631	2627	2627	2627	2631	2627	2624	2624	2624	2617	2613	2603	2596	2586	2579	2572	2569	2566	2562	2562	2559	2552	2549	2546	2546	2543	2539	2536	2539	2539	2543	2543	2543	2543	2546	2549	2552	2552	2559	2562	2562	2569	2572	2576	2576	2579	2579	2579	2579	2579	2579	2579	2579	2582	2586	2589	2593	2596	2599	2606	2610	2613	2620	2620	2624	2624	2624	2620	2620	2617	2613	2610	2603	2599	2593	2593	2589	2589	2593	2596	2596	2603	2610	2617	2620	2627	2631	2634	2634	2634	2638	2638	2638	2638	2638	2634	2634	2631	2627	2624	2624	2620	2613	2599	2593	2582	2572	2559	2546	2526	2510	2491	2476	2448	2436	2427	2421	2415	2415	2412	2412	2412	2412	2412	2412	2412	2412	2418	2433	2448	2463	2479	2498	0	2517	2536	2559	2569	2579	2582	2589	2593	2599	2606	2610	2613	2617	2620	2627	2634	2638	2641	2648	2652	2655	2662	2666	2670	2673	2677	2677	2677	2673	2666	2652	2641	2631	2620	2599	2593	2582	2576	2572	2569	2562	2562	2566	2562	2566	2572	2576	2582	2589	2599	2613	2627	2641	2655	0	2670	2681	2688	2695	2703	2706	2710	2706	2706	2695	2691	2684	2677	2666	2655	2648	2641	2634	2627	2617	2610	2606	2603	2599	2596	2596	2589	2589	2586	2589	2589	2593	2593	2596	2599	2599	2596	2596	2596	2599	2596	2593	2589	2589	2586	2586	2586	2586	2586	2586	2589	2589	2596	2599	2603	2610	2610	2610	2610	2610	2610	2610	2606	2606	2603	2603	2603	2603	2603	2603	2603	2606	2610	2613	2613	2617	2620	2624	2627	2631	2634	2638	2641	2648	2648	2652	2652	2652	2648	2648	2648	2641	2638	2631	2631	2627	2624	2620	2617	2610	2610	2610	2613	2613	2617	2620	2627	2634	2641	2645	2648	2652	2652	2655	2655	2659	2659	2659	2655	2655	2655	2652	2648	2641	2631	2624	2617	2610	2606	2599	2593	2589	2586	2586	2582	2582	2582	2582	2586	0	0	0	0	0	0	0	0	0	0	0	0	0	1680	1678	1677	1674	1673	1670	1667	1659	1655	1650	1645	1641	1637	1633	1631	1629	1626	1625	1622	1621	1621	1619	1619	1618	1617	1615	1615	1611	1610	1609	1609	1607	1607	0	0	0	0	0	0	0	0	0	0	0	0	0	0	2655	2655	2655	2659	2659	2659	2662	2662	2666	2670	2670	2670	2670	2666	2666	2662	2659	2655	2652	2648	2641	2638	2634	2631	2627	2620	2620	2610	2599	2593	2589	2586	2579	2579	2576	2576	2572	2569	2566	2566	2552	2546	2539	2530	2526	2517	2504	0	0	0	0	0	0	0	0	1413	1413	1411	1411	1410	1408	1406	1404	1401	1398	1395	1392	1386	1383	1382	1380	1378	1376	1374	1372	1369	1367	1364	1362	1358	1354	1341	1333	1326	1316	1302	1298	1295	1291	1289	1286	1285	1283	1281	1280	1279	1279	1278	1276	1275	1275	1275	1273	1272	1270	1269	1269	1267	1267	1266	1267	1266	1266	1266	1266	1266	1265	1264	1262	1260	1258	1255	1252	1249	1246	1244	1238	1236	1235	1234	1233	1232	1232	1231	1231	1231	1232	1232	1233	1235	1235	1236	1237	1238	1239	1239	1240	1240	1242	1243	1245	1247	1249	1251	1253	0	1256	1258	1260	1262	1265	1267	1269	1270	1271	1271	1271	1271	1270	1270	1270	1270	1269	1268	1267	1266	1263	1262	1260	1258	1258	1256	1256	1256	1255	1255	1254	1255	1255	1257	1259	1261	1263	0	0	0	0	0	0	0	1285	1286	1285	1284	1281	1281	1275	1264	1253	1235	1226	1222	0	1213	1209	1208	1208	1209	1210	1211	1213	1215	1218	1220	1222	1224	1226	1226	1228	1228	1228	1228	1226	1225	1222	1220	1218	1215	1210	1206	1204	1202	1199	1197	1196	1194	1194	1192	1192	1192	1192	1194	1194	1197	1199	1202	1206	1210	1213	1216	0	1219	1221	1223	1224	1226	1226	1226	1226	1226
2638	2634	2631	2631	2631	2627	2627	2627	2624	2624	2624	2624	2624	2620	2620	2620	2617	2617	2610	2603	2596	2589	2586	2576	2572	2572	2569	2566	2562	2559	2552	2549	2546	2539	2533	2530	2533	2533	2533	2536	2536	2539	2543	2543	2546	2546	2552	2552	2556	2559	2559	2559	2562	2566	2566	2566	2566	2566	2569	2569	2569	2572	2576	2576	2579	2586	2589	2593	2599	2603	2610	2613	2617	2617	2617	2617	2613	2613	2610	2606	2603	2596	2593	2589	2586	2586	2586	2589	2593	2599	2606	2613	2617	2624	2624	2627	2631	2631	2631	2631	2631	2631	2631	2631	2627	2624	2624	2620	2617	2613	2610	2599	2593	2582	2576	2562	2549	2536	2520	2501	2485	2454	2442	2430	2424	2418	2415	2412	2412	2412	2412	2412	2412	2412	2412	2421	2433	2445	2460	2476	2491	2510	0	2526	2546	2559	2566	2572	2576	2582	2589	2596	2599	2606	2610	2617	2620	2627	2631	2634	2638	2641	2648	2652	2655	2659	2662	2666	2655	2652	2648	2645	2641	2634	2627	2617	2599	2589	2579	2576	2569	2566	2562	2562	2562	2562	2569	2572	2576	2579	2589	2599	2613	2627	2641	2655	0	2666	2677	2684	2691	2695	2703	2703	2703	2699	2691	2688	2684	2677	2666	2655	2648	2641	2634	2624	2617	2606	2603	2596	2593	2589	2582	2579	2576	2576	2576	2576	2579	2582	2586	2589	2589	2589	2589	2586	2586	2586	2586	2579	2579	2579	2579	2579	2579	2579	2582	2582	2586	2593	2596	2603	2606	2610	2610	2610	2610	2610	2610	2606	2603	2599	2599	2599	2603	2599	2603	2603	2606	2610	2613	2617	2620	2620	2627	2631	2634	2638	2641	2645	2652	2655	2659	2659	2659	2659	2659	2655	2652	2648	2645	2638	2638	2631	2631	2624	2620	2620	2620	2620	2620	2620	2624	2631	2638	2645	2648	2648	2652	2652	2655	2655	2655	2655	2652	2652	2652	2652	2652	2645	2641	2627	2620	2610	2606	2599	2593	2589	2579	2579	2576	2572	2572	2572	2572	2569	2566	0	0	0	0	0	0	0	0	0	0	0	0	0	1683	1680	1678	1676	1674	1670	1662	1657	1653	1648	1644	1639	1635	1633	1630	1627	1625	1623	1622	1622	1621	1621	1619	1618	1617	1615	1613	1610	1611	1610	1610	1609	0	0	0	0	0	0	0	0	0	0	0	0	0	0	0	2655	2659	2659	2659	2662	2666	2666	2670	2670	2673	2673	2677	2677	2673	2670	2666	2662	2659	2655	2648	2641	2634	2631	2624	2624	2613	2606	2599	2593	2586	2582	2579	2576	2572	2569	2569	2566	2562	2552	2549	2539	2533	2526	2520	2510	2501	0	0	0	0	0	0	0	0	1415	1414	1413	1411	1409	1408	1406	1404	1401	1398	1395	1393	1390	1385	1383	1382	1381	1379	1378	1376	1373	1370	1368	1365	1361	1357	1343	1335	1324	1314	1299	1295	1291	1288	1286	1284	1283	1281	1279	1279	1279	1278	1277	1276	1276	1275	1275	1274	1272	1270	1269	1268	1267	1266	1267	1266	1266	1266	1266	1266	1266	1266	1264	1262	1260	1258	1254	1253	1250	1246	1239	1237	1235	1233	1231	1230	1228	1227	1227	1226	1226	1226	1226	1227	1227	1228	1228	1229	1229	1230	1229	1231	1231	1232	1233	1235	1237	1239	1240	1242	1245	1247	1250	1253	1255	0	1258	1261	1263	1265	1266	1267	1267	1267	1267	1267	1266	1266	1266	1266	1262	1262	1260	1258	1258	1256	1255	1254	1254	1253	1253	1252	1252	1253	1253	1254	1255	1258	1260	0	0	0	1269	1270	1273	1274	0	1275	1274	1269	1255	1248	1232	1221	1214	0	0	1199	1197	1197	1197	1199	0	1202	1204	1206	1210	1213	1216	1219	1221	1222	1224	1224	1226	1225	1225	1223	1222	1220	1219	1216	1213	1209	1206	1204	1202	1200	1198	1197	1195	1194	1192	1192	1191	1192	1192	1193	1194	1196	1199	1202	1206	1210	1213	1216	0	1219	1221	1223	1225	1226	1226	1226	1226
2634	2631	2631	2627	2624	2624	2620	2620	2620	2617	2617	2617	2620	2620	2620	2617	2613	2613	2610	2603	2599	2593	2589	2582	2579	2576	2572	2569	2566	2562	2556	2552	2549	2539	2533	2530	2526	2526	2526	2530	2533	2533	2533	2539	2543	2543	2546	2549	2549	2549	2552	2552	2556	2556	2556	2556	2556	2559	2559	2562	2562	2562	2566	2569	2572	2579	2582	2589	2596	2599	2603	2606	2610	2610	2613	2613	2610	2610	2606	2606	2603	2596	2593	2586	2582	2582	2586	2589	2589	2593	2599	2606	2610	2613	2617	2620	2620	2620	2624	2624	2624	2624	2624	2620	2620	2620	2617	2613	2613	2610	2606	2596	2589	2582	2576	2569	2556	2543	2526	2510	2491	2479	2448	2436	2427	2418	2415	2412	2412	2409	2409	2412	2412	2412	2412	2421	2430	2442	2457	2469	2485	2501	0	2517	2533	2543	2552	2559	2566	2572	2579	2586	2593	2596	2603	2606	2613	2617	2620	2627	2631	2634	2638	2641	2638	2641	2641	2645	2641	2641	2638	2634	2631	2624	2617	2603	2593	2586	2576	2572	2569	2562	2559	2559	2559	2559	2566	2569	2572	2579	2589	2599	2610	2624	2638	2652	2662	0	2670	2681	2684	2688	2691	2695	2691	2691	2688	2684	2681	2673	2662	2652	2648	2638	2631	2620	2613	2599	2593	2586	2582	2576	2572	2569	2562	2562	2566	2569	2572	2576	0	2579	2579	2579	2576	2579	2579	2576	2572	2572	2572	2572	2572	2572	2572	2572	2576	2579	2582	2593	2596	2603	2606	2610	2610	2610	2610	2613	2606	2606	2603	2599	2596	2599	2599	2603	2599	2603	2610	2610	2617	2617	2620	2624	2631	2634	2638	2641	2645	2652	2655	2662	2666	2670	2670	2670	2666	2666	2662	2659	2655	2652	2645	2645	2641	2634	2634	2631	2627	2627	2627	2627	2627	2634	2638	2645	2645	2648	2648	2648	2648	2648	2648	2648	2648	2645	2645	2641	2641	2638	2627	2617	2610	2603	2596	2589	2586	2579	2572	2572	2569	2566	2566	2559	2559	2556	2556	2556	2552	0	0	0	0	0	0	0	0	0	0	0	0	1683	1681	1677	1676	1673	1669	1659	1656	1650	1646	1641	1637	1634	1631	1629	1626	1625	1623	1622	1622	1621	1619	1619	1618	1617	1615	1613	1611	1611	1611	1611	0	0	0	0	0	0	0	0	0	0	0	0	0	0	0	2655	2655	2659	2659	2662	2666	2670	2673	2673	2681	2681	2684	2684	2684	2677	2677	2673	2688	2677	2662	2652	2641	2634	2627	2624	2613	2603	2596	2589	2586	2579	2576	2572	2569	2566	2562	2559	2556	2549	2543	2536	2530	2523	2517	2507	2501	2494	0	0	0	0	0	0	0	0	1414	1413	1412	1410	1409	1406	1404	1400	1397	1395	1392	1389	1385	1385	1383	1382	1381	1379	1377	1375	1371	1368	1365	1362	1359	1344	0	1323	1314	1295	1292	1289	1285	1284	1281	1280	1279	1279	1278	1278	1277	1277	1276	1276	1275	1275	1274	1272	1271	1269	1268	1267	1266	1266	1266	1266	1266	1266	1266	1265	1265	1265	1263	1261	1258	1255	1253	1249	1246	1238	1235	1232	1230	1229	1227	1226	1223	1223	1222	1221	1221	1221	1222	1222	1222	1222	1222	1223	1223	1223	1224	1225	1226	1226	1228	1229	1229	1232	1234	1235	1238	1239	1242	1245	1247	0	1254	1256	0	1258	1260	1261	1262	1262	1264	1263	1264	1263	1263	1261	1260	1258	1258	1256	1255	1254	1254	1254	1253	1253	1252	1252	1252	1252	1252	1253	1253	1254	1254	0	0	0	1257	1261	1262	1260	0	0	0	0	0	0	1197	1194	1192	1190	1189	1189	1188	1189	1192	1194	1197	1201	0	1204	1208	1212	1215	1217	1219	1220	1222	1222	1222	1222	1221	1219	1218	1216	1214	1212	1208	1206	1205	1202	1201	1199	1198	1196	1194	1193	1192	1191	1191	1191	1192	1192	1194	1195	1198	1202	1206	1209	1213	1216	1219	0	1221	1223	1224	1224	1225	1226
2631	2627	2627	2624	2624	2620	2620	2620	2617	2617	2617	2617	2617	2617	2617	2613	2613	2613	2610	2606	2603	2596	2593	2586	2586	2582	2579	2576	2572	2566	2562	2556	2552	2539	2536	2530	2526	2526	2526	2526	2526	2530	2533	2536	2539	2543	2543	2546	2546	2549	2549	2549	2552	2552	2556	2552	2556	2556	2556	2559	2562	2559	2566	2569	2572	2576	2579	2586	2593	2593	2596	2596	2603	2606	2606	2606	2606	2603	2603	2603	2603	2593	2593	2586	2586	2586	2582	2586	2589	2589	2596	2599	2603	2606	2610	2613	2613	2613	2613	2617	2613	2617	2617	2613	2613	2613	2613	2610	2606	2606	2603	2596	2589	2582	2579	2572	2559	2549	2536	2520	2501	2485	2454	2442	2430	2421	2418	2412	2412	2409	2409	2409	2409	2409	2412	2418	2427	2439	2451	2463	2476	2491	2504	0	2520	2530	2539	2546	2552	2559	2566	2572	2579	2586	2593	2596	2603	2610	2613	2610	2617	2620	2624	2627	2631	2631	2634	2634	2634	2634	2631	2624	2620	2617	2613	2599	2589	2579	2576	2566	2562	2562	2559	2556	2559	2559	2562	2569	2572	2579	2589	2599	2610	2624	2638	2648	2659	2666	0	2673	2677	2681	2684	2684	2684	2681	2681	2677	2673	2666	2659	2652	2645	2634	2627	2617	2606	2593	2586	2579	2572	2566	2556	2552	2552	2552	2552	2559	2562	2566	2566	2569	2566	2566	2566	2566	2566	2566	2566	2562	2562	2562	2562	2566	2566	2566	2569	2576	2579	2586	2596	2599	2606	2610	2613	2613	2613	2613	2610	2606	2603	2599	2599	2599	2599	2603	2599	2606	2606	2610	2617	2617	2624	2627	2634	2638	2641	2645	2652	2655	2662	2670	2673	2677	2681	2684	2681	2681	2677	2673	2670	2662	2659	2652	2645	2641	2634	2634	2631	2627	2624	2624	2627	2627	2634	2638	2641	2641	2641	2641	2641	2641	2638	2638	2638	2634	2631	2631	2624	2617	2610	2603	2593	2589	2582	2579	2576	2569	2566	2566	2562	2559	2556	2556	2552	2552	2549	2546	2546	2546	2546	0	0	0	0	0	0	0	0	0	0	1683	1681	1678	1676	1673	1669	1660	1657	1652	1648	1642	1638	1635	1631	1629	1627	1625	1623	1622	1622	1621	1619	1619	1618	1618	1617	1614	1614	1613	1613	1613	0	0	0	0	0	0	0	0	0	0	0	0	0	0	0	2652	2655	2655	2659	2662	2666	2670	2673	2677	2684	2688	2691	2695	2695	2703	2703	2703	2699	2695	2677	0	0	0	2634	2627	2613	2603	2593	2589	2582	2579	2572	2569	2562	2562	2556	2556	2546	2543	2536	2530	2520	2517	2510	2501	2494	2488	2479	2469	0	0	0	0	0	0	0	0	0	0	1408	1406	1402	1399	0	1392	1390	1389	1386	1385	1384	1383	1382	1380	1378	1375	1372	1369	1365	1362	1359	1345	0	0	1314	1295	1291	1287	1283	1281	1279	1278	1277	1277	1276	1276	1276	1276	1276	1276	1275	1275	1274	1272	1271	1269	1268	1267	1266	1266	1266	1266	1266	1266	1266	1265	1266	1265	1263	1262	1258	1255	1252	1249	1245	1236	1233	1230	1228	1226	1224	1222	1221	1220	1219	1217	1217	1216	1217	1217	1217	1217	1218	1218	1219	1218	1219	1219	1220	1221	1222	1222	1223	1225	1226	1228	1229	1230	1232	1234	1237	1239	1242	1245	1247	1250	1251	1254	1255	1256	1257	1258	1258	1260	1259	1258	1258	1257	1256	1255	1254	1254	1253	1253	1253	1252	1252	1251	1252	1251	1251	1251	1251	1250	1250	1250	0	0	0	1247	1246	1242	1238	0	0	0	1193	1188	1187	1184	1182	1181	1181	1180	1182	1183	1186	1189	1192	1195	1199	0	1204	1208	1211	1213	1216	1217	1218	1219	1219	1219	1218	1217	1216	1214	1213	1212	1208	1207	1205	1204	1202	1201	1199	1197	1195	1194	1193	1192	1191	1191	1191	1192	1192	1194	1195	1198	1202	1205	1209	1213	1216	1219	1219	1222	1221	1222	1223	1225
2627	2627	2627	2620	2620	2617	2617	2617	2613	2613	2613	2613	2613	2613	2613	2613	2610	2610	2610	2606	2606	2599	2599	2593	2589	2589	2586	2582	2579	2572	2566	2562	2559	2552	2536	2533	2530	2530	2526	2526	2530	2530	2533	2533	2539	2539	2543	2543	2546	2549	2549	2552	2552	2556	2556	2556	2556	2556	2559	2559	2559	2559	2562	2562	2569	2572	2576	2582	2586	2589	2589	2593	2596	2596	2596	2599	2596	2596	2596	2596	2593	2589	2586	2582	2582	2579	2579	2582	2582	2586	2589	2596	2599	2603	2603	2603	2606	2606	2606	2606	2610	2606	2610	2610	2610	2610	2606	2603	2603	2603	2599	2593	2589	2582	2579	2572	2566	2552	2543	2526	2513	2494	2479	2448	2436	2424	2418	2412	2412	2409	2406	2406	2409	2409	2412	2418	2424	2436	2448	2460	2469	2482	2494	2507	2517	0	2526	2533	2536	2543	2549	2559	2566	2572	2579	2572	2579	2589	2596	2599	2606	2613	2617	2620	2620	2624	2624	2624	2627	2627	2620	2620	2613	2613	2599	2596	2589	2582	2576	2569	2566	2562	2559	2562	2559	2562	2566	2569	2572	2579	2589	2599	2610	2620	2634	2645	2652	2659	2662	2666	2670	2673	2673	2673	2673	2670	2670	2670	2666	2662	2655	2648	2638	2631	2620	2610	2599	2586	2576	2569	2559	2549	2546	2543	2539	2539	2543	2543	2546	2549	2552	2552	2552	2552	2552	2556	2552	2556	2556	2556	2556	2556	2556	2556	2559	2559	2566	2569	2576	2582	2589	2599	2606	2610	2617	2617	2617	2617	2613	2610	2606	2603	2603	2603	2603	2603	2603	2606	2610	2613	2617	2620	2624	2631	2634	2638	2645	2648	2655	2662	2666	2673	2681	2688	2691	2695	2695	2691	2691	2688	2681	2677	2670	2666	2659	2652	2645	2638	2634	2631	2627	2624	2624	2624	2627	2631	2634	2634	2634	2634	2634	2634	2631	2627	2624	2620	2617	2613	2610	2603	2599	2589	2582	2579	2572	2569	2566	2562	2559	2559	2556	2556	2552	2552	2549	2546	2546	2543	2546	2546	2546	0	0	0	0	0	0	0	0	0	0	1681	1678	1677	1674	1671	1670	1662	1657	1653	1648	1644	1639	1637	1633	1630	1627	1626	1625	1623	1622	1621	1621	1619	1619	1618	1618	1618	1615	1614	1614	0	0	0	0	0	0	0	0	0	0	0	0	0	0	0	2648	2652	2652	2652	2659	2659	2666	2666	2673	2681	2688	2699	2703	2706	2710	2714	2710	2710	2710	2706	0	0	0	0	0	2634	2617	2606	2596	2589	2582	2576	2572	2569	2562	2562	2556	2546	2543	2539	2533	2526	2517	2510	2504	2498	2488	2482	2476	2466	2460	0	0	0	0	0	0	0	0	0	0	0	0	0	0	0	0	1385	1385	1385	1384	1382	1382	1379	1377	1374	1371	1368	1364	1360	1357	1351	0	0	0	1298	1292	1287	1283	1279	1278	1276	1276	1275	1275	1275	1275	1276	1275	1275	1275	1275	1274	1272	1271	1269	1268	1267	1266	1266	1266	1266	1266	1265	1265	1265	1265	1265	1263	1261	1258	1254	1251	1248	1243	1235	1232	1228	1225	1223	1221	1219	1218	1216	1215	1214	1214	1214	1213	1214	1213	1214	1214	1214	1214	1215	1215	1216	1216	1216	1217	1217	1219	1219	1220	1221	1222	1223	1224	1226	1229	1230	1232	1235	1237	1239	1241	1243	1246	1248	1250	1251	1253	1254	1254	1255	1256	1255	1254	1254	1254	1253	1252	1253	1252	1251	1250	1250	1250	1250	1250	1250	1250	1249	1248	1247	1245	1244	0	0	1232	1226	0	0	0	1187	1182	1179	1179	1178	1177	1177	1177	1176	1177	1179	1182	1186	1188	1192	1196	1201	0	1205	1208	1211	1212	1213	1215	1216	1216	1216	1216	1215	1214	1213	1213	1211	1210	1207	1206	1205	1203	1202	1200	1198	1196	1194	1193	1192	1192	1190	1190	1189	1191	1192	1193	1194	1198	1200	1204	1202	1207	1211	1215	1217	1219	0	1220	1222
2627	2624	2620	2620	2617	2617	2613	2613	2613	2613	2613	2613	2613	2613	2613	2613	2610	2610	2610	2610	2606	2603	2603	2599	2596	2596	2593	2589	2582	2579	2572	2566	2562	2556	2549	2539	2533	2530	2530	2530	2530	2530	2533	2536	2539	2543	2546	2549	2549	2552	2552	2556	2556	2556	2559	2559	2559	2559	2559	2559	2559	2559	2562	2566	2569	2569	2572	2576	2579	2582	2586	2586	2586	2586	2586	2589	2586	2586	2586	2586	2586	2582	2579	2579	2579	2576	2576	2579	2582	2582	2586	2589	2593	2593	2596	2596	2596	2596	2596	2599	2599	2603	2603	2603	2603	2603	2603	2599	2599	2599	2593	2589	2589	2586	2579	2576	2569	2559	2549	2536	2520	2504	2488	2457	2442	2430	2421	2415	2409	2409	2406	2406	2406	2406	2412	2418	2424	2433	2445	2454	2463	2476	2485	2498	2504	2513	2517	2523	0	2530	2530	2546	2539	2546	2556	2562	2569	2576	2586	2593	2596	2603	2606	2610	2610	2613	2610	2613	2617	2613	2613	2610	2606	2603	2596	2593	2589	2582	2579	2572	2572	2569	2566	2566	2566	2566	2569	2572	2576	2582	2589	2596	2610	2620	2631	2641	2648	2652	2655	2659	2659	2659	2662	2659	2659	2655	2655	2655	2655	2652	2645	2638	2634	2624	2613	2603	2589	2576	2566	2556	2543	2539	2533	2533	2530	2530	2530	2533	2536	2539	2543	2543	2543	2543	2543	2546	2546	2546	2546	2546	2549	2549	2549	2549	2549	2552	2559	2562	2569	2579	2589	2596	2606	2613	2617	2617	2620	2620	2617	2613	2610	2610	2606	2606	2603	2606	2603	2606	2610	2613	2617	2620	2624	2627	2634	2638	2641	2648	2652	2659	2670	2677	2684	2691	2699	2703	2703	2703	2699	2699	2695	2688	2681	2677	2666	2659	2652	2645	2638	2631	2627	2620	2617	2620	2620	2627	2627	2631	2631	2627	2627	2627	2620	2620	2613	2610	2606	2603	2599	2593	2582	2576	2569	2566	2562	2559	2559	2556	2552	2552	2549	0	0	2546	2546	2543	2543	2543	2543	2543	2543	0	0	0	0	0	0	0	0	0	0	1677	1677	1676	1673	1671	1669	1663	1657	1653	1649	1645	1641	1637	1634	1631	1629	1626	1625	1623	1622	1622	1622	1621	1621	1619	1619	1618	1617	1617	1617	1617	0	0	0	0	0	0	0	0	0	0	0	0	2645	2645	2645	2645	2648	2652	2645	2652	2655	2662	2666	2677	2688	2699	2706	2710	2710	2714	2710	2710	2714	2706	0	0	0	0	2645	2634	2620	2606	2599	2593	2586	2579	2572	2566	2562	2559	2556	2552	2543	2536	2533	2523	2517	2510	2501	2494	2488	2482	2473	0	0	0	0	0	0	0	0	0	0	0	0	0	0	0	0	0	0	1384	1384	1385	1383	1382	1380	1378	1375	1372	1368	1365	1362	1358	1354	0	1336	0	1316	1300	1295	1290	1285	1281	1279	1277	1275	1276	1275	1275	1276	1276	1276	1275	1275	1275	1274	1272	1271	1269	1267	1266	1266	1265	1264	1264	1263	1264	1263	1263	1262	1263	1262	1259	1256	1253	1250	1246	1242	1233	1229	1226	1222	1220	1218	1216	1215	1213	1213	1212	1211	1211	1211	1211	1211	1211	1211	1211	1212	1212	1213	1213	1213	1213	1213	1214	1215	1215	1215	1216	1217	1217	1219	1219	1220	1222	1224	1226	1227	1230	1232	1234	1235	1238	1241	1243	1246	1249	1250	1252	1253	1254	1254	1253	1253	1253	1252	1252	1251	1251	1251	1250	1250	1250	1250	1249	1248	1247	1246	1244	1242	1239	1236	1229	1225	1218	0	1204	1187	1182	1179	1177	1175	1173	1173	1173	1172	1174	1175	1178	1180	1183	1187	1190	1194	1199	1202	0	1205	1208	1209	1211	1211	1213	1213	1213	1213	1213	1213	1212	1211	1211	1208	1207	1206	1205	1203	1202	1200	1199	1197	1195	1194	1192	1191	1189	1189	1188	1189	1189	1189	1191	1189	1192	1194	1198	1202	1205	1210	1212	1214	1216	1218	0
2620	2620	2617	2617	2613	2613	2613	2610	2610	2610	2610	2610	2610	2610	2610	2610	2610	2610	2606	2610	2606	2606	2603	2599	2599	2596	2596	2593	2589	2582	2576	2572	2569	2562	2552	2543	2539	2536	2533	2530	2530	2533	2539	2543	2543	2546	2549	2552	2556	2556	2559	2559	2562	2562	2566	2566	2566	2566	2566	2566	2566	2566	2566	2569	2569	2572	2572	2576	2576	2576	2579	2576	2576	2576	2576	2579	2576	2576	2579	2576	2576	2572	2572	2572	2572	2572	2576	2576	2576	2579	2579	2582	2586	2586	2586	2589	2589	2589	2589	2593	2593	2596	2596	2596	2596	2599	2596	2596	2593	2593	2589	2589	2586	2582	2582	2576	2569	2566	2552	2543	2530	2513	2498	2482	2448	2436	2427	2418	2412	2406	2406	2406	2406	2406	2412	2418	2424	2433	2445	2454	2463	2473	2482	2488	2498	2501	2504	2504	2507	2513	2520	2526	2536	0	2543	2549	2556	2566	2572	2582	2586	2593	2596	2599	2599	2599	2599	2599	2603	2603	2599	2596	2596	2593	2589	2586	2586	2582	2579	2576	2576	2576	2572	2576	2572	2576	2576	2579	2582	2586	2593	2599	2610	2620	2627	2638	2645	2648	2648	2648	2648	2648	2648	2645	2645	2641	2645	2641	2641	2638	2634	2627	2624	2613	2603	2593	2579	2569	2559	2543	2536	2530	2526	2520	2520	2520	2520	2520	2523	2530	2530	2530	2533	2536	2539	2539	2539	2539	2543	2543	2546	2546	2546	2546	2546	2549	2552	2556	2562	2572	2582	2589	2599	2610	2613	2620	2620	2620	2617	2617	2613	2610	2606	2606	2603	2603	2603	2603	2606	2610	2610	2617	2620	2624	2627	2634	2638	2641	2652	2655	2666	2673	2684	2691	2699	2706	2706	2706	2710	2706	2699	2695	2688	2681	2673	2666	2655	2648	2638	2631	2624	2620	2617	2617	2617	2620	2620	2620	2620	2620	2620	2617	2610	2606	2603	2603	2603	2596	2589	2582	2576	2569	2562	2559	2556	2552	2552	2552	2549	2549	2549	2549	2546	2543	2543	2543	2543	2543	2543	2543	2546	2546	0	0	0	0	0	0	0	0	0	1676	1674	1673	1671	1670	1669	1662	1659	1653	1649	1645	1641	1638	1634	1631	1630	1627	1626	1625	1623	1622	1622	1622	1622	1621	1619	1621	1618	1619	1617	0	0	0	0	0	0	0	0	0	0	0	0	0	2634	2624	2627	2627	2627	2634	2641	2645	2648	0	2655	2662	2673	2688	2699	2706	2710	2714	2710	2714	2710	2706	2699	2691	0	2655	2645	2634	2617	2610	2596	2593	2586	2579	2572	2569	2562	2562	2559	2552	2539	2536	2530	2523	2517	2507	2501	2491	2485	2476	2469	2463	0	0	0	0	0	0	0	0	0	0	0	0	0	0	0	0	1384	1383	1383	1383	1382	1380	1377	1376	1373	1369	1366	1363	1360	1355	1353	1342	1335	0	1318	1310	1298	1293	1288	1284	1281	1279	1278	1277	1278	1277	1277	1277	1277	1276	1275	1275	1274	1272	1271	1270	1268	1266	1265	1264	1263	1262	1262	1261	1260	1259	1258	1258	1258	1255	1253	1250	1247	1244	1235	1230	1226	1222	1219	1216	1214	1213	1211	1211	1210	1209	1209	1209	1208	1208	1208	1208	1208	1209	1209	1209	1210	1211	1211	1211	1211	1211	1211	1212	1212	1213	1213	1213	1213	1214	1216	1216	1218	1219	1219	1222	1223	1225	1228	1231	1233	1235	1239	1243	1246	1249	1250	1252	1252	1253	1253	1252	1252	1252	1252	1251	1251	1250	1250	1249	1248	1247	1246	1245	1242	1239	1237	1230	1226	1222	1216	0	0	1189	1183	1179	1177	1175	1173	1173	1172	1173	1174	1175	1176	1178	1181	1183	1187	1189	1193	1197	1201	0	1203	1205	1207	1208	1208	1210	1211	1211	1211	1211	1211	1211	1210	1209	1208	1206	1205	1205	1203	1202	1200	1199	1197	1195	1194	1192	1190	1189	1188	1188	1186	1185	1185	1186	1187	1188	1191	1192	1195	1198	1202	1204	1205	1207	1208	0
2620	2617	2613	2610	2613	2610	2610	2610	2610	2610	2610	2610	2610	2610	2610	2610	2606	2606	2603	2603	2603	2599	2599	2596	2596	2593	2593	2589	2586	2582	2579	2572	2566	2559	2556	2549	2539	2536	2536	2536	2533	2536	2539	2546	2546	2549	2549	2552	2559	2559	2562	2566	2566	2566	2569	2569	2569	2572	2572	2569	2572	2572	2572	2572	2572	2572	2572	2572	2572	2572	2572	2569	2569	2569	2569	2569	2569	2569	2569	2569	2569	2569	2569	2566	2569	2569	2569	2569	2572	2572	2572	2576	2576	2579	2579	2579	2579	2582	2582	2582	2586	2589	2589	2593	2593	2596	2593	2593	2589	2589	2589	2586	2586	2582	2579	2576	2572	2566	2559	2549	2536	2520	2507	2491	2457	2445	2433	2421	2415	2409	2406	2403	2406	2409	2412	2418	2424	2436	2445	2457	2466	2476	2482	2488	2491	2498	2498	2501	2504	2507	2510	2517	2523	2533	2539	0	2546	2556	2562	2569	2576	2579	2582	2586	2586	2589	2589	2586	2589	2586	2582	2582	2582	2579	2579	2579	2579	2576	2576	2576	2576	2579	2579	2579	2579	2579	2582	2582	2586	2589	2593	2603	2610	2617	2627	2634	2638	2641	2641	2638	2638	2638	2638	2634	2631	2627	2627	2627	2627	2624	2620	2617	2610	2603	2593	2582	2576	2562	2552	2543	2533	2530	2523	2520	2517	2517	2517	2513	2517	2520	2523	2526	2530	2530	2533	2536	2536	2536	2539	2539	2539	2539	2539	2543	2543	2543	2546	2549	2556	2562	2572	2586	2593	2603	2613	2617	2620	2620	2617	2613	2610	2606	2606	2606	2603	2599	2599	2599	2599	2603	2603	2606	2610	2617	2624	2627	2631	2638	2641	2652	2659	2670	2677	2684	2695	2699	2706	2706	2703	2706	2703	2695	2691	2681	2673	2666	2659	2648	2638	2627	2620	2613	2610	2606	2610	2610	2610	2613	2613	2613	2613	2606	2603	2599	2596	2593	2589	2589	2582	2576	2569	2562	2556	2552	2552	2549	2546	2546	2546	2546	2546	2546	2543	2543	2543	2546	2543	2543	2543	2543	2546	0	0	0	0	0	0	0	0	0	0	1674	1674	1673	1671	1671	1667	1662	1659	1655	1649	1645	1642	1638	1635	1633	1631	1629	1627	1626	1625	1623	1623	1623	1622	1622	1622	1621	1621	1619	1621	0	0	0	0	0	0	0	0	0	0	0	2610	2613	2613	2613	2613	2613	2617	2620	2620	2627	2627	2634	2641	2655	0	2666	2681	2688	2695	2703	2706	2706	2706	2706	2699	2673	2662	2655	2645	2634	2620	2610	2596	2593	2582	2576	2572	2569	2562	2559	2556	2549	2539	2536	2526	2520	2513	2507	2498	2491	2482	2473	2466	2460	2451	2448	2445	0	0	0	0	0	0	0	0	0	0	0	0	1383	1382	1382	1382	1381	1380	1377	1374	1372	1370	1366	1363	1360	1356	1353	1349	1340	1334	1327	1320	1313	1301	1297	1293	1289	1285	1283	1281	1281	1280	1279	1279	1279	1278	1277	1277	1275	1275	1273	1271	1268	1266	1266	1263	1262	1262	1260	1259	1258	1257	1256	1254	1254	1252	1251	1250	1248	1245	1242	1232	1226	1222	1219	1215	1213	1211	1210	1208	1208	1207	1207	1207	1206	1206	1207	1205	0	1206	0	1207	1208	1208	1208	1209	1209	1209	1210	1210	1210	1210	1210	1211	1211	1212	1212	1212	1213	1214	0	1216	1216	1218	1219	1222	1225	1228	1231	1235	1239	1243	1246	1249	1251	1252	1253	1254	1253	1253	1253	1252	1252	1250	1250	1248	1247	1246	1244	1243	1241	1238	1235	1229	1226	1222	1217	1212	1207	1201	1190	1185	1181	1179	1177	1175	1175	1175	1175	1175	1176	1177	1179	1181	1184	1186	1189	1193	1197	1199	1201	0	1203	1204	1205	1207	1207	1208	1208	1208	1208	1208	1208	1208	1207	1207	1205	1205	1204	1203	1202	1200	1198	1197	1195	1193	1192	1190	1188	1187	1186	1184	1184	1184	1184	1184	1185	1186	1187	1189	1192	1194	1197	1197	1199	1200	0
2613	2606	2610	2606	2606	2606	2603	2606	2606	2606	2606	2606	2606	2606	2606	2606	2603	2599	2599	2599	2596	2596	2593	2593	2593	2586	2586	2582	2579	2576	2572	2569	2562	2559	2556	2549	2543	2539	2536	2536	2536	2539	2543	2543	2549	2549	2552	2556	2559	2562	2566	2569	2569	2572	2576	2576	2576	2576	2576	2579	2576	2579	2576	2579	2579	2576	2576	2576	2572	2572	2569	2569	2566	2566	2562	2566	2566	2562	2562	2566	2569	2566	2566	2566	2566	2566	2566	2566	2569	2566	2569	2569	2572	2572	2572	2572	2572	2576	2576	2579	2582	2586	2586	2589	2589	2593	2589	2589	2589	2589	2586	2586	2582	2582	2579	2576	2572	2569	2559	2552	2543	2530	2513	2501	0	2454	2439	2430	2421	2412	2409	2406	2406	2409	2415	2421	2427	2436	2448	2457	2469	2476	2488	2491	2494	2498	2498	2498	2501	2501	2507	2510	2517	2523	2530	2539	2546	0	2552	2559	2566	2569	2572	2576	2579	2579	2576	2576	2576	2576	2572	2572	2572	2569	2572	2572	2572	2572	2576	2576	2579	2582	2582	2586	2586	2586	2586	2589	2589	2593	2596	2599	2606	2613	2620	2624	2631	2634	2631	2631	2631	2627	2624	2620	2617	2617	2613	2613	2610	2610	2606	2603	2599	2593	2586	2576	2569	2559	2552	2539	2530	2530	2520	2517	2513	2513	2513	2513	2513	2517	2520	2523	2526	2530	2533	2536	2536	2536	2539	2539	2539	2539	2539	2539	2539	2539	2543	2543	2549	2556	2566	2576	2586	2596	2603	2613	2617	2620	2617	2613	2610	2610	2603	2603	2599	2596	2596	2593	2596	2596	2599	2603	2606	2610	2613	2620	2624	2627	2634	2641	2652	2659	2670	2677	2684	2691	2695	2699	2699	2699	2695	2691	2688	2677	2673	2662	2652	2641	2627	2620	2610	2603	2599	2599	2603	2603	2603	2606	2606	2606	2603	2599	2596	2596	2593	2589	2586	2582	2579	2569	2562	2556	2552	2549	2546	2543	2543	2543	2546	2546	2549	2549	2546	2543	2546	2546	2546	2546	2546	2546	0	0	0	0	0	0	0	0	0	0	0	1674	1674	1673	1671	1670	1667	1664	1657	1653	1650	1646	1642	1639	1637	1634	1633	1630	1629	1627	1626	1625	1625	1625	1623	1622	1622	1622	1622	1621	1622	0	0	0	0	0	0	0	0	0	0	0	2599	2599	2599	2603	2599	2603	2606	2610	2606	2610	2610	2610	2613	2624	2631	2641	2659	0	2666	2673	2681	2688	2699	2695	2691	2670	2662	2655	2648	2641	2627	2613	2603	2599	2589	2586	2576	2572	2566	2562	2559	2552	2539	2536	2526	2520	2513	2507	2498	2488	2485	2473	2466	2457	2451	2448	2442	0	0	0	0	0	0	0	0	0	0	0	1382	1382	1381	1380	1379	1378	1377	1374	1372	1369	1366	1362	1361	1357	1353	1349	1342	1338	1332	1327	1321	1314	1311	1301	1297	1294	1290	1288	1285	1285	1284	1283	1282	1281	1280	1279	1278	1277	1275	1275	1272	1270	1266	1265	1263	1262	1259	1258	1257	1254	1254	1252	1251	1250	1250	1249	1246	1245	1242	1235	1230	1224	1219	1214	1211	1210	1208	1207	1206	1206	1206	1205	1205	1205	1205	1204	1204	1204	1204	1205	1205	1206	1206	1208	1207	1208	1208	1208	1208	1209	1208	1208	1209	1208	1209	1210	1210	1211	1211	1212	1213	1214	1216	0	1217	1220	1223	1226	1231	1235	1240	1244	1247	1250	1253	1254	1254	1253	1253	1253	1252	1251	1250	1248	1246	1244	1242	1241	1238	1235	1234	1227	1224	1221	1218	1213	1209	1204	1199	1190	1186	1183	1182	1179	1178	1178	1178	1178	1178	1178	1179	1181	1183	1186	1187	1189	1192	1195	1197	1200	1202	1202	0	1203	1204	1205	1205	1205	1205	0	1206	1206	1206	1205	1205	1205	1204	1203	1202	1201	1199	1198	1197	1194	1192	1191	1189	1188	1187	1185	1184	1183	1183	1182	1182	1182	1182	1183	1184	1186	1187	1189	1189	1190	1192	0
2606	2603	2603	2599	2599	2599	2603	2603	2603	2603	2603	2603	2603	2603	2603	2599	2596	2596	2593	2593	2593	2589	2586	2586	2582	2579	2579	2579	2576	2572	2569	2566	2562	2556	2552	2546	2539	2536	2533	2533	2536	2536	2539	2543	2543	2546	2552	2556	2559	2566	2569	2572	2576	2579	2579	2582	2582	2586	2582	2582	2582	2582	2579	2582	2579	2576	2576	2572	2572	2569	2566	2562	2562	2562	2562	2559	2559	2562	2559	2562	2562	2562	2562	2562	2562	2562	2562	2566	2566	2562	2562	2562	2566	2566	2566	2566	2566	2569	2572	2572	2576	2579	2582	2586	2589	2589	2589	2589	2586	2586	2582	2582	2582	2579	2576	2572	2569	2566	2562	2556	2546	2536	2523	2507	2491	2463	2448	2436	2427	2418	2412	2409	2409	2409	2415	2421	2430	2439	2451	2463	2473	2482	2491	2491	2494	2498	2498	2498	2498	2501	2504	2507	2513	2520	2523	2530	2539	2546	0	2552	2556	2562	2562	0	2566	2566	2566	2566	2566	2566	2562	2562	2562	2566	2566	2566	2569	2569	2572	2576	2579	2586	2586	2589	2589	2589	2589	2593	2596	2596	2599	2603	2610	2610	2617	2620	2624	2624	2624	2620	2620	2613	2613	2610	2606	2603	2603	2603	2603	2599	2599	2596	2589	2586	2582	2576	2566	2559	2552	2536	2533	2526	2523	2517	2517	2513	2513	2513	2513	2517	2517	2523	2526	2530	2533	2536	2536	2539	2539	2539	2543	2539	2539	2539	2536	2536	2536	2539	2543	2549	2556	2566	2576	2586	2596	2606	2613	2617	2617	2613	2613	2610	2606	2603	2596	2596	2593	2589	2589	2593	2593	2596	2599	2603	2606	2613	2613	2620	2624	2631	2641	2648	2659	2666	2673	2681	2684	2688	2688	2684	2684	2681	2673	2670	2659	2652	2641	2634	2620	2610	2603	2596	2596	2593	2596	2596	2596	2599	2599	2596	2596	2593	2593	2589	2586	2582	2582	2576	2572	2566	2559	2552	2546	2543	2539	2539	2539	2543	2539	2546	2549	2549	2546	2546	2546	2546	2549	2546	2546	0	0	0	0	0	0	0	0	0	0	0	1674	1673	1673	1671	1670	1669	1666	1660	1657	1653	1650	1646	1644	1641	1638	1635	1634	1631	1630	1629	1627	1627	1626	1626	1626	1625	1625	1623	1623	1622	1622	0	0	0	0	0	0	0	0	0	0	0	2586	2582	2586	2586	2586	2589	2589	2593	2593	2593	2593	2593	2593	2596	2603	2613	2627	2638	2648	2659	2666	0	2677	2681	2677	2666	2662	2659	2652	2648	2638	2624	2613	2606	2599	2593	2586	2582	2579	2572	2566	2556	2549	2536	2530	2520	2510	2504	2494	2488	2482	2473	2463	2457	2448	2448	2439	2442	2442	0	0	0	0	0	0	0	0	0	1382	1381	1380	1378	1377	1376	1373	1371	1368	1364	1362	1359	1356	1353	1348	1345	1339	1336	1332	1328	1323	1319	1314	1310	1302	1300	1295	1293	1290	1290	1289	1287	1285	1284	1283	1282	1279	1279	1276	1275	1272	1270	1266	1264	1262	1260	1258	1256	1254	1252	1250	1249	1248	1247	1246	1246	1244	1242	1240	1232	1226	1221	1216	1212	1209	1207	1205	1205	1205	1205	1204	1204	1204	1203	1202	1202	1203	1202	1202	1203	1203	1204	1205	1205	1205	1206	1206	1207	1206	1207	1207	1207	1207	1207	1208	1208	1208	1208	1209	1210	1210	1211	1212	1213	1216	0	1219	1222	1226	1231	1235	1241	1246	1248	1252	1253	1253	1253	1252	1252	1250	1250	1248	1246	1243	1241	1239	1235	1233	1231	1225	1222	1220	1217	1214	1211	1207	1202	1198	1191	1187	1185	1183	1182	1181	1181	1181	1181	1182	1182	1183	1184	1186	1187	1189	1191	1193	1194	1197	1199	1199	1200	1201	1202	1202	1203	1203	1204	1204	1204	1204	1204	1204	1204	1203	1203	1202	1202	1201	1199	1197	1196	1194	1193	1192	1190	1189	1187	1186	1184	1183	1182	1181	1181	1180	1179	1179	1179	1179	1180	1181	1182	1182	1182	1183	0
2603	2603	2599	2599	2596	2596	2596	2599	2603	2603	2603	2603	2603	2603	2599	2596	2593	2593	2589	2589	2586	2582	2582	2579	2576	2572	2572	2569	2569	2566	2562	2559	2556	2552	2549	2539	2536	2530	2530	2526	2530	2530	2533	2536	2539	2543	2549	2556	2559	2566	2569	2576	2579	2582	2586	2586	2589	2589	2586	2586	2586	2582	2582	2579	2579	2576	2572	2569	2566	2566	2562	2559	2559	2559	2559	2559	2559	2559	2559	2559	2562	2562	2559	2559	2562	2559	2559	2559	2562	2562	2562	2562	2562	2562	2562	2562	2562	2566	2569	2572	2572	2576	2579	2582	2586	2586	2586	2586	2582	2582	2579	2579	2576	2576	2572	2572	2569	2566	2559	2556	2549	2539	2526	2513	2501	2488	2460	2448	2436	2427	2418	2415	2412	2412	2421	2427	2433	2442	2454	2460	2473	2482	2491	2494	2498	2498	2501	2498	2498	2501	2501	2507	2510	2517	2520	2526	2533	2543	2546	2552	2552	2556	2556	2556	2556	2556	2556	2552	2556	2556	2552	2556	2556	2556	2559	2562	2566	2569	2572	2576	2579	2586	2589	2593	2593	2593	2596	2596	2596	2599	2603	2603	2606	2610	2610	2610	2613	2610	2610	2606	2603	2603	2599	2599	2596	2596	2593	2593	2593	2593	2593	2589	2586	2582	2576	2572	2566	2559	2549	2539	2533	2526	2523	2517	2517	2513	2513	2513	2513	2520	2520	2526	2530	2533	2536	2539	2543	2543	2543	2543	2543	2543	2539	2539	2536	2533	2533	2533	2536	2539	2546	2552	2562	2572	2582	2593	2603	2610	2610	2610	2610	2606	2603	2599	2596	2593	2589	2586	2586	2589	2589	2589	2593	2596	2599	2603	2606	2613	2617	2624	2631	2641	2648	2655	2662	2670	2673	2673	2673	2670	2666	2662	2659	2652	2641	2638	2627	2620	2613	2603	2596	2589	2586	2586	2586	2589	2589	2593	2593	2593	2589	2589	2589	2586	2582	2579	2576	2572	2566	2559	2552	2546	2543	2539	2536	2536	2536	2539	2539	2543	2546	2546	2546	2546	2546	2549	2549	2549	2549	0	0	0	0	0	0	0	0	0	0	1674	1673	1673	1671	1670	1669	1667	1664	1660	1656	1653	1649	1646	1645	1642	1639	1638	1637	1634	1633	1631	1630	1629	1629	1629	1627	1627	1626	1626	1626	1625	1625	0	0	0	0	0	0	0	0	0	0	0	0	2566	2569	2569	2572	2572	2572	2572	2572	2572	2569	2562	2559	2556	2556	2569	2579	2596	2610	2624	2638	2655	2666	2673	2673	2666	2666	2662	2659	2652	2648	2634	2624	2620	2613	2606	2599	2593	2586	2579	2576	2566	2556	2536	2526	2513	2507	2498	2488	2482	2473	2463	2460	2451	2442	2436	2436	2436	2436	2439	0	0	0	0	0	0	0	0	0	1381	1379	1376	1375	1373	1370	1367	1362	1361	1357	1355	1351	1348	1345	1339	1338	1335	1333	1329	1326	1322	1320	1316	1313	1308	1301	1298	1295	1295	1293	1291	1290	1288	1285	1284	1282	1280	1277	1275	1272	1267	1265	1262	1259	1257	1255	1253	1251	1249	1247	1246	1245	1243	1244	1242	1242	1239	1234	1229	1224	1219	1214	1209	1207	1205	1203	1202	1202	1202	1202	1202	1201	1202	1201	1201	1201	1201	1200	1201	1201	1202	1203	1203	1204	1204	1205	1205	1205	1205	1205	1205	1206	1206	1206	1206	1207	1206	1207	1207	1208	1208	1209	1211	1212	1215	0	1219	1222	1226	1232	1238	1242	1246	1250	1251	1251	1251	1252	1250	1248	1247	1245	1242	1239	1235	1232	1229	1225	1222	1219	1217	1215	1213	1210	1208	1204	1200	1197	1192	1190	1187	1187	1186	1185	1185	1185	1185	1186	1187	1187	1189	1189	1191	1192	1193	1194	1196	1197	1198	1199	1199	1199	1200	1199	1200	1201	1201	1201	1202	1202	1202	1202	1202	1202	1199	1198	1197	1197	1195	1194	1194	1192	1192	1190	1189	1187	1186	1184	1182	1182	1180	1179	1179	1177	1176	1175	1176	1175	1176	1175	1176	1175	1177	0	0
2599	2596	2596	2596	2593	2593	2593	2596	2596	2599	2599	2599	2599	2599	2596	2593	2593	2589	2586	2586	2582	2582	2576	2572	2569	2566	2566	2562	2559	2556	2556	2552	2546	2543	2533	2530	2526	2523	2523	2523	2523	2526	2530	2530	2533	2539	2546	2552	2559	2566	2569	2576	2576	2582	2586	2586	2589	2589	2589	2586	2582	2582	2579	2576	2572	2569	2566	2562	2559	2559	2559	2556	2556	2556	2556	2556	2556	2556	2556	2559	2559	2559	2559	2559	2559	2559	2562	2562	2562	2562	2562	2559	2559	2559	2559	2559	2559	2562	2566	2569	2569	2572	2576	2579	2582	2582	2579	2579	2579	2576	2576	2576	2576	2572	2572	2569	2566	2562	2559	2556	2549	2543	2533	2523	2510	2498	2482	2457	2445	2442	2433	2430	2424	2421	2427	2433	2436	2445	2451	2463	2473	2482	2488	2491	2494	2498	2498	2501	2501	2501	2501	2507	2510	2513	2520	2523	2530	2539	2543	2546	2549	2549	2552	2549	2549	2549	2549	2549	2549	2549	2549	2549	2552	2552	2556	2559	2562	2566	2572	2579	2582	2589	2596	2596	2599	2599	2599	2603	2603	2599	2599	2596	2596	2596	2596	2593	2589	2593	2589	2586	2582	2582	2582	2582	2582	2586	2582	2582	2586	2586	2586	2586	2582	2579	2576	2569	2562	2559	2552	2546	2536	2530	2523	2520	2517	2517	2517	2517	2517	2520	2523	2530	2536	2536	2539	2543	2546	2546	2549	2546	2546	2543	2539	2536	2536	2533	2530	2526	2530	2533	2536	2539	2546	2556	2566	2579	2589	2596	2599	2599	2603	2603	2603	2596	2593	2589	2589	2586	2582	2586	2586	2586	2589	2593	2593	2596	2603	2606	2610	2617	2620	2631	2638	2645	2652	2655	2659	2659	2659	2652	2652	2645	2641	2634	2627	2624	2613	2606	2599	2593	2589	2582	2579	2582	0	2586	2586	2586	2586	2586	2586	2586	2586	2582	2579	2576	2576	2572	2566	2559	2549	2546	2543	2539	2536	2536	2533	2536	2536	2539	2543	2543	2543	2546	2546	2546	2546	2549	2549	0	0	0	0	0	0	0	0	0	0	1674	1673	1671	1671	1670	1667	1666	1664	1659	1656	1653	1650	1648	1645	1644	1641	1639	1638	1635	1634	1634	1633	1631	1631	1630	1630	1629	1630	1629	1629	1627	1627	0	0	0	0	0	0	0	0	0	0	0	0	2556	2556	2559	2559	2559	2562	2559	2552	2549	2543	2536	2526	2520	2520	2530	2539	0	0	0	2610	2631	2652	2662	2670	2673	2673	2673	2673	2666	2659	2648	2638	2634	2624	2617	2610	2603	2599	2589	2582	2572	2559	2530	2517	2504	2494	2485	2476	2469	2460	2457	2451	2442	2439	2433	2433	2433	2436	2439	2442	2448	2451	0	0	0	0	0	0	0	1379	1376	1374	1371	1367	1363	1360	1356	1352	1350	1347	1340	1338	1337	1334	1333	1331	1329	1327	1325	1322	1320	1318	1314	1310	1303	1301	1299	1296	1295	1292	1290	1288	1285	1283	1281	1278	1275	1272	1266	1262	1259	1257	1254	1252	1250	1248	1246	1243	1242	1242	1241	1240	1239	1239	1236	1232	1228	1222	1217	1213	1208	1205	1203	1202	1201	1201	1201	1201	1201	1200	1199	1199	1199	1199	1199	1199	1199	1199	1200	1201	1201	1202	1202	1202	1202	1202	1203	1204	1204	1205	1205	1205	1205	1205	1205	1205	1205	1205	1206	1207	1208	1210	1212	1215	0	1218	1222	1229	1233	1239	1242	1247	1249	1250	1250	1249	1248	1246	1244	1242	1237	1233	1230	1224	1222	1219	1217	1214	1212	1210	1208	1205	1202	1200	1198	1197	1194	1192	1191	1190	1189	1189	1189	1189	1189	1190	1191	1192	1192	1193	1194	1194	1195	1196	1196	1197	1197	1198	1198	1198	1199	1198	1199	1199	1199	1199	1199	1200	1200	1197	1197	1197	1195	1195	1194	1193	1192	1191	1190	1189	1189	1187	1186	1184	1184	1182	1180	1179	1178	1177	1175	1174	1174	1173	1173	1173	1172	1172	1172	1172	1173	0	0
2596	2596	2589	2589	2589	2586	2586	2589	2589	2589	2593	2593	2593	2596	2593	2589	2586	2586	2582	2582	2579	2576	2569	2566	2562	2559	2556	2556	2552	2549	2546	2543	2539	2530	2526	2526	2520	2517	2520	2520	2520	2520	2526	2530	2533	2539	2543	2549	2556	2562	2566	2572	2576	2582	2582	2586	2586	2586	2586	2586	2582	2579	2576	2569	2566	2566	2562	2559	2556	2556	2552	2552	2552	2556	2552	2552	2552	2552	2556	2556	2556	2559	2559	2559	2559	2562	2562	2562	2562	2562	2562	2562	2562	2562	2562	2559	2559	2562	2566	2566	2566	2569	2569	2572	2576	2576	2576	2576	2572	2572	2572	2569	2569	2569	2566	2566	2566	2562	2556	2552	2546	2543	2536	2526	2517	2507	2498	2488	2463	2451	2442	2433	2430	2427	2430	2433	2436	2442	2451	2460	2469	2479	2485	2488	2491	2494	2498	2501	2501	2501	2504	2504	2507	2513	2517	2523	2530	2536	2543	2546	2546	2546	2549	2549	2546	2546	2546	2543	2546	2546	2546	2546	2549	2552	2552	2556	2562	2566	2572	2576	2582	2589	2596	2599	2599	2599	2599	2599	2596	2593	2593	2589	2586	2582	2579	2572	2572	2569	2569	2566	2566	2562	2562	2566	2569	2569	2572	2572	2576	2579	2579	2579	2579	2576	2572	2569	2566	2559	2556	2549	2536	2530	2523	2520	2520	2517	2517	2517	2517	2520	2526	2533	2536	2543	2546	2549	2552	2552	2552	2552	2549	2546	2543	2536	2533	2530	2530	2526	2523	2523	2526	2530	2536	2543	2549	2562	2572	2579	2586	2593	2596	2599	2596	2596	2589	2586	2582	2579	2579	2579	2579	2579	2582	2586	2589	2593	2596	2599	2603	2610	2613	2620	2627	2634	2638	2641	2645	2645	2645	2641	2638	2631	2627	2624	2617	2613	2606	2599	2593	2586	2582	2576	2572	2576	2579	2579	2582	2582	2582	2582	2582	2582	2582	2579	2576	2572	2572	2566	2559	2556	2549	2543	2539	2536	2533	2533	2530	2530	2533	2533	2536	2539	2539	2539	2539	2543	2543	2546	2546	2549	2549	0	0	0	0	0	0	0	0	1674	1673	1671	1670	1670	1669	1666	1663	1659	1656	1655	1650	1649	1646	1645	1644	1642	1639	1638	1637	1635	1635	1634	1634	1633	1633	1633	1631	1631	1633	1631	1631	0	0	0	0	0	0	0	0	0	0	0	2539	2543	2543	2543	2546	2543	2543	2536	2530	2517	2507	2498	2488	2482	2479	2485	2498	2513	2530	0	2572	2599	2631	2648	2659	2666	2670	2673	2673	2677	2670	2662	2659	2648	2641	2634	2624	2617	2606	2593	2582	2569	2533	2513	2498	2482	2473	2463	2454	2451	2448	2445	2442	2442	2433	2430	2427	2430	2436	2439	2442	2445	2448	2454	0	0	0	0	0	0	0	0	0	1370	1365	1362	1357	1352	1348	1345	1339	1336	1333	1331	1330	1329	1328	1327	1326	1324	1322	1321	1320	1317	1314	1310	1307	1302	1300	1297	1295	1292	1290	1287	1284	1282	1278	1275	1271	1264	1260	1257	1254	1251	1249	1247	1245	1242	1241	1240	1239	1238	1238	1237	1236	1232	1229	1226	1221	1216	1212	1208	1205	1203	1202	1200	1200	1199	1199	1199	1199	1199	1199	1198	1197	1197	1197	1197	1198	1199	1199	1199	1199	1199	1199	1200	1201	1201	1202	1202	1202	1203	1204	1204	1204	1204	1205	1204	1205	1205	1205	1206	1208	1210	1212	1216	0	1219	0	1229	1233	1237	1242	1245	1246	1246	1246	1246	1243	1241	0	0	1229	1221	1218	1216	1213	1211	1208	1207	1205	1202	1201	1199	1197	1196	1194	1194	1193	1192	1192	1192	1192	1193	1193	1194	1194	1194	1195	1195	1197	1197	1197	1197	1197	1197	1197	1197	1197	1197	1197	1197	1197	1197	1197	1197	1196	1196	1196	1196	1195	1194	1193	1192	1191	1190	1189	1188	1187	1187	1186	1185	1184	1183	1182	1181	1179	1178	1177	1175	1175	1174	1173	1172	1171	1172	1171	1171	1170	1170	1170	1170	0	0
2593	2589	2586	2586	2582	2582	2582	2582	2582	2586	2589	2589	2589	2589	2589	2586	2582	2582	2579	2576	2572	2569	2566	2559	2556	2552	2552	2549	2546	2543	2539	2536	2526	2523	2523	2520	2517	2517	2517	2517	2523	2523	2526	2533	2533	2536	2543	2549	2552	2559	2566	2569	2572	2579	2582	2582	2586	2582	2579	2579	2576	2572	2572	2566	2562	2559	2556	2552	2552	2552	2549	2552	2552	2552	2552	2552	2552	2552	2556	2556	2556	2556	2559	2559	2562	2566	2566	2566	2562	2562	2562	2562	2562	2562	2562	2562	2562	2562	2562	2566	2562	2562	2566	2569	2569	2569	2569	2569	2569	2569	2569	2569	2566	2566	2566	2562	2559	2556	2552	2549	2546	2543	2536	2530	2523	2513	2504	2494	2482	2460	2451	2442	2436	2433	2433	2433	2436	2442	2448	2457	2463	2473	2479	2482	2488	2491	2498	2498	2498	2501	2504	2507	2510	2510	2520	2523	2530	2533	2539	2543	2546	2546	2546	2546	2546	2543	2546	2543	2546	2546	2546	2546	2546	2549	2552	2556	2559	2562	2569	2576	2582	2586	2593	2596	2596	2596	2596	2596	2589	2586	2582	2579	2576	2569	2562	2559	2556	2552	2549	2546	2546	2543	2546	2546	2549	2552	2556	2559	2566	2569	2572	2572	2576	2576	2572	2569	2566	2562	2556	2549	2539	2533	2526	2523	2517	2517	2513	2513	2517	2523	2530	2536	2543	2546	2552	2556	2559	2559	2559	2556	2552	2549	2546	2539	2536	2533	2526	2523	2520	2523	2523	2523	2526	2530	2536	2546	2552	2566	2572	2579	2586	2589	2589	2589	2586	2579	2579	2576	2572	2572	2572	2572	2576	2579	2582	2586	2589	2593	2596	2603	2606	2613	2617	2624	2627	2631	2634	2634	2634	2631	2627	2624	2620	2617	2610	2603	2599	2589	2586	2579	2569	2569	2569	2569	2572	2572	2576	2579	2579	2579	2579	2579	2579	2576	2576	2572	2569	2566	2559	2552	2546	2543	2539	2533	2533	2530	2530	2530	2530	2526	2530	2530	2530	2533	2533	2536	2536	2539	2539	0	0	0	0	0	0	0	1676	1674	1674	1673	1671	1671	1671	1670	1667	1666	1663	1659	1657	1655	1652	1650	1648	1646	1645	1644	1642	1641	1638	1638	1637	1637	1635	1635	1637	1637	1635	1635	1635	1633	1634	0	0	0	0	0	0	0	0	0	0	0	2526	2526	2530	2530	2523	2520	2513	2504	2488	2466	2457	2451	2448	2448	2454	2463	2479	0	2501	2523	2546	2572	2603	2627	2645	2652	2662	2666	2670	2673	2666	2662	2659	2652	2641	2627	2617	2603	2593	2576	2562	2526	2507	2488	2476	2460	2448	2442	2433	2433	2424	2427	2424	2424	2424	2421	2424	2424	2430	2436	2439	2445	2448	2454	2457	2463	2466	0	0	0	0	0	0	0	0	1361	1355	1350	1346	1338	1335	1332	1329	1327	1326	1326	1325	1325	1324	1324	1324	1323	1321	1320	1317	1314	1311	1308	1303	1301	1297	1295	1291	1289	1285	1282	1279	1275	1266	1262	1258	1255	1253	1249	1247	1244	1242	1241	1239	1238	1236	1236	1236	1235	1233	1231	1229	1226	1220	1216	1212	1208	1205	1203	1202	1201	1199	1199	1199	1199	1199	1198	1197	1197	1197	1196	1196	1197	1196	1197	1197	1197	1197	1197	1197	1198	1198	1199	1199	1200	1201	1202	1202	1203	1203	1203	1203	1203	1203	1203	1204	1205	1206	1208	1210	1213	1216	0	1219	1224	1228	1232	1237	1241	1242	1242	1242	1242	1240	0	0	1222	1219	1215	1212	1209	1207	1205	1203	1201	1199	1198	1197	1195	1194	1193	1193	1193	1193	1193	0	1194	1194	0	1195	1196	1196	1197	1197	1197	1197	1198	1198	1198	1198	1198	1197	1197	1197	1196	1196	1196	1194	1194	1194	1194	1194	1194	1194	1193	1192	1191	1190	1188	1187	1186	1186	1184	1184	1184	1183	1182	1181	1180	1179	1178	1177	1175	1174	1173	1173	1172	1171	1171	1171	1170	1170	1169	1169	1169	1169	1170	0	0
2589	2586	2582	2579	2576	2576	2576	2579	2579	2579	2582	2582	2586	2582	2582	2582	2582	2576	2576	2572	2569	2566	2562	2556	2552	2549	2546	2543	2539	2536	2533	2526	2523	2520	2520	2517	2517	2517	2520	2520	2523	2526	2530	2533	2536	2539	2543	2546	2552	2556	2562	2566	2572	2579	2579	2582	2579	2579	2576	2576	2572	2569	2566	2559	2556	2556	2552	2549	2549	2549	2549	2549	2552	2552	2552	2552	2552	2552	2556	2556	2556	2559	2559	2559	2562	2566	2566	2562	2562	2562	2562	2562	2562	2562	2562	2562	2562	2562	2562	2562	2566	2562	2562	0	2566	2566	2566	2562	2562	2562	2562	2559	2559	2556	2556	2556	2556	2552	2549	2546	2543	2539	2536	2533	2526	2517	2507	2498	2488	2466	2457	2448	2439	2436	2436	2436	2436	2439	2445	2454	2460	2466	2473	2479	2485	2488	2491	2494	2498	2501	2504	2507	2510	2513	2517	2523	2530	2536	2539	2543	2546	2546	2549	2549	2546	2546	2546	2546	2549	2546	2549	2549	2549	2552	2556	2556	2559	2566	2569	2572	2579	2586	2589	2593	2593	2589	2589	2586	2582	2576	2576	2569	2562	2556	2552	2546	2543	2539	2536	2533	2530	2530	2526	2530	2533	2536	2539	2546	2552	2559	2559	2566	2569	2569	2569	2569	2566	2562	2556	2552	2539	2533	2526	2520	2517	2513	2513	2513	2517	2523	2530	2539	2546	2552	2556	2562	2566	2566	2566	2562	2559	2552	2549	2543	2536	2533	2526	2523	2520	2517	2517	2517	2520	2523	2526	2533	2543	2552	2559	2566	2572	2579	2579	2579	2579	2572	2569	2569	2566	2566	2569	2566	2569	2572	2576	2579	2582	2586	2589	2593	2599	2606	2610	2613	2617	2624	2624	2627	2627	2624	2620	2620	2613	2610	2606	2599	2593	2589	2582	2569	2569	2566	2566	2569	2569	2569	2572	2576	2572	2576	2576	2576	2576	2572	2572	2569	2566	2562	2556	2549	2543	2539	2533	2533	2530	2530	2526	2526	2526	2526	2526	2530	2526	2530	2530	2530	2533	2533	2536	2533	0	0	0	0	0	0	1674	1674	1673	1673	1671	1670	1670	1670	1667	1666	1664	1663	1657	1656	1653	1652	1649	1648	1646	1645	1644	1642	1641	1639	1641	1641	1639	1639	1639	1638	1638	1638	1637	1635	1635	0	0	0	0	0	0	0	0	0	0	0	0	2517	2517	2510	2504	2494	2482	2469	0	2433	2421	2421	2418	2421	2427	2442	2457	2476	0	2498	2523	2549	2582	2610	2631	2648	2655	2662	2670	2673	2666	2659	2652	2641	2620	2606	2593	2579	2566	2552	2523	2504	2485	2469	0	0	2433	2421	2418	2415	2412	2412	2409	2412	2415	2415	2415	2421	2427	2433	2439	2445	2448	2451	2457	2463	2466	0	0	0	0	0	0	0	0	0	1353	1347	1338	1334	1329	1326	1324	1322	1321	1321	1321	1321	1322	1322	1322	1322	1321	1321	1318	1315	1314	1311	1307	1302	1300	1296	1293	1290	1286	1284	1279	1275	1270	1262	1258	1254	1250	1247	1245	1242	1240	1238	1236	1235	1234	1234	1234	1232	1232	1230	1227	1224	1220	1216	1213	1209	1207	1205	1203	1202	1201	1199	1199	1199	1198	1197	1197	1197	1195	1195	1195	1195	1194	1196	1196	1195	1195	1195	1196	1196	1196	1197	1197	1198	1199	1200	1200	1202	1202	1202	1202	1202	1202	1202	1202	1203	1204	1205	1206	1208	1211	1214	0	1218	1222	1225	1229	1234	1236	1237	1236	1237	1235	0	1222	1217	1213	1209	1206	1205	1202	1199	1198	1196	1194	1193	1192	1192	1190	1190	1191	0	1192	1193	1194	1194	1195	1196	1196	1197	1198	1199	1199	1199	1199	1199	1199	1199	1198	1197	1197	1197	1195	1192	1192	1191	1191	1191	1191	1191	1190	1189	1189	1189	1188	1187	1186	1184	1184	1182	1182	1181	1180	1180	1180	1179	1178	1177	1177	1176	1175	1172	1172	1172	1172	1172	1171	1170	1170	1170	1170	1169	1170	1169	1169	1170	0	0
2582	2579	2576	2576	2572	2569	2569	2569	2572	2572	2572	2576	2576	2579	2576	2576	2572	2572	2569	2566	2562	2559	2556	2552	2546	2543	2539	2536	2536	2530	2530	2523	2520	2520	2520	2517	2517	2517	2520	2523	2526	2530	2530	2533	2539	2543	2546	2546	2549	2552	2559	2562	2566	2572	2576	2576	2576	2572	2569	2566	2566	2562	2559	2556	2549	2549	2546	2546	2543	2543	2543	2543	2546	2549	2549	2549	2549	2549	2549	2552	2552	2556	2556	2559	2562	2562	2562	2562	2562	2562	2562	2562	2562	2562	2562	2562	2562	2562	2562	2562	2562	2559	2559	2559	2559	2559	2559	2552	2552	2552	2552	2552	2552	2552	2552	2549	2549	2549	2546	2543	2543	2536	2533	2530	2526	2520	2510	2501	2491	2482	2463	2454	2445	2439	2439	2439	2439	2442	2445	2451	2457	2463	2469	2476	2479	2488	2491	2494	2498	2501	2504	2507	2510	2513	2517	2526	2530	2536	2539	2546	2549	2549	2549	2552	2549	2549	2549	2549	2552	2552	2552	2552	2552	2552	2556	2556	2559	2562	2566	2572	2576	2579	2582	2586	2582	2582	2579	2576	2572	2569	2562	2556	2552	2546	2543	2536	2533	2530	2526	2523	2520	2520	2517	2517	2517	2523	2526	2533	2539	2543	2552	2556	2562	2562	2566	2566	2562	2559	2556	2549	2536	2530	2526	2523	2517	2517	2517	2517	2520	2526	2533	2543	2549	2556	2562	2566	2569	2569	2569	2566	2562	2556	2549	2543	2536	2533	2523	2520	2517	2510	2510	2510	2510	2513	2517	2520	2526	2536	2543	2549	2556	2562	2566	2569	2566	2562	2559	2559	2559	2559	2559	2559	2562	2566	2569	2572	2576	2582	2586	2589	2593	2599	2606	2606	2610	2613	2617	2620	2617	2617	2617	2613	2610	2610	2606	2599	2596	2586	2579	2576	2566	2562	2562	2562	2562	2566	2569	2572	2569	2572	2572	2572	2572	2572	2569	2562	2562	2556	2552	2546	2539	2536	2533	2530	2526	2526	2523	2523	2523	2520	2523	2523	2520	2523	2523	2523	2523	2526	2526	2526	2526	0	0	0	0	0	1673	1673	1673	1671	1671	1670	1669	1670	1669	1666	1664	1663	1659	1657	1655	1653	1650	1649	1648	1646	1646	1645	1645	1644	1644	1642	1642	1642	1641	1641	1639	1639	1639	1638	1638	0	0	0	0	0	0	0	0	0	0	0	0	2494	2491	0	0	0	0	0	2409	2400	2395	2395	2398	2403	2412	2424	2445	2463	2485	0	2510	2539	2569	2603	2624	2641	2648	2662	2666	2670	2662	2655	2648	2627	2603	2586	2569	2559	2546	2530	0	0	0	0	0	2430	2421	2412	2406	2406	2400	2403	2403	2400	2403	2406	2406	2412	2421	2430	2433	2442	2445	2451	2457	2463	2466	2466	2466	0	0	0	0	0	0	0	0	1337	1332	1327	1324	1321	1319	1318	1317	1318	1318	1318	1320	1320	1320	1321	1321	1320	1318	1316	1314	1312	1309	1307	1301	1298	1295	1291	1287	1284	1279	1275	1270	1262	1258	1254	1250	1247	1244	1242	1239	1237	1235	1234	1233	1232	1232	1231	1230	1229	1226	1223	1220	1217	1215	1211	1208	1207	1205	1204	1203	1202	1200	1199	1199	1197	1197	1196	1196	1195	1195	1194	1194	1194	1194	1194	1194	1194	1194	1194	1194	1194	1196	1197	1197	1198	1199	1200	1201	1201	1201	1201	1201	1200	1199	1200	1201	1201	1202	1203	1205	1208	1211	1215	1217	0	1222	1225	1228	1229	1229	1229	0	1222	1216	1211	1206	1203	1200	1199	1197	1194	1194	1192	1190	1189	1188	1187	1187	1188	1189	1191	1192	0	1193	1194	1195	1196	1197	1198	1199	1199	1199	1199	1199	1199	1199	1199	1197	1194	1193	1192	1192	1190	1189	1188	1187	1187	1187	1186	1185	1185	1184	1184	1183	1182	1182	1180	1179	1179	1178	1177	1177	1177	1177	1176	1175	1175	1174	1172	1172	1171	1171	1170	1171	1172	1171	1171	1171	1171	1171	1170	1171	1170	1170	1170	0	0
2579	2576	2569	2569	2566	2566	2566	2562	2566	2566	2566	2566	2569	2569	2572	2569	2566	2566	2562	2562	2559	2552	2549	2546	2543	2539	2536	2533	2530	2526	2520	2520	2520	2517	2517	2513	2513	2517	2520	2523	2526	2526	2530	2536	2536	2543	2543	2543	2546	2549	2552	2556	2562	2562	2566	2566	2566	2562	2559	2559	2556	2552	2549	2546	2543	2539	2539	2536	2539	2539	2539	2543	2543	2543	2543	2546	2546	2546	2546	2549	2549	2549	2552	2556	2559	2562	2562	2562	2562	2562	2562	2566	2566	2566	2562	2562	2562	2562	2562	2562	2562	2556	2552	2549	2546	2546	2546	2546	2546	2546	2549	2549	2546	2546	2549	2546	2546	2543	2543	2539	2536	2536	2533	2526	2523	2517	2510	2504	2494	2485	2466	2457	2448	2442	2442	2439	2439	2439	2445	2451	2457	2460	2466	2473	2476	2485	2488	2494	2498	2501	2504	2510	2510	2517	2520	2523	2530	2536	2543	2543	2549	2549	2552	2552	2552	2552	2552	2552	2556	2556	2559	2556	2556	2556	2559	2559	2562	2566	2569	2572	2576	2576	2579	2579	2576	2572	2572	2569	2562	2559	2556	2549	2543	2536	2533	2526	2523	2520	2517	2513	2510	2510	2510	2510	2510	2510	2517	2523	2530	2533	2539	2546	2552	2559	2559	2562	2559	2559	2552	2549	2539	2533	2526	2520	2520	2517	2517	2517	2520	2526	2533	2543	2552	2559	2566	2569	2572	2572	2572	2569	2566	2556	2552	2543	2536	2530	2523	2520	2513	2510	2507	2507	2507	2507	2510	2510	2517	2523	2526	2533	2539	2543	2549	2552	2549	2549	2549	2549	2549	2552	2552	2556	2556	2559	2562	2566	2572	2576	2579	2586	2593	2596	2603	2606	2610	2613	2617	2617	2620	2617	2617	2617	2613	2610	2606	2603	2596	2593	2586	2576	2566	2562	2559	2562	2562	2566	2569	2569	2566	2569	2569	2569	2569	2569	2562	2556	2552	2549	2546	2539	2536	2530	2526	2523	2523	2523	2520	2517	2517	2517	2517	2513	2517	2517	2513	2517	2517	2517	2517	2517	2517	0	0	0	0	0	1671	1671	1671	1671	1670	1669	1670	1670	1669	1667	1666	1664	1662	1657	1656	1655	1652	1650	1649	1648	1648	1646	1646	1645	1645	1644	1644	1644	1644	1644	1642	1642	1642	1641	1639	0	0	0	0	0	0	0	0	0	0	0	0	2479	0	0	0	0	2409	2398	2389	2380	2380	2383	2389	2398	2406	2421	2436	2460	2479	0	2504	2530	2559	2589	2610	2631	2641	2652	2659	2662	0	2645	2634	2613	2589	2572	2556	0	0	0	0	0	2457	2442	2430	2421	2412	2406	2400	2400	2398	2398	2395	2398	2398	2400	0	2406	2412	2421	2430	2436	2445	2451	2457	2463	2463	2466	2466	2466	0	0	0	0	0	0	0	0	0	1321	1317	1315	1314	1314	1313	1314	1315	1315	1317	1318	1318	1319	1319	1318	1317	1315	1314	1312	1310	1307	1302	1299	1295	1292	1289	1284	1280	1276	1271	1262	1258	1254	1251	1246	1244	1240	1238	1236	1234	1232	1232	1231	1230	1230	1229	1227	1226	1223	1221	1219	1216	1213	1211	1210	1208	1206	1205	1204	1203	1200	1199	1198	1197	1196	1195	1194	1194	1194	1194	1194	1193	1193	1192	1192	1192	1192	1192	1192	1193	1194	1194	1195	1197	1198	1199	1198	1199	1199	1198	1197	1197	1196	1196	1196	1196	1196	1197	1199	1202	1205	1208	1211	1215	1218	1219	1219	1220	1219	1216	1213	0	0	1199	1197	1195	1194	1192	1191	1189	1187	1186	1184	1184	1184	1184	1184	1186	1188	1189	1191	0	1193	1194	1195	1196	1198	1198	1199	1199	1198	1198	1195	1194	1194	1193	1192	1192	1190	1189	1188	1186	1185	1184	1183	1182	1182	1181	1180	1180	1179	1179	1177	1177	1177	1176	1175	1175	1174	1174	1174	1173	1173	1172	1171	1170	1170	1170	1170	1170	1170	1171	1171	1171	1171	1172	1172	1172	1171	1172	1172	1171	1172	0	0
2572	2569	2566	2562	2559	2559	2559	2559	2559	2556	2559	2559	2559	2559	2559	2559	2556	2556	2556	2556	2549	2546	2543	2539	2536	2533	2530	2530	2526	2523	2520	2520	2517	2517	2517	2513	2510	2517	2520	2523	2526	2526	2530	2533	2536	2539	2539	2539	2543	2543	2546	2549	2549	2552	2552	2552	2552	2549	2546	2546	2546	2543	2539	2539	2536	2533	2533	2533	2533	2533	2533	2536	2536	2539	2539	2543	2543	2543	2543	2543	2549	2549	2549	2552	2556	2562	2562	2562	2562	2562	2566	2566	2566	2569	2569	2569	2566	2566	2566	2562	2559	2552	2549	2546	2543	2539	2539	2539	2543	2543	2543	2543	2543	2543	2543	2543	2539	2539	2536	2536	2533	2530	2530	2523	2520	2513	2510	2504	2494	2485	2469	2457	2451	2445	2442	2439	2439	2439	2445	2448	2451	2460	2463	2466	2473	2479	2485	2488	2494	2501	2504	2510	2510	2517	2520	2523	2530	2536	2539	2543	2549	2546	2549	2552	2552	2556	2556	2559	2559	2562	2562	2562	2562	2562	2562	2566	2566	2569	2569	2572	2572	2572	2572	2572	2569	2566	2566	2559	2556	2549	2546	2539	2536	2530	2523	2520	2517	2510	2510	2507	2504	2501	2504	2501	2507	2507	2510	2513	2520	2523	2530	2539	2546	2552	2556	2559	2559	2556	2556	2549	2536	2530	2526	2523	2520	2517	2517	2520	2523	2530	2533	2543	2552	2559	2566	2572	2572	2576	2572	2569	2566	2559	2549	2543	2536	2530	2526	2520	2513	2510	2510	2507	2510	2507	2507	2507	2510	2513	2517	2523	2526	2526	2530	2536	2536	2536	2536	2536	2539	2543	2546	2546	2549	2552	2556	2562	2566	2572	2576	2582	2586	2593	2599	2603	2610	2613	2613	2617	2617	2620	2617	2617	2617	2613	2610	2606	2599	2596	2589	2582	2572	2566	2562	2562	2562	2562	2566	2566	2566	2562	2562	2559	2559	2556	2549	2543	2543	2536	2533	2530	2526	2523	2520	2520	2520	2517	2517	2513	2510	2510	2507	2507	2507	2507	2507	2504	2504	2507	2507	2504	2504	0	0	0	0	0	0	1670	1671	1671	1670	1670	1670	1670	1670	1669	1667	1664	1663	1659	1656	1653	1652	1650	1649	1649	1648	1648	1646	1646	1646	1646	1645	1645	1645	1645	1644	1644	1644	1642	1641	0	0	0	0	0	0	0	0	0	0	0	0	0	0	0	0	0	2398	2389	2377	2374	2377	2377	2386	2392	2403	2418	2436	2454	2473	0	2494	2523	2549	2576	2596	2617	2624	2634	0	0	0	0	0	2596	2572	0	0	2520	2504	2491	2476	2463	2448	2433	2424	2415	2406	2400	2395	2392	2392	2392	2389	2392	2392	2395	2400	0	2406	2415	2424	2433	2442	2448	2454	2460	2463	2463	2463	2463	2463	0	0	0	0	0	0	0	0	0	1312	1310	1308	1309	1309	1311	1312	1313	1314	1315	1316	1316	1317	1316	1315	1314	1313	1311	1308	1307	1301	1299	1296	1292	1290	1285	1281	1277	1272	1264	1260	1256	1251	1248	1244	1241	1239	1236	1234	1232	1231	1230	1229	1229	1228	1226	1225	1223	1222	1219	1218	1216	1213	1212	1211	1209	1208	1207	1205	1203	1200	1199	1197	1196	1195	1194	1194	1194	1194	1193	1192	1192	1192	1191	1190	1190	1189	1190	1190	1191	1192	1193	1194	1194	1195	1195	1196	1196	1195	1194	1192	1192	1192	1191	1190	1189	1190	1191	1193	1196	1197	1200	1202	1205	1207	1207	1208	1206	1205	1202	0	0	1193	1192	1190	1189	1188	1185	1184	1182	1182	1182	1182	1181	1181	1182	1183	1185	1187	1189	1191	1192	1192	0	1194	1196	1197	1197	1194	1194	1194	1193	1193	1192	1191	1190	1189	1188	1187	1185	1184	1182	1181	1179	1178	1177	1177	1176	1176	1175	1175	1174	1174	1173	1172	1172	1172	1171	1170	1170	1170	1170	1170	1170	1169	1169	1169	1169	1169	1170	1170	1170	1171	1171	1172	1172	1172	1172	1172	1172	1172	1173	0	0
2566	2562	2559	2556	2552	2549	2549	2549	2549	2546	2546	2546	2546	2546	2546	2546	2546	2546	2543	2543	2539	2536	2536	2533	2530	2530	2526	2526	2523	2523	2520	2520	2520	2520	2517	2513	2513	2517	2523	2526	2530	2530	2533	2536	2536	2539	2539	2539	2539	2539	2539	2543	2539	2546	2543	2543	2539	2539	2536	2536	2536	2533	2530	2530	2526	2526	2526	2523	2526	2526	2526	2530	2530	2533	2536	2536	2536	2536	2539	2543	2543	2546	2549	2552	2556	2559	2559	2562	2566	2562	2569	2569	2569	2572	2572	2576	2572	2569	2566	2569	2562	2552	2549	2546	2539	2539	2536	2536	2536	2536	2536	2536	2536	2536	2536	2536	2536	2533	2533	2530	2530	2523	2523	2520	2517	2510	2507	2501	2491	2485	2469	2460	2454	2445	2442	2439	2439	2439	2442	2445	2451	2454	2460	2466	2469	2473	2479	2485	2491	2494	2498	2504	2510	2517	2517	2523	2530	2533	2539	2543	2546	2546	2549	2552	2556	2556	2556	2559	2562	2566	2566	2566	2566	2569	2569	2569	2572	2572	2572	2572	2572	2569	2566	2566	2562	2559	2556	2549	2546	2543	2536	2533	2526	2523	2517	2513	2510	2507	2504	2504	2501	2501	2498	2501	2501	2501	2504	2507	2510	2517	2523	2530	2536	2546	2549	2552	2552	2556	2552	2546	2536	2533	2530	2523	2523	2520	2520	2520	2523	2530	2536	2543	2549	2559	2566	2569	2572	2576	2576	2569	2569	2562	2552	2543	2539	2533	2530	2526	2520	2520	2513	2513	2513	2510	2507	2507	2507	2507	2510	2513	2513	2517	2523	2523	2523	2526	2530	2530	2530	2536	2539	2539	2546	2546	2552	2556	2562	2566	2576	2579	2586	2589	2596	2603	2606	2610	2613	2613	2617	2617	2620	2620	2617	2617	2610	2606	2603	2599	2593	2586	2576	2566	2562	2562	2559	2559	2559	2556	2556	2552	2549	2546	2546	2543	2539	2533	2530	2526	2526	2526	2523	2520	2517	2517	2517	2517	2513	2510	2507	2504	2501	2498	2498	2498	2494	2494	2494	2498	2498	2494	2494	0	0	0	0	0	0	1669	1670	1670	1670	1670	1670	1670	1670	1670	1667	1666	1663	1657	1655	1653	1652	1650	1649	1649	1648	1648	1646	1646	1646	1646	1646	1646	1646	1645	1645	1645	1644	1644	1642	0	0	0	0	0	0	0	0	0	0	0	0	2460	0	0	0	2403	2392	2383	2377	2374	2374	2377	2386	2392	2403	2415	2433	2451	2469	0	2488	2510	2536	2559	2579	2596	0	2613	0	0	0	0	0	2569	2549	2539	2513	2504	2488	2476	2463	2451	2439	2427	2415	2409	2400	2395	2392	2392	2389	2386	2386	2386	2386	2389	2395	2400	0	2412	2421	2430	2439	2445	2454	2457	2460	2460	2460	2460	2460	0	0	0	0	0	0	0	0	0	1307	1307	1305	1305	1306	1307	1309	1310	1312	1313	1314	1314	1315	1314	1314	1314	1312	1310	1308	1307	1302	1299	1296	1294	1290	1286	1283	1279	1275	1270	1262	1258	1254	1250	1247	1243	1240	1237	1235	1233	1231	1229	1229	1229	1228	1226	1226	1225	1222	1222	1219	1218	1216	1215	1213	1212	1211	1209	1207	1205	1203	1199	1198	1197	1196	1194	1194	1193	1193	1192	1192	1191	1190	1189	1189	1189	1188	1189	1189	1189	1189	1190	1191	1191	1192	1192	1192	1192	1192	1190	1189	1188	1187	1187	1185	1184	1184	1184	1186	1187	1189	1191	1193	1194	1195	1197	1196	1197	1194	0	1191	0	0	1185	1184	1184	1182	1181	1180	1179	1179	1178	1178	1177	1178	1179	1181	1182	1184	1186	1188	1189	1190	1192	1189	1191	1191	1192	1191	1191	1192	1190	1189	1189	1189	1188	1187	1185	1184	1182	1181	1179	1178	1177	1175	1175	1174	1173	1172	1172	1172	1172	1170	1170	1170	1169	1169	1168	1168	1168	1168	1168	1168	1168	1168	1168	1168	1168	1168	1169	1170	1170	1171	1171	1172	1173	1173	1173	1173	1173	1172	1173	0	0
2556	2552	2549	2546	2546	2543	2539	2536	2536	2536	2533	2533	2533	2533	2533	2533	2533	2533	2533	2530	2530	2526	2526	2523	2523	2523	2523	2523	2523	2520	2520	2520	2520	2520	2520	2517	2517	2520	2523	2526	2530	2533	2533	2533	2539	2539	2536	2536	2533	2533	2536	2536	2533	2533	2536	2533	2533	2533	2533	2533	2530	2530	2526	2523	2523	2523	2520	2520	2520	2520	2523	2523	2526	2526	2530	2530	2530	2530	2533	2533	2536	2539	2539	2546	2549	2552	2552	2556	2562	2566	2569	2572	2576	2579	2589	2586	2586	2582	2579	2576	2569	2562	2549	2546	2543	2536	2536	2533	2533	2533	2533	2533	2533	2533	2533	2530	2530	2530	2526	2523	2523	2520	2517	2513	2510	2507	2501	2498	2488	2482	2469	2460	2454	2448	2448	2442	2442	2442	2442	2448	2451	2454	2457	2463	2466	2473	2476	2479	2485	2494	2498	2501	2507	2513	2517	2523	2526	2533	2536	2539	2543	2543	2546	2549	2552	2552	2556	2556	2559	2562	2566	2569	2572	2572	2572	2572	2572	2572	2569	2569	2569	2566	2562	2559	2556	2549	2546	2543	2539	2533	2530	2526	2523	2520	2513	2510	2507	2507	2504	2501	2498	2494	2498	2494	2498	2498	2501	2504	2507	2510	2517	2523	2533	2536	2543	2546	2549	2549	2549	2546	2536	2533	2530	2526	2523	2520	2520	2520	2523	2530	2536	2539	2546	2556	2562	2566	2572	2572	2572	2572	2569	2562	2552	2549	2543	2539	2536	2533	2530	2526	2526	2523	2520	2520	2517	2510	2510	2510	2510	2510	2513	2510	2510	2513	2517	2517	2520	2520	2526	2526	2530	2536	2539	2539	2546	2552	2556	2562	2569	2576	2579	2586	2596	2599	2606	2613	2617	2617	2620	2620	2624	2624	2624	2624	2620	2617	2610	2603	2596	2589	2582	2569	2566	2559	2556	2556	2552	2549	2546	2543	2539	2536	2533	2530	2526	2526	2520	2520	2520	2520	2517	2513	2513	2513	2513	2513	2510	2507	2501	2501	2494	2494	2491	2488	2485	2485	2482	2482	2482	2482	0	0	0	0	0	0	0	1667	1669	1670	1670	1671	1673	1671	1671	1670	1667	1664	1662	1657	1655	1653	1652	1650	1649	1649	1648	1648	1648	1648	1648	1648	1648	1648	1646	1646	1646	1645	1645	1644	1642	0	0	0	0	0	0	0	0	0	0	0	2469	2463	2445	2433	2421	2406	2398	2389	2386	2383	2380	2386	2392	2398	2406	2418	2433	2445	2463	2479	0	2498	2520	2539	2556	2572	2576	0	0	0	0	0	2562	2543	2526	2507	2498	2488	2476	2463	2448	2442	2430	2421	2412	2409	2403	2398	2392	2392	2386	2386	2386	2383	2386	2389	2392	0	2403	2409	2421	2427	2436	2442	2454	2457	2460	2457	2457	2457	2457	2454	2451	0	0	0	0	0	0	0	0	0	1301	1301	1302	1304	1306	1307	1309	1311	1312	1313	1314	1314	1314	1313	1311	1310	1308	1307	1303	1300	1297	1295	1292	1289	1285	1282	1278	1274	1270	1262	1258	1253	1250	1246	1242	1239	1235	1233	1232	1229	1229	1228	1227	1227	1226	1225	1223	1222	1221	1220	1219	1217	1216	1214	1213	1211	1210	1208	1205	1204	1200	1198	1197	1195	1194	1194	1193	1192	1192	1191	1189	1189	1188	1189	1188	1188	1187	1187	1187	1188	1189	1189	1189	1189	1189	1190	1189	1187	1187	1185	1184	1183	1182	1182	1181	1180	1181	1182	1184	1184	1184	1186	1187	1188	1189	1188	1187	1186	1184	1183	1182	1179	1180	1179	1177	1177	1176	1175	1175	1175	1175	1174	1175	1176	1178	1179	1181	1183	1184	1182	1184	1185	1187	1187	1187	1188	1188	1188	1187	1188	1187	1186	1186	1184	1184	1183	1182	1180	1179	1177	1175	1174	1172	1172	1172	1170	1170	1169	1170	1168	1168	1168	1168	1168	1168	1167	1167	1168	1168	1167	1167	1168	1167	1167	1168	1168	1168	1168	1170	1170	1171	1172	1172	1172	1173	1173	1173	1174	1173	1174	0	0
2549	2543	2543	2536	2533	2530	2530	2526	2523	2523	2523	2520	2523	2523	2523	2523	2520	2520	2520	2520	2520	2517	2517	2517	2517	2517	2520	2520	2523	2523	2523	2523	2523	2523	2523	2520	2520	2523	2530	2530	2533	2533	2533	2536	2539	2536	2533	2533	2530	2526	2530	2530	2530	2530	2530	2530	2526	2530	2530	2526	2526	2523	2523	2523	2523	2517	2520	2520	2520	2517	2517	2517	2517	2517	2513	2517	2517	2517	2520	2520	2523	2526	2530	2536	2543	2533	2539	2543	2552	2559	2566	2572	2579	2586	2589	2589	2589	2586	2582	2576	2572	2566	2552	2546	2543	2536	2533	2533	2530	2530	2530	2530	2526	2526	2526	2526	2523	2523	2520	2517	2517	2513	2510	2507	2504	2501	2494	2491	2485	2479	2466	2460	2457	2451	2448	2445	2442	2445	2445	2448	2448	2454	2460	2460	2463	2469	2476	2479	2482	2488	2491	2498	2501	2507	2513	2520	2523	2530	2533	2536	2539	2539	2543	2546	2549	2552	2552	2556	2559	2562	2566	2569	2572	2572	2572	2576	2572	2572	2569	2569	2566	2562	2559	2552	2546	2543	2539	2533	2530	2526	2523	2520	2517	2513	2510	2507	2504	2501	2501	2501	2498	2494	2494	2491	2494	2498	0	2501	2504	0	2510	2513	2523	2530	2536	2539	2543	2549	2543	2543	2536	2533	2530	2526	2526	2523	2523	2523	2523	2530	2533	2536	2546	2552	2559	2566	2569	2572	2572	2572	2576	2569	2559	2552	2552	2549	2546	2543	2539	2539	2536	2533	2530	2523	2520	2517	2517	2513	2510	2507	2507	2507	2507	2507	2510	2510	2513	2517	2520	2520	2526	2530	2533	2536	2543	2546	2552	2556	2562	2569	2576	2582	2593	2599	2606	2610	2617	2620	2624	2627	2631	2631	2631	2631	2627	2624	2617	2610	2603	2593	2586	2576	2562	2556	2552	2549	2546	2539	2536	2533	2526	2523	2523	2520	2520	2517	2513	2513	2513	2513	2513	2510	2510	2510	2513	2510	2507	2501	2494	2491	2488	2482	2479	2473	2473	2469	2473	2473	2466	2457	2469	0	0	0	0	0	1670	1669	1670	1671	1671	1671	1671	1671	1670	1669	1667	1664	1662	1656	1653	1652	1650	1649	1648	1648	1648	1648	1648	1648	1648	1648	1646	1649	1648	1648	1648	1646	1646	0	0	0	0	0	0	0	0	0	0	0	0	0	2466	2463	2457	2436	2424	2412	2406	2398	2395	2392	2395	2395	2400	2403	2415	2421	2433	2445	2457	2469	2482	0	2501	2510	2520	2536	2536	2536	0	0	0	2530	2530	2507	2501	2494	2485	2479	2469	2460	2448	2442	2433	2427	2418	2412	2406	2400	2398	2392	2386	2383	2386	2386	2386	2389	2395	2400	0	2409	2418	2430	2436	2445	2451	2454	2457	2454	2454	2457	2454	2451	2448	2445	2442	2442	2436	0	0	0	0	0	0	0	0	0	1304	1306	1308	1310	1311	1312	1313	1313	1313	1312	1312	1311	1309	1308	1306	1301	1299	1297	1295	1291	1288	1285	1282	1278	1274	1270	1262	1258	1254	1249	1245	1242	1238	1235	1233	1231	1229	1229	1228	1227	1226	1226	1225	1223	1222	1221	1220	1219	1218	1216	1216	1214	1212	1210	1208	1205	1203	1199	1198	1197	1195	1194	1194	1193	1192	1191	1190	1189	1189	1188	1188	1188	1187	1188	1188	1188	1188	1189	1188	1188	1188	1188	1187	1185	1184	1182	1182	1181	1180	1179	1177	0	1179	1179	1179	1179	0	1181	1182	1182	1180	1180	1179	1178	1177	1177	1175	1175	1175	1175	1173	1173	1172	1172	1172	1172	1172	1172	1172	1174	1175	1175	1176	1177	1179	1179	1180	1181	1182	1182	1183	1184	1184	1184	1184	1184	1184	1184	1184	1183	1182	1181	1180	1178	1177	1175	1173	1172	1170	1170	1169	1168	1168	1167	1166	0	1166	1167	1167	1166	1166	1166	1166	1166	1167	1167	1166	1167	1167	1168	1168	1168	1168	1169	1170	1170	1171	1172	1172	1172	1173	1174	1174	1174	1174	1174	0	0
2539	2536	2533	2526	2523	2520	2517	2513	2510	2510	2510	2510	2507	2510	2510	2510	2510	2507	2507	2507	2507	2504	2504	2507	2507	2510	2513	2517	2520	2523	2523	2523	2526	2526	2526	2523	2520	2526	2530	2533	2533	2533	2533	2536	2536	2533	2530	2526	2523	2523	2520	2520	2520	2520	2520	2520	2523	2520	2520	2523	2520	2520	2520	2520	2517	2517	2513	2513	2513	2510	2507	2507	2501	2501	2494	2494	2498	2498	2498	2501	2494	2510	2501	2510	2517	2523	2526	2533	2543	2552	2559	2566	2576	2582	2586	2586	2589	2586	2582	2579	2576	2569	2552	2549	2543	2536	2536	2533	2530	2526	2526	2523	2523	2523	2523	2520	2517	2517	2513	2513	2510	2507	2504	2501	2498	2494	2488	2485	2482	2476	2466	2460	2457	2451	2448	2448	2445	2448	2448	2451	2451	2454	2460	2463	2466	2466	2473	2476	2479	2485	2488	2494	2501	2507	2510	2517	2520	2523	2530	2530	2533	2536	2539	2539	2543	2546	2549	2552	2556	2559	2562	2566	2569	2569	2572	2572	2572	2569	2566	2562	2562	2559	2552	2546	2539	2536	2533	2526	2523	2520	2513	2513	2510	2507	2504	2504	2501	2498	2494	2494	2491	2491	2491	2491	2494	2494	2498	2498	2504	2507	0	2510	2517	2523	2530	2533	2539	2543	2543	2539	2539	2533	2533	2530	2526	2526	2526	2523	2530	2530	2533	2536	2543	2549	2559	2562	2566	2572	2572	2572	2576	2569	2562	2559	2559	2559	2559	2556	2552	2549	2546	2543	2539	2533	2530	2523	2520	2517	2513	2510	2510	2507	2507	2507	2507	2510	2510	2513	2517	2520	2523	2526	2530	2533	2536	2543	2546	2552	2559	2566	2572	2582	2589	2599	2606	2613	2620	2624	2627	2631	2634	2638	2638	2638	2634	2631	2624	2613	2606	2596	2582	2566	2556	2552	2546	2543	2539	2533	2530	2526	2523	2520	2517	2513	2513	2507	2507	2507	2507	2507	2507	2507	2507	2507	2504	2504	2498	2491	2485	2482	2476	2466	2463	2460	2457	2448	2448	2448	2448	2448	0	0	0	0	0	0	1671	1671	1673	1673	1673	1673	1673	1671	1670	1669	1666	1663	1660	1655	1652	1650	1649	1648	1648	1646	1646	1648	1648	1648	1648	1648	1648	1648	1648	1648	1648	1648	0	0	0	0	0	0	0	0	0	0	0	0	0	2469	2466	2460	2457	2442	2433	2421	2415	2409	2406	2403	2400	2403	2409	2415	2421	2427	2439	2445	2454	2463	2469	2479	2485	2488	0	2494	2494	2494	2494	2498	2498	2494	2494	2491	2488	2485	2479	2476	2469	2463	2454	2448	2442	2436	2427	2421	2412	2406	2400	2395	2392	2386	2386	2389	2389	2389	2395	0	2403	2409	2418	2430	2436	2445	2451	2451	2454	2451	2454	2451	2451	2448	2448	2445	2442	2442	2436	2436	0	0	0	0	0	0	0	0	0	0	0	1308	1309	1311	1311	1312	1313	1312	1312	1310	1309	1307	1307	1305	1301	1299	1297	1294	1291	1289	1286	1282	1279	1275	1271	1262	1258	1253	1248	1244	1240	1237	1235	1232	1231	1229	1228	1227	1226	1226	1225	1224	1223	1222	1222	1221	1219	1219	1217	1216	1213	1212	1210	1208	1205	1203	1199	1198	1197	1195	1194	1194	1193	1192	1191	1190	1190	1189	1189	1189	1189	1189	1189	1189	1188	1188	1187	1187	1187	1187	1185	1183	1182	1180	1179	1179	1179	1176	1176	1177	1176	1177	1177	1176	1177	1177	1177	1177	1176	1175	1174	1174	1172	1172	1171	1171	1170	1170	1170	1170	1170	1169	1170	1170	1170	1170	1171	1172	1172	1172	1175	1175	1175	1176	1177	1179	1179	1180	1180	1181	1181	1182	1182	1182	1182	1182	1181	1181	1179	1179	1179	1177	1175	1173	1172	1171	1170	1169	1168	1167	1166	1166	1166	1166	1166	1166	1166	1166	1166	1166	1166	1166	1166	1166	1166	1167	1168	1168	1168	1168	1169	1169	1170	1170	1170	1171	1172	1172	1173	1173	1174	1174	1174	1174	0	0
