0	0	0	0	0	0	0	0	0	0	0	0	1750	1750	1748	1747	1741	1741	1736	1736	1734	1733	1733	1733	1731	1733	1733	1734	1736	1739	1742	1747	1750	1753	1758	1761	1764	1764	1764	1761	1759	1754	1751	1745	1739	1733	1725	1713	1709	1707	1706	1703	1702	1703	1705	1703	1703	1703	1705	1705	1706	1706	1707	1707	1709	1710	1710	1710	1712	1712	1712	1712	1712	1713	1713	1713	1715	1715	1713	1713	1713	1712	1713	1713	1712	1712	1713	1713	1713	1713	1713	1713	1712	1713	1716	1719	1724	1725	1728	0	1730	1733	1736	1738	1738	1739	1741	1741	1741	1741	1741	1739	1739	1738	1736	1736	1736	1736	1736	1734	1736	1736	1733	1731	1731	1728	1728	1727	1725	1721	1719	1719	1715	1713	1707	1705	1703	1703	1703	1702	1702	1702	1702	1700	1699	1699	1699	1697	1697	1697	1697	1697	1696	1697	1697	1699	1699	1700	1702	1702	1702	1703	1702	1702	1702	1700	1699	1697	1697	1697	1696	1697	1697	1697	1700	1700	1703	1705	1706	1707	1707	1706	1705	1700	1699	1697	1693	1691	1690	1689	1689	1689	1689	1690	1690	1691	1693	1693	1696	1699	1700	1703	1705	1706	1707	1709	1709	1707	1707	1707	1707	1707	1706	1706	1706	1707	1707	1707	1707	1707	1709	1709	1709	1710	1709	1709	1707	1707	1706	1706	1706	1706	1707	1707	1707	1707	1706	1706	1705	1703	1703	1703	1702	1703	1702	1703	1703	1702	1700	1699	1697	1697	1697	1697	1699	1699	1699	1699	1699	1699	1699	1699	1699	1700	0	1703	1702	1703	1703	1705	1703	1700	1696	1694	1693	1691	1691	1689	1690	1689	1690	1691	1694	1697	1699	1702	1702	1705	1706	1709	1712	1713	1716	1718	1719	1721	1722	1724	1724	1722	1722	1722	1722	1721	1721	1719	1719	1719	1719	1719	1719	1722	1722	1722	1722	1721	1722	1719	1719	1718	1716	1715	1712	1710	1709	1706	1705	1705	1703	1705	1705	1705	1706	1707	1707	1709	1710	1710	1712	1713	1715	1716	1718	1718	1719	1719	1718	1715	1715	1713	1710	1709	1706	1705	1705	1703	1703	1702	1702	1700	1699	1697	1696	1694	1693	1691	1690	1689	1687	1686	1686	1684	1683	1683	1683	1683	1683	1683	1683	1684	1684	1684	1684	1684	1684	1684	1684	1684	1686	1686	1686	1686	1686	1686	1687	1687	1689	1687	1687	1689	1689	1689	1690	1690	1691	1691	1693	1696	1697	1697	1699	1700	1702	1703	1703	1705	1705	1706	1709	1709	1709	1709	1709	1709	1706	1705	1702	1699	1697	1696	1691	1691	1690	1689	1687	1686	1684	1683	1683	1683	1681	1681	1683	1684	1684	1684	1686	1687	1687	1689	1690	1690	1691	1693	1694	1696	1697	1700	1702	1703	1705	1705	1705	1706	1705	1705	1703	1703	1702	1700	1697	1696	1696	1694	1694	1693	1691	1691	1689	1690	1689	1689	1684	1684	1684	1684	1686	1687	1687	1689	1690	1693	1696	1697	1699	1700	1702	1702	1700	1702	1700	1700	1697	1697	1696	1694	1694	1694	1693	1693	1693	1689	1689	1687	1686	1684	1681	1680	1678	1676	1671	1669	1666	1660	1660	1659	1656	1655	1655	1655	1653	1652	1653	1653	1655	1656	1657	1660	1663	1666	1669	1671	1677	1678	1683	1686	1687	1689	1691	1691	1693	1693	1694	1693	1693	1693	1693	1690	1691	1690	1690	1690	1691	1693	1694	1696	1697	1699	1700	1702	1702	1702	1702	1700	1700	1699	1696	1694	1693	1694	1693	1693	1694	1694	1694	1696	1697	1697	1696	1694	1694	1691	1690	1689	1689	1687	1689	1687	1687	1687	1686	1684	1683	1681	1681	1680	1678	1677	1677	1676	1674	1673	1674	1674	1674	1676	1676	1677	1678	1681	1683	1684	1687	1687	1689	1689	1687	1687	1686	1686	1686	1684	1684	1683	1684	1684	1686	1686	1686	1686	1686	1686	1686	1684	1684	1684	1681	1680	1677	1676	1674	1674	1673	1674	1674	1674	1676	1677	1678	1678	1680	1678	1680
0	0	0	0	0	0	0	0	0	0	0	0	1750	1748	1747	1747	1744	1739	1738	1736	1733	1733	1731	1731	1730	1731	1730	1731	1731	1734	1738	1741	1744	1747	1748	1753	1758	1758	1756	1756	1753	1748	1744	1738	1731	1725	1710	1705	1700	1700	1699	1699	1699	1699	1700	1702	1702	1702	1702	1703	1703	1705	1705	1706	1706	1707	1709	1709	1709	1709	1709	1709	1710	1710	1712	1712	1710	1710	1710	1710	1709	1709	1710	1709	1710	1709	1710	1710	1710	1712	1712	1712	1713	1715	1716	1719	1724	1725	1727	1728	1731	1733	1734	1736	1738	1739	1739	1741	1741	1741	1741	1738	1738	1736	1734	1733	1733	1733	1731	1731	1731	1731	1730	1728	1728	1725	1724	1722	1721	1715	1713	1712	1707	1707	1706	1703	1703	1703	1702	1702	1700	1700	1700	1700	1699	1699	1697	1696	1694	1694	1693	1694	1693	1693	1691	1693	1693	1694	1696	1696	1697	1699	1699	1700	1700	1699	1699	1699	1699	1699	1699	1700	1700	1699	1700	1702	1703	1703	0	1703	1703	1700	1699	1696	1694	1690	1687	1686	1684	1683	1683	1683	1683	1683	1684	1686	1687	1689	1691	1694	1697	1700	1702	1705	1706	1706	1707	1706	1707	1707	1707	1707	1707	1707	1707	1709	1709	1709	1710	1710	1710	1710	1712	1710	1710	1709	1709	1707	1706	1706	1706	1705	1706	1706	1705	1705	1703	1703	1702	1702	1700	1699	1699	1699	1699	1699	1697	1696	1694	1694	1693	1691	1691	1691	1691	1691	1691	1690	1691	1691	1691	1691	1691	1691	1693	1694	1694	1696	1697	1696	1697	1694	1693	1691	1690	1690	1687	1687	1687	1687	1689	1690	1691	1694	1696	1699	1700	1702	1705	1707	1709	1710	1712	1715	1716	1718	1719	1721	1721	1719	1719	1719	1719	1718	1718	1716	1716	1716	1716	1716	1716	1718	1718	1718	1719	1719	1718	1718	1716	1716	1715	1713	1710	1707	1706	1705	1703	1703	1703	1703	1705	1706	1707	1709	1710	1712	1712	1713	1715	1716	1718	1718	1721	1721	1721	1721	1719	1718	1716	1713	1712	1709	1706	1705	1703	1703	1702	1700	1700	1699	1696	1694	1693	1691	1690	1687	1686	1683	1683	1681	1680	1680	1678	1678	1677	1677	1677	1677	1678	1678	1678	1680	1680	1681	1681	1681	1681	1681	1681	1683	1683	1683	1681	1683	1684	1684	1686	1686	1686	1687	1687	1689	1689	1690	1689	1689	1690	1691	1690	1691	1693	1693	1693	1693	1696	1696	1699	1699	1702	1703	1703	1703	1703	1702	1703	1700	1697	1696	1694	1693	1691	1690	1690	1689	1687	1687	1686	1684	1684	1683	1683	1683	1684	1684	1684	1684	1686	1686	1687	1689	1689	1689	1691	1691	1693	1694	1697	1699	1700	1703	1703	1705	1706	1706	1705	1705	1703	1702	1702	1700	1697	1697	1696	1694	1693	1693	1691	1689	1687	1686	1686	1684	1683	1681	1683	1683	1686	1686	1687	1687	1690	1691	1693	1696	1696	1696	1697	1697	1699	1699	1697	1697	1696	1694	1693	1691	1690	1689	1689	1689	1687	1687	1686	1686	1683	1681	1680	1677	1674	1671	1667	1663	1659	1656	1655	1652	1652	1650	1649	1648	1648	1646	1648	1648	1649	1650	1653	1655	1657	1662	1664	1667	1671	1673	1677	1678	1681	1683	1684	1684	1686	1687	1687	1687	1687	1687	1687	1687	1687	1686	1686	1686	1687	1689	1690	1691	1694	1696	1697	1699	1699	1697	1697	1697	1696	1694	1693	1691	1690	1689	1689	1689	1689	1689	1690	1690	1691	1693	1693	1691	1690	1689	1687	1686	1686	1684	1684	1684	1683	1683	1681	1680	1678	1678	1677	1676	1674	1674	1673	1673	1671	1671	1671	1671	1671	1671	1673	1674	1676	1677	1680	1683	1684	1686	1687	1689	1687	1687	1686	1686	1686	1684	1684	1684	1683	1684	1684	1686	1686	1686	1686	1686	1686	1684	1684	1683	1681	1678	1677	1677	1674	1674	1673	1674	1673	1674	1676	1677	1677	1678	1678	1677	1677
0	0	0	0	0	0	0	0	0	0	0	0	0	0	0	1744	1741	1739	1736	1734	1733	1730	1730	1730	1728	1728	1727	1728	1728	1730	1731	1734	1734	1736	1739	1742	1745	1747	1745	1745	1744	1741	1733	1728	0	0	0	0	0	1690	1690	1690	1690	1694	1696	1697	1699	1699	1700	1700	1702	1703	1703	1703	1705	1705	1706	1706	1706	1707	1707	1707	1707	1707	1707	1707	1707	1706	1706	1706	1706	1706	1706	1706	1706	1707	1707	1709	1709	1710	1710	1710	1713	1713	1716	1719	1721	1722	1724	1725	1727	1728	1730	1733	1734	1736	1738	1739	1739	1739	1739	1738	1738	1734	1733	1731	1731	1730	1728	1728	1728	1727	1721	1719	1719	1718	1716	1715	1713	1712	1710	1709	1706	1705	1703	1703	1702	1702	1700	1700	1700	1700	1700	1699	1699	1699	1697	1696	1694	1694	1691	1691	1690	1689	1689	1687	1689	1689	1690	1691	1691	1694	1693	1696	1697	1696	1697	1696	1697	1697	1697	1699	1697	1697	0	1700	1700	1700	1700	1700	1699	1696	1694	1693	1689	1687	1683	1681	1680	1680	1678	1678	1678	1678	1680	1681	1683	1686	1689	1691	1694	1697	1699	1702	1703	1705	1706	1706	1706	1706	1706	1707	1707	1707	1709	1710	1710	1712	1712	1712	1712	1712	1713	1713	1712	1712	1709	1709	1706	1705	1703	1703	1703	1703	1702	1702	1702	1700	1699	1697	1697	1696	1696	1696	1694	1694	1693	1691	1690	1689	1687	1687	1684	1684	1686	1686	1684	1684	1683	1683	1683	1683	1684	1684	1686	1686	0	1689	1690	1690	1690	1690	1690	1690	1690	1689	1687	1687	1686	1687	1689	1687	1690	1693	1696	1697	1699	1700	1702	1705	1706	1709	1710	1712	1713	1716	1716	1718	1716	1716	1716	1716	1716	1715	1715	1713	1713	1713	1713	1713	1712	1713	1713	1713	1715	1713	1713	1715	1713	1712	1712	1710	1707	1706	1705	1703	1703	1703	1703	0	1705	1707	1709	0	1712	1713	1715	1716	0	1719	0	1721	0	1724	1722	1722	1721	1719	1718	1715	1712	1707	1706	1705	1702	1700	1700	1700	1697	1697	1696	1693	1691	1690	1687	1686	1684	1681	1680	1678	1677	1676	1676	1674	1673	1673	1673	1673	1673	1673	1674	1674	1676	1676	1677	1677	1677	1678	1678	1678	1678	1678	1678	1680	1681	1681	1683	1683	1683	1684	1686	1686	1686	1686	1686	1686	1686	1687	1686	1686	1686	1686	1686	1686	1687	1689	1690	1693	1693	1696	1696	1697	1697	1697	1697	1696	1694	1694	1693	1691	1691	1691	1690	1690	1689	1689	1687	1687	1686	1684	1684	1683	1683	1683	1683	1684	1684	1684	1686	1687	1687	1689	1689	1691	1693	1694	1697	1699	1700	1702	1703	1705	1705	1705	1703	1703	1703	1702	1700	1699	1697	1694	1694	1693	1691	1690	1689	1686	1684	1683	1681	1680	1680	1678	1680	1681	1683	1684	1686	1686	1687	1689	1690	1691	1693	1693	1694	1694	1694	1694	1690	1689	1689	1687	1687	1684	1684	1683	1684	1684	1683	1681	1681	1680	1680	1677	1674	1673	1670	1667	1664	1657	1655	1652	1650	1648	1648	1645	1645	1644	1644	1642	1644	1645	1645	1646	1650	1652	1655	1657	1660	1663	1664	1667	1670	1671	1674	1676	1678	1678	1680	1681	1683	1683	1683	1684	1684	1684	1683	1683	1683	1683	1684	1684	1687	1689	1690	1691	1693	1694	1694	1694	1694	1693	1691	1690	1690	1687	1686	1686	1686	1683	1683	1681	1683	1683	1684	1686	1684	1683	1683	1683	1681	1681	1680	1680	1680	1677	1677	1677	1676	1676	1674	1674	1673	1673	1671	1671	1670	1670	1669	1669	1669	1669	1670	1670	1670	1671	1674	1676	1678	1681	1683	1684	1686	1687	1687	1686	1686	1686	1686	1684	1683	1683	1683	1684	1684	1684	1684	1684	1686	1684	1684	1684	1683	1683	1681	1678	1677	1676	1676	1674	1674	1673	1673	1674	1674	1676	1677	1677	1677	1676	1674
0	0	0	0	0	0	0	0	0	0	0	0	0	0	0	1739	1736	1736	1734	1731	1730	1728	1727	1727	1725	1725	1724	1724	1725	1725	1725	1725	1727	1727	1728	1730	1733	1734	1734	1733	1731	1728	1722	0	0	1693	1686	1681	1678	1680	1680	1681	1681	1686	1689	1690	1691	1693	1694	1696	1699	1700	1700	1700	1702	1703	1705	1705	1705	1705	1705	1705	1705	1705	1705	1705	1705	1705	1703	1703	1705	1705	1705	1705	1705	1705	1706	1706	1707	1709	1709	1710	1712	1713	1715	1718	1719	1721	1721	1722	1722	1725	1727	1730	1730	1733	1734	1736	1736	1738	1738	1734	1734	1733	1731	1725	1724	1722	1721	1721	1719	1718	1716	1716	1715	1713	1712	1710	1710	1709	1709	1707	1705	1705	1703	1703	1702	1702	1700	1700	1700	1700	1700	1699	1700	1699	1697	1697	1696	1693	1691	1689	1687	1686	1684	1684	1686	1684	1686	1687	1689	1690	1691	1693	1694	1694	1694	1694	1694	1696	1696	1694	1694	1694	1696	1696	1696	1696	1696	1694	1693	1691	1691	1689	1687	1684	1681	1680	1677	1677	1676	1674	1676	1676	1677	1678	1680	1683	1686	1689	1691	1694	1697	1700	1703	1703	1705	1705	1705	1706	1707	1707	1709	1709	1710	1712	1713	1713	1713	1715	1715	1715	1715	1715	1713	1713	1712	1712	1709	1706	1703	1703	1702	1702	1702	1699	1699	1697	1696	1694	1693	1693	1691	1690	1691	1690	1687	1686	1684	1681	1681	1681	1680	1678	1680	1678	1678	1677	1677	1677	1678	1678	1680	1680	1681	1681	1683	1683	1684	1686	1686	1686	1687	1689	1687	1687	1686	1686	1686	1686	1686	1687	1687	1690	1693	1694	1696	1697	1700	1702	1703	1705	1706	1707	1709	1710	1713	1713	1712	1713	1712	1713	1712	1712	1712	1712	1712	1710	1710	1710	1709	1709	1709	1709	1709	1709	1709	1709	1709	1709	1707	1707	1705	1703	1702	1700	1700	0	1702	0	1705	1707	0	1712	1713	1715	1718	1719	1721	1721	1722	1724	1724	1724	1724	1722	1721	1718	1716	1713	1710	1706	1705	1703	1702	1700	1699	1697	1697	1696	1694	1693	1690	1689	1687	1684	1680	1678	1677	1676	1674	1673	1671	1670	1669	1669	1669	1667	1667	1670	1670	1670	1671	1673	1673	1674	1674	1674	1676	1676	1676	1676	1676	1676	1677	1678	1678	1680	1681	1681	1683	1684	1683	1683	1683	1681	1680	1680	1680	1680	1678	1678	1678	1678	1681	1681	1684	1686	1689	1689	1690	1691	1693	1693	1694	1693	1693	1693	1693	1691	1691	1691	1691	1691	1690	1690	1689	1687	1687	1686	1686	1684	1684	1683	1683	1684	1684	1686	1686	1686	1687	1687	1689	1690	1691	1694	1696	1697	1699	1700	1702	1703	1703	1703	1703	1702	1702	1700	1699	1697	1694	1693	1691	1691	1689	1689	1686	1683	1680	1678	1677	1677	1677	1676	1677	1677	1678	1681	1681	1683	1684	1686	1687	1687	1684	1686	1686	1686	1686	1686	1684	1684	1683	1681	1678	1678	1677	1677	1676	1676	1676	1676	1674	1674	1673	1673	1671	1669	1667	1664	1657	1655	1652	1650	1648	1646	1645	1642	1641	1641	1641	1641	1641	1642	1642	1645	1646	1649	1652	1653	1656	1659	1662	1663	1664	1667	1670	1671	1673	1673	1676	1677	1678	1680	1680	1681	1681	1680	1680	1680	1680	1678	1678	1680	1681	1683	1684	1687	1687	1690	1690	1689	1689	1689	1687	1686	1686	1683	1681	1681	1680	1678	1678	1677	1676	1676	1677	1677	1677	1677	1677	1676	1676	1676	1674	1674	1673	1673	1673	1671	1670	1670	1670	1669	1667	1667	1667	1666	1666	1667	1666	1666	1666	1666	1666	1667	1669	1669	1671	1674	1676	1678	1681	1683	1684	1684	1684	1686	1684	1684	1684	1684	1684	1683	1683	1683	1683	1683	1684	1684	1684	1684	1684	1683	1683	1681	1680	1678	1677	1676	1674	1674	1674	1674	1674	1674	1674	1676	1676	1676	1676	1674	1673
0	0	0	0	0	0	0	0	0	0	0	0	0	0	0	1736	1734	1733	1728	1728	1725	1724	1724	1722	1722	1721	1719	1721	1721	1722	1721	1721	1721	1722	1724	1725	1724	1725	1725	1724	1721	1718	1702	0	1687	1681	1674	1670	1667	1669	1670	1671	0	1676	1677	1681	1683	1686	1689	1691	1694	1697	1697	1699	1699	1700	1702	1700	1702	1702	1702	1702	1703	1703	1702	1703	1703	1703	1703	1702	1702	1702	1700	1700	1702	1703	1703	1703	1705	1705	1707	1707	1709	1710	1712	1715	1716	1716	1716	1719	1719	1721	1722	1724	1727	1728	1730	1733	1728	1730	1730	1728	1727	1725	1722	1719	1719	1718	1716	1716	1715	1713	1713	1712	1710	1709	1709	1709	1707	1706	1706	1705	1703	1703	1702	1700	1700	1700	1699	1699	1699	1699	1699	1700	1699	1697	1697	1696	1694	1691	1689	1687	1684	1683	1681	1681	1681	1681	1684	1684	1686	1687	1689	1691	1693	1694	1694	1694	1693	1694	1696	1693	1694	1694	1696	1696	1696	1694	1693	1693	1690	1689	1689	1687	1684	1681	1680	1678	1677	1676	1674	1673	1674	1674	1676	1676	1677	1680	1683	1687	1690	1693	1696	1699	1700	1702	1703	1703	1705	1706	1707	1707	1709	1710	1712	1713	1715	1716	1716	1716	1718	1718	1718	1718	1716	1715	1713	1710	1709	1705	1700	1700	1697	1697	1694	1694	1691	1690	1690	1689	1687	1687	1686	1686	1684	1684	1683	1681	1678	1678	1678	1677	1677	1677	1676	1676	1674	1674	1674	1674	1673	1674	1674	1676	1677	1678	1680	1681	1681	1683	1683	1684	1686	1687	1687	1686	1686	1686	1686	1686	1687	1686	1687	1689	1691	1693	1694	1696	1696	1699	1700	1700	1702	1703	1705	1706	1709	1709	1709	1709	1709	1709	1710	1710	1710	1710	1710	1710	1710	1709	1707	1707	1706	1705	1706	1705	1705	1705	1705	1706	1705	1703	1702	1702	1700	1699	1699	1700	1703	0	1705	1707	1710	1712	1715	1718	1719	1721	1722	1722	1722	1722	1722	1722	1721	1719	1718	1716	1715	1712	1709	1706	1703	1702	1700	1697	1697	1696	1696	1694	1693	1690	1689	1687	1686	1683	1678	1677	1676	1676	1673	1671	1670	1667	1666	1664	1664	1664	1663	1664	1666	1666	1667	1669	1670	1670	1671	1673	1673	1673	1673	1671	1671	1671	1674	1673	1674	1674	1674	1676	1678	1677	1677	1677	1676	1676	1674	1674	1673	1673	1673	1671	1673	1674	1677	1677	1678	1681	1683	1686	1687	1689	1690	1690	1690	1691	1691	1691	1691	1691	1691	1693	1691	1693	1691	1691	1691	1690	1689	1687	1686	1686	1684	1683	1683	1683	1684	1684	1684	1684	1686	1687	1689	1690	1691	1693	1694	1696	1696	1699	1700	1700	1700	1702	1702	1700	1699	1697	1697	1696	1693	1691	1689	1687	1684	1683	1678	1676	1674	1674	1674	1673	1673	1673	1673	1674	1676	1678	1677	1677	1677	1678	1678	1678	1680	1680	1680	1681	1681	1680	1678	1678	1677	1674	1671	1670	1670	1669	1667	1669	1669	1669	1669	1669	1669	1669	1667	1667	1664	1662	1656	1653	1650	1649	1646	1645	1644	1641	1641	1639	1639	1639	1639	1641	1642	1644	1645	1648	1649	1652	1655	1657	1659	1660	1663	1664	1666	1669	1670	1671	1674	1674	1677	1678	1678	1678	1678	1678	1678	1677	1677	1676	1676	1676	1677	1677	1678	1680	1680	1683	1683	1683	1683	1684	1683	1681	1680	1678	1678	1678	1677	1676	1674	1673	1673	1671	1673	1673	1673	1671	1671	1671	1670	1670	1669	1669	1669	1669	1669	1667	1666	1666	1666	1666	1664	1663	1663	1662	1663	1664	1663	1663	1663	1664	1664	1666	1666	1667	1669	1671	1674	1677	1678	1680	1681	1681	1683	1683	1684	1684	1683	1683	1681	1681	1683	1681	1681	1681	1683	1683	1683	1683	1683	1681	1681	1680	1678	1677	1677	1676	1674	1674	1673	1673	1673	1674	1674	1674	1674	1674	1671	1671	1670
0	0	0	0	0	0	0	0	0	0	0	0	0	0	0	1731	1730	1727	1727	1722	1721	1719	1719	1718	1718	1716	1716	1716	1716	1716	1716	1716	1718	1716	1718	1719	1719	1721	1719	1718	1713	1700	1691	1686	1677	1671	1664	1660	1659	1660	1662	1662	1664	1667	1671	1674	1677	1680	1684	1687	1691	1693	1696	1696	1697	1699	1699	1699	1699	1699	1700	1700	1699	1700	1700	1700	1700	1700	1700	1699	1697	1697	1699	1699	1699	1699	1700	1700	1702	1702	1703	1705	1706	1707	1709	1710	1712	1713	1713	1713	1715	1716	1713	1715	1716	1718	1721	1724	1724	1725	1725	1724	1722	1721	1718	1716	1715	1713	1713	1712	1712	1710	1709	1709	1707	1706	1705	1705	1705	1705	1703	1703	1702	1702	1702	1700	1700	1699	1699	1697	1699	1699	1699	1699	1699	1697	1696	1694	1693	1690	1687	1684	1681	1680	1678	1678	1678	1680	1680	1681	1683	1684	1687	1689	1691	1693	1693	1693	1694	1694	1696	1696	1694	1696	1696	1696	1696	1693	1693	1691	1690	1689	1689	1686	1684	1681	1681	1678	1678	1676	1674	1673	1674	1674	1674	1676	1677	1678	1683	1686	1687	1690	1693	1697	1699	1700	1703	1703	1705	1706	1707	1709	1710	1712	1713	1715	1716	1718	1718	1718	1719	1719	1719	1718	1716	1715	1713	1710	1705	1702	1697	1696	1694	1691	1690	1687	1686	1686	1684	1684	1684	1683	1681	1681	1680	1680	1678	1677	1677	1676	1676	1676	1674	1674	1674	1673	1673	1673	1671	1671	1673	1673	1674	1676	1676	1676	1678	1678	1680	1681	1681	1683	1684	1686	1686	1686	1686	1684	1683	1684	1684	1684	1686	1686	1689	1690	1690	1691	1691	1694	1694	1696	1697	1699	1700	1703	1703	1706	1706	1705	1706	1706	1707	1707	1709	1709	1709	1709	1709	1709	1707	1706	1705	1705	1702	1703	1702	1700	1700	1700	1700	1699	1699	1697	1696	1697	1699	1700	1703	0	1705	1707	1710	1713	1716	1718	1719	1719	1719	1718	1719	1718	1719	1718	1718	1716	1715	1713	1712	1709	1707	1705	1702	1700	1699	1697	1696	1694	1694	1693	1691	1689	1687	1687	1684	1681	1677	1676	1674	1673	1670	1669	1666	1664	1663	1662	1660	1660	1660	1662	1660	1663	1664	1664	1667	1669	1669	1670	1670	1670	1670	1669	1669	1667	1669	1669	1669	1670	1670	1670	1671	1671	1671	1671	1670	1669	1669	1669	1669	1667	1667	1667	1669	1670	1673	1674	1676	1678	1680	1683	1684	1686	1687	1689	1689	1690	1690	1690	1690	1691	1691	1693	1693	1693	1693	1693	1691	1691	1690	1689	1687	1686	1684	1683	1681	1683	1683	1683	1684	1684	1686	1687	1689	1690	1690	1693	1694	1694	1696	1697	1699	1699	1700	1700	1699	1697	1697	1696	1694	1693	1691	1689	1686	1683	1681	1678	1674	1673	1670	1670	1670	1670	1669	1666	1667	1669	1671	1670	1671	1671	1673	1673	1674	1674	1674	1674	1674	1674	1673	1673	1673	1671	1670	1667	1664	1664	1663	1662	1662	1662	1662	1662	1663	1663	1663	1664	1664	1663	1662	1657	1655	1652	1649	1648	1646	1645	1644	1641	1641	1641	1639	1639	1639	1641	1642	1644	1645	1646	1648	1650	1653	1655	1656	1659	1659	1662	1664	1666	1669	1670	1671	1674	1676	1677	1678	1677	1677	1677	1677	1676	1674	1674	1674	1674	1676	1674	1676	1676	1678	1678	1680	1678	1678	1680	1678	1678	1678	1677	1676	1674	1673	1673	1671	1670	1669	1669	1669	1669	1669	1667	1667	1667	1666	1666	1664	1663	1664	1664	1664	1664	1663	1663	1662	1662	1662	1660	1659	1657	1657	1659	1659	1659	1659	1659	1660	1662	1664	1666	1667	1669	1671	1674	1676	1677	1678	1680	1681	1681	1681	1681	1681	1681	1680	1680	1680	1680	1680	1680	1680	1681	1681	1681	1681	1680	1680	1678	1678	1678	1677	1676	1674	1673	1673	1673	1673	1673	1673	1673	1673	1671	1670	1670	1669
0	0	0	0	0	0	0	0	0	0	0	0	0	0	0	1727	1724	1722	1721	1719	1718	1715	1712	1712	1712	1710	1710	1710	1710	1712	1712	1712	1713	1713	1713	1713	1713	1713	1710	1709	1697	1690	1681	1676	1667	1660	1655	1652	1649	1652	1653	1656	1657	1662	1664	1669	1671	1674	1678	1681	1686	1689	1691	1693	1694	1696	1697	1697	1697	1697	1697	1697	1697	1699	1697	1697	1697	1697	1697	1697	1697	1696	1696	1696	1696	1697	1697	1697	1699	1700	1700	1703	1703	1705	1706	1703	1705	1705	1706	1706	1706	1707	1709	1710	1713	1715	1716	1719	1721	1721	1721	1719	1718	1716	1715	1713	1712	1710	1710	1709	1709	1709	1707	1706	1706	1705	1703	1702	1702	1702	1702	1700	1700	1700	1700	1699	1699	1699	1699	1699	1697	1697	1697	1699	1697	1697	1696	1694	1691	1689	1686	1683	1680	1678	1677	1677	1676	1677	1678	1680	1681	1683	1686	1689	1690	1691	1693	1693	1694	1696	1697	1697	1696	1696	1696	1697	1696	1694	1693	1691	1690	1689	1689	1687	1684	1683	1681	1680	1678	1678	1676	1676	1674	1674	1676	1677	1678	1680	1681	1684	1687	1690	1693	1696	1699	1700	1703	1703	1706	1706	1707	1709	1712	1713	1715	1716	1718	1719	1721	1721	1719	1719	1718	1718	1716	1713	1712	1709	1703	1699	1696	1693	1690	1687	1686	1684	1683	1681	1681	1681	1680	1680	1678	1678	1677	1676	1676	1676	1674	1673	1674	1674	1673	1673	1671	1671	1673	1670	1670	1670	1671	1671	1673	1674	1676	1676	1677	1678	1680	1681	1681	1683	1684	1684	1684	1684	1684	1683	1683	1681	1681	1681	1681	1681	1684	1686	1686	1687	1689	1689	1690	1691	1693	1694	1696	1697	1700	1700	1702	1702	1703	1703	1706	1706	1706	1706	1707	1707	1707	1707	1706	1703	1703	1702	1700	1700	1699	1697	1697	1697	1696	1696	1694	1693	1693	1694	1696	1697	1702	1703	0	1706	1710	1713	1715	1718	1718	1718	1716	1715	1713	1713	1713	1713	1712	1710	1710	1709	1709	1706	1705	1702	1700	1697	1696	1694	1694	1693	1691	1690	1690	1687	1686	1684	1683	1678	1677	1674	1671	1670	1669	1666	1664	1662	1659	1657	1657	1656	1656	1656	1656	1657	1660	1662	1663	1664	1666	1666	1666	1667	1666	1664	1663	1663	1664	1664	1664	1664	1664	1664	1664	1664	1666	1666	1664	1664	1663	1662	1663	1663	1663	1664	1666	1669	1670	0	1673	1676	1678	1680	1683	1684	1686	1687	1687	1689	1689	1689	1690	1691	1691	1693	1693	1693	1693	1693	1693	1691	1691	1690	1687	1686	1684	1681	1681	1681	1681	1680	1681	1683	1683	1683	1684	1686	1687	1689	1690	1691	1693	1694	1694	1697	1696	1696	1696	1694	1694	1693	1691	1690	1689	1686	1683	1680	1674	1671	1671	1666	1664	1664	1664	1664	1664	1664	1666	1666	1669	1669	1669	1669	1670	1669	1669	1669	1669	1669	1669	1667	1667	1666	1666	1664	1663	1660	1659	1657	1656	1655	1653	1655	1655	1656	1657	1656	1657	1659	1660	1660	1660	1655	1653	1652	1649	1648	1646	1645	1644	1644	1641	1641	1641	1641	1641	1642	1644	1645	1646	1648	1649	1650	1652	1655	1655	1656	1657	1660	1662	1664	1666	1667	1670	1671	1674	1676	1677	1676	1676	1676	1674	1674	1673	1673	1671	1671	1671	1673	1673	1674	1674	1676	1676	1676	1676	1676	1676	1676	1674	1673	1673	1671	1670	1669	1669	1667	1666	1666	1667	1664	1664	1664	1663	1663	1662	1660	1660	1660	1659	1660	1660	1659	1659	1659	1657	1657	1657	1657	1656	1653	1653	1653	1655	1655	1653	1655	1656	1657	1660	1663	1664	1667	1669	1670	1673	1674	1676	1677	1677	1678	1678	1678	1678	1678	1677	1677	1677	1677	1677	1677	1677	1678	1678	1678	1678	1678	1678	1678	1677	1676	1676	1674	1673	1673	1673	1673	1673	1673	1671	1671	1671	1670	1669	1669	1667
0	0	0	0	0	0	0	0	0	0	0	0	0	0	0	1724	1722	1721	1718	1716	1713	1712	1710	1709	1707	1707	1707	1707	1707	1707	1709	1709	1709	1710	1710	1709	1707	1706	1700	1694	1689	1680	1674	1669	1663	1657	1652	1649	1649	1649	1650	1653	1655	1656	1659	1663	1666	1669	1673	1677	1681	1686	1689	1690	1691	1693	1696	1694	1694	1694	1694	1696	1694	1696	1694	1694	1693	1693	1694	1694	1693	1693	1693	1694	1696	1694	1696	1696	1696	1694	1696	1697	1699	1699	1700	1702	1702	1703	1703	1703	1703	1705	1706	1707	1709	1710	1713	1715	1716	1718	1718	1716	1713	1713	1712	1712	1710	1709	1709	1707	1707	1706	1706	1705	1703	1702	1702	1700	1700	1699	1699	1699	1700	1699	1699	1699	1699	1699	1697	1697	1697	1697	1699	1697	1699	1697	1696	1694	1691	1687	1684	1681	1678	1677	1674	1676	1674	1676	1677	1678	1680	1683	1686	1689	1690	1690	1691	1693	1694	1696	1697	1697	1696	1696	1697	1697	1694	1694	1693	1691	1691	1690	1689	1687	1686	1684	1683	1681	1681	1678	1677	1677	1677	1676	1677	1677	1678	1680	1683	1686	1687	1690	1693	1697	1700	1702	1705	1705	1706	1707	1709	1710	1712	1713	1716	1718	1719	1721	1721	1721	1721	1719	1718	1718	1716	1713	1710	1709	1702	1697	1694	1690	1689	1686	1683	1680	1678	1678	1678	1678	1677	1676	1674	1674	1676	1674	1673	1673	1671	1673	1671	1671	1671	1671	1670	1669	1670	1669	1669	1670	1670	1671	1673	1673	1676	1676	1678	1678	1680	1681	1681	1683	1683	1684	1683	1683	1683	1680	1680	1680	1678	1678	1677	1677	1680	1680	1683	1683	1684	1686	1686	1689	1690	1691	1693	1694	1696	1699	1699	1699	1700	1702	1703	1705	1705	1706	1706	1707	1706	1706	1705	1703	1702	1700	1700	1697	1696	1696	1694	1693	1691	1689	1687	1687	1687	1689	1691	1694	1697	1702	1705	1707	0	1710	1713	1716	1713	1712	1709	1709	1707	1706	1707	1705	1705	1705	1705	1705	1702	1700	1700	1697	1696	1696	1693	1693	1691	1690	1690	1689	1687	1686	1684	1683	1680	1677	1676	1673	1670	1670	1667	1664	1662	1659	1657	1655	1653	1653	1653	1653	1653	1653	1656	1659	1659	1662	1663	1663	1663	1663	1662	1660	1660	1659	1660	1659	1660	1659	1659	1659	1660	1662	1662	1662	1659	1659	1659	1660	1659	1660	1660	1663	1664	1667	1669	1671	1674	0	1677	1678	1681	1683	1684	1686	1686	1686	1687	1687	1689	1689	1690	1691	1693	1693	1694	1694	1693	1693	1691	1690	1687	1686	1684	1680	1680	1680	1680	1678	1678	1678	1678	1678	1680	1680	1683	1684	1686	1687	1687	1690	1690	1693	1693	1693	1693	1693	1691	1691	1690	1687	1686	1684	1678	1671	1669	1666	1664	1663	1662	1662	1662	1662	1663	1663	1663	1664	1666	1667	1667	1667	1667	1666	1666	1664	1664	1663	1663	1663	1662	1660	1660	1659	1657	1655	1653	1652	1650	1649	1648	1648	1649	1649	1650	1652	1653	1655	1656	1657	1656	1655	1652	1652	1650	1648	1646	1645	1644	1642	1642	1642	1641	1641	1642	1642	1644	1645	1646	1648	1648	1650	1652	1652	1655	1655	1656	1657	1660	1662	1663	1664	1666	1667	1670	1673	1674	1673	1674	1673	1673	1671	1671	1671	1670	1670	1670	1670	1670	1671	1671	1671	1673	1673	1673	1673	1673	1673	1673	1671	1669	1669	1669	1667	1666	1666	1664	1664	1663	1663	1662	1662	1662	1660	1659	1659	1656	1656	1655	1655	1655	1655	1653	1653	1653	1653	1653	1653	1652	1650	1649	1650	1650	1650	1650	1652	1652	1653	1656	1659	1662	1664	1666	1669	1670	1671	1673	1674	1674	1674	1674	1676	1676	1674	1674	1674	1674	1674	1674	1674	1676	1676	1676	1676	1676	1676	1676	1676	1676	1676	1674	1673	1673	1673	1671	1671	1671	1671	1671	1671	1670	1669	1667	1667	1666
0	0	0	0	0	0	0	0	0	0	0	0	0	0	0	0	1718	1718	1715	1713	1710	1709	1705	1705	1703	1703	1702	1702	1703	1702	1702	1703	1702	1702	1700	0	0	0	1689	1686	1678	1674	1670	1666	1660	1656	1653	1650	1649	1649	1649	1652	1652	1655	1657	1659	1662	1664	1669	1673	1677	1680	1684	1687	1689	1690	1691	1691	1691	1691	1691	1691	1693	1693	1690	1691	1690	1690	1690	1689	1689	1689	1686	1687	1689	1689	1689	1690	1690	1693	1693	1694	1696	1696	1697	1699	1700	1700	1700	1702	1702	1702	1703	1705	1707	1709	1710	1712	1713	1715	1715	1713	1712	1712	1710	1710	1709	1709	1707	1707	1707	1706	1705	1703	1702	1700	1699	1699	1699	1699	1697	1697	1699	1699	1699	1697	1697	1697	1697	1697	1699	1699	1697	1699	1697	1697	1696	1693	1691	1687	1684	1681	1678	1676	1674	1676	1676	1677	1677	1678	1680	1681	1684	1686	1687	1689	1690	1691	1693	1694	1696	1696	1694	1694	1694	1696	1694	1693	1691	1690	1690	1690	1689	1689	1686	1684	1683	1683	1681	1680	1678	1677	1677	1678	1678	1680	1680	1681	1683	1686	1689	1690	1694	1697	1700	1703	1705	1706	1709	1710	1710	1713	1715	1716	1718	1719	1721	1721	1722	1721	1721	1719	1718	1716	1713	1712	1709	1702	1699	1694	1691	1689	1686	1683	1680	1678	1677	1677	1676	1676	1674	1673	1671	1673	1673	1671	1670	1670	1670	1670	1670	1670	1669	1669	1667	1669	1667	1669	1667	1667	1669	1669	1670	1671	1671	1673	1676	1676	1678	1678	1680	1681	1681	1683	1681	1681	1680	1677	1677	1677	1676	1674	1674	1674	1677	1677	1678	1680	1680	1681	1683	1684	1686	1687	1689	1691	1693	1696	1696	1696	1697	1700	1702	1703	1703	1705	1706	1706	1706	1706	1703	1702	1700	1699	1697	1696	1694	1693	1690	1686	1684	1683	1681	1681	1681	1683	1684	1687	1693	1694	1699	1703	1706	1709	0	1712	1710	1707	1706	1703	1702	1700	1700	1699	1699	1697	1696	1697	1696	1696	1694	1693	1693	1691	1690	1690	1689	1689	1687	1686	1684	1683	1681	1681	1677	1676	1673	1671	1669	1667	1664	1662	1660	1657	1655	1653	1650	1650	1649	1650	1650	1652	1653	1655	1657	1659	1660	1660	1660	1660	1660	1659	1656	1656	1656	1656	1656	1655	1655	1656	1657	1657	1657	1657	1657	1657	1657	1657	1657	1659	1659	1662	1664	1667	1669	1671	1673	0	1677	1678	1680	1681	1683	1683	1684	1684	1686	1686	1686	1687	1689	1689	1691	1691	1693	1693	1691	1693	1691	1689	1686	1684	1681	1678	1677	1677	1676	1674	1674	1676	1676	1674	1676	1676	1677	1680	1683	1683	1684	1687	1689	1690	1691	1691	1690	1690	1686	1684	1683	1681	1680	1677	1676	1669	1666	1664	1662	1660	1660	1659	1659	1659	1660	1660	1662	1662	1663	1663	1664	1664	1664	1662	1662	1660	1660	1659	1657	1657	1657	1656	1656	1653	1652	1650	1648	1646	1646	1645	1644	1644	1645	1646	1648	1649	1650	1652	1653	1653	1653	1652	1650	1650	1649	1648	1646	1645	1645	1644	1644	1642	1642	1642	1642	1644	1644	1645	1646	1648	1648	1649	1650	1650	1652	1653	1653	1655	1656	1657	1659	1660	1662	1664	1666	1669	1670	1670	1670	1670	1670	1670	1669	1669	1669	1667	1667	1667	1669	1669	1669	1670	1670	1670	1670	1670	1670	1670	1669	1667	1666	1667	1667	1666	1666	1664	1663	1663	1662	1660	1659	1659	1659	1657	1656	1655	1653	1653	1652	1652	1650	1650	1649	1648	1648	1649	1650	1649	1649	1648	1648	1648	1646	1646	1648	1648	1649	1652	1655	1656	1659	1662	1663	1664	1667	1667	1669	1670	1671	1671	1671	1671	1671	1671	1671	1671	1671	1671	1671	1671	1671	1673	1673	1673	1673	1673	1673	1673	1674	1674	1673	1673	1671	1671	1671	1671	1671	1670	1670	1669	1669	1669	1667	1666	1664
0	0	0	0	0	0	0	0	0	0	0	0	0	0	0	0	0	1713	1712	1710	1707	1705	1702	1700	1697	1696	1694	1694	1691	1691	1689	1689	1689	0	0	0	0	0	1678	1674	1671	1669	1666	1662	1659	1656	1653	1650	1649	1650	1649	1650	1652	1653	1655	1656	1659	1662	1664	1669	1673	1676	1680	1683	1684	1686	1689	1689	1690	1690	1689	1690	1689	1689	1687	1683	1683	1681	1681	1680	1678	1678	1681	1681	1684	1686	1686	1686	1687	1689	1691	1693	1694	1694	1697	1697	1697	1699	1700	1699	1700	1700	1702	1703	1706	1707	1707	1709	1712	1712	1712	1710	1709	1710	1709	1710	1709	1709	1709	1707	1707	1706	1706	1703	1702	1700	1699	1697	1697	1697	1697	1696	1697	1697	1697	1697	1697	1697	1697	1697	1699	1697	1697	1697	1697	1697	1694	1693	1691	1689	1684	1681	1678	1677	1676	1676	1676	1677	1677	1677	1680	1680	1683	1684	1686	1689	1689	1689	1690	1690	1691	1690	1690	1690	1691	1691	1691	1690	1690	1689	1689	1689	1689	1687	1684	1683	1683	1681	1681	1678	1678	1677	1678	1678	1678	1680	1681	1681	1684	1686	1689	1690	1694	1697	1700	1703	1706	1707	1709	1710	1713	1715	1716	1718	1719	1721	1721	1722	1721	1721	1721	1718	1716	1713	1713	1710	1707	1700	1696	1691	1687	1684	1683	1680	1677	1676	1673	1673	1673	1673	1671	1670	1670	1670	1669	1669	1667	1667	1667	1667	1667	1667	1666	1666	1666	1666	1666	1666	1664	1664	1666	1667	1669	1670	1669	1670	1673	1673	1676	1677	1677	1678	1680	1681	1680	1678	1678	1676	1674	1674	1674	1673	1671	1673	1673	1674	1674	1677	1677	1677	1678	1680	1681	1683	1684	1687	1689	1690	1693	1694	1694	1697	1700	1702	1703	1703	1705	1705	1705	1705	1703	1702	1700	1699	1696	1694	1691	1690	1684	1681	1678	1676	1676	1673	1674	1674	1676	1678	1683	1687	1691	1696	1700	1705	1706	1709	1707	1705	1702	1699	1699	1696	1696	1694	1693	1693	1691	1691	1691	1690	1690	1689	1687	1687	1687	1687	1686	1684	1683	1683	1681	1680	1678	1678	1676	1674	1671	1670	1667	1666	1663	1660	1657	1655	1652	1650	1649	1648	1648	1648	1649	1649	1650	1653	1655	1656	1657	1657	1659	1659	1657	1656	1655	1653	1653	1653	1653	1653	1652	1652	1652	1653	1653	1653	1653	1653	1655	1655	1656	1657	1659	1662	1663	1666	1669	1670	1673	1674	0	1677	1678	1680	1680	1681	1681	1681	1681	1683	1683	1683	1684	1686	1689	1690	1691	1691	1691	1690	1690	1689	1686	1683	1680	1677	1674	1673	1673	1671	1671	1671	1673	1673	1673	1674	1676	1676	1678	1680	1683	1684	1683	1684	1684	1684	1684	1683	1683	1681	1680	1678	1676	1674	1670	1664	1663	1663	1660	1659	1657	1659	1659	1659	1659	1659	1659	1660	1660	1662	1662	1660	1660	1659	1657	1656	1656	1655	1655	1653	1653	1652	1652	1650	1649	1648	1645	1644	1641	1641	1641	1641	1642	1642	1644	1645	1648	1649	1650	1650	1650	1649	1649	1648	1648	1646	1646	1645	1644	1644	1644	1644	1644	1644	1644	1644	1645	1645	1646	1648	1648	1648	1649	1649	1650	1650	1650	1652	1653	1653	1655	1656	1657	1660	1663	1663	1666	1666	1667	1667	1667	1669	1667	1667	1666	1664	1666	1666	1664	1666	1666	1666	1667	1667	1667	1667	1667	1666	1666	1667	1666	1666	1666	1666	1664	1663	1662	1660	1660	1659	1657	1656	1656	1656	1655	1653	1650	1650	1648	1648	1648	1646	1645	1645	1645	1645	1646	1646	1648	1645	1645	1645	1646	1646	1646	1646	1648	1649	1652	1653	1656	1657	1660	1662	1663	1664	1666	1667	1667	1669	1669	1669	1669	1669	1669	1667	1669	1669	1667	1667	1669	1669	1670	1670	1670	1669	1669	1670	1670	1671	1670	1670	1669	1669	1670	1669	1669	1667	1667	1667	1667	1667	1666	1666	1664
0	0	0	0	0	0	0	0	0	0	0	0	0	0	0	0	0	0	0	0	1705	1702	1696	1693	1689	1686	1686	1681	1678	1677	1676	1674	0	0	0	0	1669	1667	1667	1666	1663	1662	1660	1657	1655	1653	1650	1650	1650	1650	1650	1650	1652	0	1655	1656	1657	1660	0	1664	1667	1671	1676	1677	1680	1681	1683	1684	1686	1681	1681	1681	1681	1683	1680	1678	1678	1677	1677	1677	1676	1676	1677	1678	1680	1681	1683	1684	1684	1687	1689	1690	1693	1693	1696	1696	1697	1699	1699	1699	1699	1699	1700	1703	1703	1705	1706	1707	1709	1709	1709	1709	1707	1707	1709	1709	1709	1709	1709	1709	1707	1707	1706	1705	1702	1700	1699	1696	1696	1696	1696	1696	1697	1697	1697	1697	1697	1697	1697	1697	1697	1697	1697	1696	1696	1696	1694	1693	1690	1687	1684	1681	1680	1677	1676	1677	1676	1677	1677	1678	1678	1680	1683	1684	1686	1687	1687	1687	1689	1689	1689	1689	1689	1687	1689	1689	1689	1689	1687	1687	1687	1687	1686	1684	1681	1680	1680	1677	1677	1676	1674	1674	1676	1678	1680	1680	1681	1681	1684	1686	1689	1691	1694	1699	1702	1705	1707	1709	1710	1713	1715	1716	1718	1718	1721	1721	1722	1721	1721	1719	1719	1718	1715	1713	1710	1707	1700	1697	1693	1689	1684	1681	1678	1677	1674	1673	1670	1670	1670	1669	1667	1667	1666	1666	1666	1666	1666	1666	1664	1666	1664	1664	1664	1664	1664	1664	1664	1664	1664	1664	1664	1667	1667	1667	1667	1669	1670	1671	1673	1674	1676	1678	1678	1678	1678	1677	1676	1674	1673	1673	1671	1671	1670	1671	1673	1673	1674	1674	1674	1674	1676	1676	1677	1678	1680	1683	1684	1686	1690	1691	1693	1694	1696	1697	1700	1702	1703	1703	1705	1705	1702	1702	1700	1697	1694	1691	1687	1683	1680	1676	1670	1669	1664	1664	1663	1663	1664	1667	1673	1678	1684	1691	1696	1700	1703	1706	1705	1703	1700	1697	1694	1694	1691	1691	1689	1687	1686	1686	1686	1686	1684	1684	1683	1683	1683	1683	1681	1680	1681	1678	1678	1677	1677	1674	1674	1671	1670	1667	1664	1663	1662	1657	1656	1653	1650	1648	1648	1646	1645	1646	1646	1648	1649	1650	1653	1655	1656	1657	1657	1656	1656	1655	1653	1653	1652	1650	1652	1650	1650	1650	1650	1650	1650	1650	1650	1652	1653	1653	1655	1656	1659	1660	1663	1666	1667	1670	1671	1674	1676	1676	1677	1677	1677	1677	1678	1678	1677	1678	1678	1680	1681	1683	1686	1687	1689	1690	1690	1689	1689	1687	1684	1681	1677	1674	1671	1670	1669	1667	1667	1669	1669	1670	1670	1671	1670	1673	1673	1674	1677	1678	1680	1681	1681	1680	1680	1678	1678	1677	1676	1674	1673	1670	1666	1664	1662	1660	1659	1657	1657	1657	1657	1657	1657	1659	1659	1659	1660	1660	1659	1659	1657	1656	1655	1653	1653	1653	1652	1650	1650	1649	1649	1649	1646	1645	1644	1642	1641	1639	1639	1639	1639	1639	1641	1642	1644	1646	1648	1648	1648	1648	1648	1648	1648	1646	1646	1646	1645	1644	1645	1644	1644	1644	1644	1644	1644	1645	1645	1646	1646	1646	1646	1648	1648	1648	1648	1648	1648	1649	1650	1650	1652	1655	1656	1659	1660	1662	1663	1663	1664	1666	1664	1664	1664	1663	1664	1663	1663	1663	1663	1664	1664	1664	1664	1664	1664	1664	1664	1664	1663	1663	1663	1663	1663	1662	1660	1659	1659	1657	1656	1655	1655	1653	1653	1652	1649	1646	1646	1645	1644	1644	1642	1644	1644	1642	1644	1644	1645	1644	1642	1644	1644	1644	1644	1644	1645	1646	1648	1650	1652	1653	1656	1659	1660	1662	1663	1663	1664	1664	1664	1664	1666	1664	1664	1664	1664	1666	1664	1664	1664	1666	1666	1666	1666	1666	1666	1666	1667	1666	1667	1666	1666	1666	1666	1666	1666	1666	1666	1664	1664	1664	1664	1663	1663
0	0	0	0	0	0	0	0	0	0	0	0	0	0	0	0	0	0	0	0	0	0	1689	1683	1678	1676	1671	1670	1667	1664	1662	1660	0	0	0	0	0	0	1656	1656	1655	1656	1655	1653	1652	1650	1650	1652	1650	1652	1652	1652	1652	1653	1655	1656	1656	1659	1662	0	1664	1667	1671	1670	1671	1674	1676	1677	1677	1678	1678	1678	1678	1678	1676	1676	1676	1673	1673	1673	1673	1671	1673	1676	1677	1677	1678	1681	1683	1686	1687	1689	1690	1691	1694	1696	1696	1697	1697	1697	1697	1697	1699	1700	1702	1703	1703	1705	1706	1706	1706	1706	1706	1707	1707	1709	1710	1710	1710	1709	1709	1707	1707	1705	1702	1699	1697	1696	1696	1696	1696	1696	1697	1697	1699	1699	1699	1699	1699	1697	1697	1697	1697	1696	1696	1694	1693	1691	1690	1687	1684	1683	1680	1678	1677	1677	1678	1678	1678	1678	1680	1681	1683	1684	1686	1687	1687	1689	1689	1690	1690	1689	1689	1689	1687	1687	1687	1687	1687	1686	1684	1683	1683	1680	1677	1674	1673	1671	1670	1671	1670	1671	1673	1676	1677	1678	1681	1683	1686	1687	1689	1691	1696	1699	1702	1705	1709	1712	1713	1713	1715	1716	1718	1719	1721	1721	1721	1721	1719	1718	1716	1715	1713	1710	1709	1706	1699	1696	1691	1687	1684	1680	1677	1673	1671	1670	1667	1666	1667	1664	1664	1664	1663	1663	1664	1664	1664	1663	1663	1663	1663	1663	1663	1662	1663	1663	1663	1663	1663	1663	1663	1663	1664	1664	1666	1666	1667	1670	1670	1673	1674	1676	1676	1677	1677	1676	1674	1673	1671	1670	1670	1671	1670	1670	1670	1670	1671	1671	1671	1671	1671	1674	1674	1676	1677	1677	1681	1683	1684	1686	1687	1689	1691	1693	1696	1697	1699	1699	1700	1700	1699	1699	1697	1694	1691	1683	1681	1677	1674	1667	1664	1660	1656	1656	1655	1652	1653	1656	1660	1666	1673	1680	1684	1693	1697	1702	1703	1700	1696	1694	1691	1690	1687	1686	1684	1683	1681	1680	1680	1680	1678	1680	1680	1678	1678	1678	1678	1677	1676	1676	1674	1673	1673	1673	1671	1670	1669	1666	1664	1662	1659	1656	1653	1652	1650	1649	1646	1645	1645	1646	1646	1648	1649	1652	1652	1655	1656	1656	1656	1656	1656	1655	1652	1652	1652	1650	1649	1648	1648	1646	1646	1646	1648	1648	1648	1649	1650	1652	1653	1656	1657	1660	1663	1664	1667	1669	1670	1673	1673	1674	1674	1674	1673	1674	1674	1674	1673	1674	1674	1676	1677	1678	1681	1683	1686	1686	1687	1686	1686	1684	1681	1678	1674	1671	1669	1667	1666	1664	1663	1663	1663	1664	1664	1666	1669	1670	1671	1673	1674	1674	1677	1677	1677	1676	1676	1674	1674	1673	1673	1671	1667	1666	1663	1662	1660	1659	1657	1657	1656	1657	1657	1657	1657	1657	1659	1659	1659	1659	1659	1657	1655	1655	1653	1652	1650	1650	1650	1649	1649	1648	1649	1648	1646	1645	1644	1642	1642	1641	1639	1639	1639	1639	1639	1641	1641	1644	1645	1645	1645	1646	1646	1646	1646	1646	1646	1646	1645	1645	1645	1645	1644	1644	1644	1644	1644	1644	1645	1645	1645	1645	1645	1645	1645	1644	1644	1644	1644	1644	1645	1646	1646	1648	1650	1655	1655	1657	1659	1660	1660	1662	1663	1663	1662	1662	1662	1662	1662	1660	1662	1662	1663	1662	1662	1662	1662	1663	1662	1662	1662	1662	1662	1662	1660	1660	1659	1659	1659	1657	1656	1655	1653	1653	1652	1650	1649	1646	1645	1644	1642	1642	1642	1641	1641	1642	1644	1644	1644	1644	1642	1642	1642	1642	1642	1644	1644	1645	1646	1649	1650	1652	1653	1655	1656	1659	1660	1660	1662	1663	1662	1662	1663	1662	1662	1662	1662	1663	1662	1662	1662	1663	1663	1663	1663	1663	1663	1663	1663	1663	1662	1662	1662	1663	1662	1662	1662	1663	1663	1663	1663	1662	1662	1662	1660
0	0	0	0	0	0	0	0	0	0	0	0	0	0	0	0	0	0	0	0	0	0	0	1669	1666	1663	1660	1659	1656	1653	1649	1646	1645	1644	1642	1639	1641	1642	1645	1648	1649	1650	1650	1650	1650	1650	1650	1652	1652	1653	1653	1652	1653	1653	1655	1655	1656	1656	1657	1660	1663	1666	1667	1670	0	1673	1674	1676	1676	1676	1676	1676	1676	1674	1674	1674	1673	1671	1671	1670	1669	1670	1671	1671	1674	1674	1677	1678	1680	1683	1684	1687	1689	1691	1693	1694	1694	1696	1696	1696	1696	1697	1699	1700	1700	1703	1703	1705	1705	1706	1706	1706	1706	1706	1709	1710	1712	1712	1712	1710	1709	1709	1707	1705	1702	1699	1696	1696	1694	1694	1694	1696	1696	1697	1699	1699	1699	1699	1699	1697	1697	1697	1696	1696	1694	1693	1693	1690	1689	1686	1684	1683	1681	1680	1678	1680	1680	1680	1680	1681	1681	1683	1684	1686	1687	1687	1687	1689	1690	1690	1690	1689	1689	1689	1687	1687	1687	1686	1686	1684	1683	1681	1678	1677	1673	1670	1666	1666	1664	1666	1664	1666	1667	1671	1673	1676	1678	1681	1683	1687	1690	1693	1696	1699	1703	1706	1710	1712	1715	1716	1718	1718	1719	1719	1721	1721	1719	1719	1718	1716	1715	1713	1712	1709	1706	1700	1697	1693	1689	1684	1681	1676	1674	1670	1669	1666	1664	1662	1663	1662	1660	1660	1660	1662	1662	1662	1663	1662	1662	1662	1662	1662	1662	1660	1662	1662	1662	1662	1662	1662	1662	1662	1662	1663	1663	1663	1664	1667	1669	1671	1671	1671	1673	1674	1674	1673	1671	1670	1670	1670	1669	1669	1669	1669	1669	1669	1669	1670	1669	1670	1670	1670	1671	1671	1674	1674	1676	1677	1678	1681	1683	1684	1687	1690	1691	1693	1694	1696	1696	1696	1696	1694	1693	1690	1686	1678	1674	1671	1669	1663	1657	1655	1652	1648	1648	1644	1644	1645	1650	1655	1662	0	1676	1681	1690	1696	1697	1697	1693	1691	1689	1686	1686	1683	1681	1680	1677	1677	1676	1676	1674	1674	1676	1676	1674	1674	1674	1673	1671	1671	1671	1671	1670	1670	1670	1667	1667	1666	1663	1662	1659	1655	1653	1650	1649	1648	1648	1646	1645	1646	1646	1648	1649	1650	1652	1655	1656	1656	1656	1655	1655	1652	1652	1652	1649	1648	1648	1646	1645	1645	1644	1644	1644	1644	1646	1648	1649	1650	1652	1655	1656	1659	1662	1664	1666	1667	1669	1670	1671	1671	1671	1670	1670	1670	1670	1670	1670	1670	1671	1671	1673	1674	1677	1680	1681	1683	1683	1683	1683	1681	1678	1676	1669	1664	1662	1662	1660	1660	1660	1662	1662	1663	1664	1664	1666	1667	1667	1669	1670	1671	1673	1673	1673	1673	1671	1671	1670	1670	1669	1666	1664	1663	1663	1660	1660	1659	1657	1656	1657	1657	1657	1657	1657	1657	1659	1659	1659	1659	1657	1656	1655	1653	1652	1650	1650	1649	1649	1649	1649	1649	1649	1648	1646	1646	1645	1644	1644	1641	1641	1641	1641	1639	1641	1641	1641	1642	1642	1644	1644	1645	1645	1645	1645	1646	1646	1645	1645	1645	1645	1645	1644	1644	1642	1642	1642	1644	1644	1644	1645	1644	1645	1644	1642	1642	1641	1641	1641	1641	1641	1641	1642	1644	1646	1648	1652	1652	1655	1656	1657	1659	1660	1660	1659	1659	1660	1659	1659	1659	1659	1659	1659	1659	1659	1659	1659	1659	1659	1659	1659	1659	1659	1659	1659	1659	1659	1659	1657	1656	1656	1655	1653	1653	1653	1650	1648	1646	1645	1644	1642	1641	1639	1641	1641	1641	1642	1644	1644	1644	1642	1642	1642	1641	1642	1642	1642	1644	1646	1648	1649	1650	1652	1653	1653	1655	1657	1657	1659	1660	1659	1659	1660	1660	1659	1660	1660	1659	1659	1659	1660	1660	1660	1659	1659	1659	1657	1657	1657	1656	1657	1657	1657	1657	1657	1659	1659	1660	1662	1660	1660	1662	1660	1660	1660
0	0	0	0	0	0	0	0	0	0	0	0	0	0	0	0	0	0	0	0	0	0	0	0	0	1652	1649	1649	1646	1644	1639	1637	1635	1634	1634	1633	1634	1637	1641	1644	1646	1648	1649	1649	1649	1649	1650	1652	1652	1653	1653	1655	1653	1655	1656	1656	1657	1657	1657	1660	1662	1664	1666	1667	1669	1671	1671	1673	1674	1673	1674	1674	1674	1673	1673	1671	1671	1670	1669	1667	1667	1669	1669	1670	1673	1673	1676	1677	1678	1683	1684	1686	1689	1690	1693	1694	1694	1694	1694	1694	1694	1696	1696	1697	1699	1700	1702	1703	1703	1705	1705	1705	1705	1706	1707	1710	1710	1712	1710	1710	1709	1707	1706	1703	1700	1694	1694	1694	1693	1694	1694	1694	1696	1697	1697	1699	1699	1699	1699	1697	1697	1697	1694	1694	1694	1693	1693	1690	1690	1689	1686	1686	1684	1683	1683	1683	1683	1683	1683	1683	1683	1683	1684	1686	1687	1687	1689	1689	1689	1690	1689	1689	1687	1687	1686	1686	1686	1684	1684	1681	1680	1677	1674	1670	1669	1663	1660	1660	1659	1659	1659	1660	1663	1666	1669	1671	1674	1678	1681	1686	1689	1693	1696	1700	1705	1707	1710	1713	1716	1718	1718	1719	1719	1719	1719	1719	1718	1718	1715	1713	1713	1710	1707	1706	1699	1694	1690	1687	1683	1678	1674	1671	1667	1664	1663	1662	1660	1657	1659	1659	1657	1657	1659	1659	1660	1660	1660	1660	1659	1659	1659	1660	1659	1660	1660	1660	1660	1660	1662	1662	1662	1660	1662	1662	1662	1663	1664	1666	1666	1669	1669	1670	1671	1671	1671	1671	1669	1669	1667	1667	1666	1666	1664	1666	1666	1666	1666	1667	1667	1667	1667	1667	1669	1669	1670	1670	1671	1673	1674	1676	1678	1680	1681	1684	1686	1689	1690	1690	1691	1690	1691	1689	1689	1680	1678	1673	1667	1664	1662	1655	1649	1646	1644	1642	1639	1637	1637	1637	1639	1642	1648	0	1659	1667	1676	1684	1689	1689	1689	1689	1686	1684	1681	1680	1678	1676	1674	1674	1673	1673	1673	1671	1671	1673	1671	1671	1670	1670	1669	1669	1669	1669	1669	1669	1667	1667	1666	1664	1663	1660	1657	1655	1652	1650	1649	1648	1646	1646	1646	1646	1648	1648	1649	1652	1653	1655	1655	1656	1656	1655	1653	1653	1652	1650	1649	1648	1645	1644	1644	1642	1642	1642	1642	1641	1644	1645	1646	1648	1650	1652	1655	1657	1660	1662	1663	1664	1667	1667	1669	1667	1667	1667	1667	1666	1666	1666	1666	1666	1666	1667	1669	1671	1673	1676	1676	1678	1674	1676	1674	1674	1673	1670	1666	1662	1660	1659	1657	1659	1659	1659	1660	1662	1662	1663	1663	1664	1666	1666	1667	1669	1669	1670	1670	1669	1669	1667	1667	1666	1664	1663	1662	1662	1660	1660	1659	1657	1657	1657	1657	1657	1657	1657	1657	1659	1659	1659	1660	1659	1657	1656	1655	1653	1650	1649	1649	1649	1648	1648	1648	1649	1648	1649	1648	1648	1646	1645	1644	1644	1642	1641	1639	1639	1639	1638	1638	1639	1639	1639	1641	1642	1642	1644	1644	1644	1644	1644	1644	1644	1644	1642	1642	1642	1642	1642	1642	1642	1642	1642	1642	1642	1642	1642	1641	1639	1639	1638	1638	1638	1637	1638	1638	1639	1642	1644	1646	1649	1650	1653	1655	1656	1657	1657	1657	1657	1657	1657	1656	1656	1655	1655	1655	1655	1653	1653	1652	1653	1652	1652	1652	1653	1655	1655	1656	1657	1657	1657	1657	1656	1655	1655	1653	1653	1652	1650	1648	1646	1644	1642	1641	1641	1639	1639	1639	1639	1641	1642	1644	1642	1641	1641	1641	1641	1641	1642	1642	1644	1645	1646	1648	1649	1650	1650	1652	1653	1655	1656	1656	1657	1657	1657	1657	1657	1659	1659	1657	1657	1657	1657	1657	1657	1657	1657	1655	1655	1655	1653	1652	1649	1650	1652	1653	1653	1653	1655	1656	1657	1659	1659	1659	1659	1659	1659	1657
0	0	0	0	0	0	0	0	0	0	0	0	0	0	0	0	0	0	0	0	0	0	0	0	1645	1644	1642	1641	1639	1637	1634	1633	1633	1633	1631	1633	1634	1637	1641	1644	1645	1646	1648	1649	1649	1649	1650	1652	1652	1656	1656	1657	1657	1659	1659	1659	1659	1659	1659	1660	1662	1663	1664	1667	1667	1670	1670	1671	1671	1671	1671	1671	1673	1671	1671	1670	1670	1669	1669	1667	1666	1666	1667	1669	1670	1671	1673	1676	1677	1680	1683	1684	1686	1689	1691	1693	1693	1693	1693	1691	1691	1691	1691	1691	1694	1694	1697	1697	1699	1699	1700	1702	1702	1705	1706	1707	1710	1710	1710	1709	1707	1706	1703	1700	1694	1693	1693	1690	1691	1691	1690	1691	1694	1694	1697	1697	1697	1699	1697	1697	1697	1694	1694	1694	1693	1693	1693	1691	1691	1690	1689	1687	1687	1686	1686	1686	1686	1686	1686	1686	1686	1684	1686	1687	1687	1687	1687	1687	1689	1689	1687	1687	1686	1686	1683	1683	1683	1681	1680	1677	1674	1673	1669	1664	1662	1657	1656	1655	1653	1653	1655	1656	1657	1662	1663	1666	1670	1673	1678	1684	1689	1691	1694	1700	1705	1707	1710	1713	1715	1716	1716	1716	1716	1716	1716	1716	1715	1713	1712	1710	1709	1706	1702	1694	1690	1687	1681	1678	1674	1670	1667	1664	1662	1659	1659	1657	1656	1656	1655	1655	1655	1655	1656	1656	1657	1659	1657	1659	1659	1657	1657	1659	1659	1659	1659	1659	1660	1660	1660	1662	1662	1662	1663	1662	1663	1663	1663	1664	1666	1666	1667	1667	1669	1669	1669	1669	1666	1666	1664	1664	1664	1664	1664	1663	1664	1664	1664	1666	1666	1666	1664	1664	1666	1666	1666	1666	1666	1667	1669	1671	1673	1676	1677	1678	1681	1684	1684	1684	1686	1686	1683	1681	1676	1671	1669	1664	1659	1656	1650	1646	1642	1639	1637	1635	1634	1633	1631	1631	1634	1637	1641	0	0	1656	1662	1669	1673	1674	1676	1676	1676	1674	1673	1671	1670	1669	1667	1667	1667	1667	1666	1667	1667	1667	1669	1669	1667	1667	1666	1666	1666	1667	1667	1667	1667	1667	1667	1666	1663	1662	1659	1656	1653	1652	1650	1648	1648	1646	1646	1648	1649	1649	1650	1652	1653	1655	1656	1655	1655	1655	1653	1652	1652	1650	1649	1648	1645	1642	1642	1641	1641	1639	1639	1639	1641	1642	1645	1646	1648	1650	1653	1656	1659	1660	1662	1662	1663	1664	1664	1664	1664	1663	1663	1663	1662	1662	1662	1662	1663	1663	1662	1663	1664	1667	1669	1670	1671	1671	1671	1671	1670	1666	1663	1660	1659	1656	1656	1656	1657	1657	1659	1660	1662	1662	1663	1663	1663	1664	1666	1666	1666	1666	1667	1666	1666	1664	1663	1663	1662	1660	1659	1659	1657	1657	1656	1657	1656	1656	1656	1659	1659	1659	1660	1660	1660	1662	1660	1660	1659	1657	1656	1653	1650	1650	1649	1649	1648	1649	1649	1649	1649	1649	1648	1648	1646	1646	1645	1645	1642	1639	1638	1638	1637	1635	1635	1635	1637	1637	1638	1638	1639	1641	1642	1642	1642	1642	1642	1641	1641	1641	1641	1639	1639	1639	1639	1639	1639	1639	1641	1639	1639	1639	1639	1638	1637	1635	1635	1635	1635	1635	1635	1637	1639	1641	1644	1646	1648	1649	1652	1653	1655	1655	1655	1655	1655	1655	1653	1653	1652	1650	1650	1649	1649	1645	1645	1645	1644	1644	1644	1645	1646	1648	1649	1650	1652	1652	1653	1655	1655	1653	1652	1652	1652	1649	1646	1646	1644	1641	1639	1639	1638	1638	1639	1638	1638	1639	1641	1641	1641	1641	1642	1642	1642	1642	1644	1644	1645	1646	1646	1648	1649	1649	1650	1652	1652	1653	1653	1655	1655	1655	1656	1656	1656	1656	1656	1655	1656	1655	1655	1655	1655	1653	1652	1649	1649	1649	1646	1646	1646	1646	1648	1649	1650	1652	1653	1653	1656	1656	1657	1657	1657	1656	1657
0	0	0	0	0	0	0	0	0	0	0	0	0	0	0	0	0	0	0	0	0	0	0	0	1639	1639	1638	1637	1635	1633	1633	1633	1631	1630	1631	1633	1634	1638	1641	1644	1645	1648	1650	1652	1652	1652	1653	1655	1655	1657	1659	1659	1659	1660	1660	1662	1662	1660	1660	1663	1663	1664	1666	1666	1667	1669	1670	1670	1670	1671	1671	1673	1673	1671	1671	1670	1670	1669	1667	1667	1666	1666	1666	1667	1667	1669	1670	1673	1674	1676	1678	1680	1681	1684	1686	1686	1687	1686	1687	1686	1686	1686	1687	1686	1689	1689	1690	1690	1693	1693	1694	1696	1697	1700	1703	1705	1707	1707	1707	1706	1705	1703	1700	1697	1693	1690	1689	1689	1689	1689	1690	1690	1691	1693	1694	1696	1696	1697	1697	1696	1694	1694	1693	1693	1691	1691	1691	1690	1691	1690	1690	1689	1689	1689	1687	1687	1687	1687	1687	1687	1687	1686	1686	1686	1686	1686	1686	1686	1687	1687	1686	1684	1683	1681	1681	1678	1678	1676	1674	1673	1669	1666	1663	1659	1657	1653	1652	1650	1650	1650	1650	1652	1655	1656	1659	1663	1666	1670	1676	1681	1684	1689	1693	1697	1700	1705	1706	1710	1712	1712	1713	1713	1713	1713	1712	1710	1709	1707	1706	1703	1702	1693	1690	1684	1681	1676	1673	1670	1666	1663	1660	1657	1656	1655	1653	1653	1652	1650	1650	1650	1650	1650	1652	1653	1656	1656	1656	1656	1657	1657	1657	1657	1657	1657	1657	1659	1659	1660	1660	1660	1660	1662	1662	1662	1663	1662	1663	1664	1664	1664	1664	1664	1664	1666	1666	1664	1663	1662	1662	1663	1663	1663	1662	1662	1663	1663	1663	1663	1664	1663	1662	1663	1662	1663	1662	1663	1664	1664	1664	1667	1670	1671	1674	1677	1680	1680	1681	1681	1681	1680	1676	1673	1670	1664	1662	1656	1652	1649	1644	1639	1637	1634	1633	1631	1630	1629	1629	1629	1631	1633	1635	1638	0	0	0	0	1662	1663	1666	1666	1666	1666	1666	1664	1663	1662	1662	1660	1660	1660	1662	1662	1662	1663	1663	1663	1663	1663	1663	1663	1664	1666	1666	1666	1667	1667	1667	1666	1664	1662	1659	1657	1655	1653	1652	1650	1649	1648	1649	1650	1650	1650	1652	1653	1655	1655	1656	1655	1655	1653	1653	1652	1650	1649	1648	1646	1644	1642	1641	1639	1638	1638	1638	1638	1638	1641	1642	1645	1646	1649	1650	1655	1656	1657	1659	1660	1660	1662	1662	1660	1660	1660	1660	1659	1653	1655	1653	1655	1655	1655	1656	1657	1660	1663	1664	1666	1666	1667	1667	1667	1666	1663	1660	1659	1657	1655	1655	1656	1656	1657	1659	1660	1660	1660	1662	1662	1662	1663	1663	1664	1664	1664	1663	1663	1663	1662	1660	1659	1657	1656	1656	1655	1655	1653	1653	1653	1655	1655	1656	1657	1660	1660	1662	1662	1662	1662	1662	1660	1657	1656	1655	1653	1652	1650	1649	1649	1649	1648	1648	1649	1649	1649	1648	1648	1646	1646	1645	1644	1641	1638	1635	1635	1634	1634	1633	1631	1633	1634	1635	1637	1637	1637	1638	1638	1639	1639	1638	1638	1638	1638	1638	1638	1637	1637	1637	1638	1638	1638	1638	1637	1637	1637	1637	1635	1634	1634	1633	1633	1633	1633	1633	1634	1635	1639	1642	1644	1646	1648	1650	1650	1652	1653	1653	1652	1652	1652	1650	1649	1649	1646	1646	1642	1641	1639	1638	1637	1635	1634	1635	1635	1638	1639	1641	1642	1645	1648	1649	1650	1650	1650	1650	1650	1650	1649	1648	1646	1644	1641	1639	1639	1638	1637	1638	1638	1638	1638	1641	1641	1641	1642	1642	1642	1642	1644	1645	1645	1646	1646	1646	1646	1648	1648	1649	1649	1650	1650	1652	1652	1653	1653	1653	1655	1655	1653	1653	1652	1653	1652	1652	1652	1652	1648	1646	1646	1645	1644	1642	1641	1641	1642	1644	1645	1648	1648	1649	1652	1653	1653	1655	1655	1655	1655	1655
0	0	0	0	0	0	0	0	0	0	0	0	0	0	0	0	0	0	0	0	0	1637	1635	1635	1635	1635	1634	1634	1630	1631	1631	1631	1631	1633	1633	1635	1638	1641	1644	1648	1650	1653	1655	1655	1656	1655	1656	1657	1659	1659	1662	1662	1662	1663	1664	1664	1664	1664	1663	1663	1664	1666	1667	1666	1667	1669	1670	1670	1670	1671	1671	1671	1671	1671	1671	1670	1670	1667	1667	1666	1666	1666	1664	1667	1667	1667	1669	1669	1671	1671	1673	1676	1677	1677	1678	1678	1678	1680	1680	1680	1678	1678	1680	1680	1681	1681	1683	1683	1686	1687	1689	1690	1693	1696	1699	1700	1703	1703	1703	1703	1702	1699	1697	1691	1690	1687	1686	1686	1684	1686	1686	1687	1689	1691	1693	1694	1696	1696	1696	1694	1693	1691	1691	1690	1690	1690	1690	1690	1690	1690	1689	1689	1689	1689	1687	1687	1687	1687	1686	1686	1684	1684	1684	1684	1684	1684	1684	1684	1683	1683	1681	1681	1680	1678	1677	1674	1674	1671	1669	1666	1664	1662	1657	1655	1652	1649	1648	1646	1646	1646	1649	1650	0	1652	1655	1659	1662	1666	1673	1677	1680	1684	1689	1693	1696	1700	1702	1705	1706	1707	1709	1709	1707	1706	1705	1700	1699	1697	1694	1690	1686	1683	1678	1676	1671	1669	1664	1662	1657	1656	1653	1652	1650	1649	1649	1648	1648	1646	1648	1648	1648	1649	1650	1652	1653	1655	1655	1655	1656	1656	1656	1656	1656	1657	1657	1659	1659	1660	1660	1660	1662	1662	1662	1662	1662	1662	1662	1663	1663	1663	1663	1662	1662	1663	1662	1660	1660	1659	1659	1659	1660	1660	1660	1660	1660	1662	1662	1662	1662	1662	1660	1659	1660	1660	1660	1659	1660	1662	1663	1664	1667	1670	1671	1674	1676	1677	1677	1677	1677	1673	1670	1667	1663	1659	1655	1649	1645	1642	1638	1634	1633	1630	1629	1627	1627	1627	1626	1627	1629	1631	1633	1635	1638	1641	0	0	0	0	0	1656	1657	1659	1657	1657	1656	1655	1655	1655	1655	1655	1656	1656	1657	1659	1660	1660	1660	1660	1660	1662	1662	1663	1664	1664	1664	1666	1666	1666	1664	1662	1660	1657	1656	1655	1653	1652	1652	1650	1650	1650	1652	1652	1653	1655	1655	1655	1655	1655	1655	1655	1652	1652	1649	1649	1648	1645	1642	1641	1639	1638	1637	1635	1635	1635	1637	1639	1641	1642	1644	1646	1649	1650	1653	1655	1656	1656	1656	1657	1652	1652	1650	1650	1649	1649	1649	1649	1649	1650	1652	1652	1653	1655	1656	1659	1660	1662	1662	1662	1663	1663	1662	1662	1657	1656	1656	1655	1655	1656	1656	1657	1659	1659	1660	1660	1660	1660	1660	1660	1662	1662	1662	1662	1662	1662	1660	1659	1659	1657	1655	1655	1652	1650	1652	1652	1650	1650	1653	1653	1656	1657	1660	1659	1660	1660	1662	1662	1660	1660	1657	1656	1655	1653	1652	1649	1650	1649	1649	1649	1649	1649	1649	1649	1648	1648	1646	1646	1644	1639	1638	1635	1634	1633	1631	1630	1630	1630	1631	1631	1633	1633	1634	1635	1635	1637	1637	1635	1634	1634	1634	1634	1634	1634	1634	1634	1635	1637	1637	1637	1637	1635	1637	1637	1635	1635	1634	1633	1633	1631	1631	1630	1630	1631	1634	1637	1639	1642	1644	1646	1649	1649	1650	1650	1650	1650	1649	1649	1648	1646	1645	1641	1639	1637	1635	1634	1633	1630	1629	1627	1627	1629	1629	1631	1634	1635	1638	1641	1644	1645	1648	1648	1649	1649	1649	1648	1646	1645	1644	1641	1639	1639	1638	1637	1638	1637	1637	1637	1639	1639	1641	1641	1642	1642	1642	1644	1645	1645	1646	1645	1645	1646	1646	1646	1646	1648	1649	1649	1649	1649	1650	1649	1650	1650	1650	1650	1650	1649	1649	1649	1649	1649	1646	1644	1644	1642	1641	1641	1638	1638	1638	1639	1641	1642	1644	1645	1646	1649	1649	1650	1650	1652	1652	1652	1650
0	0	0	0	0	0	0	0	0	0	0	0	0	0	0	0	0	0	0	0	0	1634	1633	1634	1634	1633	1631	1633	1633	1634	1633	1634	1635	1635	1637	1639	1642	1644	1648	1650	1653	1656	1659	1659	1660	1659	1660	1660	1662	1663	1663	1663	1664	1666	1667	1667	1667	1667	1667	1667	1669	1669	1669	1670	1670	1670	1670	1671	1671	1671	1671	1671	1671	1671	1671	1671	1670	1667	1667	1666	1664	1664	1666	1664	1666	1666	1667	1667	1669	1669	1669	1670	1670	1671	1671	1671	1673	1674	1673	1673	1673	1674	1673	1674	1674	1676	1674	1676	1678	1678	1681	1686	1687	1690	1693	1696	1697	1699	1699	1699	1697	1696	1691	1689	1686	1684	1683	1681	1681	1683	1684	1684	1686	1687	1690	1691	1691	1693	1691	1691	1690	1689	1687	1687	1689	1687	1689	1689	1689	1687	1687	1687	1687	1687	1686	1686	1686	1684	1683	1683	1683	1681	1681	1680	1680	1680	1680	1680	1680	1678	1678	1677	1676	1674	1673	1670	1669	1667	1664	1660	1659	1655	1652	1649	1648	1646	1644	1642	1644	1644	1645	1646	1648	1650	0	1655	1657	1663	1669	1671	1676	1680	1684	1687	1690	1693	1696	1697	1697	1697	1697	1697	1696	1694	1690	1689	1684	1683	1680	1680	1676	1671	1669	1666	1662	1657	1655	1653	1649	1648	1648	1646	1646	1645	1644	1644	1644	1642	1644	1644	1644	1646	1648	1648	1649	1652	1652	1653	1653	1655	1655	1656	1657	1659	1659	1660	1660	1662	1662	1663	1663	1663	1663	1663	1664	1663	1662	1662	1662	1662	1660	1660	1659	1659	1659	1657	1657	1656	1656	1656	1657	1656	1657	1657	1657	1657	1656	1657	1657	1656	1656	1656	1656	1656	1656	1656	1657	1659	1660	1663	1666	1667	1669	1671	1674	1674	1676	1674	1671	1667	1664	1662	1657	1653	1649	1645	1641	1637	1633	1630	1627	1625	1625	1625	1626	1626	1626	1627	1629	1630	1631	1634	1634	1637	1638	1641	0	0	0	0	1648	1649	1649	1648	1648	1648	1648	1648	1648	1649	1650	1652	1652	1655	1656	1656	1656	1657	1657	1659	1660	1662	1663	1663	1664	1664	1664	1664	1664	1663	1660	1659	1657	1657	1656	1656	1653	1653	1653	1653	1653	1653	1655	1655	1655	1655	1655	1655	1653	1653	1652	1650	1649	1648	1646	1644	1641	1638	1637	1635	1634	1633	1633	1633	1634	1635	1638	1639	1641	1644	1645	1648	1645	1646	1646	1646	1646	1646	1646	1646	1645	1645	1645	1645	1645	1645	1646	1646	1648	1648	1649	1650	1652	1655	1656	1657	1659	1657	1659	1659	1659	1659	1656	1655	1655	1653	1655	1655	1656	1656	1657	1659	1660	1660	1660	1660	1660	1660	1660	1660	1660	1660	1660	1660	1657	1657	1656	1653	1652	1650	1649	1648	1648	1648	1649	1649	1650	1652	1656	1659	1659	1660	1660	1660	1660	1660	1660	1657	1656	1655	1653	1652	1652	1650	1649	1649	1649	1648	1649	1649	1648	1648	1648	1646	1646	1644	1642	1638	1637	1634	1631	1630	1629	1627	1627	1627	1627	1627	1629	1630	1631	1631	1633	1633	1633	1633	1631	1630	1630	1630	1631	1631	1633	1633	1634	1635	1635	1635	1635	1635	1637	1635	1635	1634	1633	1631	1630	1630	1630	1629	1629	1630	1633	1635	1638	1641	1644	1645	1648	1649	1649	1649	1649	1648	1646	1646	1645	1644	1642	1638	1635	1634	1630	1629	1627	1625	1623	1623	1623	1623	1623	1626	1627	1630	1633	1635	1638	1641	1644	1645	1646	1646	1645	1646	1646	1644	1642	1641	1639	1638	1638	1637	1637	1637	1635	1635	1638	1638	1638	1639	1641	1641	1642	1642	1644	1644	1644	1645	1645	1645	1644	1644	1644	1644	1644	1644	1645	1645	1645	1646	1646	1646	1646	1646	1648	1646	1646	1645	1645	1645	1644	1641	1641	1639	1638	1637	1635	1634	1635	1635	1638	1639	1639	1642	1644	1645	1646	1646	1648	1648	1648	1648	1648
0	0	0	0	0	0	0	0	0	0	0	0	0	0	0	0	0	0	0	0	0	1641	1639	0	0	1639	1638	1637	1635	1637	1635	1638	1638	1638	1639	1642	1645	1648	1650	1655	1657	1660	1662	1663	1663	1663	1664	1664	1664	1666	1667	1667	1667	1669	1669	1671	1671	1671	1671	1673	1673	1674	1674	1674	1673	1673	1671	1671	1671	1671	1671	1671	1671	1671	1671	1671	1669	1667	1667	1666	1666	1666	1664	1664	1664	1664	1666	1664	1666	1666	1664	1666	1666	1666	1664	1666	1666	1667	1667	1667	1669	1667	1667	1669	1669	1669	1670	1671	1671	1674	1676	1680	1681	1686	1689	1690	1693	1693	1693	1693	1691	1689	1686	1684	1681	1680	1678	1678	1678	1680	1680	1680	1681	1683	1686	1687	1687	1689	1689	1687	1687	1686	1684	1684	1684	1684	1684	1684	1686	1684	1684	1684	1683	1683	1681	1681	1681	1680	1678	1678	1676	1676	1674	1674	1674	1673	1674	1674	1673	1673	1673	1671	1670	1667	1666	1663	1662	1660	1657	1656	1652	1649	1648	1645	1644	1642	1641	1641	1641	1641	1642	1645	1645	1648	1650	1655	0	1660	1664	1669	1673	1676	1680	1683	1686	1689	1689	1690	1691	1690	1690	1689	1686	1681	1678	1678	1677	1676	1674	1671	1669	1664	1663	1659	1655	1652	1649	1646	1644	1642	1642	1642	1641	1639	1638	1638	1639	1639	1639	1639	1641	1642	1644	1645	1646	1648	1649	1650	1652	1653	1655	1656	1657	1659	1660	1662	1663	1664	1664	1666	1666	1666	1666	1666	1666	1664	1663	1663	1662	1662	1660	1659	1656	1656	1655	1655	1655	1653	1653	1653	1655	1653	1653	1653	1653	1653	1652	1653	1653	1650	1652	1652	1652	1652	1653	0	1655	1657	0	1662	1663	1666	1667	1670	1671	1671	1671	1670	1667	1664	1660	1657	1653	1648	1645	1641	1637	1633	1630	1627	1626	1623	1625	1625	1625	1626	1626	1627	1629	1631	1631	0	1633	1634	1634	1637	1637	1638	1639	1639	1639	1639	1641	1641	1639	1641	1641	1639	1642	1642	1645	1648	1649	1650	1652	1655	1655	1656	1657	1659	1660	1660	1662	1663	1663	1664	1666	1666	1664	1664	1663	1662	1660	1659	1659	1657	1657	1656	1655	1656	1655	1655	1655	1655	1655	1653	1653	1653	1652	1650	1650	1649	1648	1646	1642	1641	1638	1637	1634	1633	1631	1630	1630	1630	1631	1633	1635	1634	1635	1637	1638	1641	1641	1642	1642	1642	1641	1642	1642	1641	1641	1641	1641	1641	1641	1642	1642	1644	1644	1645	1646	1648	1648	1650	1653	1653	1655	1656	1656	1657	1656	1655	1655	1653	1653	1653	1653	1653	1655	1656	1657	1657	1659	1659	1659	1659	1659	1659	1659	1659	1659	1659	1657	1657	1656	1655	1653	1650	1649	1646	1645	1642	1644	1644	1644	1646	1648	1650	1653	1656	1657	1659	1659	1659	1657	1657	1657	1656	1655	1653	1652	1650	1649	1649	1648	1648	1646	1646	1646	1646	1646	1645	1645	1644	1642	1638	1637	1634	1633	1630	1629	1626	1625	1625	1623	1623	1625	1626	1626	1627	1629	1629	1629	1629	1629	1629	1629	1629	1629	1629	1629	1630	1631	1631	1634	1634	1634	1634	1634	1634	1634	1634	1633	1633	1631	1630	1630	1629	1629	1627	1629	1630	1633	1635	1637	1639	1642	1645	1646	1648	1648	1648	1646	1646	1645	1644	1642	1638	1637	1634	1631	1629	1627	1625	1625	1621	1619	1618	1618	1619	1621	1622	1623	1626	1627	1630	1634	1635	1639	1642	1644	1644	1645	1645	1644	1642	1642	1641	1638	1638	1637	1635	1635	1635	1634	1634	1635	1637	1637	1638	1639	1639	1641	1642	1642	1644	1644	1644	1644	1642	1642	1642	1639	1639	1639	1639	1639	1641	1641	1641	1641	1642	1642	1642	1644	1642	1642	1642	1642	1642	1641	1638	1638	1635	1635	1634	1633	1631	1631	1633	1634	1635	1637	1638	1638	1641	1642	1642	1644	1644	1645	1644	1644
0	0	0	0	0	0	0	0	0	0	0	0	0	0	0	0	0	0	0	0	1642	1644	0	0	0	0	0	1639	1638	1639	1638	1641	1641	1642	1644	1646	1649	1652	1655	1657	1662	1664	1667	1669	1669	1669	1669	1669	1669	1669	1669	1670	1670	1671	1673	1674	1676	1676	1676	1678	1678	1678	1677	1677	1677	1676	1674	1673	1671	1671	1671	1670	1671	1670	1670	1670	1669	1669	1667	1667	1666	1664	1664	1664	1664	1664	1664	1663	1663	1663	1663	1662	1662	1660	1662	1660	1662	1662	1663	1663	1663	1663	1664	1663	1664	1664	0	1666	0	1671	1673	1674	1678	1680	1683	1686	1687	1687	1687	1687	1684	1683	1680	1678	1677	1676	1674	1673	1673	1674	1674	1674	1676	1677	1680	1680	1681	1683	1683	1681	1681	1681	1681	1681	1681	1680	1680	1681	1681	1680	1680	1680	1678	1677	1677	1677	1676	1674	1673	1671	1670	1669	1669	1667	1667	1667	1667	1667	1666	1667	1666	1664	1664	1662	1660	1659	1656	1653	1653	1650	1648	1646	1644	1642	1642	1641	1641	1639	1641	1641	1642	1644	1645	1646	1649	1652	1656	0	1662	1666	1670	1673	1677	1680	1683	1684	1684	1684	1684	1683	1678	1678	1677	1674	1673	1670	1669	1669	1667	1666	1662	1659	1657	1652	1649	1648	1644	1641	1639	1638	1638	1637	1635	1635	1634	1634	1634	1634	1635	1635	1637	1638	1641	1642	1642	1644	1646	1648	1649	1652	1653	1656	1657	1660	1662	1663	1664	1666	1667	1667	1667	1669	1669	1667	1667	1666	1664	1663	1662	1660	1659	1657	1655	1653	1653	1652	1652	1650	1650	1650	1650	1649	1650	1649	1649	1648	1648	1646	1648	1646	1646	1646	1648	1649	1650	1652	1653	1656	0	1659	0	1663	1666	1667	1670	1670	1669	1667	1664	1660	1657	1653	1649	1646	1642	1638	1634	1631	1629	1626	1626	1625	1625	1626	1627	1627	1629	1630	1631	1631	1631	1631	1630	1630	1630	1630	1630	1630	1631	1631	1633	1633	1633	1633	1634	1634	1635	1635	1637	1638	1641	1644	1645	1648	1650	1652	1653	1655	1656	1657	1659	1660	1662	1663	1663	1664	1664	1666	1666	1664	1664	1662	1662	1662	1660	1659	1659	1657	1656	1656	1655	1655	1655	1653	1653	1652	1652	1652	1650	1649	1648	1648	1645	1642	1639	1638	1635	1634	1631	1630	1626	1626	1625	1625	1626	1626	1629	1630	1631	1633	1635	1635	1638	1638	1638	1638	1637	1637	1637	1637	1637	1637	1637	1638	1638	1638	1638	1639	1639	1641	1642	1644	1645	1646	1649	1649	1650	1652	1653	1653	1653	1653	1652	1650	1652	1652	1653	1653	1655	1656	1656	1657	1657	1657	1657	1657	1657	1657	1657	1659	1659	1657	1657	1656	1653	1652	1649	1646	1645	1644	1641	1639	1639	1639	1642	1644	1646	1648	1650	1655	1656	1656	1656	1656	1656	1656	1655	1652	1652	1649	1648	1646	1645	1644	1645	1644	1642	1642	1642	1642	1641	1641	1641	1638	1638	1635	1633	1630	1629	1626	1625	1623	1622	1622	1621	1621	1622	1623	1625	1626	1626	1627	1627	1627	1627	1626	1625	1625	1625	1625	1626	1627	1629	1630	1631	1633	1633	1633	1633	1633	1633	1633	1631	1631	1630	1629	1629	1629	1629	1627	1629	1630	1633	1635	1638	1641	1644	1645	1646	1648	1648	1648	1645	1645	1642	1642	1637	1635	1633	1631	1629	1626	1623	1622	1619	1618	1618	1617	1615	1615	1617	1618	1619	1622	1625	1627	1630	1633	1637	1638	1641	1642	1642	1644	1642	1642	1641	1639	1638	1638	1637	1635	1635	1634	1633	1633	1634	1634	1635	1637	1637	1638	1639	1641	1642	1644	1644	1642	1642	1641	1639	1638	1637	1635	1634	1634	1634	1634	1634	1637	1637	1637	1638	1639	1639	1639	1639	1638	1639	1639	1638	1635	1635	1634	1633	1633	1631	1630	1630	1631	1631	1633	1634	1634	1637	1637	1638	1639	1639	1639	1639	1639	1639
0	0	0	0	0	0	0	0	0	0	0	0	0	0	0	0	0	0	0	0	0	0	0	0	0	0	0	1642	1641	1642	1642	1642	1645	1644	1646	1648	1650	1655	1657	1662	1663	1666	1669	1670	1671	1671	1670	1670	1671	1671	1671	1671	1673	1674	1676	1677	1678	1678	1678	1680	1680	1680	1680	1678	1677	1677	1674	1673	1673	1670	1670	1670	1670	1670	1670	1669	1667	1667	1667	1666	1666	1664	1664	1664	1664	1664	1663	1663	1660	1660	1659	1659	1659	1657	1656	1657	1657	1657	1659	1659	1659	1659	1660	1660	1662	1662	1663	1664	1667	1670	0	1673	1674	1677	1678	1681	1681	1681	1681	1680	1678	1677	1676	1674	1673	1671	1670	1669	1669	1670	1670	1669	1670	1671	1673	1674	1674	1676	1677	1676	1676	1676	1676	1676	1676	1677	1676	1676	1676	1676	1676	1676	1674	1673	1671	1671	1669	1667	1666	1666	1663	1663	1660	1660	1660	1660	1659	1659	1659	1659	1659	1657	1656	1655	1653	1652	1650	1649	1648	1646	1644	1644	1642	1641	1641	1641	1641	1639	1641	1642	1642	1644	1645	1645	1649	1650	1655	0	1660	1663	1667	1673	1674	1677	1680	1680	1678	1677	1677	1674	1673	1671	1671	1669	1667	1664	1663	1663	1662	1660	1659	1653	1652	1649	1645	1642	1639	1638	1635	1634	1633	1633	1633	1633	1631	1630	1631	1631	1631	1633	1634	1635	1637	1638	1639	1641	1644	1645	1646	1648	1650	1653	1656	1659	1662	1664	1666	1669	1669	1669	1669	1670	1670	1670	1669	1667	1664	1663	1662	1660	1657	1656	1653	1652	1650	1649	1649	1648	1648	1646	1646	1645	1646	1645	1644	1644	1642	1642	1642	1642	1642	1644	1644	1646	1648	1649	1652	1655	1657	1660	0	1663	1666	1667	1669	1669	1666	1664	1662	1659	1653	1650	1646	1644	1639	1635	1633	1630	1629	1627	1626	1626	1626	1627	1629	1630	1633	1633	1634	1635	1635	1634	1631	1630	1629	1629	1627	1627	1626	1627	1629	1629	1629	1630	1630	1629	1630	1631	1633	1635	1638	1641	1644	1646	1649	1650	1652	1653	1655	1656	1657	1659	1660	1662	1662	1663	1663	1664	1664	1664	1662	1660	1660	1660	1660	1659	1659	1657	1656	1656	1655	1653	1653	1653	1652	1650	1649	1649	1648	1646	1646	1644	1642	1639	1635	1633	1631	1629	1627	1626	1625	1623	1623	1622	1623	1625	1626	1627	1629	1630	1631	1633	1634	1634	1634	1634	1633	1633	1634	1633	1633	1633	1634	1634	1634	1634	1635	1635	1635	1638	1639	1639	1641	1641	1644	1645	1646	1648	1649	1649	1649	1650	1649	1649	1650	1650	1652	1653	1653	1655	1656	1656	1656	1656	1657	1657	1657	1657	1657	1659	1659	1657	1656	1653	1652	1649	1648	1645	1642	1641	1638	1638	1638	1638	1639	1641	1642	1645	1648	1652	1653	1653	1653	1653	1652	1652	1650	1649	1646	1645	1644	1642	1639	1639	1639	1639	1638	1637	1638	1637	1637	1637	1634	1633	1631	1630	1629	1626	1626	1623	1622	1619	1619	1619	1619	1619	1621	1622	1623	1623	1623	1625	1626	1626	1625	1623	1622	1622	1622	1622	1623	1623	1626	1627	1630	1631	1631	1631	1633	1631	1633	1631	1631	1630	1630	1627	1627	1627	1629	1627	1629	1630	1633	1635	1638	1641	1644	1645	1646	1646	1646	1645	1644	1642	1641	1639	1635	1633	1630	1629	1625	1623	1621	1619	1617	1615	1615	1614	1614	1614	1614	1617	1618	1619	1621	1623	1627	1630	1633	1635	1638	1641	1641	1642	1642	1641	1641	1639	1638	1637	1637	1635	1634	1633	1631	1631	1631	1631	1633	1634	1634	1635	1637	1639	1639	1641	1641	1641	1639	1638	1637	1635	1633	1631	1629	1629	1629	1629	1629	1631	1633	1633	1633	1634	1634	1635	1635	1635	1635	1635	1634	1634	1633	1631	1631	1630	1629	1627	1627	1629	1629	1630	1630	1631	1633	1634	1634	1634	1634	1635	1634	1634	1634
0	0	0	0	0	0	0	0	0	0	0	0	0	0	0	0	0	0	0	0	0	1646	1646	1645	1645	1644	1644	1644	1642	1644	1644	1645	1645	1646	1648	1650	1653	1657	1659	1663	1664	1667	1671	1673	1673	1673	1671	1673	1673	1673	1673	1674	1674	1676	1676	1676	1678	1677	1678	1678	1677	1677	1676	1676	1676	1673	1671	1670	1670	1669	1669	1669	1669	1669	1667	1667	1667	1666	1666	1666	1664	1664	1664	1664	1664	1663	1662	1662	1660	1657	1657	1656	1655	1655	1653	1655	1655	1655	1656	1656	1656	1657	1659	1660	1660	1660	1660	1663	1664	1667	1669	1670	1671	1674	1674	1676	1677	1676	1676	1676	1673	1673	1671	1670	1669	1667	1666	1664	1664	1664	1664	1664	1664	1666	1666	1669	1669	1670	1670	1671	1671	1671	1671	1671	1671	1671	1671	1671	1671	1670	1670	1669	1669	1667	1664	1663	1663	1660	1659	1659	1657	1655	1655	1653	1653	1652	1652	1652	1652	1652	1652	1652	1650	1649	1648	1646	1645	1645	1644	1642	1641	1641	1639	1639	1641	1639	1641	1641	1641	1642	1644	1644	1646	1648	1650	1652	1656	0	1659	1664	1667	1670	1671	1674	1674	1674	1674	1673	1670	1669	1667	1666	1666	1662	1662	1660	1657	1657	1657	1656	1653	1650	1648	1645	1642	1641	1637	1635	1631	1631	1631	1630	1630	1630	1630	1630	1630	1630	1630	1630	1631	1633	1634	1634	1637	1638	1639	1641	1644	1646	1648	1652	1655	1659	1662	1664	1667	1667	1669	1670	1670	1670	1671	1670	1669	1667	1664	1662	1660	1659	1656	1655	1652	1650	1649	1648	1646	1646	1645	1645	1645	1644	1642	1642	1641	1639	1638	1638	1638	1638	1638	1639	1641	1642	1644	1646	1649	1653	1656	1657	0	1662	1663	0	1666	1666	1664	1663	1660	1656	1652	1649	1645	1641	1638	1637	1633	1631	1630	1629	1627	1627	1627	1630	1631	1633	1635	1637	1638	1638	1638	1637	1633	1631	1630	1629	1626	1626	1626	1625	1626	1625	1627	1627	1627	1629	1630	1631	1633	1634	1637	1639	1642	1645	1648	1649	1650	1653	1655	1656	1657	1657	1659	1660	1660	1662	1662	1663	1663	1662	1662	1660	1660	1660	1659	1659	1657	1656	1656	1655	1652	1652	1649	1650	1648	1646	1646	1645	1645	1639	1639	1637	1635	1634	1633	1630	1629	1626	1626	1623	1623	1622	1621	1621	1621	1622	1623	1625	1626	1627	1629	1629	1630	1630	1630	1630	1630	1630	1630	1630	1630	1630	1630	1630	1631	1631	1631	1631	1633	1634	1634	1635	1635	1637	1638	1641	1641	1642	1645	1645	1645	1646	1645	1648	1648	1649	1650	1650	1653	1655	1656	1656	1657	1657	1657	1657	1657	1657	1657	1659	1659	1657	1655	1653	1650	1648	1646	1644	1641	1638	1637	1637	1635	1635	1637	1638	1639	1641	1644	1648	1649	1649	1649	1649	1648	1648	1646	1645	1642	1639	1638	1637	1635	1634	1634	1634	1634	1633	1633	1633	1631	1631	1630	1629	1627	1626	1625	1623	1622	1621	1619	1618	1617	1617	1618	1618	1619	1621	1622	1623	1623	1623	1625	1625	1625	1622	1621	1621	1621	1621	1621	1622	1625	1626	1629	1629	1630	1630	1630	1630	1630	1630	1630	1629	1627	1626	1626	1626	1627	1626	1627	1630	1633	1637	1639	1642	1644	1646	1646	1646	1646	1645	1642	1641	1638	1635	1633	1630	1627	1625	1622	1621	1618	1617	1617	1614	1614	1613	1613	1613	1613	1614	1615	1617	1619	1622	1625	1627	1631	1634	1637	1638	1639	1641	1641	1641	1639	1639	1638	1637	1635	1634	1633	1631	1630	1630	1629	1630	1630	1630	1631	1633	1634	1635	1637	1638	1638	1638	1635	1634	1633	1631	1627	1625	1625	1623	1623	1623	1625	1625	1626	1627	1627	1630	1630	1631	1630	1631	1631	1633	1631	1631	1630	1630	1629	1629	1627	1626	1626	1626	1626	1627	1627	1629	1629	1630	1630	1630	1630	1629	1630	1629	1629
0	0	0	0	0	0	0	0	0	0	0	0	0	0	0	0	0	0	0	1646	1646	1646	1646	1645	1645	1644	1642	1642	1641	1642	1641	1644	1644	1645	1646	1650	1653	1657	1662	1664	1666	1670	1671	1673	1674	1674	1673	1673	1673	1673	1673	1671	1671	1670	1670	1671	1673	1671	1673	1673	1673	1671	1671	1673	1670	1669	1667	1667	1667	1666	1666	1666	1666	1666	1664	1664	1664	1664	1663	1663	1663	1662	1663	1662	1663	1662	1660	1659	1657	1656	1655	1655	1653	1652	1652	1650	1652	1652	1653	0	1655	1656	1657	1659	1659	1660	1660	1662	1663	1664	1666	1667	1669	1670	1671	1671	1673	1673	1671	1670	1670	1669	1667	1666	1666	1664	1663	1663	1662	1660	1662	1662	1662	1662	1663	1663	1664	1666	1666	1667	1666	1667	1667	1667	1666	1666	1666	1666	1666	1664	1664	1662	1662	1660	1659	1657	1656	1655	1652	1652	1650	1649	1646	1646	1645	1645	1646	1645	1645	1645	1645	1645	1644	1644	1644	1641	1641	1639	1639	1639	1638	1639	1638	1638	1639	1639	1641	1641	1641	1642	1644	1646	1648	1648	1650	1652	1656	0	1659	1663	1666	1669	1670	1671	1671	1670	1670	1667	1666	1664	1663	1662	1660	1657	1656	1656	1655	1655	1653	1653	1650	1648	1646	1644	1642	1639	1637	1635	1634	1633	1633	1631	1631	1630	1630	1630	1629	1629	1629	1629	1629	1630	1631	1631	1633	1634	1637	1638	1639	1644	1645	1649	1652	1656	1659	1663	1664	1667	1669	1669	1670	1670	1670	1669	1667	1666	1663	1662	1659	1657	1655	1653	1650	1649	1648	1646	1646	1645	1644	1644	1644	1642	1642	1641	1639	1638	1637	1637	1635	1635	1635	1637	1638	1639	1641	1644	1646	1650	1653	1657	1660	1662	1664	1664	1664	1664	1662	1660	1656	1653	1649	1646	1644	1639	1638	1635	1634	1631	1630	1630	1629	1630	1631	1633	1634	1637	1638	1639	1642	1642	1642	1641	1638	1634	1631	1630	1629	1626	1626	1626	1626	1626	1627	1626	1627	1627	1629	1630	1631	1634	1635	1638	1642	1644	1646	1649	1650	1652	1655	1655	1656	1656	1657	1659	1659	1659	1659	1660	1660	1660	1660	1660	1659	1657	1657	1656	1655	1655	1652	1650	1648	1646	1646	1641	1639	1639	1638	1638	1638	1637	1635	1634	1633	1631	1630	1627	1626	1625	1623	1622	1621	1621	1619	1619	1619	1621	1621	1622	1623	1625	1626	1626	1627	1627	1627	1627	1627	1627	1627	1627	1627	1627	1627	1627	1627	1627	1627	1630	1629	1630	1630	1631	1633	1634	1635	1637	1638	1639	1641	1641	1641	1642	1644	1645	1646	1646	1648	1649	1652	1655	1655	1656	1657	1657	1657	1657	1657	1657	1657	1659	1657	1657	1655	1652	1649	1648	1645	1641	1638	1635	1634	1633	1633	1634	1634	1634	1635	1637	1639	1642	1644	1644	1644	1644	1644	1642	1641	1639	1638	1635	1634	1633	1630	1631	1630	1630	1629	1629	1627	1627	1627	1626	1626	1625	1622	1622	1621	1619	1618	1618	1617	1615	1615	1615	1615	1617	1618	1621	1621	1622	1622	1623	1623	1623	1623	1622	1619	1619	1619	1619	1619	1621	1622	1623	1626	1627	1627	1627	1627	1627	1627	1627	1626	1626	1625	1625	1625	1625	1625	1625	1626	1627	1631	1634	1638	1641	1644	1645	1646	1646	1645	1645	1642	1639	1637	1633	1630	1627	1626	1623	1621	1619	1618	1617	1615	1614	1613	1613	1613	1613	1614	1614	1614	1615	1618	1619	1622	1626	1629	1631	1634	1635	1637	1639	1639	1638	1638	1637	1637	1635	1633	1631	1630	1629	1627	1627	1627	1627	1627	1629	1629	1629	1631	1631	1633	1635	1635	1635	1633	1631	1629	1625	1622	1621	1619	1618	1618	1618	1619	1621	1622	1623	1625	1625	1626	1626	1626	1627	1627	1627	1627	1627	1627	1626	1626	1625	1625	1625	1625	1625	1626	1626	1625	1626	1626	1627	1626	1625	1625	1625	1625	1625	1623
0	0	0	0	0	0	0	0	0	0	0	0	0	0	0	0	0	0	0	1645	1645	1645	1645	1644	1644	1642	1642	1639	1638	1639	1638	1639	1641	1644	1645	1648	1652	1657	1660	1664	1667	1669	1671	1673	1673	1673	1673	1673	1671	1671	1669	1667	1667	1667	1664	1664	1664	1666	1664	1667	1667	1666	1667	1667	1666	1666	1664	1663	1664	1663	1663	1663	1663	1663	1662	1662	1662	1662	1662	1660	1660	1660	1659	1660	1660	1659	1659	1657	1656	1655	1653	1653	1652	1650	1649	1649	1649	1650	1652	1653	1655	1656	1657	1659	1659	1659	1660	1660	1663	1664	1664	1666	1667	1667	1669	1669	1667	1667	1667	1666	1666	1664	1663	1663	1662	1662	1660	1660	1659	1659	1659	1657	1659	1659	1659	1660	1662	1663	1663	1663	1663	1663	1663	1662	1662	1662	1662	1660	1660	1659	1657	1656	1655	1655	1653	1652	1650	1648	1646	1646	1645	1644	1641	1639	1639	1639	1638	1639	1638	1638	1638	1639	1639	1638	1638	1637	1637	1637	1637	1637	1635	1635	1637	1638	1638	1638	1639	1639	1641	1644	1645	1646	1648	1648	1650	1653	1656	0	1659	1663	1664	1666	1667	1667	1667	1667	1664	1663	1662	1660	1659	1657	1656	1655	1653	1652	1650	1650	1650	1649	1648	1646	1644	1644	1641	1639	1638	1635	1634	1633	1633	1631	1631	1630	1630	1629	1627	1627	1626	1626	1626	1626	1627	1627	1629	1631	1633	1635	1637	1641	1642	1646	1649	1653	1657	1662	1664	1664	1666	1666	1666	1666	1667	1667	1666	1663	1662	1659	1657	1655	1653	1652	1649	1648	1646	1646	1645	1644	1644	1644	1642	1641	1641	1638	1638	1637	1635	1635	1634	1634	1634	1634	1635	1638	1639	1642	1645	1649	1653	1656	1659	1662	1663	1663	1663	1663	1662	1659	1656	1652	1649	1646	1644	1641	1639	1637	1635	1634	1633	1633	1631	1633	1634	1635	1637	1639	1641	1642	1644	1645	1644	1642	1641	1638	1634	1633	1631	1630	1629	1629	1630	1630	1631	1631	1631	1631	1631	1631	1633	1634	1635	1639	1641	1644	1646	1649	1650	1652	1653	1655	1655	1656	1656	1657	1657	1657	1657	1657	1657	1657	1657	1656	1656	1653	1652	1652	1645	1644	1641	1641	1639	1638	1638	1637	1637	1635	1635	1634	1634	1634	1633	1631	1630	1629	1627	1625	1623	1622	1621	1619	1619	1619	1618	1618	1618	1618	1619	1621	1622	1623	1623	1625	1625	1626	1626	1626	1625	1625	1625	1625	1625	1625	1625	1625	1623	1625	1623	1625	1626	1626	1627	1627	1629	1630	1633	1634	1635	1638	1638	1639	1641	1641	1642	1644	1646	1646	1646	1649	1652	1653	1656	1657	1657	1657	1657	1657	1657	1657	1659	1659	1657	1655	1653	1649	1648	1645	1641	1638	1635	1633	1630	1629	1629	1629	1629	1627	1629	1629	1631	1634	1635	1635	1637	1638	1637	1638	1637	1634	1633	1631	1629	1627	1626	1626	1625	1623	1623	1623	1623	1622	1622	1622	1621	1621	1619	1618	1618	1617	1617	1615	1615	1614	1614	1615	1615	1617	1618	1619	1622	1622	1623	1623	1623	1623	1623	1621	1619	1619	1619	1618	1618	1619	1621	1622	1625	1625	1626	1626	1626	1626	1626	1625	1625	1623	1622	1622	1622	1622	1622	1622	1623	1626	1630	1633	1637	1639	1642	1645	1646	1645	1645	1642	1641	1638	1633	1631	1629	1626	1623	1621	1619	1618	1617	1615	1614	1614	1613	1613	1613	1613	1613	1614	1614	1615	1615	1617	1619	1623	1626	1629	1630	1633	1634	1635	1637	1635	1634	1634	1634	1633	1630	1630	1629	1627	1626	1625	1625	1625	1625	1626	1626	1626	1627	1629	1630	1630	1631	1631	1629	1627	1622	1621	1618	1617	1614	1614	1614	1614	1615	1617	1617	1619	1619	1621	1622	1622	1623	1623	1625	1625	1625	1625	1625	1625	1625	1623	1623	1622	1622	1622	1622	1622	1622	1622	1621	1621	1621	1619	1619	1618	1618	1618	1618
0	0	0	0	0	0	0	0	0	0	0	0	0	0	0	0	0	0	0	0	1642	1642	1641	1641	1641	1638	1638	1638	1637	1635	1635	1637	1638	1638	1641	1644	1648	1652	1657	1662	1664	1667	1670	1670	1671	1671	1671	1671	1669	1667	1666	1664	1663	1660	1660	1659	1659	1660	1662	1660	1662	1662	1663	1663	1662	1663	1662	1662	1662	1662	1662	1662	1662	1660	1660	1660	1660	1659	1659	1659	1659	1657	1657	1657	1659	1657	1657	1656	1655	1653	1652	1652	1650	1649	1649	1649	1649	1650	1650	1653	1655	1657	1659	1659	1660	1660	1662	1662	1662	1663	1664	1666	1666	1666	1666	1664	1664	1663	1663	1663	1662	1662	1660	1660	1659	1659	1657	1656	1656	1656	1656	1656	1656	1656	1657	1657	1659	1659	1659	1659	1659	1659	1659	1659	1657	1657	1657	1655	1653	1653	1652	1650	1649	1648	1648	1646	1645	1644	1641	1641	1639	1638	1635	1634	1633	1631	1631	1633	1633	1633	1633	1634	1633	1633	1633	1633	1633	1633	1633	1634	1633	1633	1635	1635	1637	1637	1638	1639	1641	1642	1645	1646	1648	1649	1650	1653	1656	0	1659	0	1662	1663	1664	1664	1663	1663	1662	1659	1657	1657	1656	1655	1653	1650	1650	1649	1649	1649	1648	1648	1648	1645	1644	1642	1641	1639	1637	1634	1631	1630	1629	1627	1626	1626	1625	1625	1623	1623	1623	1625	1623	1623	1623	1625	1626	1627	1629	1631	1634	1637	1639	1644	1645	1650	1655	1659	1662	1663	1664	1664	1664	1664	1664	1663	1662	1660	1657	1656	1653	1653	1650	1649	1648	1646	1645	1644	1644	1642	1642	1642	1641	1641	1641	1639	1637	1635	1635	1633	1633	1633	1633	1633	1634	1637	1637	1639	1642	1648	1650	1655	1656	1659	1660	1660	1662	1660	1659	1656	1655	1650	1648	1645	1642	1641	1639	1638	1637	1635	1634	1634	1634	1635	1635	1638	1639	1642	1644	1645	1645	1646	1645	1644	1642	1639	1635	1635	1633	1631	1631	1631	1631	1633	1633	1633	1634	1634	1634	1635	1635	1637	1638	1639	1642	1645	1648	1649	1650	1652	1653	1655	1655	1655	1656	1656	1656	1656	1656	1656	1655	1655	1652	1650	1648	1646	1644	1642	1639	1639	1638	1637	1635	1635	1634	1634	1633	1634	1631	1631	1631	1631	1629	1627	1627	1626	1623	1623	1621	1619	1618	1618	1617	1617	1617	1617	1617	1618	1619	1619	1622	1622	1622	1623	1623	1625	1625	1625	1623	1623	1623	1623	1623	1622	1622	1622	1622	1622	1622	1622	1622	1622	1623	1625	1626	1627	1630	1631	1633	1634	1637	1638	1638	1639	1641	1644	1644	1645	1646	1648	1650	1653	1656	1657	1659	1659	1660	1660	1660	1659	1660	1657	1657	1653	1652	1648	1645	1641	1638	1635	1631	1629	1626	1625	1625	1623	1623	1622	1622	1622	1625	1626	1627	1627	1630	1631	1630	1631	1631	1630	1629	1627	1626	1623	1622	1621	1621	1621	1621	1619	1621	1619	1618	1618	1618	1617	1615	1617	1615	1614	1615	1614	1614	1614	1614	1615	1615	1617	1618	1619	1621	1622	1622	1622	1623	1622	1623	1621	1619	1619	1619	1618	1618	1618	1619	1621	1622	1623	1623	1623	1622	1622	1622	1621	1619	1619	1618	1617	1617	1618	1618	1619	1622	1623	1627	1631	1635	1639	1642	1645	1645	1645	1644	1642	1639	1638	1633	1630	1627	1625	1622	1621	1619	1617	1615	1615	1614	1613	1613	1613	1613	1613	1613	1613	1613	1614	1614	1615	1617	1619	1622	1625	1626	1629	1629	1631	1633	1631	1631	1630	1630	1629	1627	1627	1626	1625	1623	1623	1622	1622	1622	1622	1622	1623	1623	1625	1625	1626	1626	1626	1622	1621	1618	1617	1614	1613	1611	1611	1610	1611	1613	1614	1615	1617	1618	1618	1619	1621	1622	1622	1622	1623	1623	1623	1623	1622	1623	1622	1621	1621	1619	1619	1618	1618	1618	1617	1617	1615	1615	1614	1614	1613	1613	1613	1613
0	0	0	0	0	0	0	0	0	0	0	0	0	0	0	0	0	0	0	0	0	1639	1639	1638	1637	1635	1634	1633	1633	1631	1631	1631	1633	1634	1635	1638	1644	1648	1652	1656	1659	1662	1666	1666	1667	1669	1667	1666	1664	1663	1662	1660	1659	1656	1653	1655	1655	1655	1655	1656	1656	1656	1659	1659	1659	1659	1659	1660	1659	1659	1659	1659	1659	1659	1659	1657	1657	1657	1656	1656	1656	1656	1656	1656	1657	1656	1656	1656	1653	1653	1652	1650	1650	1649	1649	1649	1649	1650	1652	1653	1656	1657	1659	1660	1660	1660	1662	1663	1663	1663	1663	1664	1663	1663	1663	1662	1660	1659	1660	1659	1659	1657	1657	1657	1656	1656	1656	1655	1655	1653	1653	1653	1652	1653	1653	1655	1655	1656	1656	1656	1656	1655	1655	1655	1653	1652	1649	1649	1648	1646	1646	1645	1644	1644	1642	1642	1641	1639	1638	1637	1635	1634	1633	1631	1630	1629	1629	1629	1629	1627	1629	1629	1629	1630	1629	1629	1629	1630	1630	1631	1631	1631	1633	1634	1635	1635	1638	1639	1641	1642	1645	1645	1646	1649	1650	1652	1655	1656	1657	1660	1660	1662	1662	1662	1660	1659	1657	1656	1655	1653	1653	1652	1650	1649	1649	1648	1648	1648	1646	1646	1646	1644	1644	1642	1641	1637	1635	1630	1627	1625	1623	1621	1621	1619	1619	1619	1619	1619	1619	1621	1621	1622	1621	1622	1623	1625	1626	1627	1631	1633	1637	1639	1642	1645	1650	1655	1659	1660	1662	1662	1662	1660	1660	1657	1656	1655	1653	1652	1650	1649	1648	1646	1645	1644	1644	1642	1641	1641	1641	1639	1639	1639	1639	1637	1635	1634	1633	1631	1631	1631	1631	1631	1633	1634	1637	1639	1641	1646	1649	1652	1653	1656	1657	1659	1659	1657	1656	1655	1652	1649	1646	1644	1641	1641	1638	1638	1637	1635	1637	1635	1637	1637	1639	1639	1641	1644	1645	1645	1646	1646	1645	1644	1642	1639	1638	1635	1635	1634	1634	1633	1633	1635	1635	1635	1637	1635	1637	1638	1639	1639	1641	1642	1642	1645	1646	1649	1650	1652	1653	1655	1655	1656	1656	1656	1655	1655	1655	1655	1652	1652	1649	1646	1644	1642	1639	1638	1637	1634	1633	1631	1631	1630	1630	1630	1630	1629	1629	1629	1627	1627	1626	1625	1623	1621	1619	1618	1618	1617	1615	1615	1615	1614	1615	1615	1615	1617	1618	1618	1619	1621	1621	1622	1622	1622	1623	1622	1622	1622	1622	1621	1621	1621	1619	1619	1618	1618	1618	1618	1618	1618	1619	1621	1622	1623	1626	1629	1631	1634	1635	1637	1638	1638	1639	1641	1644	1645	1645	1648	1650	1653	1656	1657	1660	1662	1662	1662	1662	1660	1660	1659	1657	1652	1648	1645	1642	1638	1635	1630	1627	1623	1622	1619	1619	1618	1617	1615	1615	1615	1617	1619	1621	1622	1623	1625	1625	1626	1626	1625	1625	1623	1621	1618	1618	1618	1618	1617	1617	1617	1617	1615	1615	1615	1614	1614	1614	1614	1614	1614	1613	1614	1613	1614	1614	1614	1615	1617	1618	1619	1621	1621	1622	1622	1622	1622	1622	1621	1618	1618	1618	1618	1618	1618	1618	1618	1619	1619	1619	1618	1618	1617	1617	1615	1614	1614	1613	1613	1613	1613	1614	0	1617	1621	1623	1627	1633	1637	1639	1642	1644	1644	1642	1641	1639	1637	1631	1630	1626	1623	1621	1619	1618	1617	1617	1614	1613	1613	1613	1611	1611	1611	1611	1611	1611	1611	1611	1613	1614	1617	1618	1619	1622	1623	1625	1626	1626	1626	1626	1627	1626	1625	1625	1623	1623	1622	1621	1621	1621	1619	1619	1619	1619	1619	1621	1621	1621	1621	1621	1621	1618	1617	1614	1613	1610	1610	1610	1609	1610	1610	1610	1610	1613	1614	1615	1617	1618	1619	1619	1621	1622	1622	1622	1622	1622	1622	1621	1619	1619	1618	1615	1615	1615	1614	1613	1611	1610	1609	1609	1607	1607	1607	1606	1606	1607
0	0	0	0	0	0	0	0	0	0	0	0	0	0	0	0	0	0	0	0	0	1635	1635	1634	1633	1631	1630	1629	1627	1626	1626	1626	1629	1629	1631	1631	1637	1639	1644	1648	1652	1655	1657	1660	1662	1662	1660	1659	1659	1657	1656	1655	1650	1649	1648	1648	1649	1649	1649	1650	1650	1652	1653	1655	1655	1655	1656	1656	1656	1657	1656	1656	1656	1656	1655	1655	1656	1655	1655	1655	1655	1655	1655	1656	1656	1655	1655	1655	1653	1652	1650	1649	1649	1648	1646	1646	1649	1649	1650	1653	1655	1657	1659	1660	1660	1660	1662	1662	1663	1662	1663	1662	1662	1660	1660	1659	1657	1656	1656	1656	1656	1655	1655	1655	1655	1655	1653	1652	1652	1650	1652	1650	1650	1650	1650	1650	1652	1652	1652	1652	1652	1652	1652	1649	1648	1646	1645	1645	1644	1642	1641	1639	1639	1639	1639	1638	1638	1637	1635	1634	1634	1631	1630	1629	1627	1627	1627	1627	1626	1626	1626	1625	1626	1626	1625	1626	1626	1627	1629	1629	1630	1630	1631	1634	1634	1635	1638	1638	1641	1642	1644	1646	1648	1648	1650	1652	1653	1655	1656	1659	1660	1659	1660	1659	1659	1657	1657	1655	1655	1653	1652	1652	1650	1649	1648	1648	1646	1646	1645	1645	1645	1644	1642	1639	1639	1637	1633	1626	1622	1618	1617	1614	1613	1611	1613	1613	1614	1615	1615	1617	1618	1618	1619	1619	1621	1622	1625	1626	1629	1631	1633	1635	1639	1642	1646	1650	1653	1655	1656	1655	1656	1655	1653	1652	1650	1648	1649	1648	1646	1646	1645	1644	1642	1641	1641	1639	1639	1638	1638	1638	1638	1637	1635	1635	1634	1633	1633	1631	1630	1630	1630	1630	1631	1634	1635	1638	1641	1644	1646	1648	1649	1650	1652	1653	1653	1652	1652	1650	1648	1645	1644	1641	1639	1639	1637	1637	1637	1635	1635	1637	1638	1638	1639	1641	1642	1642	1644	1646	1645	1645	1644	1642	1641	1641	1638	1637	1637	1635	1635	1635	1637	1637	1638	1639	1639	1639	1639	1639	1641	1641	1642	1642	1644	1645	1646	1649	1650	1652	1646	1648	1649	1650	1650	1653	1653	1653	1653	1653	1650	1649	1645	1642	1639	1637	1634	1631	1630	1630	1629	1629	1627	1627	1627	1627	1627	1625	1626	1625	1625	1623	1623	1622	1621	1619	1617	1615	1614	1611	1611	1611	1611	1613	1611	1613	1614	1614	1615	1617	1618	1619	1619	1621	1621	1621	1621	1621	1621	1619	1618	1618	1618	1618	1617	1615	1615	1615	1614	1614	1614	1615	1617	0	1621	1622	1625	1627	1630	1633	1635	1637	1637	1637	1639	1641	1642	1644	1645	1648	1650	1653	1656	1659	1660	1663	1663	1663	1663	1662	1662	1659	1656	1650	1646	1642	1637	1633	1629	1626	1622	1619	1617	1615	1614	1613	1611	1609	1609	1609	1610	1613	1613	1615	1617	1618	1621	1621	1621	1621	1619	1617	1617	1615	1615	1615	1614	1614	1613	1613	1613	1613	1613	1611	1611	1611	1611	1613	1611	1613	1613	1613	1613	1614	1614	1614	1615	1615	1618	1619	1621	1621	1621	1621	1621	1621	1622	1619	1618	1618	1618	1618	1618	1617	1617	1617	1617	1615	1615	1614	1613	1613	1611	1610	1609	1607	1607	1607	1609	1609	1610	1613	1617	0	1621	1625	1629	1634	1638	1641	1642	1641	1641	1639	1638	1635	1631	1629	1626	1623	1621	1618	1617	1615	1614	1614	1613	1613	1611	1611	1610	1610	1610	1610	1610	1610	1610	1610	1611	1613	1614	1615	1617	1618	1621	1621	1622	1622	1622	1622	1622	1621	1621	1621	1619	1619	1619	1618	1618	1618	1617	1617	1617	1617	1617	1617	1617	1617	1617	1615	1615	1613	1611	1610	1609	1609	1609	1609	1609	1607	1609	1610	1611	1614	1615	1615	1618	1619	1619	1621	1621	1622	1622	1622	1622	1621	1619	1618	1617	1615	1613	1613	1610	1609	1607	1605	1605	1602	1604	1602	1602	1602	1602	1601	1602
0	0	0	0	0	0	0	0	0	0	0	0	0	0	0	0	0	0	0	0	0	1631	1631	1629	1627	1626	1626	1623	1622	1622	1622	1622	1623	1625	1625	1627	1630	1634	1637	1641	1642	1645	1649	1650	1652	1652	1653	1652	1652	1650	1648	1648	1646	1644	1642	1642	1644	1644	1644	1645	1646	1648	1650	1650	1652	1652	1653	1653	1653	1653	1653	1653	1653	1653	1653	1653	1653	1653	1652	1652	1652	1652	1652	1652	1653	1652	1652	1652	1650	1649	1648	1648	1646	1644	1645	1646	1646	1648	1650	1653	1655	1656	1659	1660	1660	1662	1660	1662	1660	1662	1662	1660	1659	1657	1656	1656	1656	1653	1653	1653	1653	1652	1653	1653	1653	1652	1652	1650	1650	1650	1650	1649	1649	1649	1649	1649	1649	1649	1650	1649	1649	1649	1648	1646	1645	1644	1642	1641	1639	1639	1638	1637	1637	1637	1637	1635	1635	1634	1634	1633	1633	1630	1630	1629	1627	1626	1626	1625	1625	1625	1625	1623	1623	1622	1623	1623	1625	1625	1626	1627	1627	1629	1631	1631	1634	1634	1637	1638	1639	1642	1644	1644	1645	1646	1648	1650	1650	1652	1653	1656	1656	1656	1657	1657	1656	1656	1656	1655	1653	1652	1650	1650	1649	1648	1646	1646	1645	1645	1644	1642	1641	1641	1639	1638	1635	1627	1625	1619	1615	1613	1610	1607	1606	1605	1605	1607	1609	1610	1611	1614	1614	1615	1617	1617	1618	1621	1622	1623	1626	1629	1631	1634	1634	1638	1641	1645	1646	1646	1648	1648	1648	1648	1646	1645	1644	1644	1642	1642	1642	1641	1639	1639	1638	1638	1638	1637	1637	1635	1637	1635	1635	1634	1634	1633	1633	1631	1630	1630	1630	1630	1629	1630	1631	1633	1635	1637	1639	1642	1644	1645	1648	1648	1649	1649	1649	1646	1646	1644	1642	1639	1638	1637	1637	1635	1635	1635	1634	1634	1635	1635	1638	1638	1639	1639	1641	1642	1642	1642	1642	1641	1641	1639	1638	1638	1638	1637	1637	1637	1638	1638	1639	1641	1642	1642	1642	1642	1642	1644	1644	1644	1642	1638	1635	1635	1634	1635	1635	1635	1637	1639	1641	1642	1645	1648	1649	1650	1652	1650	1649	1645	1641	1638	1634	1633	1630	1627	1626	1626	1625	1625	1625	1625	1625	1625	1625	1623	1623	1622	1622	1621	1619	1618	1617	1614	1613	1610	1609	1609	1607	1607	1607	1609	1609	1610	1611	1611	1614	1615	1618	1618	1618	1619	1619	1619	1621	1619	1618	1618	1617	1615	1615	1615	1614	1613	1613	1610	1610	1610	1610	1611	1613	1614	1617	0	1621	1623	1626	1629	1631	1633	1634	1635	1638	1639	1642	1644	1644	1646	1649	1653	1656	1659	1660	1662	1662	1662	1662	1662	1662	1659	1653	1649	1645	1641	1635	1631	1626	1622	1618	1615	1614	1611	1609	1607	1606	1606	1605	1606	1606	1607	1609	1610	1611	1613	1615	1615	1617	1615	1614	1614	1614	1611	1611	1610	1610	1610	1609	1609	1609	1609	1609	1610	1609	1609	1610	1610	1611	1611	1613	1613	1613	1613	1614	1614	1615	1615	1618	1618	1619	1621	1621	1621	1621	1621	1619	1619	1618	1618	1617	1617	1617	1615	1614	1613	1613	1611	1611	1610	1609	1609	1606	1605	1604	1604	1604	1604	1605	1605	1606	1609	1613	1615	1619	0	1625	1629	1633	1637	1637	1638	1638	1638	1635	1631	1629	1627	1625	1622	1619	1618	1615	1615	1614	1613	1611	1611	1610	1610	1609	1609	1609	1609	1609	1609	1607	1607	1609	1610	1611	1613	1613	1614	1615	1617	1617	1617	1618	1618	1618	1617	1618	1618	1618	1617	1617	1617	1615	1615	1615	1615	1615	1614	1614	1614	1614	1614	1613	1613	1611	1610	1609	1609	1607	1606	1607	1607	1607	1607	1609	1609	1611	1613	1614	1615	1617	1618	1619	1619	1622	1622	1623	1622	1621	1619	1618	1618	1617	1614	1610	1609	1606	1604	1602	1601	1600	1597	1597	1597	1596	1597	1597	1598	1600
0	0	0	0	0	0	0	0	0	0	0	0	0	0	0	0	0	0	0	1630	1629	1627	1625	1623	1623	1622	1621	1619	1618	1618	1617	1618	1618	1619	1622	1623	1627	0	1630	1633	1634	1637	1639	1641	1642	1642	1642	1642	1642	1642	1641	1641	1639	1638	1635	1635	1637	1637	1638	1639	1639	1642	1644	1646	1648	1648	1648	1650	1650	1650	1650	1650	1650	1650	1650	1652	1650	1650	1649	1649	1650	1649	1649	1649	1649	1648	1649	1648	1645	1646	1645	1645	1642	1642	1642	1644	1645	1646	1649	1652	1653	1656	1657	1659	1659	1660	1659	1660	1659	1659	1659	1657	1656	1655	1655	1653	1653	1652	1653	1652	1652	1652	1653	1652	1652	1652	1650	1650	1649	1649	1648	1649	1649	1648	1646	1646	1648	1646	1646	1646	1645	1645	1645	1644	1642	1641	1639	1639	1637	1637	1635	1634	1634	1635	1634	1635	1635	1634	1633	1631	1631	1630	1629	1626	1626	1625	1625	1623	1622	1623	1621	1621	1621	1621	1621	1621	1622	1622	1623	1625	1626	1627	1629	1630	1631	1634	1635	1635	1638	1639	1641	1642	1644	1644	1645	1646	1648	1650	1650	1652	1653	1653	1653	1653	1653	1653	1653	1652	1652	1650	1650	1649	1648	1648	1645	1644	1644	1642	1641	1641	1639	1638	1637	1634	1630	1622	1618	1614	1609	1606	1604	1601	1600	1598	1600	1600	1602	1605	1606	1609	1610	1611	1613	1614	1617	1618	1619	1622	1623	1626	1630	1630	1631	1635	1637	1639	1642	1642	1642	1642	1642	1642	1642	1641	1639	1639	1638	1638	1638	1637	1635	1635	1635	1635	1634	1634	1633	1633	1633	1633	1633	1633	1631	1631	1630	1630	1630	1629	1629	1629	1629	1630	1631	1633	1633	1635	1637	1639	1641	1642	1644	1645	1644	1644	1642	1641	1639	1638	1635	1634	1634	1633	1633	1631	1631	1631	1631	1631	1633	1634	1634	1634	1635	1637	1637	1638	1638	1638	1638	1637	1637	1637	1635	1635	1635	1635	1637	1638	1639	1641	1641	1644	1645	1646	1645	1642	1639	1638	1637	1634	1633	1630	1629	1627	1627	1626	1627	1627	1627	1630	1631	1634	1637	1639	1642	1644	1646	1646	1644	1641	1637	1634	1630	1629	1625	1623	1622	1623	1622	1622	1622	1622	1622	1621	1621	1621	1619	1619	1619	1618	1617	1614	1613	1611	1609	1607	1606	1604	1604	1604	1604	1604	1605	1606	1607	1609	1611	1613	1615	1617	1618	1618	1618	1618	1618	1617	1617	1615	1614	1613	1611	1611	1610	1607	1607	1606	1606	1606	1606	1607	1610	1613	1615	1618	0	1622	1625	1627	1629	1633	1634	1635	1637	1638	1641	1642	1644	1645	1650	1652	1655	1659	1660	1662	1662	1662	1662	1662	1660	1657	1652	1646	1642	1638	1633	1629	1623	1618	1614	1611	1609	1607	1605	1605	1604	1601	1602	1602	1604	1605	1606	1607	1609	1610	1611	1611	1611	1611	1610	1610	1610	1607	1607	1606	1606	1605	1605	1605	1605	1605	1606	1606	1606	1607	1609	1609	1610	1610	1611	1613	1613	1613	1614	1614	1615	1615	1617	1618	1618	1618	1618	1619	1619	1619	1619	1617	1617	1617	1617	1615	1614	1614	1611	1610	1609	1609	1607	1606	1605	1604	1602	1601	1600	1598	1600	1600	1600	1601	1602	1604	1607	1611	1615	1618	0	1623	1627	1630	1631	1634	1634	1634	1634	1629	1627	1626	1623	1621	1619	1617	1614	1614	1611	1611	1610	1610	1609	1609	1607	1607	1606	1606	1606	1606	1606	1606	1606	1607	1607	1609	1609	1610	1610	1611	1613	1613	1613	1613	1613	1614	1614	1614	1614	1615	1615	1614	1614	1614	1614	1614	1613	1613	1613	1613	1611	1611	1610	1610	1610	1609	1607	1607	1606	1606	1606	1606	1607	1606	1607	1609	1610	1613	1614	1615	1617	1618	1619	1621	1622	1623	1623	1623	1622	1621	1619	1617	1615	1613	1609	1605	1602	1600	1598	1597	1594	1593	1592	1591	1592	1592	1593	1593	1596
