0	0	0	0	0	0	0	0	0	0	0	0	0	0	0	0	0	0	0	0	0	0	0	0	0	0	0	1016	1016	1016	1016	1016	1016	1016	1016	1016	1016	1016	1016	1024	1024	1024	1024	1024	1024	1024	1024	1024	1024	1032	1032	1032	1032	1032	1032	1032	1032	1032	1032	1032	1032	1040	1040	1040	1040	1040	1040	1048	0	0	0	0	0	0	0	0	0	0	0	0	0	0	0	0	0	0	0	0	0	0	0	0	0	0	0	0	0	0	0	0	0	0	0	0	0	0	0	1312	1304	1304	1304	1304	1304	1304	1304	1304	1304	1304	1304	1304	1304	1304	1304	1304	1304	1304	1304	1304	1304	1304	1312	1312	1312	1312	1312	1312	1312	1312	1320	1320	1320	1320	1320	1320	1320	1320	1320	1320	1320	1320	1328	1328	1336	1344	1352	1360	1376	1384	1392	1392	1392	1400	1400	1400	1400	1400	1400	1400	1400	1400	0	0	0	0	0	0	0	1744	1744	1736	1736	1744	1736	1736	1736	1736	1728	1728	1720	1720	1720	1712	1712	1712	0	0	0	0	0	0	0	0	0	0	0	0	0	0	0	0	0	0	0	0	0	0	0	0	0	0	0	0	0	0	0	0	0	0	0	0	0	15688	15688	15776	15856	15944	16024	16112	16288	16288	16376	16464	16376	16376	16376	16376	16288	16200	16024	15944	15856	15776	15608	15528	15368	15288	15136	15056	14984	14912	14760	14688	14616	14544	14544	14544	14544	14480	14480	14480	14544	14616	14616	14688	14688	14760	14760	14760	14760	14688	14688	14616	14544	14544	14544	14544	14616	14616	14688	14760	14832	14984	15216	15368	15528	16112	16832	17840	0	0	27496	27496	31216	0	0	0	0	0	0	0	0	0	0	0	0	0	0	0	0	0	0	0	0	0	0	0	0	0	0	0	0	0	0	0	0	0	0	0	0	0	0	0	0	0	0	0	0	0	0	0	0	0	0	0	0	0	0	0	0	28272	28272	28272	28008	28008	28008	27496	26760	26056	25184	24168	23416	22368	21560	20664	19976	19456	18848	18496	18160	17944	17736	17528	17424	17320	17320	17224	17224	17128	17024	17024	16928	16928	17024	17128	17224	17224	17224	17424	17528	17632	17736	17944	17944	18272	18384	18616	18848	18848	19088	19584	19976	20960	22536	22536	23232	24368	25184	25400	25184	25184	24768	24768	24768	24560	24560	24560	24560	24768	24768	24976	24976	25184	25184	25400	25616	25616	26056	26520	27752	29096	32576	34848	37936	42808	48336	50792	52576	52576	52576	52576	51672	50792	48336	46824	46104	45408	44072	42808	41056	37464	31880	29096	26288	26288	0	20112	19584	19088	18968	18968	18968	18968	19088	19088	19088	19088	19088	19088	19088	19088	19208	19208	19208	19208	19208	19336	19336	19336	19336	19336	19336	19336	19336	19336	19336	19336	19336	19336	19208	19208	19208	19208	19208	19088	19088	19088	19088	18968	18968	18848	18848	18848	18848	18848	18848	18848	18848	18848	18848	18848	18848	18848	18848	18848	18728	18728	18728	18616	18616	18616	18496	18496	18384	18272	18056	17840	17632	17320	16832	16560	16288	15944	15688	15448	15056	14832	14832	14200	13936	13560	13264	12976	12752	12536	12336	12280	12136	11984	11896	11800	11800	0	0	0	0	0	0	0	0	0	0	0	0	0	0	0	0	0	0	0	0	19976	17944	17944	19088	19976	20384	20248	20112	20112	19976	19848	19584	18056	18056	0	0	0	12920	12536	12536	0	0	11896	11704	11704	0	0	0	0	0	0	0	0	0	0	0	0	0	0	0	0	0	0	0	0	0	0	0	0	0	0	0	0	0	0	14000	14000	14544	15136	0	0	0	0	0	0	0	0	0	0	0	0	0	0	0	0	0	0	0	0	0	0	0	0	0	0	0	0	0	0	0	0	0	29096	28272	27496	27000	27000	26760	26056	25832	25400	23976	22368	21560	21560	21104	21104	21408	21712	21872	22032	22704	23416	23976	23976	24560	24976	25184	25400
0	0	0	0	0	0	0	0	0	0	0	0	0	0	0	0	0	0	0	0	0	0	0	0	0	0	0	1016	1016	1016	1016	1016	1016	1016	1016	1016	1016	1016	1016	1024	1024	1024	1024	1024	1024	1024	1024	1024	1024	1024	1024	1024	1024	1032	1032	1032	1032	1032	1032	1032	1032	1032	1032	1040	1040	1040	1040	1048	0	0	0	0	0	0	0	0	0	0	0	0	0	0	0	0	0	0	0	0	0	0	0	0	0	0	0	0	0	0	0	0	0	0	0	0	0	0	0	0	1304	1304	1304	1304	1304	1304	1304	1296	1296	1296	1296	1296	1296	1296	1296	1296	1296	1296	1304	1304	1304	1304	1304	1304	1304	1304	1312	1312	1312	1312	1312	1312	1312	1320	1320	1320	1320	1320	1320	1320	1320	1320	1320	1328	1336	1336	1352	1360	1368	1384	1392	1392	1392	1392	1392	1392	1400	1400	1400	1400	1400	0	0	0	0	0	0	0	0	1744	1744	1744	1744	1744	1744	1744	1736	1736	1736	1728	1728	1720	1720	1720	1720	1720	0	0	0	0	0	0	24368	23784	23416	22880	22536	22200	21872	21872	0	0	0	0	0	0	0	0	0	0	0	0	0	0	0	20664	20664	0	0	0	16024	15776	15688	15688	15688	15688	15776	15856	15944	16024	16112	16200	16288	16376	16376	16376	16376	16288	16200	16200	16024	15944	15856	15776	15608	15448	15288	15136	14912	14832	14760	14616	14544	14408	14336	14336	14336	14336	14336	14336	14336	14336	14408	14480	14544	14616	14616	14688	14760	14760	14760	14760	14760	14688	14616	14616	14688	14688	14688	14760	14832	14912	15056	15216	15368	15528	15688	16288	16832	17528	0	0	0	0	0	0	0	0	0	0	0	0	0	0	0	0	0	0	0	0	0	0	0	0	0	0	0	0	0	0	0	0	0	0	0	0	0	0	0	0	0	0	0	0	0	0	0	0	0	0	0	0	0	0	0	0	0	0	0	0	0	28272	28272	28272	28008	28008	28008	27496	27240	26520	25616	24768	23784	22880	21872	20808	20112	19336	18728	18496	18160	17840	17632	17424	17320	17224	17128	17128	17024	17024	17024	16928	16928	16928	17024	17128	17128	17128	17320	17320	17424	17528	17736	17944	17944	18384	18384	18616	18848	18848	19088	19584	19976	20960	22536	21256	21256	22704	24368	24976	24976	24768	24560	24560	24168	24168	24168	24168	24368	24368	24560	24768	24768	24768	24976	25184	25184	25616	25616	26520	27752	29096	34848	34848	37936	42808	48336	50792	53512	54488	54488	54488	54488	52576	50792	48336	47568	46104	46104	0	42208	37464	31880	31880	0	0	0	19336	18968	18728	18728	18848	18848	18968	18968	19088	19088	19208	19208	19208	19208	19208	19208	19336	19208	19208	19208	19208	19208	19208	19208	19208	19208	19208	19208	19208	19208	19208	19208	19088	19088	19088	19088	19088	19088	19088	18968	18968	18968	18848	18848	18848	18848	18848	18848	18848	18848	18848	18848	18848	18848	18848	18848	18848	18848	18848	18728	18728	18728	18616	18616	18616	18496	18384	18384	18160	17840	17528	17224	16744	16200	16200	16288	15216	15216	15448	15056	14200	13936	13624	13376	13144	12864	12696	12488	12384	12232	12184	12080	11984	11896	11800	11704	11664	11664	0	0	0	0	0	0	0	0	0	0	0	0	0	0	0	0	0	0	0	17944	17944	19088	19976	20248	20112	19976	19848	19848	19712	19336	18056	18056	0	0	0	12696	12280	12080	12032	11936	11752	11568	11440	11312	11224	11096	11016	10936	10936	0	0	0	0	0	0	0	0	0	0	0	0	0	0	0	0	0	0	0	0	11896	11896	11896	12184	12184	12696	0	0	0	0	0	0	0	0	0	0	0	0	0	0	0	0	0	0	0	0	0	0	0	0	0	0	0	0	0	0	0	0	0	0	0	29096	28272	25616	25400	25400	26760	24560	24560	25400	23976	22368	21560	21560	21104	19976	19976	20528	20664	20960	21408	22368	22880	22880	23416	23976	24168	25400
0	0	0	0	0	0	0	0	0	0	0	0	0	0	0	0	0	0	0	0	0	0	0	0	0	0	0	1016	1016	1016	1016	1016	1016	1016	1016	1016	1016	1016	1016	1024	1024	1024	1024	1024	1024	1024	1024	1024	1024	1024	1024	1024	1024	1024	1024	1024	1032	1032	1032	1032	1032	1032	1032	1040	1040	1040	1040	0	0	0	0	0	0	0	0	0	0	0	0	0	0	0	0	0	0	0	0	0	0	0	0	0	0	0	0	0	0	0	0	0	0	0	0	0	0	0	0	0	1296	1296	1296	1296	1296	1296	1296	1296	1296	1296	1296	1296	1296	1296	1296	1296	1296	1296	1296	1296	1296	1304	1304	1304	1304	1304	1304	1304	1312	1312	1312	1312	1312	1312	1320	1320	1320	1320	1320	1320	1320	1320	1320	1328	1328	1336	1352	1360	1368	1384	1392	1392	1392	1392	1392	1392	1392	1400	1400	1400	0	0	0	0	0	0	0	0	0	1752	1752	1752	1752	1752	1752	1744	1744	1736	1736	1736	1728	1728	1728	1720	1720	1720	0	0	0	0	0	0	23976	23416	23056	22704	22200	21872	21712	21712	0	0	0	0	0	0	0	0	0	0	0	0	0	0	0	20384	19456	19456	0	0	16024	15688	15608	15608	15608	15608	15688	15776	15856	15944	16024	16200	16200	16376	16376	16376	16376	16288	16200	16200	16024	15944	15776	15688	15528	15368	15136	14912	14760	14688	14544	14408	14336	14200	14136	14072	14072	14072	14072	14072	14072	14136	14200	14272	14336	14408	14480	14544	14544	14616	14616	14688	14688	14688	14616	14616	14688	14760	14760	14832	14912	14984	15136	15288	15528	15688	15856	16200	16560	17128	17632	18384	20808	20808	22880	0	0	0	0	0	0	0	0	0	0	0	0	0	0	0	0	0	0	0	0	0	0	0	0	0	0	0	0	0	0	0	0	0	0	0	0	0	0	0	0	0	0	0	0	0	0	0	0	0	0	0	0	0	0	0	29096	28816	28544	28544	28272	28272	28272	28008	27496	26760	26056	25184	24168	23056	22032	20960	19976	19208	18728	18272	17944	17632	17424	17320	17224	17128	17128	17024	17024	17024	16928	16928	16928	16928	17024	17128	17128	17128	17320	17320	17424	17528	17736	17944	0	0	0	0	0	0	0	0	0	0	0	21256	21256	22536	22536	24560	24560	24368	24368	24168	23976	23784	23784	23976	24168	24168	24168	24368	24560	24560	24560	24768	24976	25184	25184	25832	27000	28272	0	38424	38424	44072	49944	52576	55496	56544	57632	57632	57632	0	0	0	0	0	0	0	0	0	0	0	0	19208	18848	18496	18496	18496	18496	18616	18848	18968	18968	19088	19208	19208	19336	19208	19208	19336	19336	19208	19208	19088	19088	19088	19088	19088	19208	19208	19088	19088	19088	19088	19088	19088	19088	18968	18968	18968	18968	18968	18968	18968	18848	18848	18848	18848	18848	18728	18728	18728	18728	18728	18728	18848	18848	18848	18848	18848	18848	18848	18848	18848	18728	18728	18728	18616	18616	18496	18496	18384	18384	18160	17632	17320	16832	16744	16200	16200	0	15216	14336	14136	13936	13744	13440	13200	13032	12808	12648	12488	12384	12280	12184	12080	12032	11984	11848	11752	11704	11664	11664	11616	11480	11480	0	0	0	0	0	0	0	0	0	0	0	0	0	0	0	0	0	0	0	0	20248	19976	19976	19848	19848	19584	19208	19208	0	0	0	0	12696	12280	12080	12032	11936	11704	11568	11440	11312	11184	11096	10976	10896	10816	10664	10664	0	0	0	0	0	0	0	0	0	0	0	0	0	0	0	0	0	0	11896	11848	11848	11984	12032	12696	0	0	0	0	0	0	0	0	0	0	0	0	0	0	0	0	0	0	0	0	0	0	0	0	0	0	0	0	0	0	0	0	0	0	0	0	0	25616	25400	25400	0	24560	24560	0	0	0	0	0	19088	19088	19456	19848	19976	20248	20664	21256	21712	22032	22032	22368	22368	22536
0	0	0	0	0	0	0	0	0	0	0	0	0	0	0	0	0	0	0	0	0	0	0	0	0	0	1016	1016	1016	1016	1016	1016	1016	1016	1016	1016	1016	1016	1016	1024	1024	1024	1024	1024	1024	1024	1024	1024	1024	1024	1024	1024	1024	1024	1024	1024	1024	1032	1032	1032	1032	1032	1032	1032	1032	1032	1040	1040	1040	1040	0	0	0	0	0	0	0	0	0	0	0	0	0	0	0	0	0	0	0	0	0	0	0	0	0	0	0	0	0	0	0	0	0	0	0	0	0	0	1296	1296	1296	1296	1296	1296	1296	1296	1288	1288	1288	1288	1296	1296	1296	1296	1296	1296	1296	1296	1296	1296	1296	1296	1296	1304	1304	1304	1304	1304	1312	1312	1312	1312	1312	1312	1312	1320	1320	1320	1320	1320	1320	1328	1328	1336	1360	1360	1368	1384	1392	1392	1392	1392	1392	1392	1392	1400	1400	1400	0	0	0	0	0	0	0	0	0	0	0	1760	1760	1752	1752	1752	1752	1744	1744	1736	1736	1728	1728	1728	1728	0	0	0	0	0	0	0	23976	23416	23056	22704	22200	21872	21712	21712	0	0	0	0	0	0	0	0	0	0	0	0	0	0	0	20112	19088	19088	0	0	16024	15608	15528	15528	15528	15528	15608	15688	15776	15856	16024	16112	16200	16376	16376	16376	16376	16376	16288	16200	16024	15944	15776	15688	15528	15288	15056	14832	14616	14480	14336	14200	14072	14000	13936	13872	13872	13872	13872	13936	13936	14000	14072	14136	14200	14272	14336	14408	14480	14480	14544	14544	14544	14616	14616	14616	14616	14688	14760	14832	14912	15056	15216	15368	15528	15776	15944	16200	16376	16648	17024	17320	17840	18384	19336	20112	0	0	0	0	0	0	0	0	0	0	0	0	0	0	15368	14912	14544	14136	13744	13744	0	0	0	0	0	0	0	0	0	0	0	0	0	0	0	0	0	0	0	0	0	0	0	0	0	0	0	0	0	0	0	0	0	29672	29096	29096	29096	28816	28816	28544	28544	28272	27752	27240	26288	25616	24368	23232	22032	20808	19976	19208	18496	18056	17736	17424	17224	17224	17128	17024	17024	17024	16928	16928	16928	16928	16928	17024	17024	17128	17224	17224	17320	17320	17424	17632	0	0	0	0	0	15776	15776	0	0	0	0	0	0	0	0	22536	22536	24560	24560	23784	23784	23976	23600	23600	23600	23600	23784	23784	23976	23976	24168	24168	24368	24560	24560	24768	24976	25400	26520	27752	0	0	0	51672	51672	54488	56544	0	0	0	0	0	0	0	0	0	0	0	0	0	0	0	0	17736	17736	17736	17840	17944	18056	18384	18728	18848	18968	18968	19088	19208	19208	19208	19208	19208	19336	19208	19088	19088	19088	19088	19088	19088	19088	18968	18968	18968	18968	18968	19088	18968	18968	18968	18848	18848	18848	18968	18848	18848	18848	18728	18728	18728	18616	18616	18616	18728	18728	18728	18728	18728	18728	18728	18848	18848	18848	18848	18848	18848	18848	18728	18728	18616	18616	18496	18496	18384	18384	18160	17528	17024	16832	15776	14984	14984	0	14000	13808	13624	13440	13264	13088	12920	12752	12592	12488	12384	12280	12232	12136	12080	12032	11936	11848	11752	11704	11664	11664	11616	11480	11480	0	0	0	0	0	0	0	0	0	0	0	0	0	0	0	0	0	0	0	0	0	19976	19584	19584	19584	19336	19088	19088	0	0	0	12648	12648	12080	11936	11896	11800	11616	11480	11392	11224	11184	11096	10976	10856	10704	10512	10512	0	0	0	0	0	0	0	0	0	0	0	0	0	0	0	0	0	0	0	11848	11848	11984	12032	0	0	0	0	0	0	0	0	0	0	0	0	0	0	0	0	0	0	0	0	0	0	0	0	0	0	0	0	0	0	0	0	0	0	0	0	0	0	0	0	0	0	0	0	0	0	0	0	0	18968	18968	19088	19456	19456	19712	20112	20664	21104	21408	21408	21712	21712	21872
0	0	0	0	0	0	0	0	0	0	0	0	0	0	0	0	0	0	0	0	0	0	0	0	0	0	1016	1016	0	1016	1016	1016	1016	1016	1016	1016	1016	1016	1016	1024	1024	1024	1024	1024	1024	1024	1024	1024	1024	1024	1024	1024	1024	1024	1024	1024	1024	1024	1032	1032	1032	1032	1032	1032	1032	1032	1040	1040	1040	1040	0	0	0	0	0	0	0	0	0	0	0	0	0	0	0	0	0	0	0	0	0	0	0	0	0	0	0	0	0	0	0	0	0	0	0	0	0	1288	1288	1288	1288	1288	1288	1288	1288	1288	1288	1288	1288	1288	1288	1288	1288	1288	1288	1288	1288	1296	1296	1296	1296	1296	1296	1296	1304	1304	1304	1304	1304	1312	1312	1312	1312	1312	1312	1312	1312	1320	1320	1320	1320	1328	1328	0	0	0	0	0	0	0	0	0	0	1392	1392	0	0	0	0	0	0	0	0	0	0	0	0	0	0	0	1760	1760	1760	1752	1752	1744	1744	1736	1736	1736	1728	1728	1728	0	0	0	0	0	0	0	23976	23416	23056	22704	22200	21872	21712	21712	0	0	0	0	0	0	0	0	0	0	0	0	0	0	20528	19712	18616	17632	16928	16376	15856	15608	15448	15448	15528	15528	15608	15688	15776	15856	15944	16112	16200	16288	16376	16376	16376	16376	16288	16200	16112	15944	15856	15688	15528	15288	15056	14832	14544	14336	14200	14072	14000	13872	13808	13744	13744	13744	13744	13808	13808	13872	13936	14000	14136	14200	14272	14336	14336	14408	14408	14480	14480	14544	14544	14544	14616	14688	14760	14832	14912	15056	15216	15368	15608	15776	15944	16200	16376	16560	16648	16744	16832	16928	19336	20112	0	0	0	0	0	0	0	0	0	0	0	0	0	16200	15368	14912	14544	14136	13744	13744	0	0	0	0	0	0	0	0	0	0	0	0	0	0	0	34056	34056	34056	0	0	0	0	0	0	0	0	0	0	29968	29968	29968	29968	30272	29672	29672	29384	29384	29096	29096	28816	28544	28272	28008	27240	26520	25616	24368	23056	22032	20808	19712	18968	18272	17840	17528	17224	17128	17024	16928	16832	16832	16928	16928	16928	16928	16928	16928	17024	17128	17320	17320	17320	17424	17424	17528	0	0	0	0	0	0	14912	14544	14136	14000	14000	14136	14336	0	0	0	0	0	0	0	23784	23784	23416	23232	23232	23232	23232	23416	23416	23600	23600	23784	23784	23976	24168	24168	24168	24368	24768	25616	26760	29096	33296	38920	52576	52576	55496	58760	0	0	0	0	0	0	0	0	0	13872	13872	13936	0	0	0	0	16288	16288	16832	17128	17528	17840	18160	18496	18728	18848	18968	19088	19088	19088	19208	19208	19208	19208	19208	19088	19088	18968	18968	18968	18968	19088	18968	18848	18848	18848	18848	18968	18968	18848	18848	18848	18848	18848	18848	18728	18728	18728	18616	18616	18616	18616	18616	18616	18616	18616	18616	18728	18728	18728	18728	18728	18728	18728	18848	18848	18848	18848	18728	18728	18728	18616	18496	18496	18384	18272	18160	17424	16832	16832	15776	14760	14272	13808	13624	13440	13264	13088	12920	12752	12592	12488	12384	12280	12232	12136	12136	12080	12032	11984	11896	11800	11704	11664	11664	11664	11616	11528	11528	0	0	0	0	0	0	0	0	0	0	0	0	0	0	0	0	0	0	0	0	0	0	19584	19208	19208	18968	18728	18728	0	0	13376	12384	12384	11984	11896	11800	11752	11568	11480	11352	11224	11144	11016	10936	10816	10624	10408	10408	0	0	0	0	0	0	0	0	0	0	0	0	0	0	0	0	0	0	0	0	0	0	0	0	0	0	0	0	0	0	0	0	0	0	0	0	0	0	0	0	0	0	0	0	0	0	0	0	0	0	0	0	0	0	0	0	0	0	0	0	0	0	0	0	0	0	0	0	0	0	0	0	18968	18848	18848	19088	19088	19336	19584	20112	20528	20960	21256	21256	21408	21560
0	0	0	0	0	0	0	0	0	0	0	0	0	0	0	0	0	0	0	0	0	0	0	0	0	0	0	0	0	0	0	1016	1016	1016	1016	1016	1016	1016	1016	1024	1024	1024	1024	1024	1024	1024	1024	1024	1024	1024	1024	1024	1024	1024	1024	1024	1024	1024	1024	1024	1032	1032	1032	1032	1032	1032	1032	1040	1040	1040	1040	0	0	0	0	0	0	0	0	0	0	0	0	0	0	0	0	0	0	0	0	0	0	0	0	0	0	0	0	0	0	0	0	0	0	1288	1288	1288	1288	1288	1288	1288	1288	1288	1288	1288	1288	1288	1288	1288	1288	1288	1288	1288	1288	1288	1288	1288	1288	1288	1296	1296	1296	1296	1296	1304	1304	1304	1304	1304	1312	1312	1312	1312	1312	1312	1312	1320	1320	1320	1320	1328	1336	0	0	0	0	0	0	0	0	0	0	1392	1392	0	0	0	0	0	0	0	0	0	0	0	0	0	0	1760	1760	1760	1760	1752	1752	1744	1744	1744	1736	1736	1736	1728	1728	0	0	0	0	0	0	0	23976	23416	23056	22704	22200	21872	21712	21712	0	0	0	0	0	0	0	0	0	0	0	0	0	0	20384	19456	18272	17424	16744	16288	15856	15608	15448	15448	15528	15528	15608	15688	15776	15856	15944	16112	16200	16288	16376	16464	16464	16464	16376	16288	16112	16024	15856	15776	15608	15288	15056	14760	14544	14272	14136	13936	13808	13688	13688	13624	13624	13624	13624	13688	13688	13744	13808	13872	13936	14072	14072	14200	14200	14272	14272	14272	14336	14336	14408	14408	14480	14544	14616	14688	14832	14984	15136	15288	15448	15688	15944	16112	16288	16464	16560	16648	16832	16928	0	0	0	0	0	0	0	0	0	0	0	0	0	0	16648	16200	16024	15688	15448	15136	14912	14912	16288	16288	0	0	0	0	0	0	0	0	0	0	0	0	0	34056	34056	34056	0	0	0	0	0	0	0	0	0	30576	29968	29968	29968	29968	30272	29968	29672	29672	29384	29384	29096	28816	28816	28544	28272	27496	26520	25616	24368	23056	21712	20528	19712	18728	18056	17736	17424	17128	17024	16928	16832	16744	16744	16832	16928	16928	17024	17024	17128	17224	17424	17632	17736	17736	17840	17840	0	0	0	0	0	0	0	14408	13808	13200	13200	13200	13320	13624	13808	0	0	0	0	0	0	0	0	23416	23232	22880	22880	23056	23232	23232	23232	23416	23600	23600	23600	23784	23976	23976	23976	24768	25616	26760	29096	33296	38920	0	0	0	0	0	0	0	0	0	0	0	0	13744	13744	13808	13872	14000	14200	14480	0	15776	15776	16200	16744	17224	17528	17944	18272	18496	18616	18728	18848	18968	18968	19088	19088	19088	19208	19208	19088	18968	18968	18968	18968	18968	18968	18968	18848	18848	18848	18848	18848	18848	18728	18728	18728	18728	18728	18616	18616	18616	18616	18616	18616	18496	18496	18496	18496	18496	18496	18496	18616	18616	18728	18728	18728	18728	18728	18728	18848	18848	18848	18728	18728	18728	18616	18616	18384	18384	18272	18056	17224	16648	16648	0	14544	13936	13496	13376	13264	13088	12920	12808	12592	12488	12384	12336	12232	12184	12136	12080	12032	11984	11936	11848	11752	11704	11664	11664	11616	11568	11480	11480	0	0	0	0	0	0	0	0	0	0	0	0	0	0	0	0	0	0	0	0	0	0	0	19208	19208	18968	18728	18728	0	0	13376	12384	12384	11984	11752	11704	11664	11528	11440	11312	11224	11144	11016	10936	10776	10624	10408	10088	10088	0	0	0	0	0	0	0	0	0	0	0	0	0	0	0	0	0	0	0	0	0	0	0	0	0	0	0	0	0	0	0	0	0	0	0	0	0	0	0	0	0	0	0	0	0	0	0	0	0	0	0	0	0	0	0	0	0	0	0	0	0	0	0	0	0	0	0	0	0	0	0	0	18848	18728	18728	18968	19208	19336	19848	20248	20664	21256	21256	21408	21560
0	0	0	0	0	0	0	0	0	0	0	0	0	0	0	0	0	0	0	0	0	0	0	0	0	0	0	0	0	0	0	0	1008	1008	1008	1016	1016	1016	1016	1016	1024	1024	1024	1024	1024	1024	1024	1024	1024	1024	1024	1024	1024	1024	1024	1024	1024	1024	1024	1024	1032	1032	1032	1032	1032	1032	1032	1040	1040	1040	1040	1040	1040	1040	0	0	0	0	0	0	0	0	0	0	0	0	0	0	0	0	0	0	0	0	0	0	0	0	0	0	0	0	0	0	0	1288	1288	1288	1288	1288	1288	1288	1288	1280	1280	1280	1280	1280	1280	1280	1280	1280	1288	1288	1288	1288	1288	1288	1288	1288	1288	1288	1296	1296	1296	1296	1296	1304	1304	1304	1304	1304	1312	1312	1312	1312	1312	1312	1320	1320	1320	1328	1336	0	0	0	0	0	0	0	0	0	0	0	0	0	0	0	0	0	0	0	0	0	0	0	0	0	0	1760	1760	1760	1760	1752	1752	1752	1744	1744	1744	1736	1736	1736	1736	0	0	0	0	0	0	24168	23600	23056	22536	22200	21872	21560	21256	21104	21104	0	0	0	0	0	0	0	0	0	0	0	0	0	20112	18968	17840	17424	16648	16200	15856	15608	15528	15528	15528	15528	15608	15688	15776	15856	15944	16112	16200	16376	16464	16464	16560	16464	16464	16376	16200	16112	15944	15776	15608	15288	15056	14760	14480	14272	14136	13936	13744	13688	13624	13560	13560	13560	13560	13560	13560	13624	13688	13744	13872	13936	14000	14000	14000	14072	14136	14200	14200	14272	14336	14336	14408	14480	14616	14616	14760	14832	15056	15136	15288	15528	15776	16024	16200	16288	16376	16464	16560	0	0	0	0	0	0	0	0	0	0	0	0	0	0	0	16648	16648	16744	16648	16464	16288	16288	16288	16288	16288	0	0	0	0	0	0	0	0	0	0	0	0	0	34056	34056	34056	0	0	0	0	0	0	0	0	30896	30576	30576	0	31216	30576	30576	30576	30272	29968	29968	29968	29672	29384	29096	28816	28272	27496	26056	25616	24168	22704	21408	20248	19336	18496	17840	17424	17224	17024	16832	16744	16744	16744	16744	16832	16928	17024	17128	17224	17424	17632	17840	18160	18384	18496	18616	18728	20248	0	0	0	0	0	0	14408	13808	13200	13200	13200	13320	13440	13624	13744	0	0	0	0	0	0	0	0	0	22880	22880	22880	22880	23056	23056	23056	23232	23232	23416	23416	23416	23976	23976	0	0	0	0	0	0	0	0	0	0	0	0	0	0	0	0	0	0	13744	13744	13808	13872	13936	14200	14408	14760	15136	15528	15944	16464	16832	17320	17736	18056	18384	18496	18616	18728	18728	18848	18968	18968	18968	19088	19208	19088	18968	18968	18968	18968	18968	18968	18968	18848	18848	18848	18848	18728	18616	18616	18496	18496	18496	18496	18496	18496	18496	18496	18496	18496	18384	18384	18384	18384	18496	18496	18496	18496	18616	18616	18728	18728	18728	18728	18728	18728	18728	18848	18728	18728	18616	18616	18496	18384	18272	18272	18056	17128	16464	16464	0	14408	13936	13440	13320	13200	13088	12920	12752	12592	12384	12336	12280	12184	12136	12032	12032	11984	11984	11936	11848	11752	11664	11664	11664	11616	11568	11480	11480	0	0	0	0	0	0	0	0	0	0	0	0	0	0	0	0	0	0	0	0	0	0	0	0	0	0	0	0	0	0	0	11984	11984	0	11752	11704	11664	11440	11352	11264	11224	11144	11056	10976	10776	10624	10408	10088	10088	0	0	0	0	0	0	0	0	0	0	0	0	0	0	0	0	0	0	0	0	0	0	0	0	0	0	0	0	0	0	0	0	0	0	0	0	0	0	0	0	0	0	0	0	0	0	0	0	0	0	0	0	0	0	0	0	0	0	0	0	0	0	0	0	0	0	0	0	0	0	0	0	0	18728	18728	18728	19088	19336	19848	20112	20664	20960	20960	21104	0
0	0	0	0	0	0	0	0	0	0	0	0	0	0	0	0	0	0	0	0	0	0	0	0	0	0	0	0	0	0	0	1008	1008	1008	1008	1008	1016	1016	1016	1016	1016	1024	1024	1024	1024	1024	1024	1024	1024	1024	1024	1024	1024	1024	1024	1024	1024	1024	1024	1024	1032	1032	1032	1032	1032	1032	1032	1032	1040	1040	1040	1040	1040	1040	1040	0	0	0	0	0	0	0	0	0	0	0	0	0	0	0	0	0	0	0	0	0	0	0	0	0	0	0	0	0	1288	1288	1288	1288	1288	1288	1280	1280	1280	1280	1280	1280	1280	1280	1280	1280	1280	1280	1280	1280	1280	1288	1288	1288	1288	1288	1288	1288	1288	1296	1296	1296	1296	1296	1304	1304	1304	1304	1304	1312	1312	1312	1312	1312	1320	1320	1320	1328	1336	1344	0	0	0	0	0	0	0	0	0	0	0	0	0	0	0	0	0	0	0	0	0	0	0	0	0	0	1760	1760	1760	1752	1752	1752	1744	1744	0	0	1736	1736	1736	0	0	0	0	0	0	24168	23600	23056	22536	22200	21872	21560	21256	21104	21104	0	0	0	0	0	0	0	0	0	0	0	0	0	20112	18968	17632	17632	16648	16200	15856	15608	15608	15528	15528	15608	15608	15688	15776	15856	15944	16112	16200	16376	16464	16560	16560	16648	16560	16464	16288	16200	16024	15856	15688	15368	15056	14760	14480	14336	14072	13936	13744	13624	13560	13560	13496	13496	13496	13496	13496	13560	13624	13688	13744	13808	13872	13872	13936	14000	14072	14136	14200	14200	14272	14272	14336	14480	14544	14544	14688	14832	14984	15136	15288	15448	15688	15944	16112	16200	16376	16376	16464	16560	16560	0	0	0	0	0	0	0	0	0	0	0	17320	17224	17224	17024	17024	17320	17128	17128	17128	17128	17224	17320	17528	0	0	0	0	0	0	0	0	0	0	0	0	34056	34056	34056	34056	34056	33672	32928	32928	0	0	31216	30896	30896	30896	31216	31216	31216	31216	30896	30896	30576	30272	30272	29968	29672	29384	28816	28008	27496	26056	24976	23600	22200	20960	19976	19088	18272	17736	17320	17024	16832	16744	16744	16648	16648	16648	16832	16928	17128	17224	17424	17736	17944	18384	18728	19088	19336	19712	19848	20248	0	0	0	0	0	0	0	13808	13808	13264	13264	13320	13440	13560	13560	13624	13688	13872	0	0	0	0	0	0	0	0	22880	22704	22704	22704	22704	22880	23056	23056	23232	23416	0	0	0	0	0	0	0	0	0	0	0	0	0	0	0	0	0	0	0	0	13744	13744	13808	13872	13936	14136	14336	14544	14912	15288	15688	16112	16560	17024	17528	17840	18160	18272	18384	18496	18616	18616	18728	18848	18968	18968	19088	19088	18968	18968	18968	18968	18968	18968	18968	18848	18848	18848	18848	18728	18496	18496	18496	18384	18384	18384	18384	18384	18384	18496	18384	18384	18272	18272	18272	18272	18384	18384	18496	18496	18496	18616	18616	18728	18728	18728	18728	18728	18728	18728	18728	18616	18616	18496	18496	18384	18272	18160	17944	17128	16464	16464	0	14408	13936	13440	13320	13200	13088	12920	12752	12536	12384	12280	12184	12136	12080	12032	11936	11936	11984	11848	11800	11664	11664	11664	11664	11616	11616	11568	11568	0	0	0	0	0	0	0	0	0	0	0	0	0	0	0	0	0	0	0	0	0	0	0	0	0	0	0	0	0	0	0	11984	11616	11616	11616	11568	11480	11392	11352	11264	11264	11184	11096	11016	10856	10664	10368	10368	0	0	0	0	0	0	0	0	0	0	0	0	0	0	0	0	0	0	0	0	0	0	0	0	0	0	0	0	0	0	0	0	0	0	0	0	0	0	0	0	0	0	0	0	0	0	0	0	0	0	0	0	0	0	0	0	0	0	0	0	0	0	0	0	0	0	0	0	0	0	0	0	0	0	0	18728	18728	19088	19336	19848	20112	20664	20960	20960	21104	0
0	0	0	0	0	0	0	0	0	0	0	0	0	0	0	0	0	0	0	0	0	0	1000	1000	1000	0	1000	1000	1000	1000	1000	1008	1008	1008	1008	1008	1008	1016	1016	1016	1016	1016	1016	1024	1024	1024	1024	1024	1024	1024	1024	1024	1024	1024	1024	1024	1024	1024	1024	1024	1024	1032	1032	1032	1032	1032	1032	1032	1040	1040	1040	1040	1040	1040	1040	0	0	0	0	0	0	0	0	0	0	0	0	0	0	0	0	0	0	0	0	0	0	0	0	0	0	0	0	0	1288	1288	1288	1288	1288	1280	1280	1280	1280	1280	1280	1280	1280	1280	1280	1280	1280	1280	1280	1280	1280	1280	1288	1288	1288	1288	1288	1288	1288	1288	1296	1296	1296	1296	1296	1304	1304	1304	1304	1304	1304	1312	1312	1312	1312	1320	1320	1328	1336	1344	1368	1368	1368	0	0	0	0	0	0	0	0	0	0	0	0	0	0	0	0	0	0	0	0	0	0	0	0	0	0	1752	1752	1752	1744	1744	0	0	0	0	0	0	0	0	0	0	0	0	0	0	0	0	0	0	0	0	0	0	0	0	0	0	0	0	0	0	0	0	0	0	0	0	17632	17632	16376	16112	15944	15688	15608	15608	15608	15688	15688	15776	15776	15944	16024	16200	16288	16464	16560	16648	16648	16648	16560	16464	16376	16288	16112	15944	15776	15448	15136	14832	14544	14336	14072	13936	13744	13624	13560	13560	13496	13496	13496	13496	13496	13560	13560	13624	13744	13808	13808	13872	13936	13936	14000	14072	14136	14200	14272	14272	14336	14480	14544	14544	14688	14832	14984	15056	15216	15448	15688	15944	16024	16200	16288	16288	16376	16464	16560	0	0	0	0	0	0	0	0	0	0	0	17320	17224	17224	17224	17320	17320	17320	17320	17320	17320	17424	17528	17528	0	0	0	0	0	0	0	0	0	0	0	0	34056	34056	34056	34056	34056	33672	32928	32928	32576	32224	31216	31216	31216	31216	31216	31216	31544	31216	31216	31216	30896	30576	30576	30272	29968	29384	28816	28008	26760	25400	24168	22880	21560	20528	19584	18848	18056	17528	17224	16928	16744	16648	16648	16648	16648	16648	16744	17024	17224	17424	17736	18056	18384	18848	19336	19712	20112	20528	20664	20960	22032	0	0	20664	20664	0	0	0	0	0	13376	13376	13496	13560	13560	13624	13688	13808	0	0	0	0	0	0	0	0	0	22536	22536	22536	22536	22704	22704	22880	22536	22536	0	0	0	0	0	0	0	0	0	0	0	0	0	0	0	0	0	0	0	0	13744	13744	13808	13872	13936	14072	14272	14408	14760	15136	15528	15856	16288	16744	17320	17632	17944	18160	18160	18272	18384	18496	18616	18728	18848	18848	18968	18968	18968	18968	18968	18968	19088	18968	18968	18968	18968	18848	18848	18728	18496	18384	18272	18272	18272	18272	18272	18272	18272	18272	18384	18384	18272	18272	18272	18272	18384	18384	18384	18496	18496	18496	18616	18616	18616	18616	18616	18728	18728	18728	18728	18616	18616	18496	18496	18272	18160	18056	17944	17128	16464	16464	0	14480	13936	13440	13320	13200	13088	12920	12696	12488	12336	12232	12184	12080	11984	11936	11896	11896	11800	11800	11704	11664	11616	11616	11664	11664	11664	11664	11664	0	0	0	0	0	0	0	0	0	0	0	0	0	0	0	0	0	0	0	0	0	0	0	0	0	0	0	0	0	0	0	0	11616	11616	11616	11440	11392	11312	11264	11264	11224	11144	11056	10976	10776	10592	10224	10224	0	0	0	0	0	0	0	0	0	0	0	0	0	0	0	0	0	0	0	0	0	0	0	0	0	0	0	0	0	0	0	0	0	0	0	0	0	0	0	0	0	0	0	0	0	0	0	0	0	0	0	0	0	0	0	0	0	0	0	0	0	0	0	0	0	0	0	0	0	0	0	0	0	0	0	0	0	0	0	0	0	0	0	0	0	0
0	0	0	0	0	0	0	0	0	0	0	0	0	0	0	0	0	0	0	0	0	0	1000	1000	1000	1000	1000	1000	1000	1000	1000	1000	1008	1008	1008	1008	1008	1008	1016	1016	1016	1016	1016	1016	1016	1016	1016	1024	1024	1024	1024	1024	1024	1024	1024	1024	1024	1024	1024	1024	1024	1032	1032	1032	1032	1032	1032	1032	1032	1032	1040	1040	1040	1040	1040	0	0	0	0	0	0	0	0	0	0	0	0	0	0	0	0	0	0	0	0	0	0	0	0	0	0	0	0	1288	1288	1288	1288	1288	1280	1280	1280	1280	1280	1280	1280	1280	1280	1280	1280	1280	1280	1280	1280	1280	1280	1280	1280	1280	1280	1288	1288	1288	1288	1288	1288	1288	1296	1296	1296	1296	1296	1304	1304	1304	1304	1304	1312	1312	1312	1320	1320	1328	1344	1352	1368	1368	1368	0	0	0	0	0	0	0	0	0	0	0	0	0	0	0	0	0	0	0	0	0	0	0	0	0	0	0	0	1752	1752	1752	0	0	0	0	0	0	0	0	0	0	0	0	0	0	0	0	0	0	0	0	0	0	0	0	0	0	0	0	0	0	0	0	0	0	0	0	0	0	16376	16112	15944	15776	15688	15688	15776	15776	15856	15856	15944	16024	16112	16288	16376	16560	16648	16648	16744	16744	16744	16648	16464	16464	16288	16112	15856	15608	15288	14984	14616	14480	14200	14000	13808	13688	13624	13560	13496	13496	13496	13496	13496	13560	13560	13624	13688	13808	13808	13872	13936	13936	14000	14072	14136	14200	14272	14272	14336	14480	14544	14544	14688	14832	14984	15056	15216	15448	15688	15944	16024	16112	16288	16288	16376	16376	0	0	0	0	0	0	0	0	0	0	0	0	17840	17840	18384	17840	17840	17944	17944	17840	17840	17840	17840	17944	18496	0	0	0	0	0	0	0	0	0	0	0	0	34056	34056	34056	34056	34056	33672	33296	32928	32576	32224	32224	32224	32224	32224	32224	32224	31880	31880	31880	31544	31544	31216	30896	30576	30272	29384	28816	28008	26520	24768	23600	22200	20960	19976	19208	18496	17840	17320	17128	16832	16648	16560	16560	16560	16560	16648	16744	17128	17320	17632	18056	18384	18848	19336	19848	20248	20664	21256	21408	21712	22032	0	22368	20664	20664	0	0	0	0	13496	13440	13440	13560	13624	13624	13624	13688	13808	13936	0	0	0	0	0	0	0	0	22536	22200	22200	22368	22368	22368	22368	22536	22536	0	0	0	0	0	0	0	0	0	0	0	0	0	0	0	0	0	0	0	0	13744	13744	13808	13872	14000	14072	14200	14336	14688	15056	15368	15776	16200	16648	17024	17528	17736	17944	18056	18160	18272	18272	18384	18496	18616	18728	18848	18968	18968	18968	19088	19088	19088	19088	19088	19088	18968	18968	18848	18728	18496	18384	18272	18272	18272	18272	18272	18272	18272	18272	18384	18384	18272	18272	18272	18272	18384	18384	18384	18496	18496	18496	18496	18616	18616	18616	18616	18616	18616	18616	18616	18616	18496	18496	18384	18272	18160	18056	17944	17224	16560	16560	15528	14688	14072	13560	13320	13200	13088	12864	12696	12488	12336	12232	12136	12032	11984	11896	11848	11800	11752	11704	11664	11616	11616	11616	11616	11616	11664	11704	0	0	0	0	0	0	0	0	0	0	0	0	0	0	0	0	0	0	0	0	0	0	0	0	0	0	0	0	0	0	0	0	0	0	0	0	11312	11264	11144	11144	11096	11056	10976	10856	10776	10552	10552	10224	10224	0	0	0	0	0	0	0	0	0	0	0	0	0	0	0	0	0	0	0	0	0	0	0	0	0	0	0	0	0	0	0	0	0	0	0	0	0	0	0	0	0	0	0	0	0	0	0	0	0	0	0	0	0	0	0	0	0	0	0	0	0	0	0	0	0	0	0	0	0	0	0	0	0	0	0	0	0	0	0	0	0	0	0	0	0	0
0	0	0	0	0	0	0	0	0	0	0	0	0	0	0	0	0	0	0	0	0	1000	1000	1000	1000	1000	1000	1000	1000	1000	1000	1000	1000	1000	1008	1008	1008	1008	1008	1016	1016	1016	1016	1016	1016	1016	1016	1016	1016	1016	1016	1016	1024	1024	1024	1024	1024	1024	1024	1024	1024	1032	1032	1032	1032	1032	1032	1032	1032	1032	1040	1040	1040	1040	1040	0	0	0	0	0	0	0	0	0	0	0	0	0	0	0	0	0	0	0	0	0	0	0	0	0	0	0	0	1288	1288	1288	1288	1288	1280	1280	1280	1280	1280	1280	1280	1280	1280	1280	1280	1280	1280	1280	1280	1280	1280	1280	1280	1280	1280	1280	1280	1288	1288	1288	1288	1288	1288	1296	1296	1296	1296	1296	1296	1304	1304	1304	1304	1312	1312	1320	1320	1336	1344	1352	0	0	0	0	0	0	0	0	0	0	0	0	0	0	0	0	0	0	0	0	0	0	0	0	0	0	0	0	0	0	0	1760	1752	1752	0	0	0	0	0	0	0	0	0	0	0	0	0	0	0	0	0	0	0	0	0	0	0	0	0	0	0	0	0	0	0	0	0	0	0	0	0	0	16376	16200	16024	15856	15856	15856	15856	15944	15944	16024	16112	16200	16288	16376	16560	16560	16648	16744	16744	16832	16832	16744	16648	16560	16376	16200	16024	15688	15448	15136	14832	14544	14336	14136	14000	13872	13744	13688	13624	13624	13560	13560	13560	13560	13624	13624	13688	13808	13808	13872	13936	13936	14072	14136	14200	14272	14336	14336	14408	14544	14544	14616	14760	14832	14984	15136	15288	15448	15688	15944	16024	16112	16288	16288	16376	16376	0	0	0	0	0	0	0	0	0	0	0	0	18384	18384	18384	18384	18384	18384	18384	18272	18272	18384	18384	18384	18496	0	0	0	0	0	0	0	0	0	0	0	0	34056	34056	34448	34848	35256	35680	0	0	0	0	36104	35680	34848	34448	34056	34056	33672	32928	32576	32576	31880	31880	31216	30896	30272	29968	28816	27496	25832	23976	23600	21408	20384	19584	18728	18160	17632	17224	16928	16832	16648	16560	16560	16560	16560	16648	16832	17128	17528	17944	18384	18968	19456	19976	20528	20960	21256	21712	22032	22032	22200	22880	22368	21712	21712	0	0	0	0	13496	13496	13560	13624	13688	13744	13744	13808	13808	13936	0	0	0	0	0	0	0	0	0	22200	22200	22368	22368	22368	22368	22032	22032	0	0	0	0	0	0	0	0	0	0	0	0	0	0	0	0	0	0	0	0	13688	13688	13744	13872	13936	14072	14136	14336	14688	15056	15368	15776	16112	16560	17024	17424	17736	17736	17840	17944	18056	18160	18272	18384	18496	18616	18728	18848	18848	18848	18968	19088	19088	19208	19088	19088	18968	18968	18968	18728	18496	18384	18384	18272	18272	18272	18272	18272	18272	18272	18384	18384	18272	18272	18384	18384	18384	18496	18496	18496	18496	18496	18496	18616	18496	18496	18496	18616	18616	18616	18496	18496	18496	18384	18384	18160	18160	18056	17840	17320	16744	16744	15528	14832	14272	13624	13376	13200	13088	12864	12696	12488	12336	12232	12080	11984	11936	11848	11800	11800	11752	11704	11616	11568	11568	11616	11616	11616	0	0	0	0	0	0	0	0	0	0	0	0	0	0	0	0	0	0	0	0	0	0	0	0	0	0	0	0	0	0	0	0	0	0	0	0	0	0	11312	11264	11144	11144	11096	11016	10976	10856	10776	10552	10552	0	0	0	0	0	0	0	0	0	0	0	0	0	0	0	0	0	0	0	0	0	0	0	0	0	0	0	0	0	0	0	0	0	0	0	0	0	0	0	0	0	0	0	0	0	0	0	0	0	0	0	0	0	0	0	0	0	0	0	0	0	0	0	0	0	0	0	0	0	0	0	0	0	0	0	0	0	0	0	0	0	0	0	0	0	0	0	0
0	0	0	0	0	0	0	0	0	0	0	0	0	0	0	0	0	0	0	0	1000	1000	1000	1000	1000	1000	1000	1000	1000	1000	1000	1000	1000	1000	1008	1008	1008	1008	1008	1008	1016	1016	1016	1016	1016	1016	1016	1016	1016	1016	1016	1016	1016	1016	1024	1024	1024	1024	1024	1024	1024	1024	1024	1032	1032	1032	1032	1032	1032	1032	1040	1040	1040	1040	1040	0	0	0	0	0	0	0	0	0	0	0	0	0	0	0	0	0	0	0	0	0	0	0	0	0	0	0	0	1280	1280	1280	1280	1280	1280	1280	1280	1280	1280	1280	1280	1280	1280	1280	1280	1280	1280	1280	1280	1280	1280	1280	1280	1280	1280	1280	1280	1280	1288	1288	1288	1288	1288	1288	1296	1296	1296	1296	1296	1296	1304	1304	1304	1312	1312	1320	1320	1336	1352	1360	0	0	0	0	0	0	0	0	0	0	0	0	0	0	0	0	0	0	0	0	0	0	0	0	0	0	0	0	0	0	0	1784	1784	0	0	0	0	0	0	0	0	0	0	0	0	0	0	0	0	0	0	0	0	0	0	0	0	0	0	0	0	0	0	0	0	0	0	0	0	0	0	0	0	16376	16200	16024	15944	15944	16112	16112	16200	16200	16288	16376	16464	16560	16648	16648	16744	16832	16928	16928	16928	16832	16744	16744	16560	16464	16288	15944	15608	15288	15056	14832	14616	14408	14200	14072	14000	13936	13872	13808	13688	13688	13624	13624	13688	13688	13744	13808	13872	13872	13936	14000	14136	14200	14272	14336	14408	14480	14544	14616	14688	14760	14912	14984	15136	15216	15288	15448	15688	15944	16024	16200	16288	16376	16464	0	0	0	0	0	0	0	0	0	0	0	0	18848	18728	18728	18728	18728	18728	18728	18728	18728	18728	18728	18728	0	0	0	0	0	0	0	0	0	0	0	0	0	0	0	0	0	0	0	0	0	0	0	0	41056	41056	0	0	36104	35256	34848	33672	32576	31880	31880	31880	31216	30896	30272	29672	28272	26760	25832	23976	21872	20808	19848	19088	18384	17944	17424	17128	16928	16744	16648	16560	16560	16560	16648	16744	17024	17424	17736	18272	18848	19456	20112	20528	21104	21560	21872	22200	22368	22536	22704	22880	22880	23056	0	0	0	0	0	15288	13808	13808	13872	13872	14072	14072	14336	14480	14760	0	0	0	0	0	0	0	0	0	22704	22704	22704	22704	22704	22704	22032	22032	0	0	0	0	0	0	0	0	0	0	0	0	0	0	0	0	0	0	0	0	13688	13688	13744	13808	13936	14072	14136	14336	14688	15056	15368	15776	16112	16560	17024	17320	17632	17736	17840	17944	18056	18160	18160	18272	18384	18496	18616	18728	18728	18848	18968	18968	19088	19088	19208	19088	19088	19088	18968	18728	18616	18496	18384	18384	18272	18272	18272	18272	18384	18384	18496	18384	18384	18384	18384	18496	18496	18496	18496	18496	18496	18616	18616	18616	18496	18496	18496	18496	18496	18616	18496	18496	18384	18384	18272	18160	18056	17944	17840	17424	16928	16464	16464	15136	14480	13744	13376	13200	13088	12864	12696	12488	12280	12184	12032	11936	11896	11800	11800	11752	11704	11664	11616	11568	11568	11704	11616	11616	0	0	0	0	0	0	0	0	0	0	0	0	0	0	0	0	0	0	0	0	0	0	0	0	0	0	0	0	0	0	0	0	0	0	0	0	0	0	0	0	11144	11144	11096	11016	10976	10976	0	0	0	0	0	0	0	0	0	0	0	0	0	0	0	0	0	0	0	0	0	0	0	0	0	0	0	0	0	0	0	0	0	0	0	0	0	0	0	0	0	0	0	0	0	0	0	0	0	0	0	0	0	0	0	0	0	0	0	0	0	0	0	0	0	0	0	0	0	0	0	0	0	0	0	0	0	0	0	0	0	0	0	0	0	0	0	0	0	0	0
0	0	0	0	0	0	0	0	0	0	0	0	0	0	0	0	0	0	0	1008	1000	1000	1000	1000	1000	1000	1000	1000	1000	1000	1000	1000	1000	1000	1000	1008	1008	1008	1008	1008	1008	1016	1016	1016	1016	1016	1016	1016	1016	1016	1016	1016	1016	1016	1016	1024	1024	1024	1024	1024	1024	1024	1024	1032	1032	1032	1032	1032	1032	1032	0	0	0	0	0	0	0	0	0	0	0	0	0	0	0	0	0	0	0	0	0	0	0	0	0	0	0	0	0	0	1280	1280	1280	1280	1280	1280	1280	1280	1280	1280	1280	1280	1280	1280	1280	1280	1280	1280	1280	1280	1280	1280	1280	1280	1280	1280	1280	1280	1280	1280	1280	1280	1280	1288	1288	1288	1288	1288	1288	1296	1296	1296	1296	1296	1296	1296	1312	1312	1312	1320	1328	1336	1352	1360	0	0	0	0	0	0	0	0	0	0	0	0	0	0	0	0	0	0	0	0	0	0	0	0	0	0	0	0	0	0	0	0	0	0	0	0	0	0	0	0	0	0	0	0	0	0	0	0	0	0	17736	17736	17944	0	0	0	0	0	0	0	0	0	0	0	0	0	0	0	0	0	0	0	0	17224	16464	16376	16288	16288	16376	16376	16464	16464	16464	16560	16648	16648	16744	16832	16832	16832	16928	16928	16928	16928	16928	16832	16744	16560	16464	16200	15856	15608	15368	15216	15056	14832	14616	14408	14336	14272	14136	14000	13872	13808	13744	13744	13744	13744	13808	13872	13936	14000	14072	14136	14200	14336	14336	14480	14616	14616	14760	14760	14912	14984	15056	15136	15288	15368	15448	15528	15776	15944	16112	16200	16376	16560	0	0	0	0	0	0	0	0	0	0	0	0	19088	18848	18848	18848	18848	18848	18848	18848	18848	18848	18848	18848	19088	19208	0	0	0	0	0	0	0	0	0	0	0	0	0	0	0	0	0	0	0	0	0	0	0	41056	41056	41056	41056	0	0	35256	32928	31880	31880	31880	31216	30272	29384	28272	27496	27496	26760	26760	0	20960	19976	19336	18616	18160	17736	17320	17128	16928	16744	16648	16648	16648	16648	16744	16928	17224	17528	18056	18616	19208	19848	20664	21256	21712	22200	22536	22880	22880	22880	23056	23232	23232	23416	0	0	0	0	0	15288	15216	15056	14912	14912	15216	15216	15448	15856	0	0	0	0	0	0	0	0	0	0	23416	23232	23232	23232	23232	23232	22704	22704	0	0	0	0	0	0	0	0	0	0	0	0	0	0	0	0	0	0	0	0	0	0	13808	13808	13936	14072	14136	14336	14688	15136	15448	15856	16200	16648	17024	17320	17632	17736	17840	17840	17944	18056	18056	18160	18272	18384	18496	18616	18728	18848	18848	18968	19088	19088	19208	19208	19208	19208	19088	18848	18616	18496	18496	18384	18384	18384	18384	18384	18384	18496	18496	18496	18616	18616	18616	18616	18616	18616	18616	18616	18616	18616	18616	18616	18496	18496	18496	18496	18496	18496	18496	18384	18384	18272	18272	18160	18056	17944	17840	17424	17128	16464	16464	0	0	14072	13376	13376	0	12920	12696	12488	12280	12184	12032	11936	11848	11800	11752	11752	11704	11664	11616	11568	11568	0	0	0	0	0	0	0	0	0	0	0	0	0	0	0	0	0	0	0	0	0	0	0	0	0	0	0	0	0	0	0	0	0	0	0	0	0	0	0	0	0	0	0	0	0	0	0	0	0	0	0	0	0	0	0	0	0	0	0	0	0	0	0	0	0	0	0	0	0	0	0	0	0	0	0	0	0	0	0	0	0	0	0	0	0	0	0	0	0	0	0	0	0	0	0	0	0	0	0	0	0	0	0	0	0	0	0	0	0	0	0	0	0	0	0	0	0	0	0	0	0	0	0	0	0	0	0	0	0	0	0	0	0	0	0	0	0	0	0	0
0	0	0	0	0	0	0	0	0	0	0	0	0	0	0	0	0	0	1008	1000	1000	1000	1000	1000	1000	1000	1000	1000	1000	1000	1000	1000	1000	1000	1000	1008	1008	1008	1008	1008	1008	1008	1008	1016	1016	1016	1016	1016	1016	1016	1016	1016	1016	1016	1016	1016	1024	1024	1024	1024	1024	1024	1024	1024	1024	1032	1032	0	0	0	0	0	0	0	0	0	0	0	0	0	0	0	0	0	0	0	0	0	0	0	0	0	0	0	0	0	0	0	1280	1280	1280	1280	1280	1280	1280	1280	1280	1280	1280	1280	1280	1280	1280	1280	1280	1280	1280	1280	1280	1280	1280	1280	1280	1280	1280	1280	1280	1280	1280	1280	1280	1280	1280	1280	1288	1288	1288	1288	1288	1288	1288	1296	1296	1296	1296	1296	0	0	0	0	0	1352	1352	0	0	0	0	0	0	0	0	0	0	0	0	0	0	0	0	0	0	0	0	0	0	0	0	0	0	0	0	0	0	0	0	0	0	0	0	0	0	0	0	0	0	0	0	0	0	0	0	0	0	17528	17528	17736	17944	18272	18496	18728	19088	19456	19848	20248	20664	20960	0	21256	21256	21408	21408	21104	20664	19712	18968	18384	18056	17224	17024	16832	16744	16744	16744	16744	16744	16744	16744	16744	16832	16832	16832	16832	16832	16928	16928	16928	17024	16928	16928	16832	16744	16744	16648	16376	16200	16024	15776	15688	15448	15288	15136	14912	14760	14616	14408	14200	14072	13936	13808	13808	13808	13872	13872	13936	14000	14072	14136	14200	14336	14408	14408	14616	14616	14760	14912	14984	14984	15056	15216	15288	15448	15448	15528	15608	15776	16024	16112	16288	16464	16648	16744	16928	17024	0	0	0	0	0	0	0	0	19088	19088	18968	18968	18968	19088	19088	19088	19088	19088	19088	19088	19088	19088	19208	19336	19336	0	0	0	0	0	0	0	0	0	0	0	0	0	0	0	0	0	0	0	0	0	43432	42808	41056	41056	39432	36104	33672	32928	31880	30272	29672	29672	28544	27496	26520	25616	25616	0	0	0	20960	19976	18848	18272	17944	17528	17224	17024	16832	16744	16648	16648	16648	16648	16744	17024	17320	17736	18272	18848	19584	20384	21104	21560	22200	22536	22880	23056	23232	23416	23416	23416	23416	23600	0	0	0	0	0	0	16560	16200	15944	15944	16200	16200	0	0	0	0	0	0	0	0	0	0	0	0	0	23784	23784	23784	23784	23784	23056	23056	0	0	0	0	0	0	0	0	0	0	0	0	0	0	0	0	0	0	0	0	0	0	0	0	0	14136	14136	14408	14832	15216	15608	16024	16376	16744	17024	17424	17632	17736	17736	17736	17840	17944	17944	18056	18056	18160	18272	18496	18496	18728	18848	18848	18968	19088	19208	19336	19336	19208	19088	18968	18728	18616	18496	18496	18496	18496	18384	18384	18496	18616	18616	18728	18728	18728	18728	18728	18728	18728	18728	18728	18728	18616	18616	18616	18496	18496	18496	18496	18496	18496	18496	18384	18384	18272	18272	18160	18056	17944	17840	17528	17224	16744	16744	0	0	14072	13376	13376	0	12920	12696	12536	12280	12184	12032	11936	11848	11848	11752	11752	11704	11664	11616	11616	0	0	0	0	0	0	0	0	0	0	0	0	0	0	0	0	0	0	0	0	0	0	0	0	0	0	0	0	0	0	0	0	0	0	0	0	0	0	0	0	0	0	0	0	0	0	0	0	0	0	0	0	0	0	0	0	0	0	0	0	0	0	0	9280	9280	9640	0	0	0	0	0	0	0	0	0	0	0	0	0	0	0	0	0	0	0	0	0	0	0	0	0	0	0	0	0	0	0	0	0	0	0	0	0	0	0	0	0	0	0	0	0	0	0	0	0	0	0	0	0	0	0	0	0	0	0	0	0	0	0	0	0	0	0	0	0	0	0	0	0	0	0
0	0	0	0	0	0	0	0	0	0	0	0	0	0	1016	1016	0	1008	1008	1000	1000	1000	1000	1000	1000	1000	1000	1000	1000	1000	1000	1000	1000	1000	1000	1008	1008	1008	1008	1008	1008	1008	1008	1008	1008	1008	1008	1016	1016	1016	1016	1016	1016	1016	1016	1016	1016	1024	1024	1024	1024	1024	1024	1024	1024	1032	0	0	0	0	0	0	0	0	0	0	0	0	0	0	0	0	0	0	0	0	0	0	0	0	0	0	0	0	0	0	0	0	1280	1280	1280	1280	1280	1280	1280	1280	1280	1280	1280	1280	1280	1280	1280	1280	1280	1280	1280	1280	1280	1280	1280	1280	1280	1280	1280	1280	1280	1280	1280	1280	1280	1280	1280	1280	1280	1288	1288	1288	1288	1288	1288	1288	1296	1296	1296	0	0	0	0	0	0	0	0	0	0	0	0	0	0	0	0	0	0	0	0	0	0	0	0	0	0	0	0	0	0	0	0	0	0	0	0	0	0	0	0	0	0	0	0	0	0	0	0	0	0	0	0	0	0	0	0	0	0	17528	17528	17736	17944	18272	18496	18728	19088	19456	19848	20248	20664	20960	21104	21256	21256	21408	21408	21104	20664	19712	18968	18384	18056	17736	17528	17320	17224	17224	17224	17224	17128	17128	17128	17024	17024	17024	17024	16928	16928	16928	16928	16928	17024	17024	16928	16928	16928	16832	16832	16744	16648	16560	16464	16464	16376	16200	16024	15856	15528	15216	14984	14616	14408	14200	14000	14000	14000	14000	14000	14072	14136	14200	14272	14336	14408	14480	14480	14616	14616	14832	14912	15056	15056	15216	15368	15368	15528	15608	15688	15776	15856	16024	16112	16288	16464	16648	16744	16928	17024	0	0	0	0	0	0	18968	18968	19088	19088	19088	19088	19088	19208	19208	19208	19336	19336	19336	19336	19336	19336	19336	19336	19336	0	0	0	0	0	0	0	0	0	0	0	0	0	0	0	0	0	0	0	0	0	49128	47568	44728	42808	39432	36104	33672	31216	29968	28816	28008	28008	27000	26056	24768	23976	23232	23232	0	0	19336	18848	18384	17944	17736	17424	17128	16928	16832	16744	16648	16648	16744	16744	16832	17128	17424	17944	18496	19208	19848	20664	21408	22032	22536	22880	23056	23416	23416	23416	23416	23600	23600	23784	23784	23784	0	0	0	0	0	17736	17424	17424	18496	18496	0	20808	20808	20808	0	0	0	0	25184	24976	24976	24768	24768	24768	24768	24768	24768	24768	23784	23784	0	0	0	0	0	0	0	0	0	0	0	0	0	0	0	0	0	0	0	0	0	0	0	0	0	0	0	0	0	15776	15776	16112	16464	16832	17128	17424	17632	17632	17632	17736	17840	17840	17840	17944	18056	18160	18160	18272	18384	18496	18616	18728	18848	19088	19088	19456	19456	19336	19208	18968	18848	18728	18616	18496	18496	18496	18496	18616	18616	18728	18848	18848	18848	18848	18848	18848	18848	18848	18848	18728	18728	18728	18616	18616	18496	18496	18496	18496	18496	18496	18496	18384	18384	18272	18272	18160	18056	17944	17840	17632	17424	17024	17024	0	0	0	13624	13496	13440	13144	12864	12648	12432	12232	12032	11984	11896	11848	11848	11752	11752	11704	11616	11616	0	0	0	0	0	0	0	0	0	0	0	0	0	0	0	0	0	0	0	0	0	0	0	0	0	0	0	0	0	0	0	0	0	0	0	0	0	0	0	0	0	0	0	0	0	0	0	0	0	0	0	0	0	0	0	0	0	0	0	0	0	0	0	9280	9280	9640	0	0	0	11224	11224	11440	0	0	0	0	0	0	0	0	0	0	0	0	0	0	0	0	0	0	0	0	0	0	0	0	0	0	0	0	0	0	0	0	0	0	0	0	0	0	0	0	0	0	0	0	0	0	0	0	0	0	0	0	0	0	0	0	0	0	0	0	0	0	0	0	0	0	0	0	0
0	0	0	0	0	0	0	0	0	0	0	0	0	1016	1016	1016	1008	1008	1008	1000	1000	1000	1000	1000	1000	1000	1000	1000	1000	1000	1000	1000	1000	1000	1000	1008	1008	1008	1008	1008	1008	1008	1008	1008	1008	1008	1008	1008	1008	1008	1008	1008	1016	1016	1016	1016	1016	1016	1024	1024	1024	1024	1024	1024	1024	0	0	0	0	0	0	0	0	0	0	0	0	0	0	0	0	0	0	0	0	0	0	0	0	0	0	0	0	0	0	0	0	0	1280	1280	1280	1280	1280	1280	1280	1280	1280	1280	1280	1280	1280	1280	1280	1280	1280	1280	1280	1280	1280	1280	1280	1280	1280	1280	1280	1280	1280	1280	1280	1280	1280	1280	1280	1280	1280	1280	1288	1288	1288	1288	1288	1288	1288	1288	1296	0	0	0	0	0	0	0	0	0	0	0	0	0	0	0	0	0	0	0	0	0	0	0	0	0	0	0	0	0	0	0	0	0	0	0	0	0	0	0	0	0	0	0	0	0	0	0	0	0	0	0	0	0	0	0	0	0	0	17528	17528	17736	17944	18384	18616	18848	19088	19584	19976	20384	20664	20960	21104	21256	21256	21408	21408	21256	21104	20248	19584	18968	18968	18272	18056	17736	17736	17632	17632	17528	17528	17424	17320	17224	17128	17128	17024	17024	17024	16928	16928	16928	16928	16928	16928	16928	16928	16928	17024	16928	16928	17128	17224	17320	17528	17320	17128	16832	16648	16200	15688	15368	14832	14544	14336	14272	14200	14200	14200	14272	14336	14408	14480	14544	14616	14688	14760	14832	14984	15056	15216	15368	15448	15528	15608	15688	15776	15856	15944	16024	16112	16200	16288	16464	16744	17024	17128	17320	0	0	0	0	0	0	0	18848	18848	18968	19208	19208	19208	19208	19336	19336	19336	19456	19456	19456	19584	19456	19456	19456	19456	19584	0	0	0	0	0	0	0	0	0	0	0	0	0	0	0	0	0	0	0	0	0	0	0	49128	46104	39432	36104	33672	29672	28272	27240	26520	25400	25400	26056	24768	23976	23232	23232	20248	20248	19336	18384	18056	17736	17528	17224	17024	16832	16744	16744	16744	16744	16744	16832	16928	17224	17528	18160	18616	19336	20112	20808	21560	22200	22704	23056	23416	23416	23600	23600	23784	23600	23600	23784	23784	23416	22536	21104	19976	19712	19584	19336	19088	19088	18496	18496	20112	20808	20808	20808	0	0	0	25400	25184	24976	24976	24768	24768	24768	24768	24768	24768	24768	23784	23784	0	0	0	0	0	0	0	0	0	0	0	0	0	0	0	0	0	0	0	0	0	0	0	0	0	0	0	0	0	0	16376	16376	16744	16928	17128	17320	17424	17528	17528	17632	17736	17736	17840	17840	17944	17944	18056	18160	18272	18384	18496	18616	18728	18848	19088	19336	19456	19456	19336	19088	18848	18728	18728	18616	18616	18616	18616	18728	18848	18968	18968	19088	19088	19088	19088	19088	19088	18968	18848	18848	18848	18728	18728	18616	18616	18496	18496	18496	18496	18496	18496	18384	18384	18272	18272	18160	18160	17944	17944	17840	17632	17224	17224	0	0	0	13624	13496	13440	13264	13032	12696	12696	0	12080	12032	11936	11896	11848	11800	11800	11752	11752	11848	0	0	0	0	0	0	0	0	0	0	0	0	0	0	0	0	0	0	0	0	0	0	0	0	0	0	0	0	0	0	0	0	0	0	0	0	0	0	0	0	0	0	0	0	0	0	0	0	0	0	0	0	0	0	0	0	0	0	0	10744	10744	0	0	0	0	0	0	11056	11056	11184	11224	11440	11480	11480	11440	11440	0	0	0	0	0	0	0	0	0	0	0	0	0	0	0	0	0	0	0	0	0	0	0	0	0	0	0	0	0	0	0	0	0	0	0	0	0	0	0	0	0	0	0	0	0	0	0	0	0	0	0	0	0	0	0	0	0	0	0	0	0	0	0	0	0
0	0	0	0	0	0	0	0	0	0	0	0	0	1016	1016	1016	1008	1008	1000	1000	1000	1000	1000	1000	1000	1000	1000	1000	1000	1000	1000	1000	1000	1000	1008	1008	1008	1008	1008	1008	1008	1008	1008	1008	1008	1008	1008	1008	1008	1008	1008	1008	1016	1016	1016	1016	1016	1016	1016	1024	1024	1024	1024	1024	0	0	0	0	0	0	0	0	0	0	0	0	0	0	0	0	0	0	0	0	0	0	0	0	0	0	0	0	0	0	0	0	0	0	1280	1280	1280	1280	1280	1280	1280	1280	1280	1280	1280	1280	1280	1280	1280	1280	1280	1280	1280	1280	1280	1280	1272	1272	1272	1272	1272	1272	1272	1280	1280	1280	1280	1280	1280	1280	1280	1280	1288	1288	1288	1288	1288	1288	1288	1288	1296	1296	0	0	0	0	0	0	0	0	0	0	0	0	0	0	0	0	0	0	0	0	0	0	0	0	0	0	0	0	0	0	0	0	0	0	0	0	0	0	0	0	0	0	0	0	0	0	0	0	0	0	0	0	0	0	0	0	17528	17528	17528	17736	17944	18384	18616	18848	19208	19584	20112	20384	20664	21104	21104	21408	21712	21712	21712	21712	21560	20808	20248	19584	19584	18728	18496	18272	18160	18160	18056	17944	17736	17736	17528	17424	17320	17224	17128	16928	16928	16928	16928	16928	16832	16832	16928	16928	16928	16928	16928	17024	17224	17424	17632	18056	18160	18160	17944	17632	17320	16832	16200	15608	14984	14688	14480	14408	14408	14408	14408	14480	14544	14616	14760	14832	14984	15056	15056	15136	15216	15368	15448	15528	15688	15776	15856	16024	16112	16200	16288	16376	16376	16464	16648	16832	17320	17320	17528	0	0	0	0	0	0	0	0	18848	18848	18968	19208	19208	19208	19208	19456	19456	19456	19584	19584	19584	19584	19584	19712	19712	19584	19584	0	0	0	0	0	0	0	0	0	0	0	0	0	0	0	0	0	0	0	0	0	0	0	0	46104	46104	0	0	29672	28272	25616	25616	23976	23056	23056	22368	21712	21256	20528	19848	19208	19208	18272	17944	17632	17424	17128	16928	16832	16744	16744	16744	16744	16744	16832	17024	17224	17736	18160	18848	19456	20112	20808	21712	22368	22704	23056	23416	23600	23784	23784	23784	23784	23784	23784	23784	23416	22536	21104	19976	19712	19336	19208	18968	18728	18728	18728	20112	20960	22536	22536	0	21872	21872	22536	23416	23976	24768	25184	25184	25184	25184	25184	25400	25400	24768	24768	0	0	0	0	0	0	0	0	0	0	0	0	0	0	0	0	0	0	0	0	0	0	0	0	0	0	0	0	0	0	16376	16376	16648	16744	16928	17128	17320	17424	17528	17632	17632	17736	17736	17840	17840	17944	17944	18056	18160	18272	18272	18384	18496	18848	19088	19336	19336	19336	19336	19208	19088	18968	18848	18848	18848	18848	18848	18848	18968	19088	19208	19208	19208	19208	19208	19208	19208	19088	19088	18968	18968	18848	18728	18728	18616	18496	18496	18496	18496	18496	18496	18496	18384	18272	18272	18272	18160	17944	17944	17840	17840	17528	17528	0	0	0	0	13688	13440	13376	13144	13144	0	0	0	12032	11984	11936	11896	11848	11848	11800	11800	0	0	0	0	0	0	0	0	0	0	0	0	0	0	0	0	0	0	0	0	0	0	0	0	0	0	0	0	0	0	0	0	0	0	0	0	0	0	0	0	0	0	0	0	0	0	0	0	0	0	0	0	0	0	0	0	0	0	0	0	10744	10744	0	0	0	0	0	0	11056	11056	11144	11224	11352	11440	11440	11440	11440	0	0	0	0	0	0	0	0	0	0	0	0	0	0	0	0	0	0	0	0	0	0	0	0	18384	18384	18616	18728	18848	19088	19208	0	0	0	0	0	0	0	0	0	0	0	0	0	0	0	0	0	0	0	0	0	0	0	0	0	0	0	0	0	0	0	0	0	0
0	0	0	0	0	0	0	0	0	0	0	0	0	1016	1016	1008	1008	1008	1000	1000	1000	1000	1000	1000	1000	1000	1000	1000	1000	1000	1000	1000	1000	1000	1008	1008	1008	1008	1008	1008	1008	1008	1008	1008	1008	1008	1008	1008	1008	1008	1008	1008	1008	1016	1016	1016	1016	1016	1016	1016	1024	1024	1024	0	0	0	0	0	0	0	0	0	0	0	0	0	0	0	0	0	0	0	0	0	0	0	0	0	0	0	0	0	0	0	0	0	0	0	1280	1280	1280	1280	1280	1280	1280	1280	1280	1280	1280	1280	1280	1280	1280	1280	1280	1280	1280	1280	1272	1272	1272	1272	1272	1272	1272	1272	1272	1272	1272	1280	1280	1280	1280	1280	1280	1280	1280	1288	1288	1288	1288	1288	1288	1288	1296	1296	0	0	0	0	0	0	0	0	0	0	0	0	0	0	0	0	0	0	0	0	0	0	0	0	0	0	0	0	0	0	0	0	0	0	0	0	0	0	0	0	0	0	0	0	0	0	0	0	0	0	0	0	0	0	0	0	17528	17528	17528	17736	17944	18384	18616	18848	19208	19712	20112	20528	20960	21104	21408	21872	22032	22368	22368	22368	22200	21408	20808	20112	20112	19088	18848	18616	18496	18384	18272	18160	18056	17840	17632	17528	17320	17128	17024	16928	16832	16744	16744	16744	16744	16744	16744	16744	16744	16744	16832	16928	17224	17632	17944	18384	18728	18728	18728	18384	17736	17320	16832	15856	15216	14832	14688	14544	14544	14616	14616	14688	14760	14912	15056	15136	15288	15368	15448	0	0	15776	15776	15856	15944	16024	16200	16288	16376	16464	16560	16560	16648	16744	16832	0	0	0	0	0	0	0	0	0	0	0	0	0	18968	18968	19088	19208	19208	19336	19456	19584	19584	19584	19584	19712	19712	19712	19712	19712	19584	19584	0	0	0	0	0	0	0	0	0	0	0	0	0	0	0	0	0	0	0	0	0	0	0	0	0	0	0	0	0	0	24368	23784	22880	22200	22200	21712	21256	20960	20384	19712	19208	18728	18272	17944	17632	17320	17128	16928	16832	16744	16744	16744	16832	16832	16928	17128	17424	17840	18272	18848	19456	20112	20808	21560	22200	22536	22880	23232	23600	23784	23784	23976	23784	23784	23784	22536	22536	20384	20384	18160	18160	17528	17224	17128	17128	17320	17320	17320	0	0	0	0	19088	19088	19976	20808	21872	22880	23976	24560	25400	25616	25832	26056	26056	0	0	0	0	0	0	0	0	0	0	0	0	0	0	0	0	0	0	0	0	0	0	0	0	0	0	0	0	0	0	0	0	16112	16112	16376	16560	16832	17024	17224	17320	17424	17528	17632	17632	17632	17736	17840	17840	17840	17944	18056	18056	18160	18272	18384	0	0	19336	19336	19336	19336	19208	19088	19088	18968	18848	18848	18848	18968	19088	19088	19208	19208	19336	19336	19336	19336	19336	19208	19208	19088	19088	18968	18968	18848	18728	18728	18616	18496	18496	18496	18496	18496	18496	18384	18384	18272	18272	18160	18056	17944	17840	17840	17528	17528	0	0	15368	14480	13688	13560	13496	13496	0	0	0	0	12032	12032	12032	11984	11936	11936	11936	12232	0	0	0	0	0	0	0	0	0	0	0	0	0	0	0	0	0	0	0	0	0	0	0	0	0	0	0	0	0	0	0	0	0	0	0	9608	9608	0	0	0	0	0	0	0	0	0	0	0	0	0	0	0	0	0	0	0	0	0	0	11056	10816	10816	10976	0	0	10976	10976	11016	11056	11144	11144	11224	11312	11352	11312	11224	11096	11096	0	0	0	0	0	0	0	0	0	0	0	0	0	0	0	0	0	0	17424	17424	17632	17736	17944	18160	18272	18496	18616	18848	18968	18968	19088	19208	19336	0	19336	19336	19208	19208	0	0	0	0	0	0	0	0	0	0	0	0	0	0	0	0	0	0	0	0	0	0	0	0	0	0
0	0	0	0	0	0	0	0	0	0	0	0	0	1016	1008	1008	1008	1008	1000	1000	1000	1000	1000	1000	1000	1000	1000	1000	1000	1000	1000	1000	1000	1000	1008	1008	1008	1008	1008	1008	1008	1008	1008	1008	1008	1008	1008	1008	1008	1008	1008	1008	1008	1008	1008	1016	1016	1016	1016	1016	1016	1024	0	0	0	0	0	0	0	0	0	0	0	0	0	0	0	0	0	0	0	0	0	0	0	0	0	0	0	0	0	0	0	0	0	0	0	0	0	1280	1280	1280	1280	1280	1280	1280	1280	1280	1280	1280	1280	1280	1280	1280	1280	1280	1280	1280	1272	1272	1272	1272	1272	1272	1272	1272	1272	1272	1272	1272	1272	1280	1280	1280	1280	1280	1280	1288	1288	1288	1288	1288	1288	1288	1296	1296	1296	0	0	0	0	0	0	0	0	0	0	0	0	0	0	0	0	0	0	0	0	0	0	0	0	0	0	0	0	0	0	0	0	0	0	0	0	0	0	0	0	0	0	0	0	0	0	0	0	0	0	0	0	0	0	0	0	0	0	0	18384	18384	18616	18968	19208	19712	20248	20808	21408	21872	22200	22536	23056	23232	23232	22880	22704	22032	21256	21256	0	19336	18968	18728	18496	18496	18384	18160	18056	17840	17632	17424	17320	17128	16928	16832	16744	16648	16648	16648	16560	16560	16560	16560	16560	16648	16648	16832	17128	17528	17944	18616	18968	19208	19208	19088	18496	17632	16832	16112	15288	15056	14832	14760	14760	14760	14832	14912	15056	15136	15288	15448	15608	15688	0	0	0	0	0	0	0	0	0	0	16744	16744	16744	16832	16832	16928	17024	0	0	0	0	0	0	0	0	0	0	0	18728	18728	18848	18848	18968	18968	19088	19336	19336	19584	19712	19712	19848	19712	19712	19848	19848	19848	0	0	0	0	0	0	0	0	0	0	0	0	0	0	0	0	0	0	0	0	0	0	0	0	0	0	0	0	0	0	0	22880	22704	22536	21872	21408	21104	21104	20808	20664	20248	19712	19208	18728	18272	17944	17632	17320	17128	16928	16832	16832	16832	16832	16832	17024	17024	17224	17528	17840	18384	18848	19456	19976	20528	21256	21712	22368	22704	23056	23416	23600	23976	23976	23976	23232	23232	22536	22536	20384	20384	18160	18160	17528	17224	17128	17128	17320	17320	17320	0	0	0	0	19088	19088	19976	20808	21872	22704	22704	23600	24768	26056	26288	0	0	0	0	0	0	0	0	0	0	0	0	0	0	0	0	0	0	0	0	0	0	0	0	0	0	0	0	0	0	0	0	0	0	16112	16112	16376	16560	16832	17024	17224	17320	17424	17528	17632	17632	17632	17736	17840	17840	17840	17944	18056	18056	18160	18272	18384	0	0	0	0	0	0	0	0	19088	18968	18968	18968	18968	18968	19088	19208	19208	19336	19336	19336	19456	19456	19456	19336	19208	19208	19088	19088	18968	18848	18728	18728	18616	18616	18496	18496	18496	18496	18496	18384	18384	18384	18272	18160	18056	17944	17840	17840	17528	17528	0	0	15368	14480	14072	13872	13808	13808	0	0	0	0	0	0	12184	12184	12184	12184	12184	12232	0	0	0	0	0	0	0	0	0	0	0	0	0	0	0	0	10624	10624	10592	10592	10624	10624	10664	10664	10624	10624	10592	10512	10512	0	0	0	9824	9728	9640	9608	9608	9608	9576	9576	9576	0	0	0	0	0	0	0	0	0	0	0	0	0	0	0	0	0	11096	11056	10976	10976	10976	11144	11144	10976	10976	11016	11056	11144	11224	11264	11264	11224	11144	11144	11096	11096	0	0	0	0	0	0	0	0	0	0	0	0	0	0	0	0	0	17424	17424	17424	17528	17736	17840	18056	18160	18496	18496	18728	18968	18968	19088	19208	19208	19336	19336	19336	19208	19208	19336	19336	0	0	0	0	0	0	0	0	0	0	0	0	0	0	0	0	0	0	0	0	0	0	0	0
0	0	0	0	0	0	0	0	0	0	0	0	0	0	1008	1008	1008	1000	1000	1000	1000	1000	992	992	992	992	992	992	992	1000	1000	1000	1000	1000	1008	1008	1008	1008	1008	1008	1008	1008	1008	1008	1008	1008	1008	1008	1008	1008	1008	1008	1008	1008	1008	1008	1016	1016	1016	1016	1016	1024	0	0	0	0	0	0	0	0	0	0	0	0	0	0	0	0	0	0	0	0	0	0	0	0	0	0	0	0	0	0	0	0	0	0	0	0	0	0	0	0	0	1280	1280	1280	1280	1280	1280	1280	1280	1280	1280	1280	1280	1280	1280	1280	1272	1272	1272	1272	1272	1272	1272	1272	1272	1272	1272	1272	1272	1280	1280	1280	1280	1280	1280	1280	1288	1288	1288	1288	1288	1288	1296	1296	1296	0	0	0	0	0	0	0	0	0	0	0	0	0	0	0	0	0	0	0	0	0	0	0	0	0	0	0	0	0	0	0	0	0	0	0	0	0	0	0	0	0	0	0	0	0	0	0	0	0	0	0	0	0	0	0	0	0	0	0	0	0	18968	18968	19208	19848	20808	21408	22032	22704	23232	23600	23784	24168	24168	23976	23784	23056	22032	21408	20528	19584	19088	18848	18616	18496	18384	18272	18056	17840	17632	17424	17224	17024	16928	16744	16648	16560	16560	16464	16464	16464	16376	16376	16464	16464	16560	16648	16928	17424	17944	18616	19208	19456	19848	19456	18848	18056	17320	16464	15608	15288	15056	14984	14984	14984	15056	15216	15288	15448	15528	15688	15944	16024	16376	0	0	0	0	0	0	0	0	0	0	17320	17320	17320	17424	17528	17528	0	0	0	0	0	0	0	0	0	0	0	18728	18728	18848	18848	18968	18968	19088	19336	19336	19584	19848	19848	19848	19976	19976	20112	20112	20112	0	0	0	0	0	0	0	0	0	0	0	0	0	0	0	0	0	0	0	0	0	0	0	0	0	0	0	0	0	0	0	20808	20808	20960	20960	20664	20664	20384	20384	20384	20112	19848	19336	18848	18384	18056	17632	17424	17224	17024	16928	16928	16928	16928	17024	17128	17224	17424	17632	18056	18384	18848	19336	19848	20384	21104	21560	22200	22368	22880	23232	23416	23976	0	0	23232	23232	0	0	0	0	0	0	0	0	0	0	0	0	0	0	0	0	0	0	0	0	0	0	22704	22704	23600	24768	0	0	0	0	0	0	0	0	0	0	0	0	0	0	0	0	0	0	0	0	0	0	0	0	0	0	0	0	0	0	0	0	0	0	0	0	15856	15856	16200	16560	16832	17024	17224	17320	17528	17632	17632	17632	17736	17736	17840	17840	17840	17944	18056	18160	18160	18272	18384	18496	0	0	0	0	0	0	19088	19088	18968	18968	18848	18848	18968	19088	19088	19208	19208	19336	19336	19336	19336	19336	19336	19208	19208	19088	19088	18968	18968	18848	18728	18728	18616	18496	18496	18496	18496	18496	18384	18384	18384	18272	18160	18056	17944	17840	17736	17528	17224	17224	0	15688	15056	15056	0	14480	14480	0	0	0	0	0	0	0	12432	12432	12488	12488	13376	0	0	0	0	0	0	0	0	0	0	0	0	0	0	10624	10624	10624	10624	10592	10592	10624	10624	10664	10664	10624	10624	10592	10512	10440	10296	10128	9960	9824	9728	9640	9608	9608	9576	9576	9576	9576	9608	9696	0	0	0	0	0	0	0	0	0	0	0	0	0	11224	11224	11096	11096	11096	11144	11144	11144	11144	11144	11184	11224	11224	11224	11224	11184	11144	11144	11144	11056	10856	10744	10744	0	0	0	0	0	0	0	0	0	0	0	0	0	0	0	17424	17424	17424	17424	17528	17632	17736	17944	18160	18272	18496	18728	18848	18968	19088	19208	19208	19336	19456	19456	19336	19336	19336	19336	19336	0	0	0	0	0	0	0	0	0	0	0	0	0	0	0	0	0	0	0	0	0	0	0
0	0	0	0	0	0	0	0	0	0	0	0	0	0	0	1000	1000	1000	1000	1000	992	992	992	992	992	992	992	992	992	992	992	1000	1000	1000	1008	1008	1008	1008	1008	1008	1008	1008	1008	1008	1008	1008	1008	1008	1008	1008	1008	1008	1008	1008	1008	1008	1008	1016	1016	1016	1016	1024	0	0	0	0	0	0	0	0	0	0	0	0	0	0	0	0	0	0	0	0	0	0	0	0	0	0	0	0	0	0	0	0	0	1280	1280	0	0	0	0	0	1296	1296	1288	1288	1288	1288	1288	1280	1280	1280	1280	1280	1280	1280	1280	1272	1272	1272	1272	1272	1272	1272	1272	1272	1272	1272	1272	1272	1272	1272	1280	1280	1280	1280	1280	1280	1288	1288	1288	1288	1288	1296	1296	1296	1296	1296	1304	0	0	0	0	0	0	0	0	0	0	0	0	0	0	0	0	0	0	0	0	0	0	0	0	0	0	0	0	0	0	0	0	0	0	0	0	0	0	0	0	0	0	0	0	0	0	0	0	0	0	0	0	0	0	0	0	0	0	0	0	0	0	0	22200	22200	22880	23600	24168	24560	24976	25184	25184	25184	24768	23976	22536	21408	20528	19712	19208	18848	18616	18496	18384	18160	17944	17736	17528	17320	17128	16928	16744	16648	16464	16376	16376	16376	16376	16288	16288	16288	16288	16376	16376	16560	16832	17224	17840	18496	19088	19712	20112	19848	19848	0	0	0	15856	15528	15368	15216	15216	15288	15368	15448	15528	15688	15856	16024	16200	16376	16376	16832	0	0	0	0	0	0	0	0	0	18968	18968	0	18272	18272	18272	0	0	0	0	0	0	0	0	0	0	0	18728	18728	18848	18968	18968	19088	19208	19336	19584	19848	20248	20248	20248	20384	20528	20528	20528	0	0	0	0	0	0	0	0	0	0	0	0	0	0	0	0	0	0	0	0	0	0	0	0	0	0	0	0	0	0	0	0	19584	19584	19976	20248	20248	20384	20384	20384	20384	20112	19848	19336	18968	18496	18160	17736	17528	17320	17128	17128	17024	17024	17128	17224	17320	17424	17528	17736	18056	18496	18848	19208	19712	20248	20808	21256	21712	22032	22368	22704	23416	0	0	0	0	0	0	0	0	0	0	0	13496	13320	13320	13376	13376	0	13264	13264	13376	13440	13496	13688	14072	0	0	0	0	0	0	0	0	0	0	0	0	0	0	0	0	0	0	0	0	0	0	0	0	0	0	0	0	0	0	0	0	0	0	0	0	0	0	0	0	0	0	15448	15448	15776	16112	16560	16832	17128	17320	17528	17632	17632	17736	17736	17840	17840	17840	17944	17944	18056	18160	18160	18272	18272	18384	18496	18848	18968	19088	19208	19208	19088	19088	18968	18968	18848	18848	18848	18848	18968	19088	19088	19208	19208	19208	19336	19336	19208	19208	19208	19208	19088	19088	18968	18968	18848	18728	18728	18616	18496	18496	18496	18496	18496	18384	18384	18384	18272	18160	18056	17944	17840	17736	17424	17224	17224	0	0	0	0	15776	15216	15216	0	0	0	0	0	0	0	0	0	14072	13376	13376	0	0	0	0	0	0	0	0	0	0	0	0	10664	10664	10624	10624	10664	10664	10664	10664	10664	10664	10664	10704	10664	10624	10592	10512	10440	10296	10128	9960	9824	9728	9664	9608	9608	9576	9576	9576	9576	9608	9696	9856	9992	10128	10336	10592	10592	10856	11056	11224	11264	11352	11392	11352	11224	11224	11184	11184	11184	11144	11144	11144	11144	11144	11184	11184	11184	11184	11184	11184	11144	11096	11016	10896	10704	10592	10592	0	0	0	0	0	0	0	0	0	0	0	0	0	0	0	17424	17424	17424	17424	17528	17632	17736	17944	18056	18272	18384	18616	18848	18848	18968	19088	19088	19208	19208	19208	19088	19088	19088	19088	18968	18968	0	0	0	0	0	0	0	0	0	0	0	0	0	0	0	0	0	0	0	0	0	0
0	0	0	0	0	0	0	0	0	0	0	0	0	0	0	1000	1000	1000	1000	992	992	992	992	992	992	992	992	992	992	992	992	1000	1000	1000	1008	1008	1008	1008	1008	1008	1008	1008	1008	1008	1008	1008	1008	1008	1008	1008	1008	1008	1008	1008	1008	1008	1008	1008	1016	1016	1016	0	0	0	0	0	0	0	0	0	0	0	0	0	0	0	0	0	0	0	0	0	0	0	0	0	0	0	0	0	0	0	0	0	0	1280	1280	0	0	0	0	0	1296	1296	1296	1296	1288	1288	1288	1288	1288	1280	1280	1280	1280	1280	1280	1272	1272	1272	1272	1272	1272	1272	1272	1272	1272	1272	1272	1272	1272	1272	1280	1280	1280	1280	1280	1288	1288	1288	1288	1288	1288	1296	1296	1296	1296	1296	1304	0	0	0	0	0	0	0	0	0	0	0	0	0	0	0	0	0	0	0	0	0	0	0	0	0	0	0	0	0	0	0	0	0	0	0	0	0	0	1840	1832	1832	1824	1824	0	0	0	0	0	0	0	0	0	0	0	0	0	0	0	0	0	0	0	0	0	0	24768	24768	25400	26056	26520	26520	26520	26288	26056	24768	23416	22032	20960	20112	19336	18848	18616	18496	18272	18056	17840	17632	17424	17224	17024	16832	16648	16464	16376	16376	16288	16288	16288	16200	16200	16200	16200	16288	16288	16464	16648	17024	17632	18160	19088	19456	19712	19584	19584	0	0	17128	16200	15856	15688	15608	15608	15608	15688	15776	15856	16024	16112	16376	16560	16648	16744	16832	17128	0	0	0	0	0	0	0	0	18968	18968	0	0	0	0	0	0	0	0	0	0	0	0	0	0	0	0	0	0	0	0	19584	19584	19848	20112	20528	20808	20960	21104	21256	21408	21408	21408	0	0	0	0	0	0	0	0	0	0	0	0	0	0	0	0	0	0	0	0	0	0	0	0	0	0	0	0	0	0	0	0	19456	19456	19848	20248	20248	20384	20384	20384	20528	20248	19976	19712	19712	18848	18384	18056	17736	17528	17320	17224	17224	17224	17320	17424	17528	17632	17736	17944	18160	18496	18848	19208	19456	19976	20528	20960	21408	21560	21872	22200	0	0	0	0	0	0	0	0	0	12920	12808	12808	12808	12808	12808	12808	12808	12864	12864	12864	12920	12920	12976	13032	13264	13744	14272	15056	0	0	0	0	0	0	0	0	0	0	0	0	0	0	0	0	0	0	0	0	0	0	0	0	0	0	0	0	0	0	0	0	0	0	0	14272	14272	14408	14760	15136	15448	15776	16112	16560	16832	17128	17424	17528	17632	17736	17840	17840	17944	17944	17944	18056	18056	18160	18272	18384	18384	18496	18616	18728	18848	18968	19088	19208	19208	19088	19088	18968	18968	18848	18848	18848	18848	18968	18968	18968	18968	19088	19208	19208	19208	19208	19208	19208	19208	19088	19088	18968	18968	18848	18728	18728	18616	18616	18496	18496	18496	18496	18496	18384	18384	18272	18272	18056	17944	17840	17632	17424	17224	17024	17024	16560	16376	16376	15776	15688	15688	0	0	0	0	0	0	0	0	0	14072	14072	14136	14760	0	0	0	0	0	0	0	0	0	0	0	10664	10664	10664	10664	10664	10664	10664	10664	10664	10664	10664	10704	10664	10624	10592	10552	10440	10336	10160	9992	9824	9728	9664	9608	9608	9576	9576	9576	9608	9664	9728	9856	9992	10128	10336	10592	10592	10856	11056	11224	11264	11352	11392	11352	11312	11264	11224	11224	11184	11184	11184	11144	11144	11144	11184	11184	11184	11184	11184	11144	11096	11056	10976	10816	10704	10552	10408	10408	0	0	0	0	0	0	0	0	0	0	0	0	0	0	17424	17424	17424	17424	17528	17528	17632	17840	18056	18160	18272	18496	18728	18728	18848	18848	18968	18968	18968	18968	18848	18848	18848	18848	18848	18848	0	0	0	0	0	0	0	0	0	0	0	0	0	0	0	0	0	0	0	0	0	0
0	0	0	0	0	0	0	0	0	0	0	0	0	0	0	0	0	1000	992	992	992	992	992	992	992	992	992	992	992	992	992	992	1000	1000	1000	1008	1008	1008	1008	1008	1008	1008	1008	1008	1008	1008	1008	1008	1008	1008	1008	1008	1008	1008	1008	1008	1008	1008	1008	1016	0	0	0	0	0	0	0	0	0	0	0	0	0	0	0	0	0	0	0	0	0	0	0	0	0	0	0	0	0	0	0	0	0	0	0	0	0	0	0	0	0	0	0	1304	1296	1296	1296	1296	1288	1288	1288	1288	1280	1280	1280	1280	1280	1272	1272	1272	1272	1272	1272	1272	1272	1272	1272	1272	1272	1272	1272	1272	1280	1280	1280	1280	1280	1288	1288	1288	1288	1288	1288	1296	1296	1296	1296	1296	1304	1312	1312	0	0	0	0	0	0	0	0	0	0	0	0	0	0	0	0	0	0	0	0	0	0	0	0	0	0	0	0	0	0	0	0	0	0	0	0	1840	1832	1832	1824	1824	0	0	0	0	0	0	0	0	0	0	0	0	0	0	0	0	0	0	0	0	0	0	26288	26288	27000	27496	27496	27752	27752	27752	27240	25616	24168	23416	21408	20384	19456	18848	18616	18384	18160	17944	17736	17528	17320	17128	16928	16744	16560	16464	16376	16288	16200	16200	16200	16112	16112	16200	16200	16200	16200	16288	16376	16744	17128	18160	19456	19456	18968	18848	18160	18160	17320	16744	16376	16112	16024	15944	15944	15944	16024	16112	16200	16288	16464	16648	16832	16928	16928	17024	17128	17128	0	0	0	0	0	0	20248	20112	20112	20112	20112	0	0	0	0	0	0	0	0	0	0	0	0	0	0	0	0	0	0	0	0	0	0	0	0	0	22032	22032	22368	0	0	0	0	0	0	0	0	0	0	0	0	0	0	0	0	0	0	0	0	0	0	0	0	0	0	0	0	0	0	0	0	0	0	19456	19456	19848	20248	20248	20384	20384	20528	20528	20384	20112	19848	19712	18968	18616	18272	17944	17736	17528	17424	17424	17528	17528	17632	17736	17736	17840	18056	18272	18496	18728	18968	19336	19712	20248	20528	20808	20960	21256	21408	0	0	0	0	0	0	0	12488	12432	12280	12280	12280	12232	12232	12184	12184	12280	12336	12384	12432	12432	12488	12488	12536	12536	12752	14272	15056	0	0	0	0	0	0	0	0	0	0	0	0	0	0	0	0	0	0	0	0	0	0	0	0	0	0	0	0	0	0	0	0	0	0	0	14272	14272	14408	14760	15136	15528	15856	16200	16560	16928	17224	17528	17736	17840	17944	17944	17944	18056	18056	18160	18160	18160	18272	18272	18384	18496	18616	18728	18848	18968	19208	19208	19336	19208	19208	19088	18968	18968	18848	18848	18848	18848	18848	18848	18848	18968	18968	19088	19088	19208	19208	19208	19208	19088	19088	19088	18968	18968	18848	18728	18728	18616	18616	18496	18496	18496	18496	18496	18496	18384	18272	18272	18056	17944	17840	17632	17424	17224	17024	17024	16560	16376	16376	16560	16560	0	0	0	0	0	0	0	0	0	0	14760	14688	14688	14760	0	0	0	0	0	0	0	0	0	0	0	0	10664	10664	10664	10704	10664	10664	10664	10664	10664	10704	10704	10664	10624	10624	10552	10480	10336	10160	9992	9856	9728	9664	9608	9608	9576	9576	9576	9640	9696	9792	9920	10088	10296	10480	10744	11056	11056	11224	11352	11440	11480	11528	11616	11664	11704	11704	11752	11800	11800	11704	11616	11568	11480	11392	11184	11184	11144	11144	11096	11056	10976	10936	10816	10664	10552	10408	10408	0	0	0	0	0	0	0	0	0	0	0	0	0	0	17632	17528	17424	17320	17320	17424	17632	17736	17840	17944	18160	18272	18384	18496	18496	18616	18616	18616	18616	18728	18728	18616	18616	18728	18616	18616	0	0	0	0	0	0	0	0	0	0	0	0	0	0	0	0	0	0	0	0	0	0
0	0	0	0	0	0	0	0	0	0	0	0	0	0	0	0	0	0	992	992	992	992	992	984	984	984	984	992	992	992	992	992	992	1000	1000	1000	1008	1008	1008	1008	1008	1008	1008	1008	1008	1008	1008	1008	1008	1008	1008	1008	1008	1008	1008	1008	1008	1008	1008	1016	0	0	0	0	0	0	0	0	0	0	0	0	0	0	0	0	0	0	0	0	0	0	0	0	0	0	0	0	0	0	0	0	0	0	0	0	0	0	0	0	1312	1312	1312	1304	1304	1304	1304	1296	1296	1296	1296	1288	1288	1288	1280	1280	1280	1280	1272	1272	1272	1272	1272	1272	1272	1272	1272	1272	1272	1272	1272	1272	1280	1280	1280	1280	1288	1288	1288	1288	1288	1288	1296	1296	1296	1296	1304	1304	1304	1312	1312	1320	1320	0	0	0	0	0	0	0	0	0	0	0	0	0	0	0	0	0	0	0	0	0	0	0	0	0	0	0	1840	1840	1840	1840	1840	1840	1840	1840	1840	1832	1824	1824	1816	1816	0	0	0	0	0	0	0	0	0	0	0	0	0	0	0	0	0	0	0	0	28544	28544	28816	29096	29384	29384	29384	29096	28272	26760	24976	23416	21872	20664	19712	18848	18616	18384	18056	17944	17736	17424	17224	16928	16832	16648	16464	16376	16288	16200	16200	16200	16112	16112	16112	16112	16112	16112	16112	16200	16288	16376	17128	0	0	0	18968	18848	18160	18160	16648	16376	16200	16200	16112	16112	16112	16112	16288	16376	16464	16560	16648	16832	16928	17024	17024	17024	17024	17024	0	0	0	0	0	19712	19712	19976	19976	19976	19848	19848	0	0	18848	18848	0	0	0	0	0	0	0	0	0	0	0	0	0	0	0	0	0	22032	22032	22368	22704	22704	23232	0	0	0	0	0	0	0	0	0	0	0	0	0	0	0	0	0	0	0	0	0	0	0	0	0	0	0	0	0	0	0	0	0	0	0	0	0	0	20384	20384	20384	20528	20528	20664	20248	19976	19712	19208	18848	18496	18272	17944	17736	17736	17736	17736	17736	17840	17944	17944	18056	18056	18272	18496	18616	18848	19088	19456	19848	20112	20248	20384	20528	20664	0	0	0	0	0	0	0	12488	12432	12280	12280	12280	12232	12232	12184	12184	12280	12336	12384	12432	12432	12488	12488	12536	12536	12752	0	0	0	0	0	0	0	0	0	0	0	0	0	0	0	0	0	0	0	0	0	0	0	0	0	0	0	0	0	0	0	0	0	0	0	0	0	14408	14408	14688	15056	15448	16112	16288	16928	17024	17320	17632	17840	17944	18056	18160	18160	18160	18272	18272	18384	18384	18384	18384	18496	18616	18728	18728	18848	18968	19208	19208	19336	19336	19208	19208	19208	18968	18848	18848	18848	18728	18728	18728	18728	18848	18848	18968	18968	18968	19088	19088	19088	19088	19088	19088	19088	18968	18968	18848	18728	18728	18728	18616	18616	18496	18496	18496	18496	18496	18384	18272	18272	18160	17944	17840	17736	17528	17320	17224	17024	16832	16744	16560	16560	16560	16744	0	0	0	0	0	0	0	15688	15448	15216	15136	15056	15056	14984	14984	15056	0	0	0	0	0	0	12536	11848	11392	11056	10744	10704	10704	10704	10664	10664	10664	10704	10704	10664	10664	10624	10592	10552	10480	10336	10192	10024	9856	9728	9608	9608	9608	9576	9576	9576	9640	9696	9824	9992	10192	10440	10664	10936	11184	11184	11392	11528	11616	11664	11752	11896	11984	12136	12280	12336	12432	12488	12384	12280	12184	11480	11392	11312	11224	11144	11144	11096	10976	10936	10856	10776	10624	10512	10440	10440	0	0	0	0	0	0	0	0	0	0	0	0	0	0	0	17424	17320	17320	17320	17320	17424	17528	17632	17736	17840	17944	18056	18160	18160	18272	18272	18384	18384	18496	18496	18496	18496	18496	18496	18616	0	0	0	0	0	0	0	0	0	0	0	0	0	0	0	0	0	0	0	0	0	0
0	0	0	0	0	0	0	0	0	0	0	0	0	0	0	0	0	0	984	984	984	984	984	984	984	984	984	984	984	984	992	992	992	1000	1000	1000	1000	1000	1000	1008	1000	1000	1008	1008	1008	1008	1008	1008	1008	1008	1008	1008	1008	1008	1008	1008	1008	1008	1008	1016	0	0	0	0	0	0	0	0	0	0	0	0	0	0	0	0	0	0	0	0	0	0	0	0	0	0	0	0	0	0	0	0	0	0	0	0	0	0	0	1312	1312	1312	1312	1312	1304	1304	1304	1304	1304	1296	1296	1296	1288	1288	1288	1288	1280	1280	1280	1272	1272	1272	1272	1272	1272	1272	1272	1272	1272	1272	1272	1280	1280	1280	1280	1288	1288	1288	1288	1288	1296	1296	1296	1296	1296	1304	1304	1304	1312	1312	1312	1320	1320	0	0	0	0	0	0	0	0	0	0	0	0	0	0	0	0	0	0	0	0	0	0	0	0	1832	1832	1840	1840	1840	1840	1840	1840	1840	1840	1840	1840	1832	1824	1824	1816	1808	1808	0	0	0	0	0	0	0	0	0	0	0	0	0	0	0	0	0	0	0	30896	30896	30896	31216	30896	30896	30896	30576	29384	28008	25832	24168	22536	21104	19848	18968	18616	18384	18056	17944	17632	17424	17224	16928	16744	16648	16464	16376	16288	16200	16200	16200	16112	16112	16112	16112	16112	16112	16112	16200	16200	16376	16464	16560	16832	16928	17024	16928	16832	16648	16560	16376	16200	16200	16200	16200	16200	16376	16464	16648	16744	16832	16928	16928	16928	16832	16832	16832	16832	16832	16832	17024	17224	17632	18272	18728	19088	19336	19336	19336	19336	19336	0	18616	18496	18496	18496	18496	18496	18384	18272	18272	18272	18272	18272	18384	18616	19208	19584	19976	20384	20664	21104	21712	22032	22368	22704	23232	23784	24168	24560	24976	0	0	0	0	0	0	0	0	0	0	0	0	0	0	0	0	0	0	0	0	0	0	0	0	0	0	0	0	0	0	0	0	0	0	0	20528	20528	20528	20528	20664	20808	20528	20248	19848	19456	19088	18728	18616	18272	18056	17944	17944	18056	18056	18056	18056	18056	18056	18160	18272	18384	18616	18728	18968	19208	19456	19584	19712	19848	19848	19848	0	0	0	0	0	0	0	0	12696	12592	12488	12336	12280	12232	12232	12280	12336	12384	12384	12432	12432	12488	12488	12536	0	0	0	0	0	0	0	0	0	0	0	0	0	0	0	0	0	0	0	0	0	0	0	0	0	0	0	0	0	0	0	0	0	0	0	0	0	0	0	14408	14408	14760	15288	15688	16112	16832	16928	17320	17632	17944	18160	18272	18384	18384	18384	18496	18496	18496	18496	18496	18496	18496	18616	18728	18848	18968	19088	19208	19208	19456	19456	19584	19456	19456	19208	19088	18848	18848	18848	18728	18728	18728	18728	18728	18848	18848	18968	18968	18968	19088	19088	19088	19088	19088	19088	18968	18848	18848	18728	18728	18728	18616	18616	18616	18616	18496	18496	18496	18384	18384	18272	18160	17944	17840	17736	17528	17424	17320	17128	17024	16928	16832	16744	16744	16744	16832	0	16464	16288	16200	16024	15776	15368	15216	15056	14984	14912	14832	14760	14760	14760	14832	14832	14688	14688	0	0	12536	11848	11392	11056	10896	10744	10704	10704	10704	10704	10704	10704	10704	10664	10664	10624	10592	10552	10480	10336	10224	10224	0	0	9608	9608	9608	9640	9640	9696	9760	9888	10024	10192	10408	10592	10816	11056	11312	11312	11480	11616	11752	11800	11936	12184	12336	12536	12752	12976	13088	13144	13144	12280	12184	11984	11800	11616	11480	11312	11224	11096	10976	10896	10856	10744	10592	10512	10440	10440	0	0	0	0	0	0	0	0	0	0	0	0	0	17944	17528	17320	17128	17128	17128	17128	17128	17224	17320	17424	17424	17528	17736	17840	17840	17944	18056	18160	18160	18160	18272	18272	18272	18272	18272	18272	18160	18160	0	0	0	0	0	0	0	0	0	0	0	0	0	0	0	0	0	0	0	0
0	0	0	0	0	0	0	0	0	0	0	0	0	0	0	0	0	0	984	984	984	984	984	984	984	984	984	984	984	984	992	992	992	992	1000	1000	1000	1000	1000	1000	1000	1000	1000	1000	1000	1000	1008	1008	1008	1008	1008	1008	1008	1008	1008	1008	1008	1008	1008	0	0	0	0	0	0	0	0	0	0	0	0	0	0	0	0	0	0	0	0	0	0	0	0	0	0	0	0	0	0	0	0	0	0	0	0	0	0	1304	1304	1312	1312	1312	1312	1312	1312	1312	1304	1304	1304	1304	1304	1296	1296	1296	1288	1288	1288	1280	1280	1272	1272	1272	1272	1272	1272	1272	1272	1272	1272	1272	1272	1280	1280	1280	1280	1288	1288	1288	1296	1296	1296	1296	1296	1296	1304	1304	1304	1312	1312	1312	1320	1320	1320	1328	0	0	0	0	0	0	0	0	0	0	0	0	0	0	0	0	0	0	0	0	0	0	0	1832	1832	1840	1840	1840	1840	1840	1848	1848	1840	1840	1840	1832	1824	1824	1816	1808	1800	1800	0	0	0	0	0	0	0	0	0	0	0	0	0	0	0	0	0	0	33296	33296	33296	32928	32928	32928	32576	32224	30896	29384	27240	24976	23056	21408	19976	18968	18616	18384	18056	17944	17632	17424	17224	16928	16744	16648	16464	16376	16288	16200	16200	16200	16112	16112	16112	16112	16200	16200	16200	16200	16200	16288	16376	16376	16560	16648	16744	16648	16560	16464	16464	16464	16464	16376	16376	16376	16464	16560	16648	16744	16744	16744	16832	16832	16832	16744	16648	16648	16648	16648	16648	16744	16928	17632	17736	18160	18496	18728	18848	18848	18968	18848	18616	18616	18384	18384	18384	18384	18384	18272	18272	18272	18272	18272	18272	18384	18616	19208	19584	19976	20384	20384	20808	21256	21872	22536	22880	23416	23784	24168	24560	24368	24368	0	0	0	0	0	0	0	0	0	0	0	0	0	0	0	0	0	0	0	0	0	0	0	0	0	0	0	0	0	0	0	19584	19584	20528	20528	20528	20664	20664	20808	20808	20664	20384	20112	19712	19336	19088	18848	18616	18384	18272	18272	18272	18160	18160	18160	18160	18160	18160	18272	18384	18496	18616	18728	18968	19208	19336	19336	19456	19584	19584	0	0	0	0	0	0	0	0	12920	12752	12592	12384	12336	12232	12232	12280	12336	12384	12384	12432	12432	12432	0	0	0	0	0	0	0	0	0	0	0	0	0	0	0	0	0	0	0	0	0	0	0	0	0	0	0	0	0	0	0	0	0	0	0	0	0	0	0	0	0	14480	14480	14832	15368	15944	16376	16832	17224	17736	18056	18384	18616	18728	18728	18728	18728	18728	18728	18616	18616	18728	18728	18728	18848	18848	18968	19088	19208	19456	19456	19584	19584	19584	19584	19584	19336	19208	19088	18968	18848	18848	18728	18728	18728	18728	18848	18848	18968	18968	18968	19088	19088	19088	19088	19088	19088	18968	18848	18848	18728	18728	18728	18616	18616	18496	18496	18616	18496	18496	18496	18384	18272	18160	18056	17944	17736	17528	17424	17320	17224	17128	17024	16928	16832	16832	16832	16832	16744	16464	16200	15944	15776	15528	15216	14984	14832	14688	14616	14616	14616	14544	14544	14544	14616	14688	14616	14480	14480	0	0	11800	11312	11016	10816	10776	10744	10744	10744	10704	10704	10704	10664	10664	10664	10592	10552	10480	10336	10336	0	0	0	0	0	0	0	0	0	0	10224	10224	10440	10624	10776	10976	11184	11392	11392	11568	11704	11848	11896	12080	12384	12592	12920	13264	13496	14544	0	13144	12976	12864	12592	12336	12032	11800	11528	11392	11184	10976	10896	10816	10704	10552	10512	10512	0	0	0	0	0	22368	22368	0	21560	20960	20528	19712	18968	18272	17840	17424	17320	17024	17024	16928	16928	17024	17024	17128	17128	17320	17320	17424	17632	17632	17736	17840	17840	17944	18056	18056	18056	18056	18160	18056	18056	17944	17944	0	0	0	0	0	0	0	0	0	0	0	0	0	0	0	0	0	0	0	0
0	0	0	0	0	0	0	0	0	0	0	0	0	0	0	0	0	984	984	984	984	984	984	984	984	984	984	984	984	984	984	992	992	992	992	1000	1000	1000	1000	1000	1000	1000	1000	1000	1000	1000	1000	1000	1000	1008	1008	1008	1008	1008	1008	1008	1008	1008	1008	0	0	0	0	0	0	0	0	0	0	0	0	0	0	0	0	0	0	0	0	0	0	0	0	0	0	0	0	0	0	0	0	0	0	0	0	0	0	1304	1304	1312	1312	1312	1312	1312	1312	1312	1312	1312	1304	1304	1304	1304	1296	1296	1296	1288	1288	1280	1280	1280	1272	1272	1272	1272	1272	1272	1272	1272	1272	1272	1272	1280	1280	1280	1288	1288	1288	1296	1296	1296	1296	1296	1304	1304	1304	1304	1312	1312	1312	1312	1320	1320	1320	1328	0	0	0	0	0	0	0	0	0	0	0	0	0	0	0	0	0	0	0	0	0	0	1840	1840	1840	1840	1840	1840	1840	1848	1848	1848	1848	1840	1840	1832	1824	1824	1816	1808	1800	1800	0	0	0	0	0	0	0	0	0	0	0	0	0	0	0	0	0	0	34848	34848	34848	34848	34448	34056	34056	33672	32576	30576	28008	25616	25616	21712	20112	18968	18616	18384	18160	17944	17632	17424	17224	16928	16744	16648	16560	16376	16288	16288	16288	16200	16200	16200	16200	16200	16200	16200	16200	16200	16200	16288	16288	16288	16376	16464	16464	16464	16376	16376	16464	16464	16464	16464	16464	16464	16560	16648	16744	16744	16744	16744	16744	16744	16744	16648	16560	16464	16376	16376	16464	16464	16648	16928	17320	17736	18496	18384	18384	18496	18616	18616	18496	18496	18384	18384	18384	18384	18384	18272	18160	18160	18160	18160	18160	0	0	0	0	0	20384	20384	20528	20960	21560	21872	22536	22880	23416	23600	23976	24168	24168	0	0	0	0	0	0	0	0	0	0	0	0	0	19336	19208	19088	18968	18968	0	0	0	0	0	0	0	0	0	0	0	0	0	19584	19584	20528	20528	20528	20664	20808	20960	20808	20808	20664	20384	19976	19712	19456	19208	18968	18728	18496	18496	18384	18384	18272	18160	18160	18160	18160	18160	18272	18272	18272	18384	18616	18848	18968	18968	18968	19088	19088	19088	0	0	0	0	0	0	13624	13200	12920	12696	12536	12384	12336	12280	12280	12384	12384	12384	12432	12432	12432	0	0	0	0	0	0	0	0	0	0	0	0	0	0	0	0	0	0	0	0	0	0	0	0	0	0	0	0	0	0	0	0	0	0	0	0	0	0	0	0	0	0	0	0	0	16744	16744	17224	17632	18272	18616	18968	19088	19088	18968	18968	18848	18848	18848	18728	18728	18848	18848	18848	18968	18968	19088	19208	19456	19456	19584	19584	19712	19848	19712	19584	19584	19336	19208	19088	18968	18848	18848	18848	18848	18848	18848	18848	18968	18968	18968	19088	19088	19088	19088	19088	19088	18968	18848	18848	18728	18728	18616	18616	18616	18496	18496	18496	18496	18496	18384	18384	18272	18160	18056	17944	17736	17632	17528	17424	17320	17320	17224	17128	17024	17024	17024	16928	16648	16376	15944	15528	15368	15056	14832	14688	14480	14408	14408	14336	14336	14336	14408	14408	14408	14480	14480	14408	14200	13808	13808	0	11896	11392	11096	10936	10856	10816	10776	10776	10744	10744	10744	10704	10664	10624	10552	10480	10408	10408	0	0	0	0	0	0	0	0	0	0	0	10704	10704	10936	11056	11184	11352	11616	11704	11704	11848	11936	12032	12232	12536	12864	13320	14072	14200	14544	14832	14984	14832	14616	14616	0	0	0	11752	11480	11184	10936	10856	10816	10664	10552	10552	0	0	0	0	0	0	22368	22368	22200	21560	20960	20528	19712	18968	18272	17840	17424	17128	16832	16744	16744	16744	16744	16744	16832	16832	16928	17024	17224	17320	17528	17528	17736	17736	17840	17840	17944	17944	17944	17944	18056	17944	17944	17944	0	0	0	0	0	0	0	0	0	0	0	0	0	0	0	0	0	0	0	0
0	0	0	0	0	0	0	0	0	0	0	0	0	0	0	0	0	984	984	984	984	984	984	984	984	984	984	984	984	984	984	992	992	992	992	992	1000	1000	1000	1000	1000	1000	1000	1000	1000	1000	1000	1000	1000	1000	1000	1008	1008	1008	1008	1008	1008	1008	1008	0	0	0	0	0	0	0	0	0	0	0	0	0	0	0	0	0	0	0	0	0	0	0	0	0	0	0	0	0	0	0	0	0	0	0	0	0	0	1304	1304	1312	1312	1312	1312	1312	1312	1312	1312	1312	1312	1312	1304	1304	1304	1296	1296	1288	1288	1280	1280	1280	1272	1272	1272	1272	1272	1272	1272	1272	1272	1272	1280	1280	1280	1288	1288	1288	1296	1296	1296	1296	1304	1304	1304	1304	1304	1312	1312	1312	1312	1320	1320	1320	1320	1328	1328	1328	0	0	0	0	0	0	0	0	0	0	0	0	0	0	0	0	0	0	0	0	1840	1840	1840	1840	1840	1840	1848	1848	1848	1848	1848	1840	1840	1832	1824	1824	1824	1808	1800	1800	0	0	0	0	0	0	0	0	0	0	0	0	0	0	0	0	0	0	36544	36544	36104	35680	35680	35680	35256	34448	33672	31216	28544	28544	0	22032	20248	18968	18616	18384	18160	17944	17736	17424	17224	17024	16832	16648	16560	16464	16376	16376	16288	16288	16288	16288	16288	16288	16288	16288	16376	16376	16376	16376	16288	16288	16376	16376	16376	16288	16288	16288	16376	16376	16560	16560	16560	16648	16744	16744	16744	16744	16744	16648	16648	16560	16464	16464	16376	16288	16200	16200	16200	16288	16376	16560	16928	17224	17528	17944	17944	18056	18272	18496	18496	18496	18384	18384	18384	18384	18384	18272	18160	18160	18160	18160	18160	18384	0	0	19456	19456	19848	20112	20528	20808	21256	21872	22200	22704	23232	23416	23784	24168	24168	0	0	0	0	0	0	0	0	0	0	0	19336	19336	19208	19208	19088	18848	18728	18616	18496	18384	18272	18160	18160	0	0	0	0	0	0	0	0	0	0	0	20664	20664	20808	20960	20808	20808	20664	20384	20248	19976	19584	19456	19208	18848	18728	18616	18384	18272	18272	18160	18056	18056	17944	17944	17944	18056	18056	18056	18160	18384	18384	18384	18496	18496	18496	18616	0	0	0	0	0	0	13624	13376	13376	0	0	12488	12336	12336	0	0	0	0	0	0	0	0	0	0	0	46920	46920	0	0	0	0	0	0	0	0	0	0	0	0	0	0	0	0	0	0	0	0	0	0	0	0	0	0	0	0	0	0	0	0	0	0	0	0	0	0	0	17320	17320	17944	18272	18728	19088	19456	19456	19336	19208	19088	18968	18968	18848	18848	18848	18848	18848	18848	18848	18968	19088	19208	19336	19456	19584	19712	19712	19712	19848	19584	19456	19456	19208	19088	18968	18968	18848	18848	18848	18848	18848	18848	18968	18968	19088	19088	19208	19208	19088	19088	19088	18968	18968	18848	18728	18728	18616	18616	18496	18496	18496	18496	18496	18496	18384	18384	18272	18160	18056	17944	17840	17632	17528	17424	17424	17320	17320	17224	17224	17224	17128	16928	16560	16112	15776	15288	15056	14832	14480	14336	14272	14200	14136	14136	14136	14136	14200	14200	14336	14408	14336	14272	14136	13808	13560	13560	0	11752	11352	11096	10936	10856	10856	10856	10816	10816	10776	10744	10704	10664	10664	10624	10592	10592	0	0	0	0	0	0	0	0	11264	11264	11352	11568	11568	11392	11392	11480	11616	11752	11896	11896	11984	12080	12184	12384	12696	13088	13560	14072	14200	14544	14832	14984	14832	14616	14616	14336	13688	13688	0	0	11224	10936	10856	10816	10664	10664	0	0	0	0	0	0	0	22536	22368	22200	21560	21104	20664	19848	19088	19088	17840	17424	17024	16744	16648	16560	16464	16464	16464	16560	16560	16648	16744	16832	17024	17224	17320	17424	17528	17736	17736	17840	17840	17840	17944	17944	17944	17944	0	0	0	0	0	0	0	0	0	0	0	0	0	0	0	0	0	0	0	0	0
0	0	0	0	0	0	0	0	0	0	0	0	0	0	0	0	984	984	984	984	984	984	984	984	984	984	984	984	984	984	984	984	992	992	992	992	992	1000	1000	1000	1000	1000	1000	1000	1000	1000	1000	1000	1000	1000	1000	1008	1008	1008	1008	1008	1008	1008	1008	0	0	0	0	0	0	0	0	0	0	0	0	0	0	0	0	0	0	0	0	0	0	0	0	0	0	0	0	0	0	0	0	0	0	0	0	0	0	1304	1304	1312	1312	1312	1312	1312	1312	1312	1312	1312	1312	1312	1304	1304	1296	1296	1296	1288	1288	0	0	0	0	1272	1272	1272	1272	1272	1272	1272	1272	1280	1280	1280	1288	1288	1288	1296	1296	1296	1296	1304	1304	1304	1304	1304	1312	1312	1312	1312	1320	1320	1320	1320	1328	1328	1328	1328	1336	0	0	0	0	0	0	0	0	0	0	0	0	0	0	0	0	0	0	1832	1832	1840	1840	1840	1840	1848	1848	1848	1848	1848	1848	1848	1840	1832	1824	1824	1816	1816	0	0	0	0	0	0	0	0	0	0	0	0	0	0	0	0	0	0	0	0	37464	37464	37464	37000	36544	36104	35680	34448	33296	30272	27752	27752	0	21872	20384	19088	18728	18496	18272	17944	17736	17424	17224	17024	16832	16744	16648	16560	16464	16464	16376	16376	16376	16376	16464	16464	16560	16560	16464	16464	16560	16560	16464	16376	16376	16376	16376	16288	16288	16288	16376	16376	16560	16560	16648	16648	16744	16744	16744	16744	16648	16560	16560	16464	16288	16200	16112	16112	16024	16024	16024	16112	16112	16288	16560	16744	17024	17320	17528	17736	17944	18272	18384	18496	18496	18496	18496	18496	18496	18384	18384	18272	18272	18272	18272	18384	18728	18968	19208	19456	19848	19976	20248	20664	21104	21408	21872	22368	22880	23232	23600	24168	24168	0	0	0	0	0	0	0	0	0	0	19456	19336	19208	19088	19088	18968	18848	18728	18616	18496	18384	18160	18160	18160	18056	18056	18160	18384	0	0	0	0	0	0	0	20664	20664	20664	20960	20960	20664	20664	20528	20248	19976	19712	19456	19208	18848	18616	18496	18384	18160	18056	17944	17840	17840	17736	17736	17736	17632	17632	17632	17632	17736	17736	17736	17736	17736	17736	17736	0	0	15448	14072	14072	0	13440	13440	13440	0	0	12752	12752	0	0	0	0	0	0	0	0	0	0	0	40712	46920	46920	46920	46920	0	0	0	0	0	0	0	0	0	0	0	0	0	0	0	0	0	0	0	0	0	0	0	0	0	0	0	0	0	0	0	0	0	0	0	0	0	18496	18384	18384	18728	19088	19336	19584	19584	19456	19208	19088	19088	18968	18848	18848	18728	18728	18848	18848	18848	18968	18968	19088	19336	19456	19456	19584	19712	19712	19848	19712	19456	19456	19336	19088	18968	18968	18848	18848	18848	18848	18848	18848	18968	18968	18968	19088	19088	19088	19088	19088	19088	18968	18848	18848	18728	18616	18616	18616	18496	18496	18496	18496	18496	18496	18384	18384	18272	18160	18160	17944	17840	17736	17632	17632	17528	17528	17528	17320	17320	17320	17224	16928	16376	15944	15448	15056	14760	14480	14200	14072	14000	14000	13936	13936	13936	13936	14072	14072	14136	14200	14272	14272	14136	13872	13560	13376	13376	0	11568	11312	11096	10976	10896	10896	10856	10816	10816	10776	10744	10704	10664	10624	10592	10592	0	0	0	0	0	0	0	0	11264	11264	11352	11568	11568	11664	11752	11752	11800	11936	12032	12032	12136	12232	12280	12488	12808	13088	13560	14072	14616	15216	15608	15944	15944	15688	15136	14336	13688	13688	0	0	0	10976	10896	10816	10664	10664	0	0	0	0	0	0	0	22536	22368	22200	21712	21256	20664	19848	19088	18384	18384	17320	16928	16648	16376	16288	16288	16200	16200	16200	16200	16200	16376	16464	16744	16928	17128	17320	17424	17528	17632	17736	17736	17840	17840	17944	17944	17944	17944	17944	17944	0	0	0	0	0	0	0	0	0	0	0	0	0	0	0	0	0	0
0	0	0	0	0	0	0	0	0	0	0	0	0	0	0	0	984	984	984	984	984	984	984	984	984	984	984	984	984	984	984	984	992	992	992	992	992	1000	1000	1000	1000	1000	1000	1000	1000	1000	1000	1000	1000	1000	1000	1000	1008	1008	1008	1008	1008	1008	1008	1016	0	0	0	0	0	0	0	0	0	0	0	0	0	0	0	0	0	0	0	0	0	0	0	0	0	0	0	0	0	0	0	0	0	0	0	0	0	0	0	0	1312	1312	1312	1312	1312	1312	1312	1312	1312	1304	1304	1304	1296	1296	1296	1288	1288	1280	1280	1280	1280	1272	1272	1272	1272	1272	1272	1272	1280	1280	1280	1280	1288	1288	1296	1296	1296	1304	1304	1304	1304	1304	1304	1312	1312	1312	1312	1312	1320	1320	1320	1328	1328	1328	1328	1336	1336	0	0	0	0	0	0	0	0	0	0	0	0	0	0	0	0	0	0	1832	1832	1840	1840	1840	1840	1848	1848	1848	1848	1848	1848	1848	1840	1832	1824	1824	1816	1808	1808	1800	1800	1800	0	0	0	0	0	0	0	0	0	0	0	0	0	0	0	38920	38424	37936	37464	36544	35680	34848	34056	32224	31216	28816	26520	26520	0	21560	20112	18968	18616	18496	18160	17944	17736	17424	17224	17128	16928	16744	16744	16648	16560	16560	16560	16560	16560	16560	16648	16648	16648	16744	16744	16744	16744	16744	16648	16560	16560	16560	16464	16376	16376	16376	16376	16464	16560	16648	16648	16744	16832	16744	16648	16648	16648	16560	16464	16376	16200	16024	15944	15776	15688	15608	15608	15688	15688	15856	16024	16288	16560	16744	17024	17424	17632	17944	18160	18384	18496	18616	18728	18728	18616	18616	18496	18496	18496	18496	18496	18616	18728	18968	19208	19584	19712	19848	20112	20384	20808	21256	21712	22200	22704	23056	23600	23976	0	0	0	0	0	0	0	0	0	0	0	19456	19336	19208	19088	19088	18968	18728	18616	18496	18496	18384	18160	18056	18056	18056	18056	18160	18384	18848	19208	19208	19584	19976	0	0	20528	20528	20528	20808	20808	20664	20384	20384	20112	19848	19712	19456	19088	18728	18496	18384	18160	18056	17944	17840	17632	17528	17528	17424	17424	17320	17224	17128	17128	17128	17024	16928	16928	16928	16928	16928	0	16024	14912	14072	14072	0	13440	13440	13200	13200	0	12976	12976	0	0	0	0	0	0	0	0	0	0	65528	40712	34896	46920	46920	46920	34896	0	0	0	0	0	0	0	0	0	0	0	0	0	0	0	0	0	0	0	0	0	0	0	0	0	0	0	0	0	0	0	0	0	0	0	0	18496	18496	18848	19088	19336	19456	19712	19584	19456	19336	19208	19088	18968	18848	18728	18728	18728	18728	18728	18728	18848	18968	18968	19208	19208	19336	19456	19584	19848	19848	19848	19584	19456	19336	19208	19088	18968	18968	18848	18848	18848	18848	18848	18968	18968	18968	18968	19088	18968	18968	18968	18968	18848	18848	18848	18728	18616	18616	18496	18496	18384	18384	18384	18384	18384	18384	18384	18272	18160	18160	18056	17944	17736	17736	17736	17632	17632	17528	17424	17424	17424	17224	16832	16288	15776	15216	14760	14408	14136	13936	13808	13744	13688	13688	13744	13744	13808	13872	13936	14000	14072	14136	14200	14136	14072	13808	13376	13032	12536	12032	11480	11184	11056	10936	10896	10856	10816	10816	10776	10744	10704	10704	0	0	0	0	0	0	0	0	0	0	0	12384	12384	12280	12232	12232	12136	12080	12080	12080	12136	12184	12232	12232	12280	12336	12488	12808	13264	13808	14336	14832	15448	16112	16744	16832	16648	16024	15216	14336	14336	0	12536	11664	11664	0	0	0	0	0	0	0	0	0	0	22704	22536	22368	22200	21872	21256	20664	19848	19208	18384	18384	17224	16832	16464	16112	16024	15944	15856	15856	15944	16024	16112	16288	16464	16744	16928	17128	17320	17424	17528	17632	17736	17736	17840	17840	17944	17944	17944	17944	17944	17944	0	0	0	0	0	0	0	0	0	0	0	0	0	0	0	0	0	0
0	0	0	0	0	0	0	0	0	0	0	0	0	0	0	0	984	984	984	984	984	984	984	984	984	984	984	984	984	984	984	984	992	992	992	992	992	992	1000	1000	1000	1000	1000	1000	1000	1000	1000	1000	1000	1000	1000	1000	1008	1008	1008	1008	1008	1008	1008	1016	1016	1016	1016	1016	0	0	0	0	0	0	0	0	0	0	0	0	0	0	0	0	0	0	0	0	0	0	0	0	0	0	0	0	0	0	0	0	0	0	0	0	1320	1320	1312	1312	1312	1312	1312	1312	1312	1304	1304	1296	1296	1296	0	1288	1280	1280	1280	1280	1280	1272	1272	1272	1280	1272	1272	1280	1280	1280	1280	1280	1288	1288	1296	1296	1304	1304	1304	1304	1304	1312	1312	1312	1312	1312	1312	1320	1320	1320	1320	1328	1328	1328	1328	1336	0	0	0	0	0	0	0	0	0	0	0	0	0	0	0	0	0	0	0	0	1840	1840	1840	1840	1848	1848	1848	1848	1848	1848	1848	1848	1840	1832	1824	1824	1816	1808	1808	1800	1800	1800	0	0	0	0	0	0	0	0	0	0	0	0	0	0	0	38920	37936	37464	36544	35680	34848	33296	32224	30896	29384	27000	25400	25400	0	20960	19848	18848	18496	18384	18056	17840	17632	17424	17224	17024	16928	16832	16744	16648	16648	16648	16648	16648	16648	16648	16744	16832	16832	16832	16832	16832	16928	16928	16832	16560	16560	16560	16464	16464	16464	16464	16464	16464	16648	16648	16744	16744	16832	16744	16648	16648	16560	16464	16376	16288	16112	15944	15776	15776	15608	15448	15448	15448	15448	15528	15688	15944	16112	16376	16648	17024	17320	17736	17944	18160	18384	18616	18728	18728	18728	18728	18616	18616	18616	18616	18616	18728	18848	18968	19208	19584	19712	19848	20112	20384	20664	21104	21408	21872	22368	22704	23056	23600	0	0	0	0	0	0	0	0	0	0	0	19584	19456	19208	19208	19088	18968	18728	18616	18496	18384	18272	18160	18056	18056	18160	18160	18272	18496	18848	19088	19208	19584	19976	20248	0	20528	20528	20528	20808	20664	20528	20248	20248	19976	19712	19456	19208	18968	18616	18384	18160	17944	17840	17736	17632	17528	17424	17320	17224	17128	17024	16832	16648	16648	16464	16464	16376	16288	16112	16024	16024	0	16024	14912	14200	14200	0	13560	13440	13200	13200	0	13032	13032	0	0	0	0	0	0	0	0	0	65528	65528	40712	34896	34896	34896	34896	34896	34896	0	0	0	0	0	0	0	0	0	0	0	0	0	0	0	0	0	0	0	0	0	0	0	0	0	0	0	0	0	0	0	0	0	0	0	19088	19088	19456	19456	19584	19584	19712	19584	19456	19208	19088	18968	18848	18728	18728	18728	18616	18616	18616	18728	18728	18848	18848	18968	19088	19208	19336	19456	19712	19848	19848	19712	19456	19456	19336	19208	19208	19088	18968	18968	18968	18968	18968	18968	18968	18968	18968	18968	18968	18968	18968	18848	18848	18848	18728	18616	18616	18496	18496	18384	18384	18384	18384	18384	18384	18272	18272	18272	18160	18160	18056	17944	17840	17736	17736	17840	17736	17736	17632	17632	17528	17224	16744	16112	15448	14984	14480	14136	13872	13744	13624	13624	13560	13560	13560	13624	13688	13688	13744	13872	13936	14000	14072	14072	14000	13872	13560	13032	12536	12032	11568	11264	11056	10896	10856	10816	10816	10816	10776	10776	0	0	0	0	0	0	0	0	0	0	0	0	0	0	12696	12592	12536	12536	12432	12280	12280	12280	12280	12280	12336	12280	12280	12336	12536	12864	13320	13872	14408	15056	15856	16744	17528	17632	17528	17024	16200	16200	0	0	12536	11664	11664	0	0	0	0	0	0	0	0	0	0	22704	22536	22536	22368	21872	21256	20664	19848	19088	18496	18496	17024	16560	16288	16112	16024	15944	15856	15856	15944	16024	16112	16288	16464	16744	17024	17224	17424	17528	17632	17840	17944	17944	17944	18160	18160	18160	18272	18272	18272	18272	0	0	0	0	0	0	0	0	0	0	0	0	0	0	0	0	0	0
