707	709	710	711	711	713	715	722	728	733	748	754	761	775	783	790	805	809	814	799	792	784	772	770	768	760	759	759	763	766	770	777	781	785	463	408	412	70	0	0	0	0	0	0	0	0	0	0	0	0	0	0	0	0	0	0	0	0	0	0	0	0	0	0	0	0	0	0	0	0	0	0	0	454	752	752	739	728	700	694	689	678	671	665	657	653	650	646	642	640	636	634	632	629	627	626	624	623	622	621	620	620	618	618	617	617	617	617	618	619	620	623	624	626	629	631	634	639	642	646	651	654	658	666	670	676	681	685	690	697	701	706	710	712	714	713	713	711	711	710	705	702	700	697	695	693	686	680	676	669	664	660	654	650	646	642	639	637	634	634	633	633	633	633	634	635	637	640	642	644	648	651	654	657	659	661	664	666	668	671	672	672	672	673	674	675	675	676	677	677	677	677	677	677	676	675	674	674	673	673	671	671	670	669	669	668	667	667	666	666	666	666	666	666	666	666	666	666	666	666	665	664	663	661	661	660	658	657	657	654	653	652	650	650	650	649	648	648	647	646	645	644	643	643	642	641	640	640	639	638	636	635	634	631	631	630	630	631	632	629	629	629	629	629	629	629	629	630	630	630	629	628	628	629	630	630	630	630	630	630	630	630	631	631	631	630	630	630	630	628	628	627	626	625	625	624	624	624	624	624	624	624	624	624	625	625	628	630	631	633	635	637	641	645	647	650	652	653	657	658	658	660	661	662	661	660	660	660	660	660	660	660	660	660	660	660	660	660	659	658	658	658	658	658	658	658	658	658	658	658	658	658	658	658	658	658	658	658	658	658	658	659	660	660	660	660	660	660	660	660	660	660	660	660	659	659	659	659	659	659	658	658	658	658	658	658	658	658	658	658	658	658	658	659	659	659	659	659	659	659	659	658	658	658	658	658	657	657	657	657	657	657	657	656	656	655	653	653	653	653	653	653	651	651	651	651	651	651	651	651	652	653	653	653	653	653	653	653	653	653	653	653	654	654	654	655	656	656	657	657	657	657	657	657	657	658	658	658	658	658	658	658	658	660	660	660	660	660	660	660	660	660	660	660	660	660	659	659	658	658	658	658	657	657	657	657	657	657	657	657	657	657	657	657	657	658	658	658	658	660	660	660	660	660	661	662	662	662	662	662	662	662	662	662	662	662	662	662	662	663	663	663	664	664	664	664	664	664	664	664	664	664	664	664	664	664	664	662	662	662	662	661	660	660	660	660	660	660	660	658	658	658	658	658	658	658	657	657	657	656	655	655	656	657	657	657	657	658	658	658	658	659	659	660	660	661	661	661	661	661	661	662	663	663	664	667	668	669	671	672	673	675	676	677	678	678	678	678	678	677	676	675	674	674	673	672	672	671	670	670	670	668	668	668	666	666	666	667	667	667	667	668	668	668	668	668	668	669	670	670	671	672	671	670	670	670	669	668	668	668	668	668	667	667	666	666	666	667	668	669	670	670	671	673	673	674	676	677	678	679	679	680	682	683	684	686	686	686	686	686	686	686	687	688	688	688	689	689	689	689	688	688	688	688	688	688	688	687	686	686	686	686	686	687	687	688	689	691	691	691	691	222	0	0	0	0	0	0	0	0	0	0	0	0	0	0	0	0	0	194	343	343	529	683	681	679	678	675	674	674	674	674	674	674
707	709	710	711	711	713	715	724	729	734	748	754	761	773	780	788	805	808	811	796	788	780	767	763	759	754	754	754	758	760	761	776	781	785	118	0	0	0	0	0	0	0	0	0	0	0	0	0	0	0	0	0	0	0	0	0	0	0	0	0	0	0	0	0	0	0	0	0	0	0	0	0	0	454	752	752	722	700	689	684	679	669	663	658	650	647	645	641	638	636	633	632	630	627	626	624	622	621	620	619	619	619	617	617	617	617	617	617	619	619	620	623	625	627	630	633	638	642	645	648	652	655	658	665	669	674	679	682	687	693	697	703	706	707	709	708	707	707	710	710	705	700	696	689	689	688	680	674	670	664	660	656	650	646	643	638	635	633	631	630	630	630	630	630	630	632	633	636	638	640	645	647	650	655	656	658	662	663	665	669	670	671	671	672	673	674	674	674	676	676	676	676	676	676	676	675	674	673	673	673	671	670	669	669	668	667	667	666	665	665	665	665	665	665	665	665	665	665	665	665	665	663	662	660	660	660	657	657	656	653	652	651	650	650	650	648	648	648	646	645	645	643	643	643	641	640	640	640	639	638	636	636	635	631	631	631	631	632	633	630	630	630	630	630	630	630	630	630	630	629	628	628	629	630	630	630	630	630	630	630	630	630	631	631	631	630	630	630	630	628	628	627	626	625	625	624	624	624	624	624	624	624	624	624	625	625	628	630	631	633	636	638	641	645	648	650	652	653	657	658	658	660	661	662	660	660	660	660	660	660	660	660	660	660	660	660	660	659	658	658	658	658	657	657	657	657	657	657	657	657	657	657	657	657	658	658	658	658	658	658	658	659	660	660	660	660	660	660	660	660	660	660	660	660	660	660	660	660	660	660	658	658	658	658	658	658	658	658	658	658	658	658	658	659	660	660	660	660	660	660	660	658	658	658	658	658	658	657	657	657	657	657	657	657	656	655	653	653	653	653	653	653	651	651	651	651	651	651	651	652	653	653	653	653	653	653	653	653	653	653	653	654	655	655	655	655	657	657	657	657	657	657	657	657	657	658	658	658	658	658	658	658	658	660	660	660	660	660	660	660	660	660	660	660	660	660	659	658	658	657	657	657	657	657	657	657	657	657	657	657	657	657	657	657	657	657	658	658	658	660	660	660	660	661	662	662	662	662	662	662	662	662	662	662	662	662	662	662	663	664	664	664	664	664	664	664	664	664	664	664	664	664	664	664	664	664	664	662	662	662	662	661	660	660	660	660	660	660	660	658	658	658	658	658	658	657	657	657	657	656	655	655	656	657	657	657	657	658	658	658	660	660	660	660	661	662	662	662	662	662	663	664	664	664	664	667	668	669	671	672	673	676	676	676	678	678	678	678	677	676	676	675	674	674	674	673	673	672	671	671	671	669	669	669	667	667	667	667	667	667	667	667	667	667	667	667	667	668	669	669	670	671	671	670	669	669	668	667	667	667	667	667	666	665	665	665	665	667	668	669	669	670	671	673	673	674	676	677	678	678	679	680	682	683	684	686	686	686	686	686	686	686	686	687	687	687	687	687	687	687	686	686	686	686	686	686	686	686	686	686	686	686	686	686	687	688	689	691	691	691	691	222	0	0	0	0	0	0	0	0	0	0	0	0	0	0	0	0	0	388	686	686	684	682	680	678	676	674	673	673	673	673	674	674
709	709	710	711	711	713	715	724	729	734	748	754	761	773	780	788	810	811	811	796	788	778	765	760	754	749	748	748	750	751	752	758	761	764	115	0	0	0	0	0	0	0	0	0	0	0	0	0	0	0	0	0	0	0	0	0	0	0	0	0	0	0	0	0	0	0	0	0	0	0	0	0	0	0	65	691	686	681	671	666	661	651	648	645	640	638	636	633	631	630	628	627	625	622	622	622	619	618	617	617	617	617	617	617	617	617	617	617	619	620	622	626	628	631	635	638	641	644	646	648	650	651	653	659	661	665	671	674	676	681	683	687	691	697	709	708	706	703	697	694	691	685	680	673	673	672	667	661	657	651	648	645	641	637	635	630	628	627	625	624	624	624	624	624	624	625	625	630	632	633	638	641	645	648	650	653	657	658	660	664	664	665	667	668	669	671	672	673	673	673	674	674	674	674	674	674	673	673	672	671	671	670	669	669	668	667	665	665	665	665	665	665	665	665	665	665	665	665	664	664	664	663	662	660	659	658	657	656	654	651	650	650	650	649	648	648	647	646	645	645	645	643	642	641	641	640	640	640	639	638	636	636	635	633	633	633	633	633	633	633	632	631	630	630	630	631	631	631	631	630	628	628	629	630	630	630	630	631	631	631	631	631	631	631	631	631	630	630	630	628	628	627	626	625	624	624	624	624	624	624	624	624	624	625	626	627	630	632	633	636	638	640	643	646	648	651	653	655	657	658	658	660	660	660	660	660	660	660	660	660	660	660	660	660	660	660	660	659	658	658	658	657	657	657	657	657	657	657	657	657	657	657	657	657	657	657	657	658	658	658	658	659	660	660	660	660	660	660	660	662	662	662	661	660	660	660	660	660	660	660	660	660	660	658	658	658	658	658	658	658	658	658	660	660	660	660	660	660	660	660	660	660	659	658	658	658	658	658	657	657	657	657	657	657	656	655	655	654	653	653	653	653	651	651	651	651	651	651	651	652	653	653	653	653	653	653	653	653	653	653	655	655	655	655	656	657	657	657	657	657	657	657	658	658	658	658	658	658	658	658	658	658	658	658	659	660	660	660	660	660	660	660	660	659	658	658	658	658	657	657	657	657	657	657	657	657	657	657	657	657	657	657	657	657	657	657	658	658	658	660	660	660	662	662	662	662	662	662	662	663	664	664	664	664	664	664	664	664	664	664	664	664	664	664	664	664	664	664	664	664	664	664	664	664	664	664	664	662	662	662	662	661	660	660	660	660	660	660	660	658	658	658	658	658	658	657	657	657	657	657	657	657	657	657	657	658	658	660	660	660	660	661	662	664	664	665	665	664	662	662	663	664	664	664	665	669	670	671	673	673	674	676	676	676	678	678	678	676	676	676	676	675	674	674	674	673	673	673	673	671	671	671	670	669	669	669	669	669	669	669	667	667	667	667	667	667	667	668	669	669	670	671	671	670	669	667	667	667	667	666	665	665	664	664	664	664	664	665	666	667	667	668	669	673	673	673	674	675	676	678	679	680	682	682	682	684	684	684	684	684	684	684	685	686	686	686	686	684	683	682	682	682	682	682	682	682	682	683	684	684	684	684	685	686	687	688	689	689	690	691	691	222	0	0	0	0	0	0	0	0	0	0	0	0	0	0	0	51	682	682	682	682	681	680	676	675	674	674	673	673	673	673	673	673
709	709	710	711	712	714	716	727	732	738	750	757	764	778	785	793	814	814	812	797	788	777	763	757	751	745	744	744	744	745	746	749	750	752	113	0	0	0	0	0	0	0	0	0	0	0	0	0	0	0	0	0	0	0	0	0	0	0	0	0	0	0	0	0	0	0	0	0	0	0	216	347	342	337	367	676	671	668	660	657	653	644	641	639	636	634	632	630	629	628	625	624	622	621	620	620	618	617	616	616	616	616	616	616	616	616	616	616	619	621	623	626	628	630	634	636	638	642	643	644	646	647	649	652	655	659	664	667	670	679	683	687	691	695	702	699	697	694	690	687	682	677	673	666	664	663	660	655	651	646	643	640	636	633	631	627	625	623	621	621	620	620	620	620	620	621	622	626	628	630	634	638	642	645	647	650	654	656	658	662	663	664	665	666	667	669	670	671	672	672	672	672	672	672	672	672	672	672	671	670	670	670	669	668	667	666	665	665	665	665	664	664	664	664	664	664	664	664	664	664	664	662	661	660	659	658	657	656	654	651	650	650	650	649	648	648	647	646	645	645	645	643	642	641	641	640	640	639	638	637	636	636	635	634	634	634	634	634	634	634	633	632	632	632	632	632	632	632	632	631	629	629	629	630	630	630	630	632	632	632	632	632	632	632	632	631	631	630	630	628	628	627	626	625	624	624	624	624	624	624	624	624	625	625	627	628	630	633	634	637	639	641	644	646	648	652	654	655	657	658	658	660	660	660	660	660	660	660	660	660	660	660	660	660	660	660	660	659	658	658	658	657	657	657	657	657	657	657	656	656	656	656	656	657	657	657	657	658	658	658	658	659	660	660	660	660	660	660	661	662	662	662	661	661	661	661	661	660	660	660	660	660	660	659	659	659	659	659	659	659	659	659	660	660	660	660	660	660	660	660	660	660	659	659	659	659	659	658	658	658	657	657	657	657	657	656	655	654	653	653	653	653	652	652	651	651	651	651	652	652	653	653	653	653	654	654	654	654	654	654	655	655	655	656	656	657	657	657	657	657	657	658	658	658	658	658	658	658	658	658	658	658	658	658	659	660	660	660	660	660	659	659	659	658	658	658	658	657	657	657	657	657	656	656	656	656	656	656	656	656	657	657	657	657	657	657	657	658	658	659	659	660	661	661	662	662	662	662	662	663	664	664	664	664	664	664	664	664	664	663	663	663	663	663	663	663	664	664	664	664	664	664	664	664	664	664	664	663	663	663	662	661	661	661	660	660	660	660	660	658	658	658	658	658	658	658	657	657	657	657	657	657	657	657	658	658	659	660	660	660	661	662	663	664	664	665	665	664	663	663	664	664	665	666	667	670	671	672	673	674	674	676	676	677	678	678	677	676	676	676	676	676	675	674	674	674	673	673	673	672	672	671	670	670	669	669	669	669	669	669	667	667	667	667	667	667	667	668	669	669	670	670	670	669	668	667	666	666	666	665	665	664	664	664	664	664	664	665	666	666	667	668	669	672	672	673	674	675	676	677	678	679	681	681	682	684	684	684	684	684	684	684	684	685	684	684	684	682	682	681	680	680	680	680	680	680	681	681	682	682	682	683	684	685	686	687	688	688	689	690	691	222	0	0	0	0	0	0	0	0	0	0	0	0	0	0	0	51	682	681	680	679	678	678	676	675	673	672	672	672	672	672	672	672
709	709	710	711	713	715	717	730	736	741	752	760	768	783	790	798	818	817	814	799	788	776	760	754	748	742	741	741	739	739	739	739	739	739	112	0	0	0	0	0	0	0	0	0	0	0	0	0	0	0	0	0	0	0	0	0	0	0	0	0	0	0	0	0	0	0	0	0	0	0	433	694	684	675	668	660	657	655	650	647	645	638	635	633	631	629	628	627	626	625	622	621	620	619	618	617	616	616	616	614	614	614	614	614	614	616	616	616	620	622	624	627	628	630	633	634	636	640	641	641	643	644	645	646	648	653	657	660	664	678	683	687	691	693	695	691	688	686	682	679	674	669	666	660	655	653	653	649	645	641	638	635	631	629	628	624	622	620	617	617	617	616	616	616	617	618	619	622	625	627	631	634	638	643	644	646	651	653	655	660	661	662	664	664	665	667	668	669	671	671	671	671	671	671	671	671	671	671	670	669	669	669	669	667	666	665	665	665	665	664	664	664	664	664	664	664	664	664	664	664	664	661	660	660	659	658	657	656	654	651	650	650	650	649	648	648	647	646	645	645	645	643	642	641	641	640	640	638	637	636	636	636	635	635	635	635	635	635	636	635	634	633	633	633	633	633	633	633	633	632	630	630	630	630	631	631	631	633	633	633	633	633	633	633	632	631	631	631	630	628	628	627	626	625	624	624	624	624	624	624	624	625	625	625	627	628	631	634	635	638	640	641	645	647	648	653	654	655	657	658	658	660	660	660	660	660	660	660	660	660	660	660	660	660	660	660	660	659	658	658	658	657	657	657	657	657	657	657	655	655	655	655	656	657	657	657	657	658	658	658	658	659	660	660	660	660	660	661	662	662	662	662	662	662	662	662	662	660	660	660	660	660	660	660	660	660	660	660	660	660	660	660	660	660	660	660	660	660	660	660	660	660	660	660	660	660	660	658	658	658	657	657	657	657	657	657	655	654	653	653	653	653	653	652	651	651	651	651	653	653	653	653	653	653	655	655	655	655	655	655	655	655	655	657	657	657	657	657	657	657	657	658	658	658	658	658	658	658	658	658	658	658	658	658	659	660	660	660	660	660	659	658	658	658	658	657	657	657	657	657	657	657	656	655	655	655	655	655	655	655	657	657	657	657	657	657	657	657	658	658	659	660	660	661	662	662	662	662	662	663	664	664	664	664	664	664	664	664	663	662	662	662	662	662	662	662	664	664	664	664	664	664	664	664	664	664	664	664	664	664	662	662	662	662	661	660	660	660	660	658	658	658	658	658	658	658	657	657	657	657	657	657	657	657	658	659	660	660	660	660	662	663	664	664	664	665	665	665	664	664	664	665	667	668	669	671	672	673	674	674	674	676	677	678	678	677	676	676	676	676	676	676	676	674	674	674	673	673	673	673	673	671	671	671	669	669	669	669	669	669	667	667	667	667	667	667	667	668	669	669	669	669	669	668	667	667	666	665	665	665	665	664	664	664	664	664	664	665	665	665	667	668	669	671	672	673	674	675	676	676	677	678	680	681	682	684	684	684	684	684	684	684	684	684	682	682	682	680	680	680	678	678	678	678	678	678	680	680	680	680	680	682	683	684	684	686	687	687	688	689	691	222	0	0	0	0	0	0	0	0	0	0	0	0	0	0	0	51	682	680	678	676	676	676	676	674	673	671	671	671	671	671	671	671
709	711	712	713	713	716	719	730	738	745	759	766	773	790	796	803	30	0	0	753	787	773	755	749	741	735	733	732	732	732	732	732	732	732	110	0	0	0	0	0	0	0	0	0	0	0	0	0	0	0	0	0	0	0	0	0	0	0	0	0	0	0	0	0	0	0	0	0	0	0	419	672	664	657	652	646	643	641	636	633	631	630	628	627	625	624	624	620	619	619	617	617	616	614	614	613	611	611	611	611	611	611	611	611	611	613	613	613	617	618	620	627	629	630	633	634	636	640	641	641	643	641	638	638	642	653	657	660	664	668	670	674	674	674	676	674	672	669	666	663	658	655	652	646	643	641	641	638	636	633	630	628	625	623	622	619	617	616	614	613	613	613	613	613	614	615	616	617	619	620	627	629	631	636	638	641	646	648	651	655	656	657	660	661	662	664	664	665	667	668	669	669	669	669	669	669	669	669	668	667	667	667	667	665	665	665	664	664	664	664	664	664	664	664	664	664	664	664	664	664	662	661	660	658	658	658	657	656	654	651	650	650	650	649	648	648	647	646	645	645	645	643	642	641	640	640	640	638	637	636	636	636	635	635	635	635	635	635	636	635	634	633	633	633	633	633	633	633	633	632	631	631	631	631	631	632	633	633	633	633	633	633	633	633	632	631	630	630	630	628	628	627	626	625	625	624	624	624	625	625	625	625	625	627	629	630	633	635	636	638	641	643	646	648	650	653	654	655	658	658	658	660	660	660	660	660	660	662	661	660	660	660	660	660	660	660	660	659	658	658	658	657	657	657	657	657	656	655	655	655	655	655	655	655	655	656	657	657	657	658	658	658	658	660	660	660	662	662	662	662	662	664	664	664	662	662	662	662	662	662	660	660	660	660	660	660	660	660	660	660	660	660	660	660	660	660	660	660	662	662	662	660	660	660	660	660	660	660	660	660	658	658	658	657	657	657	657	656	655	653	653	653	653	653	653	653	653	653	653	653	653	653	654	655	655	655	655	655	655	655	655	655	655	657	657	657	657	657	657	658	658	658	658	658	658	658	658	658	658	658	658	658	658	658	659	660	660	660	660	658	658	658	658	657	657	657	657	657	655	655	655	655	655	655	655	654	653	653	654	655	655	655	655	657	657	657	657	657	658	658	659	660	660	660	660	662	662	662	662	662	662	662	662	662	662	662	662	662	662	662	662	662	662	662	662	662	662	662	662	662	662	664	664	664	664	664	664	662	662	662	662	662	662	662	662	662	660	660	660	658	658	658	658	658	658	658	658	658	657	657	657	657	658	658	660	660	660	660	660	660	662	663	664	665	666	667	667	667	667	667	667	667	669	670	671	673	673	674	674	674	674	676	676	676	678	677	676	676	676	676	674	674	674	674	674	674	674	674	673	673	673	673	672	671	669	669	669	669	669	669	667	667	667	667	667	667	667	668	669	669	669	669	669	668	667	665	664	664	664	664	664	664	664	664	664	664	664	664	665	665	667	668	669	671	672	673	674	674	674	676	677	678	680	681	682	682	682	682	682	682	682	682	682	682	680	680	680	677	676	676	674	674	674	674	675	676	676	677	678	678	678	678	679	680	682	683	685	687	687	687	687	220	0	0	0	0	0	0	0	0	0	0	0	0	0	0	0	51	673	673	673	673	673	673	671	671	671	669	669	669	669	669	669	671
710	712	713	713	714	717	720	732	740	748	762	769	776	792	799	807	30	0	0	753	787	773	754	747	741	735	733	731	731	731	731	731	731	732	110	0	0	0	0	0	0	0	0	0	0	0	0	0	0	0	0	0	0	0	0	0	0	0	0	0	0	0	0	0	0	0	0	0	0	0	419	672	664	655	648	641	639	637	632	629	627	626	624	623	621	620	620	617	617	616	615	614	614	612	611	610	609	609	609	609	609	609	608	608	608	609	609	610	613	615	616	621	623	624	363	317	318	320	320	320	321	417	638	638	640	646	651	653	656	659	661	664	666	667	667	666	664	661	659	657	652	648	646	641	638	636	634	633	632	629	627	625	622	621	619	616	615	614	612	612	612	612	612	612	612	614	615	616	617	618	624	626	628	633	635	638	643	646	648	652	654	655	658	659	660	663	663	664	665	666	666	667	667	667	667	667	667	667	667	666	666	666	666	665	664	664	664	664	664	663	663	663	663	663	663	664	664	663	663	663	662	661	660	658	658	658	656	655	654	651	651	650	650	649	648	648	647	646	645	645	645	643	642	641	640	640	640	638	637	637	636	636	636	635	635	635	635	635	636	635	634	633	633	633	633	633	633	633	633	632	631	631	631	631	632	632	633	633	633	633	633	633	633	632	632	631	630	630	630	629	629	627	626	626	625	625	624	624	625	625	626	626	626	628	630	631	634	636	637	640	642	644	647	649	651	653	655	656	658	659	659	660	660	660	660	660	660	661	660	660	660	660	660	660	660	660	660	660	659	658	658	657	657	657	657	656	656	655	655	655	655	655	655	655	655	655	656	657	657	658	658	658	658	660	660	660	661	661	662	662	662	664	664	664	663	663	663	662	662	662	660	660	660	660	660	660	660	660	660	660	660	660	660	660	660	660	661	661	662	662	662	661	661	661	661	661	661	660	660	660	659	659	659	658	657	657	657	657	656	654	654	653	653	653	653	653	653	653	653	653	653	654	654	655	655	655	655	655	655	655	655	655	656	657	657	657	657	658	658	658	658	658	658	658	659	659	659	659	659	659	659	659	659	659	660	660	660	659	659	658	658	658	658	657	657	656	656	656	654	654	654	654	654	654	654	653	653	653	654	654	654	654	655	656	656	657	657	657	658	658	658	659	659	659	660	661	661	661	661	661	661	661	661	661	661	661	662	662	662	662	661	661	661	661	661	661	662	662	662	662	662	663	663	663	663	663	663	662	662	662	662	662	662	662	662	662	661	660	660	659	658	658	658	658	658	658	658	658	657	657	657	657	658	658	660	660	660	661	661	661	663	664	664	666	667	668	668	668	668	668	668	669	670	671	672	673	673	674	674	674	674	675	675	676	677	677	676	675	675	675	674	674	674	674	674	674	674	674	674	673	673	673	672	671	669	669	669	668	668	668	667	667	667	667	667	667	667	668	668	669	669	669	668	667	667	664	664	664	664	664	664	664	664	664	664	664	664	664	665	665	666	667	668	671	671	672	673	674	674	675	676	677	679	679	680	681	681	681	681	681	681	681	681	681	678	678	678	676	675	674	674	674	674	674	674	675	675	675	676	677	677	678	679	680	682	683	684	686	686	687	687	220	0	0	0	0	0	0	0	0	0	0	0	0	0	0	0	51	671	671	671	672	671	671	670	669	669	667	667	667	668	668	668	670
711	713	713	713	715	718	721	734	742	750	766	773	780	795	803	811	31	0	0	753	787	773	752	746	741	735	732	730	730	730	730	730	731	732	110	0	0	0	0	0	0	0	0	0	0	0	0	0	0	0	0	0	0	0	0	0	0	0	0	0	0	0	0	0	0	0	0	0	0	0	419	672	664	653	644	636	634	633	628	626	624	622	620	619	617	616	616	614	614	614	613	612	611	610	609	608	607	607	607	607	607	607	605	605	605	605	606	607	610	611	613	616	616	617	93	0	0	0	0	0	0	193	638	638	639	640	645	647	648	650	652	655	659	660	658	657	656	653	653	651	645	642	639	636	633	631	628	628	628	625	623	622	620	618	617	614	613	613	611	610	610	610	610	610	611	612	613	614	616	617	622	623	625	630	632	635	641	643	646	650	651	653	657	657	658	662	662	662	664	664	664	665	665	665	665	665	665	665	665	665	665	665	665	664	664	664	664	664	664	662	662	662	662	662	662	663	664	662	662	662	662	661	660	658	658	658	655	655	654	651	651	651	650	649	648	648	647	646	645	645	645	643	642	641	640	640	640	638	638	638	636	636	636	635	635	635	635	635	635	635	634	633	633	633	633	633	633	633	633	632	631	631	631	631	633	633	633	633	633	633	633	633	633	631	631	631	630	630	630	630	629	627	627	627	625	625	625	625	625	625	627	627	628	630	631	632	635	637	638	641	643	645	648	650	651	653	655	657	658	659	660	660	660	660	660	660	660	660	660	660	660	660	660	660	660	660	660	660	660	658	658	657	657	657	657	655	655	655	655	655	655	655	655	655	655	655	655	657	657	658	658	658	658	660	660	660	660	661	662	662	662	664	664	664	664	664	664	662	662	662	660	660	660	660	660	660	660	660	660	660	660	660	660	660	660	660	661	662	662	662	662	662	662	662	662	662	662	660	660	660	660	660	660	658	658	657	657	657	657	655	654	653	653	653	653	653	653	653	653	653	653	655	655	655	655	655	655	655	655	655	655	656	657	657	657	657	658	658	658	658	658	658	658	658	660	660	660	660	660	660	660	660	660	660	660	660	660	659	658	658	658	658	657	657	657	655	655	655	653	653	653	653	653	653	653	653	653	653	653	653	653	654	655	655	656	657	657	657	658	658	658	658	658	659	660	660	660	660	660	660	660	660	660	660	660	661	662	662	662	662	660	660	660	660	660	660	662	662	662	662	662	662	662	662	662	662	662	662	662	662	662	662	662	662	662	662	662	661	660	660	659	658	658	658	658	658	658	658	657	657	657	657	658	658	660	660	660	662	662	662	664	664	665	667	668	669	669	669	669	669	670	671	671	672	673	673	673	674	674	674	674	674	675	676	676	676	676	674	674	674	674	674	674	674	674	674	674	674	674	673	673	673	672	671	669	669	669	667	667	667	667	667	667	667	667	667	667	667	667	669	669	669	667	667	667	664	664	664	664	664	664	664	664	664	664	664	664	664	665	665	665	666	667	671	671	671	673	673	673	674	675	676	678	678	678	680	680	680	680	680	680	680	680	680	677	676	676	674	674	673	673	673	673	673	673	674	674	674	674	676	676	678	679	680	682	682	682	684	685	686	687	220	0	0	0	0	0	0	0	0	0	0	0	0	0	0	0	50	669	669	669	671	670	669	669	668	667	665	665	665	667	667	667	669
713	713	713	713	717	721	724	741	749	757	771	778	785	803	811	819	849	842	833	800	798	798	754	750	750	71	289	730	730	730	730	730	468	0	0	0	0	0	0	0	0	0	0	0	0	0	0	0	0	0	0	0	0	0	0	0	0	0	0	0	0	0	0	0	0	0	0	0	0	0	0	0	0	385	637	631	627	625	620	619	619	616	614	613	611	611	611	610	609	608	608	608	607	605	605	604	602	602	602	602	602	601	601	601	601	601	601	601	604	605	607	608	609	611	92	0	0	0	201	627	627	627	628	628	629	630	631	631	631	636	638	640	640	640	640	640	640	638	636	634	631	630	630	628	625	623	620	620	620	620	618	617	616	615	614	613	612	611	610	610	610	610	610	610	610	610	610	611	613	614	617	619	622	625	628	631	636	638	640	645	647	650	653	654	655	658	659	660	660	661	662	662	662	662	664	664	664	664	664	664	664	664	664	664	663	662	662	662	662	662	662	662	662	662	662	662	662	662	662	662	662	661	660	658	657	657	655	655	654	651	651	651	650	650	650	650	649	648	646	645	645	645	644	643	641	640	640	640	639	638	636	636	636	635	635	635	635	635	635	635	634	633	633	633	633	633	633	633	633	632	631	631	632	633	633	633	633	635	635	635	633	632	631	631	631	631	631	631	631	630	630	628	627	627	627	627	627	627	627	627	628	629	630	631	634	635	636	639	641	643	645	646	650	651	651	655	656	657	658	659	660	660	660	660	660	660	660	660	660	660	660	660	660	660	660	660	660	659	658	658	658	657	657	656	655	655	655	655	653	653	653	655	655	655	655	655	655	655	656	657	658	658	658	658	659	660	660	661	662	662	662	662	663	664	664	664	664	662	662	662	662	661	660	660	660	660	660	660	660	660	660	660	660	661	662	662	662	662	664	664	664	662	662	662	662	662	662	662	662	662	660	660	660	660	659	658	657	657	657	657	656	655	655	655	655	655	655	655	655	655	655	655	655	655	655	655	655	655	655	655	657	657	657	657	657	658	658	658	658	658	658	660	660	660	660	660	660	660	660	660	660	660	660	660	660	660	660	659	658	658	657	657	655	655	655	653	653	653	653	652	651	651	651	651	651	651	651	651	652	653	653	653	653	653	654	655	655	656	657	657	657	658	658	658	658	658	659	660	660	660	660	660	660	660	660	660	660	660	660	660	660	660	660	660	660	660	660	661	662	662	662	662	662	662	662	662	662	662	662	662	662	662	662	662	662	662	660	660	660	658	658	658	658	658	658	658	658	658	657	657	657	657	658	658	660	661	662	664	664	664	665	666	667	669	670	671	671	671	671	671	671	671	671	672	673	673	673	673	673	673	673	673	673	674	676	675	674	674	674	674	674	674	674	674	674	674	673	673	673	673	673	671	671	671	669	669	669	667	667	667	667	667	667	667	667	667	667	667	667	667	667	667	667	666	665	664	664	664	664	663	662	662	662	662	662	662	662	664	664	664	665	666	667	669	670	671	673	673	673	674	674	674	676	676	676	678	678	678	678	678	678	676	676	676	674	674	673	671	671	671	671	671	671	671	671	671	673	673	673	674	674	676	677	678	678	681	682	682	683	555	0	0	0	0	0	0	0	0	0	0	0	0	0	405	671	671	669	667	665	665	665	665	666	667	665	664	664	664	664	664	664	664	665	667
713	713	714	714	716	721	725	742	751	759	774	780	788	807	815	824	849	842	833	816	635	399	377	375	375	35	145	365	365	365	365	365	234	0	0	0	0	0	116	360	360	360	360	75	0	0	0	0	0	0	0	0	0	0	0	0	0	0	0	0	0	0	0	0	0	0	0	0	0	0	202	324	320	512	637	628	625	622	617	616	615	613	612	610	609	608	608	608	607	606	606	605	604	603	602	602	600	600	600	600	600	599	598	598	598	599	599	599	601	603	607	608	609	611	352	307	308	309	410	624	624	624	625	625	626	627	628	628	628	631	633	634	634	634	634	633	632	632	630	629	626	625	625	624	622	621	618	618	618	618	617	616	615	614	614	613	612	611	610	610	610	610	610	610	610	610	610	611	612	614	616	618	620	624	627	630	633	636	638	643	645	648	651	653	654	656	657	658	659	659	660	661	661	661	662	662	662	662	662	663	663	663	663	663	663	662	662	662	662	662	662	662	662	662	662	662	662	663	662	662	662	661	660	659	658	657	656	655	655	652	652	652	650	650	650	650	649	648	647	646	645	645	644	643	641	641	640	640	639	638	636	636	636	635	635	635	635	635	635	635	634	633	633	633	633	633	633	633	633	633	632	632	632	633	633	633	634	635	635	635	633	632	631	631	631	631	631	631	631	630	630	628	628	627	627	627	627	628	628	628	630	631	632	633	635	637	638	641	642	644	647	648	650	651	652	655	656	657	658	659	659	660	660	660	660	660	660	660	660	660	660	660	660	660	660	660	660	659	658	658	658	657	657	656	655	655	655	655	653	653	653	655	655	655	655	655	655	655	656	657	658	658	658	658	658	659	660	660	661	662	662	662	663	663	663	663	663	662	662	662	661	660	660	660	660	660	660	660	660	660	660	660	661	662	662	662	663	663	664	664	664	663	663	663	663	663	663	663	663	663	661	661	661	660	660	659	658	658	658	657	657	656	656	656	656	655	655	655	655	655	655	655	655	655	655	655	655	655	655	656	657	657	657	657	657	658	658	658	658	659	659	660	660	660	660	660	660	660	661	661	661	661	661	661	660	660	660	659	658	658	657	657	655	655	655	653	652	652	652	651	650	650	650	650	650	650	650	650	651	652	652	652	653	653	653	654	655	655	656	657	657	658	658	658	658	658	658	659	659	659	659	659	659	659	659	659	659	659	659	659	659	659	659	659	659	659	660	660	661	661	661	661	661	661	661	662	662	662	662	662	662	662	662	662	661	661	660	660	660	658	658	658	658	658	658	658	658	658	658	658	658	658	658	659	661	662	662	664	664	664	665	666	667	669	669	670	670	670	670	670	670	671	671	671	672	673	673	673	673	673	673	673	673	674	675	675	674	674	674	674	674	674	674	674	674	674	673	673	673	672	672	671	671	671	669	668	668	667	667	667	667	667	667	667	667	667	667	667	667	667	667	667	666	665	665	664	664	664	663	662	662	662	662	662	662	662	662	664	664	664	665	666	667	669	670	671	672	672	672	673	674	674	675	675	675	676	676	676	676	676	676	675	675	675	673	672	672	670	670	670	669	669	669	670	670	670	672	672	672	672	673	674	676	677	677	679	680	680	681	616	339	109	0	0	0	0	0	0	0	0	0	0	0	405	670	670	668	667	664	664	664	664	665	665	664	664	663	663	663	663	663	664	664	665
713	713	714	715	715	721	726	743	752	761	776	783	790	811	820	830	849	842	833	833	472	0	0	0	0	0	0	0	0	0	0	0	0	0	0	0	0	0	231	721	719	719	719	149	0	0	0	0	0	0	0	0	0	0	0	0	0	0	0	0	0	0	0	0	0	0	0	0	0	0	405	649	640	639	637	625	622	620	614	612	611	610	609	608	607	606	605	605	604	604	604	603	602	601	600	599	598	598	598	598	598	597	595	595	595	597	597	597	598	601	607	608	609	611	613	614	616	618	619	620	620	621	622	622	623	624	625	625	625	627	627	627	627	627	627	626	625	625	624	624	622	621	620	620	619	619	616	616	616	616	616	616	614	614	614	613	612	611	610	610	610	610	610	610	610	610	610	611	612	613	616	617	619	624	626	628	631	633	636	641	643	646	650	651	653	655	656	657	658	658	658	660	660	660	660	660	660	660	661	662	662	662	662	662	662	662	662	662	662	662	662	662	662	662	662	662	662	664	663	662	662	661	660	660	658	657	657	656	655	653	653	653	651	651	651	650	649	648	648	647	646	645	644	643	641	641	641	640	639	638	636	636	636	635	635	635	635	635	635	635	634	633	633	633	633	633	633	633	633	633	633	633	633	633	633	634	635	635	635	635	633	632	631	631	631	631	631	631	631	630	630	628	628	628	627	627	627	628	628	629	631	632	633	635	637	638	641	642	643	646	648	650	651	652	653	655	656	657	658	658	658	660	660	660	660	660	660	660	660	660	660	660	660	660	660	660	660	659	658	658	658	657	657	656	655	655	655	655	653	653	653	655	655	655	655	655	655	655	656	657	658	658	658	658	658	658	660	660	660	662	662	662	662	662	662	662	662	662	662	662	660	660	660	660	660	660	660	660	660	660	660	660	662	662	662	662	663	664	664	664	664	664	664	664	664	664	664	664	664	664	662	662	662	660	660	660	658	658	658	657	657	657	657	657	657	655	655	655	655	655	655	655	655	655	655	655	655	655	656	657	657	657	657	657	657	658	658	658	658	660	660	660	660	660	660	660	660	660	661	662	662	662	662	662	661	660	660	659	658	658	657	657	655	655	655	653	652	651	651	650	650	650	650	650	650	650	650	650	651	651	651	652	653	653	653	653	655	655	655	657	657	657	658	658	658	658	658	658	658	658	658	658	658	658	658	658	658	658	658	658	658	658	658	658	658	658	660	660	660	660	660	660	660	660	660	661	662	662	662	662	662	662	662	662	661	660	660	660	660	658	658	658	658	658	658	658	658	658	658	658	658	658	659	660	662	662	662	664	664	664	665	666	667	669	669	669	669	669	669	669	670	671	671	671	671	673	673	673	673	673	673	673	673	673	674	674	674	674	674	674	674	674	674	673	673	673	673	673	673	671	671	671	671	671	669	668	667	667	667	667	667	667	667	667	667	667	667	667	667	667	667	667	665	665	665	664	664	664	662	662	662	662	662	662	662	662	662	664	664	664	665	666	667	669	670	671	671	671	671	673	673	673	674	674	674	674	674	674	674	674	674	674	674	674	671	671	671	669	669	669	667	667	667	669	669	669	671	671	671	671	671	673	675	676	676	677	678	678	678	678	678	217	0	0	0	0	0	0	0	0	0	0	0	404	669	669	668	667	664	664	664	664	664	664	664	663	662	662	662	662	662	663	664	664
711	711	713	715	715	722	728	748	757	766	780	789	798	819	831	844	853	853	853	48	0	0	0	0	0	0	0	0	0	0	0	0	0	0	0	245	721	721	720	719	717	717	717	149	0	0	0	0	0	0	0	0	0	0	0	0	0	0	0	0	0	0	0	0	0	100	662	659	656	646	640	635	630	630	629	617	615	614	610	608	607	605	604	604	602	601	601	601	600	599	599	599	598	597	596	595	594	594	594	594	594	594	592	592	592	597	597	597	598	599	601	602	603	605	608	609	611	615	616	617	617	618	619	619	619	620	620	620	620	622	622	622	621	620	620	620	620	619	619	619	619	618	617	617	617	617	616	616	616	616	616	616	614	614	614	613	612	611	611	611	611	610	610	610	610	610	610	611	612	613	614	615	617	620	622	625	630	631	633	640	641	643	648	649	651	653	655	657	657	657	657	657	657	658	658	658	658	658	659	660	660	660	660	660	661	662	662	662	662	662	662	662	662	662	662	662	662	664	663	662	662	662	662	660	659	658	658	657	657	655	655	655	653	653	653	651	651	651	650	649	648	646	645	645	643	642	641	640	639	638	636	636	636	635	635	635	635	635	635	635	634	633	633	633	633	633	633	633	633	633	633	633	633	633	635	635	635	635	635	636	635	634	633	633	633	633	633	633	633	631	631	630	630	630	630	630	630	630	631	631	633	635	636	638	640	641	643	645	646	648	649	650	653	654	655	657	657	657	657	658	658	658	658	658	658	659	660	660	660	660	660	660	660	660	659	658	658	658	658	658	658	657	657	656	655	655	655	655	655	655	655	655	655	655	655	655	655	655	656	657	658	658	658	658	658	658	660	660	660	660	660	662	662	662	662	662	662	662	662	662	660	660	660	660	660	660	660	660	660	660	661	662	662	662	662	664	664	664	664	664	664	664	664	664	664	664	664	664	664	664	664	663	662	662	661	660	660	660	660	658	658	657	657	657	657	657	657	657	657	657	657	657	657	657	657	657	657	657	657	657	657	657	657	658	658	658	658	658	658	660	660	660	660	660	660	661	662	662	662	662	662	662	662	662	661	660	660	659	658	658	656	655	655	654	653	651	651	651	650	650	650	650	650	650	650	650	650	650	650	650	651	651	651	653	653	653	653	654	655	655	656	657	657	657	657	658	658	658	658	658	658	658	658	658	658	658	658	658	658	658	658	658	658	658	658	658	658	658	658	660	660	660	660	660	660	660	660	660	660	660	660	661	662	662	661	660	660	660	660	658	658	658	658	658	658	658	658	658	658	658	658	658	659	660	662	663	664	664	664	664	665	666	667	669	669	669	669	669	669	669	670	671	671	671	671	673	673	673	673	673	673	673	673	673	673	673	674	674	674	674	674	674	673	673	673	673	673	673	673	671	671	671	671	671	669	668	667	667	667	667	667	667	667	667	667	667	667	667	667	667	667	667	665	665	665	664	663	662	662	662	662	662	662	662	662	662	662	664	664	664	665	665	665	667	668	669	669	669	669	671	671	671	671	671	671	671	671	671	671	671	671	671	671	671	669	668	667	667	667	667	667	667	667	667	667	667	669	669	669	671	671	673	673	673	673	675	676	676	676	676	676	217	0	0	0	0	0	0	0	0	0	0	0	404	669	669	667	665	664	664	664	664	663	662	662	662	662	660	660	660	662	662	662	664
711	711	713	714	715	722	729	750	759	767	782	791	800	820	832	846	856	662	426	24	0	0	343	372	372	35	144	363	362	362	362	362	361	360	360	483	720	720	720	719	717	717	717	149	0	0	0	0	0	0	0	0	0	0	0	0	0	0	0	0	0	0	55	326	325	375	655	652	649	640	635	631	628	625	621	614	612	610	607	606	604	603	602	601	600	600	599	599	598	598	597	597	596	596	595	594	593	592	592	592	593	594	592	592	592	594	595	596	596	598	600	600	601	603	606	608	610	614	615	616	616	617	618	618	618	618	618	619	620	620	620	620	619	618	618	618	618	618	619	619	619	618	617	617	617	617	616	616	616	616	616	616	615	614	614	614	613	612	612	612	612	610	610	610	610	610	611	611	612	613	614	615	616	619	622	624	629	631	633	638	640	643	647	648	650	653	654	656	657	657	657	657	657	658	658	658	658	658	658	659	659	659	660	660	661	662	662	662	662	662	662	662	662	662	662	663	663	664	663	662	662	662	662	661	660	659	658	658	657	656	656	656	655	654	654	652	651	651	650	649	648	647	646	645	644	642	641	640	639	638	637	637	636	635	635	635	635	635	635	634	633	632	632	632	633	633	633	633	633	633	633	633	633	633	635	635	635	635	636	637	636	635	634	634	634	634	634	634	634	633	633	632	632	632	632	632	632	632	633	634	636	637	638	640	642	643	646	647	648	650	651	652	654	655	655	657	657	657	657	657	658	658	658	658	658	659	659	659	659	659	659	659	659	659	659	658	658	658	658	658	658	657	657	656	655	655	655	655	655	655	655	655	655	655	655	655	655	656	656	657	658	658	658	658	658	658	659	659	660	660	660	661	661	661	662	662	662	662	661	661	660	660	660	660	660	660	660	660	660	661	662	662	662	663	663	664	664	664	664	664	664	664	664	664	664	664	664	664	664	664	664	664	663	662	662	661	660	660	660	659	658	658	658	658	658	658	657	657	657	657	657	657	657	657	657	657	657	657	657	657	657	657	658	658	658	658	658	658	658	660	660	660	661	661	661	662	662	662	662	662	662	662	662	662	661	660	660	659	658	658	656	655	655	654	653	651	651	651	650	650	650	650	650	650	650	650	650	650	650	650	650	651	651	652	652	653	653	654	655	655	655	656	657	657	657	657	658	658	658	658	658	658	658	658	658	658	658	658	658	658	658	658	658	658	658	658	658	658	658	659	659	659	659	659	659	660	660	660	660	660	660	661	661	661	660	660	660	659	659	658	658	658	658	658	658	658	658	658	658	658	658	659	660	661	662	663	664	664	664	664	665	666	667	669	669	669	669	669	669	670	670	671	671	671	671	672	672	673	673	673	673	673	673	673	673	673	674	674	674	674	674	674	673	673	673	673	673	673	672	671	671	671	671	671	669	668	667	667	667	667	667	667	667	667	667	667	667	667	667	667	667	667	665	665	665	664	663	662	662	662	662	662	662	662	662	662	662	664	664	664	665	665	665	667	667	668	668	668	668	669	669	670	670	670	669	669	669	669	670	670	669	669	669	669	668	667	666	666	666	667	667	667	667	667	667	667	668	668	668	670	670	672	672	672	672	674	675	675	675	675	676	217	0	0	0	0	0	0	0	0	0	0	0	404	669	669	667	665	663	663	663	663	662	662	662	661	661	660	660	660	661	661	661	663
711	711	712	713	715	723	730	752	760	768	785	794	803	822	834	847	859	470	0	0	0	0	687	743	743	70	288	726	724	724	724	724	723	721	721	720	719	719	719	719	717	717	717	149	0	0	0	0	0	0	0	0	0	0	0	0	0	0	0	0	0	0	111	651	650	650	648	645	642	635	630	627	627	619	614	611	609	607	604	603	602	601	600	599	599	598	598	597	597	597	595	595	595	594	594	594	591	590	589	589	591	594	592	592	592	592	593	594	595	596	598	599	600	601	604	606	608	612	613	614	616	616	616	616	616	617	617	618	619	617	617	617	617	617	617	617	617	617	618	619	619	618	617	617	617	617	617	616	616	616	616	616	616	615	614	614	613	613	613	613	613	611	611	611	611	611	611	611	612	613	614	615	616	619	621	624	628	630	633	636	639	643	646	648	650	653	654	655	657	657	657	657	657	657	657	657	657	658	658	658	658	659	660	660	661	662	662	662	662	662	662	662	662	662	662	663	664	664	663	662	662	662	662	662	661	660	658	658	658	657	657	657	657	656	655	653	652	651	650	649	648	648	646	645	645	643	641	641	639	638	638	637	636	635	635	635	635	635	635	633	632	631	631	632	633	633	633	633	633	633	633	633	633	633	635	635	635	636	637	638	636	636	636	635	635	635	635	635	635	635	635	633	633	633	633	633	633	635	636	636	638	639	641	643	644	645	648	649	650	651	652	653	655	655	655	657	657	657	657	657	657	658	658	658	658	658	658	658	658	658	658	658	658	658	658	658	658	658	658	658	658	657	657	656	655	655	655	655	655	655	655	655	655	655	655	655	655	657	657	657	658	658	658	658	658	658	658	659	660	660	660	660	660	660	662	662	662	662	661	660	660	660	660	660	660	660	660	660	660	662	662	662	662	663	664	664	664	664	664	664	664	664	664	664	664	664	664	664	664	664	664	664	664	662	662	662	660	660	660	660	659	658	658	658	658	658	658	657	657	657	657	657	657	657	657	657	657	657	657	657	657	657	658	658	658	658	658	658	658	660	660	660	661	662	662	662	662	662	662	662	662	662	662	662	661	660	660	659	658	658	656	655	655	654	653	651	651	651	650	650	650	650	650	650	650	650	650	650	650	650	650	650	651	651	652	653	653	654	655	655	655	655	657	657	657	657	657	658	658	658	658	658	658	658	658	658	658	658	658	658	657	657	657	657	657	657	657	657	658	658	658	658	658	658	658	659	660	660	660	660	660	660	660	660	660	660	660	659	658	658	657	657	657	657	657	658	658	658	658	658	658	660	661	662	662	663	664	664	665	665	665	666	667	669	669	669	669	669	669	671	671	671	671	671	671	671	672	673	673	673	673	673	673	673	673	673	674	674	674	674	674	674	673	673	673	673	673	672	671	671	671	671	671	671	669	668	667	667	667	667	667	667	667	667	667	667	667	667	667	667	667	667	665	665	665	664	663	662	662	662	662	662	662	662	662	662	662	664	664	664	665	665	665	667	667	667	667	667	667	667	668	669	669	668	667	667	667	667	669	668	667	667	667	667	667	666	665	665	666	667	667	667	667	667	667	667	667	667	667	669	669	671	671	671	671	673	674	674	674	674	676	217	0	0	0	0	0	0	0	0	0	0	0	404	669	669	667	665	662	662	662	662	662	662	662	661	660	660	660	660	660	660	660	662
711	711	712	713	715	724	732	754	764	773	793	800	808	827	836	847	32	0	0	0	329	759	744	738	732	728	727	726	724	724	724	721	721	721	721	720	719	719	719	719	717	716	715	713	713	713	161	0	0	0	0	0	0	0	0	0	0	0	0	0	0	0	109	643	643	643	641	637	634	630	625	621	617	613	611	607	605	604	601	600	599	598	597	597	597	596	595	594	594	594	592	592	592	591	591	591	591	590	589	589	589	589	589	589	589	589	590	591	594	594	595	598	599	601	604	605	608	612	613	614	614	615	616	616	616	616	617	617	617	617	617	617	617	617	617	617	617	617	618	619	619	618	617	617	618	619	619	619	619	619	619	619	619	619	619	617	616	616	616	615	614	614	613	613	613	612	611	611	612	613	614	615	616	619	620	622	627	629	631	636	638	641	646	648	650	653	654	655	657	657	657	657	657	657	657	657	657	657	657	658	658	658	658	660	660	660	662	662	662	662	662	662	663	664	664	664	664	664	664	664	664	664	664	662	662	662	660	660	660	658	658	658	658	657	657	655	654	653	651	650	650	648	647	646	645	644	643	641	640	640	638	637	636	635	635	635	635	635	635	633	632	631	631	632	633	633	633	633	635	635	636	636	636	636	638	638	638	640	642	643	641	641	641	640	640	640	640	640	640	640	640	638	638	638	638	638	638	640	641	641	643	644	645	646	649	650	651	652	653	655	655	655	655	656	657	657	657	657	657	657	657	657	657	657	657	657	657	657	657	657	657	657	657	657	657	658	658	658	658	658	658	658	657	657	657	655	655	655	655	655	655	655	655	655	655	655	655	657	657	657	658	658	658	658	658	658	658	659	660	660	660	660	660	660	660	660	660	660	660	660	660	660	660	660	660	660	660	661	662	662	662	662	662	662	662	664	664	664	664	664	664	664	664	664	664	664	664	664	664	664	664	664	664	664	663	662	662	661	660	660	660	660	658	658	658	658	658	658	658	658	658	658	658	658	658	658	657	657	657	657	658	658	658	658	658	658	658	658	658	660	660	662	662	662	662	662	662	662	662	662	662	662	662	662	662	662	660	659	658	658	656	655	655	654	653	651	651	651	650	650	650	650	650	650	650	650	650	650	650	650	650	650	651	651	652	653	653	653	653	655	655	655	657	657	657	657	657	657	657	657	658	657	657	657	657	657	657	657	657	657	657	657	657	657	657	657	657	657	657	657	657	658	658	658	658	659	660	660	660	660	658	658	658	658	658	658	658	658	658	657	657	657	657	657	657	658	658	658	658	658	658	660	661	662	662	663	664	664	665	665	665	666	667	669	669	669	669	669	669	669	670	671	671	671	671	671	672	673	673	673	673	673	673	673	673	673	674	673	673	673	673	673	673	673	673	673	671	671	671	671	671	671	670	669	669	669	669	669	668	667	667	667	667	667	667	667	667	667	667	667	667	667	665	665	665	664	664	664	662	662	662	662	662	662	662	662	662	664	664	664	665	665	665	667	667	667	667	667	667	667	667	667	667	667	667	667	667	667	667	667	667	667	667	667	665	665	665	665	665	665	665	665	665	665	666	667	667	667	667	669	669	671	671	671	671	672	673	673	673	546	0	0	0	0	0	0	0	0	0	0	0	0	0	0	0	0	0	50	662	662	662	662	662	662	660	660	660	660	660	660	660	660	660	662
711	711	712	713	715	725	734	758	767	776	804	808	812	830	638	424	16	0	0	361	544	754	741	736	732	728	727	726	725	725	724	721	721	721	721	721	720	720	720	720	718	717	715	713	713	713	161	0	0	0	0	0	0	0	0	0	0	0	0	0	0	0	109	642	642	642	640	637	634	630	624	620	616	612	610	607	605	603	600	599	598	596	596	596	596	594	593	593	593	592	592	592	592	591	591	591	590	589	588	588	588	588	588	588	588	588	589	590	593	594	594	598	599	600	603	605	608	612	613	614	614	615	616	616	616	616	617	617	617	617	617	618	618	618	618	618	618	618	619	620	620	620	620	620	620	621	622	622	622	622	622	622	622	622	621	620	619	618	618	617	616	615	615	614	613	612	611	611	612	613	614	614	615	618	619	621	626	628	630	635	638	641	646	648	650	653	654	656	657	657	657	657	657	657	657	657	657	657	657	658	658	658	658	660	660	660	662	662	662	662	662	663	664	664	664	664	664	664	664	664	664	664	664	662	662	662	661	660	660	659	658	658	658	657	657	656	655	654	651	651	650	649	648	647	645	644	643	641	641	640	639	638	637	636	635	635	635	635	635	633	632	631	631	632	633	633	633	634	635	636	637	637	637	637	639	639	640	642	643	644	643	643	643	642	642	642	642	642	642	642	641	640	640	640	640	640	641	642	643	644	646	647	648	648	650	652	653	654	654	656	656	656	656	657	657	657	657	657	657	657	657	657	657	657	657	657	657	656	656	656	656	656	656	657	657	658	658	658	658	658	658	658	657	657	657	656	656	655	655	655	655	655	655	655	656	656	656	657	657	658	658	658	658	658	658	658	658	658	659	659	659	660	660	660	660	660	660	660	660	660	660	660	660	660	660	660	660	661	661	662	662	662	662	662	662	663	664	664	664	664	664	664	664	664	664	664	664	664	664	664	664	664	664	664	663	662	661	661	660	660	660	660	658	658	658	658	658	658	658	658	658	658	658	658	658	657	657	657	657	658	658	658	658	658	658	658	658	658	659	660	660	662	662	662	662	662	662	662	662	662	662	662	662	662	662	662	660	659	658	658	657	656	655	654	653	651	651	651	650	650	650	650	650	650	650	650	650	650	650	650	650	650	651	651	652	653	653	653	653	655	655	655	657	657	657	657	657	657	657	657	658	657	657	657	657	657	657	657	657	657	657	657	657	657	657	657	657	657	657	657	657	658	658	658	658	659	659	659	659	659	658	658	658	658	658	658	658	658	658	657	657	657	657	657	657	658	658	658	658	658	658	660	661	661	662	663	664	664	665	665	665	666	667	669	669	669	669	669	669	669	670	671	671	671	671	671	671	672	672	672	672	673	673	673	673	674	674	673	673	673	673	673	673	673	673	672	671	671	671	671	671	671	670	669	669	668	668	668	667	667	667	667	667	667	666	666	666	666	666	666	667	667	665	665	665	664	664	664	663	663	663	662	662	662	662	663	663	664	664	664	665	665	665	666	666	666	666	666	666	666	666	666	666	666	666	666	666	666	666	666	666	666	666	666	665	664	664	665	665	665	665	665	665	665	665	666	667	667	667	668	668	670	670	670	670	671	672	672	672	545	0	0	0	0	0	0	0	0	0	0	0	0	0	0	0	0	0	25	331	518	662	662	662	662	660	660	660	660	659	659	659	659	659	661
711	711	712	713	715	726	736	761	770	778	816	816	816	833	440	0	0	0	0	723	759	750	737	734	732	728	727	726	726	725	724	721	721	721	721	721	721	721	721	721	719	718	715	713	713	713	161	0	0	0	0	0	0	0	0	0	0	0	0	0	0	0	109	641	641	641	640	637	634	630	623	618	614	612	610	607	604	602	598	597	597	595	595	595	594	593	592	592	591	591	591	591	591	591	591	591	589	589	588	588	588	588	587	587	587	588	588	589	592	593	594	597	598	599	603	605	607	612	613	614	614	615	616	616	616	616	617	617	617	617	617	619	619	619	619	619	619	620	620	620	622	622	622	622	622	622	624	624	624	624	625	625	625	624	624	622	621	620	619	619	619	616	616	616	613	612	611	611	612	613	613	613	614	617	618	620	625	627	630	635	638	641	646	648	650	653	655	657	657	657	657	657	657	657	657	657	657	657	657	658	658	658	658	660	660	660	662	662	662	662	662	664	664	664	664	664	664	664	664	664	664	664	664	662	662	662	662	661	660	660	659	658	658	657	657	657	656	655	651	651	651	650	649	648	645	644	643	641	641	641	640	639	638	636	636	635	635	635	635	633	632	631	631	632	633	633	634	635	636	637	638	638	638	638	640	640	641	643	644	645	645	645	645	643	643	643	643	643	643	643	643	643	643	643	643	643	643	645	646	646	648	649	650	651	652	653	655	655	655	657	657	657	657	657	657	657	657	657	657	657	657	657	657	657	657	657	657	655	655	655	655	655	655	657	657	657	657	657	658	658	658	657	657	657	657	657	656	655	655	655	655	655	655	655	657	657	657	657	657	658	658	658	658	658	658	658	658	658	658	658	658	660	660	660	660	660	660	660	660	660	660	660	660	660	660	660	660	660	660	662	662	662	662	662	662	662	663	664	664	664	664	664	664	664	664	664	664	664	664	664	664	664	664	664	663	662	660	660	660	660	660	660	658	658	658	658	658	657	657	657	657	657	657	657	657	657	657	657	657	658	658	658	658	658	658	658	658	659	660	660	660	662	662	662	662	662	662	662	662	662	662	662	662	662	662	662	660	659	658	658	657	657	655	654	653	651	651	651	650	650	650	650	650	650	650	650	650	650	650	650	650	650	651	651	652	653	653	653	653	655	655	655	657	657	657	657	657	657	657	657	657	657	657	657	657	657	657	657	657	657	657	657	657	657	657	657	657	657	657	657	657	657	657	657	658	658	658	658	658	658	658	658	658	658	658	658	658	658	658	657	657	657	657	657	657	657	657	657	657	658	658	660	660	660	662	663	664	664	665	665	665	666	667	669	669	669	669	669	669	669	670	671	671	671	671	671	671	671	671	671	671	673	673	673	674	674	673	673	673	673	673	673	673	673	672	671	671	671	671	671	671	671	670	669	669	668	667	667	667	667	667	667	667	667	666	665	665	665	665	665	666	667	665	665	665	664	664	664	664	664	664	662	662	662	662	663	664	665	665	665	665	665	665	665	665	665	665	665	665	665	665	665	665	665	665	665	665	665	665	665	665	665	665	665	664	664	664	665	665	665	665	665	665	665	665	665	667	667	667	667	667	669	669	669	669	670	671	671	671	544	0	0	0	0	0	0	0	0	0	0	0	0	0	0	0	0	0	0	0	375	662	662	662	662	660	660	660	660	659	658	658	658	658	660
711	711	712	713	717	730	741	766	775	783	816	816	816	833	440	0	0	358	790	763	755	748	737	734	732	730	729	728	726	726	726	724	724	724	721	721	721	723	724	724	720	718	715	712	711	711	161	0	0	0	0	0	0	0	0	0	0	0	0	0	0	0	109	641	641	641	638	638	636	624	620	617	613	609	607	604	601	599	597	596	595	595	594	594	592	591	591	591	591	591	591	591	591	589	589	588	588	588	587	587	587	587	587	587	587	587	588	589	591	591	592	595	596	598	601	604	607	610	612	613	614	614	614	616	616	617	617	618	619	620	620	620	621	622	622	623	624	625	625	625	627	628	628	628	629	630	630	630	630	630	630	630	630	629	628	627	626	625	624	623	622	619	618	617	614	613	613	613	613	613	613	613	614	617	618	620	625	627	630	635	638	641	646	648	650	655	656	657	657	657	657	657	657	657	657	657	657	657	657	658	658	659	660	660	661	662	662	662	662	662	662	664	664	664	664	664	664	664	664	664	664	664	664	664	663	662	662	661	660	660	659	658	658	657	657	657	656	655	653	652	651	650	649	648	646	645	645	643	643	643	641	641	640	638	637	636	636	636	635	635	634	633	633	633	633	635	635	635	638	639	640	640	640	641	641	642	643	645	645	646	645	645	645	646	646	646	646	647	648	648	648	648	648	648	648	648	648	650	651	651	653	654	655	657	657	657	658	658	658	658	658	658	657	657	657	657	657	657	657	657	657	657	656	655	655	655	655	655	655	655	655	655	655	655	656	657	657	657	657	657	657	657	657	657	657	657	657	657	657	657	657	657	657	657	657	657	657	658	658	658	658	658	657	657	657	657	657	657	657	658	658	658	659	660	660	660	660	660	660	660	660	660	660	660	660	660	660	660	660	662	662	662	662	662	662	662	662	662	662	662	662	662	663	664	664	664	664	664	664	664	664	663	662	662	661	660	660	660	660	658	658	658	657	657	657	657	657	657	657	657	657	657	657	657	657	657	657	657	657	658	658	658	658	658	658	658	660	660	660	660	660	662	662	662	662	662	662	662	662	662	662	662	662	662	662	662	660	660	660	658	657	657	655	655	655	653	652	651	651	650	650	650	650	650	650	650	650	650	650	650	650	650	651	651	652	653	653	653	653	655	655	655	657	657	657	657	657	657	657	657	657	657	657	657	657	657	657	657	657	657	657	657	657	657	657	657	657	657	657	657	657	657	657	657	657	657	657	657	657	657	657	657	657	658	658	658	658	658	658	657	657	657	657	657	657	657	657	657	657	658	658	660	660	660	662	663	664	664	665	665	667	667	667	667	667	667	667	667	667	667	668	669	669	670	671	671	671	671	671	671	671	671	671	671	671	671	671	671	671	671	671	671	671	671	670	669	669	669	669	669	669	669	669	669	667	667	667	667	667	667	667	667	667	665	665	665	665	665	665	665	666	667	667	666	665	665	664	664	664	665	665	664	664	664	664	664	664	664	664	664	665	665	665	665	665	665	665	665	665	665	665	665	665	665	664	664	664	664	664	664	664	664	664	665	664	664	664	664	664	665	665	665	665	665	665	665	665	665	665	667	667	667	667	667	667	667	667	667	667	541	0	0	0	0	0	0	0	0	0	0	0	0	0	0	0	0	0	0	0	375	662	662	662	662	660	660	660	660	659	658	658	658	658	658
711	712	713	714	719	732	743	768	777	786	819	819	819	834	639	419	410	581	789	762	755	748	738	736	734	731	730	729	727	727	726	725	725	724	721	721	721	722	722	722	720	718	715	712	711	711	161	0	0	0	0	0	0	0	0	0	0	0	0	0	0	0	109	640	639	638	636	634	632	623	618	615	610	608	606	603	600	598	597	596	595	594	594	594	592	591	591	591	590	590	590	590	590	589	588	588	588	587	587	587	587	587	587	587	587	587	588	589	591	591	592	595	596	598	601	603	607	610	612	613	614	614	614	616	616	617	618	619	620	621	621	622	623	624	624	626	626	628	628	628	630	630	631	632	632	633	633	633	633	633	633	633	633	632	631	629	628	627	626	624	623	620	619	618	615	614	613	613	613	613	613	613	614	616	618	620	624	627	630	635	637	640	646	648	650	655	656	657	657	657	657	657	657	657	657	657	657	657	658	658	658	659	660	660	661	662	662	662	662	663	663	664	664	664	664	664	664	664	664	664	664	664	664	664	663	662	662	661	660	660	659	659	658	658	657	657	656	655	653	652	651	650	649	649	647	646	645	644	644	644	642	641	640	639	639	638	637	637	636	636	635	634	634	634	634	635	636	636	639	640	640	640	641	642	642	643	644	645	646	647	647	646	646	647	647	647	648	648	649	649	649	650	650	650	650	650	651	652	654	654	656	656	657	658	658	659	659	659	659	659	659	659	658	658	657	657	657	657	657	657	657	656	655	655	655	655	655	655	655	655	655	655	655	655	655	656	657	657	657	657	657	658	658	658	658	657	657	657	657	658	658	658	658	658	658	658	658	658	658	658	658	658	657	657	657	657	657	657	657	658	658	658	659	659	660	660	660	660	660	660	660	660	660	660	660	660	660	660	660	661	662	662	662	662	662	662	662	662	662	662	662	662	663	663	663	663	663	663	663	663	663	662	661	661	661	660	659	659	659	658	658	658	657	657	657	657	657	657	657	657	657	657	657	657	657	657	658	658	658	658	658	658	658	659	659	659	660	660	660	661	661	662	663	663	663	663	663	663	663	663	663	662	662	662	662	662	661	660	660	658	658	657	656	655	655	653	652	652	651	651	650	650	650	650	650	650	650	650	650	650	650	651	651	652	652	653	653	653	653	655	655	655	657	657	657	657	657	657	657	657	657	657	657	657	657	657	657	657	657	657	657	657	657	657	657	657	657	657	657	657	657	657	657	657	657	657	657	657	657	657	657	657	657	658	658	658	658	658	658	657	657	657	657	657	657	657	657	657	657	658	658	660	660	660	662	663	664	664	665	665	667	667	667	667	667	667	667	667	667	667	668	669	669	669	670	670	670	670	670	670	670	670	670	670	671	671	671	670	670	670	670	670	670	670	670	669	668	668	668	668	668	668	668	668	667	667	667	666	666	666	666	666	666	665	665	665	664	664	665	665	666	666	667	666	665	665	665	664	664	665	665	664	664	664	664	664	664	664	664	664	664	664	664	665	665	665	665	664	664	664	664	664	664	664	664	664	664	664	664	664	664	664	664	664	664	664	664	664	664	665	665	665	665	665	664	664	664	664	664	666	666	666	666	666	666	666	666	667	667	541	0	0	0	0	0	0	0	0	0	0	0	0	0	0	0	0	0	0	0	375	663	662	662	662	661	661	661	660	659	659	659	659	658	658
711	713	714	715	721	734	745	771	780	788	822	822	822	836	837	838	820	805	788	761	754	748	740	738	736	732	731	730	728	727	726	726	725	724	721	721	721	721	721	721	719	718	715	712	711	711	161	0	0	0	0	0	0	0	0	0	0	0	0	0	0	0	108	638	637	636	635	631	627	622	617	613	608	606	605	602	600	598	597	596	595	594	594	594	592	591	591	591	590	589	589	589	589	588	588	587	587	587	587	587	587	587	587	587	587	587	588	589	591	591	592	595	596	598	601	603	607	610	612	613	614	614	614	616	616	617	619	620	620	622	622	624	625	625	627	628	628	630	631	631	633	633	633	635	635	635	636	636	636	636	636	636	636	635	635	631	630	630	627	626	625	622	620	619	616	614	613	613	613	613	613	613	614	616	617	619	624	627	630	635	637	640	646	648	650	655	656	657	658	658	657	657	657	657	657	657	657	658	658	658	658	659	660	660	661	662	662	662	662	664	664	664	664	664	664	664	664	664	664	664	664	664	664	664	663	662	662	661	660	660	660	660	658	658	658	657	656	655	653	652	651	650	650	650	648	647	646	646	645	645	643	642	641	640	640	640	638	638	638	636	636	636	635	635	635	636	637	638	640	640	641	641	642	643	643	644	645	646	647	648	648	648	648	648	648	648	650	650	650	650	650	651	651	651	653	653	653	655	656	657	658	658	658	660	660	660	660	660	660	660	660	660	658	658	658	657	657	657	657	657	657	655	655	655	655	655	655	655	655	655	655	655	655	655	655	655	657	657	657	657	657	658	658	658	658	657	657	657	658	658	658	658	658	658	658	658	658	658	658	658	658	658	657	657	657	657	657	657	657	658	658	658	658	658	660	660	660	660	660	660	660	660	660	660	660	660	660	660	660	660	661	662	662	662	662	662	662	662	662	662	662	662	662	662	662	662	662	662	662	662	662	661	660	660	660	660	658	658	658	657	657	657	657	657	657	657	657	657	657	657	657	657	657	657	657	657	658	658	658	658	658	658	658	660	660	660	660	660	660	662	662	662	663	664	664	664	664	664	664	664	664	663	662	662	662	662	662	661	660	658	658	658	657	656	655	653	653	653	651	651	651	651	650	650	650	650	650	650	650	650	651	651	651	653	653	653	653	653	653	655	655	655	657	657	657	657	657	657	657	657	657	657	657	657	657	657	657	657	657	657	657	657	657	657	657	657	657	657	657	657	657	657	657	657	657	657	657	657	657	657	657	657	657	658	658	658	658	658	658	657	657	657	657	657	657	657	657	657	657	658	658	660	660	660	662	663	664	664	665	665	667	667	667	667	667	667	667	667	667	667	668	669	669	669	669	669	669	669	669	669	669	669	669	669	671	671	671	669	669	669	669	669	669	669	669	669	667	667	667	667	667	667	667	667	667	667	667	665	665	665	665	665	665	665	665	665	664	664	664	665	665	665	667	666	665	665	665	665	665	665	665	664	664	664	664	664	664	664	664	664	664	664	664	665	665	665	664	664	664	664	664	664	664	664	664	664	664	664	664	664	664	664	664	664	664	664	664	664	664	665	665	665	665	664	664	664	664	664	664	665	665	665	665	665	665	665	665	667	667	541	0	0	0	0	0	0	0	0	0	0	0	0	0	0	0	0	0	0	0	376	664	662	662	662	662	662	662	660	660	660	660	659	658	657
713	713	716	719	728	742	754	780	788	795	816	821	827	841	840	838	820	805	788	761	754	748	742	739	736	734	733	732	728	727	726	724	723	721	721	721	721	721	721	721	719	719	719	713	711	711	161	0	0	0	0	0	0	0	0	0	0	0	0	0	0	0	108	635	635	634	630	626	623	617	613	611	607	605	604	601	599	598	597	596	595	594	594	594	591	591	591	591	590	589	589	589	588	588	588	587	587	587	587	587	587	587	587	587	587	588	588	589	591	592	594	595	596	598	601	603	607	610	612	613	614	615	617	617	618	620	622	623	625	625	626	628	629	631	633	633	633	635	637	638	640	640	640	641	641	641	643	642	641	641	641	641	641	640	640	636	634	633	630	628	627	624	622	620	617	615	614	613	613	613	613	613	614	616	617	619	624	626	628	635	637	640	645	647	650	655	656	658	658	658	658	658	658	658	658	658	658	658	659	660	660	660	660	660	661	662	662	662	662	664	664	664	664	664	664	664	664	665	665	665	665	664	664	664	664	664	662	661	660	660	660	660	658	658	658	657	656	655	653	653	653	651	650	650	650	649	648	646	646	646	645	644	643	643	642	641	641	641	640	640	640	640	638	638	638	640	640	641	643	644	645	645	645	646	648	648	648	650	650	651	651	652	653	653	653	653	655	655	655	655	655	657	657	657	657	658	658	660	661	662	662	663	664	662	662	662	664	663	662	660	660	660	660	659	658	658	657	657	657	657	657	655	655	655	655	655	655	655	655	655	655	655	655	655	655	655	655	656	657	657	657	658	658	658	658	658	658	658	658	658	658	658	658	658	658	658	658	658	658	658	658	658	657	657	657	657	657	657	657	657	657	658	658	658	658	658	658	660	660	660	660	660	660	660	660	660	660	660	660	660	660	660	660	660	660	660	661	662	662	662	662	662	662	662	662	662	662	660	660	660	660	660	660	658	658	658	657	657	657	657	656	655	655	655	655	655	655	655	655	655	655	657	657	657	657	657	658	658	658	658	658	659	660	660	660	660	660	661	662	662	662	662	663	664	664	664	664	664	664	664	664	664	664	664	663	662	662	662	662	660	659	658	658	657	657	655	655	655	653	653	653	653	652	651	651	651	651	651	651	651	651	652	653	653	653	653	653	654	655	655	656	657	657	657	657	657	657	657	657	657	657	657	657	657	657	657	657	657	657	657	657	657	657	657	656	655	655	655	655	655	655	655	655	655	655	655	655	657	657	657	657	657	657	658	658	658	658	658	658	658	657	657	657	657	657	657	657	657	657	658	658	660	660	660	662	663	664	665	665	665	667	667	667	667	667	667	667	667	667	667	667	667	667	667	667	667	667	667	667	667	667	669	669	669	669	669	669	669	668	667	667	667	667	667	667	667	667	667	667	667	667	667	667	667	667	667	667	665	665	665	665	665	665	665	664	664	664	664	664	664	665	665	665	665	665	665	665	665	665	665	665	665	665	665	664	664	664	664	664	664	664	664	664	664	664	664	664	664	664	664	664	664	664	664	664	664	664	664	664	664	664	664	664	664	664	664	664	664	664	665	665	665	664	664	664	664	664	664	664	664	664	664	664	664	664	664	664	664	664	539	0	0	0	0	0	0	0	0	0	0	0	0	0	0	0	0	0	0	0	376	665	664	664	664	662	662	662	662	661	660	660	659	658	657
713	714	717	720	731	745	758	782	790	798	816	824	832	844	842	840	830	811	788	763	757	750	744	741	738	735	734	732	729	728	727	724	723	721	721	722	724	724	724	724	724	722	720	717	716	716	162	0	0	0	0	0	0	0	0	0	0	0	0	0	0	0	108	635	633	632	628	625	623	615	612	609	606	605	604	601	599	598	597	596	595	594	594	594	591	591	591	591	590	589	589	589	588	588	588	588	587	587	587	587	587	587	587	587	587	588	588	589	591	592	594	596	597	598	601	603	607	610	612	613	614	615	617	618	619	621	623	624	626	627	628	630	632	633	636	636	637	638	640	641	642	643	643	644	644	645	646	644	644	644	644	644	644	642	641	638	636	634	632	629	627	624	623	621	617	615	614	613	613	613	613	613	614	616	617	619	624	626	628	634	637	640	645	647	650	655	656	658	659	659	659	659	659	659	659	659	659	659	659	660	661	661	661	661	661	662	662	662	663	664	664	664	664	664	664	664	665	665	665	665	665	665	664	664	664	664	662	661	661	660	660	660	658	658	658	657	656	656	654	653	653	652	651	650	650	649	649	647	647	647	646	645	644	644	644	643	642	642	642	642	642	642	641	640	640	641	642	643	644	645	646	646	647	648	649	650	650	652	653	653	654	654	655	655	655	656	656	657	658	658	658	658	658	659	660	660	660	662	663	664	664	664	664	664	663	663	664	663	663	661	660	660	660	659	659	658	658	657	657	657	657	655	655	655	655	655	655	655	655	655	655	655	655	655	655	655	655	656	657	657	657	658	658	658	659	659	659	659	659	659	659	659	659	659	659	659	658	658	658	658	658	658	657	657	657	657	657	657	657	657	657	658	658	658	658	658	658	659	659	659	660	660	660	660	660	660	660	660	660	660	660	660	660	660	660	660	661	661	661	661	661	661	661	661	661	661	661	660	660	660	660	660	659	658	658	658	657	657	656	655	655	654	654	654	654	654	654	654	655	655	655	656	656	657	657	657	658	658	658	658	658	659	660	660	660	660	661	661	662	662	662	662	663	663	663	664	664	664	664	664	664	664	664	664	663	663	663	662	662	661	660	659	658	658	657	656	656	656	654	654	654	653	652	652	652	652	652	652	652	652	652	652	653	653	653	654	654	655	656	656	656	657	657	657	657	657	657	657	657	657	657	657	657	657	657	657	657	657	657	657	657	657	657	656	656	655	655	655	655	654	654	654	654	654	655	655	655	656	657	657	657	657	657	658	658	658	658	658	658	658	657	657	657	657	657	657	657	657	657	658	658	660	661	661	662	663	664	665	665	665	667	667	667	667	667	667	667	667	667	667	667	667	667	667	667	667	667	667	667	667	667	668	668	668	668	668	667	667	667	666	666	666	666	666	666	666	666	666	666	666	666	666	667	667	666	666	666	665	665	665	664	664	664	664	664	664	664	664	664	664	665	665	665	666	666	666	666	666	666	665	665	665	665	665	664	664	664	664	663	663	663	663	663	664	664	664	664	664	664	664	664	664	664	664	664	664	664	664	664	664	664	664	664	664	664	664	664	664	664	665	665	664	664	664	664	664	664	664	663	663	663	663	663	663	663	663	663	663	663	538	0	0	0	0	0	0	0	0	0	0	0	0	0	0	0	0	0	0	0	376	665	664	664	664	663	662	662	662	661	660	660	659	658	656
713	715	718	721	734	748	761	785	793	801	816	826	836	847	844	841	841	817	788	765	759	752	746	743	741	736	734	732	730	729	728	725	723	721	721	723	726	728	728	728	728	726	721	721	721	721	163	0	0	0	0	0	0	0	0	0	0	0	0	0	0	0	108	635	632	629	625	624	623	613	610	608	605	604	604	601	599	598	597	596	595	594	594	594	591	591	591	591	590	589	589	589	588	588	588	588	587	587	587	587	587	587	587	587	587	588	588	589	592	593	594	597	598	599	602	604	607	610	612	613	614	615	617	619	621	622	624	626	627	629	631	633	634	636	638	639	640	641	642	643	645	646	646	646	647	648	648	647	646	646	646	646	646	644	643	640	638	636	633	630	628	625	623	622	617	615	614	613	613	613	613	613	613	616	617	619	624	626	628	633	636	640	645	647	650	655	656	658	660	660	660	660	660	660	660	660	660	660	660	660	662	662	662	662	662	662	662	663	664	664	664	664	664	664	664	665	665	665	665	665	665	665	665	664	664	664	662	662	662	660	660	660	658	658	658	657	657	657	655	654	653	653	652	651	650	650	650	648	648	648	646	646	646	645	645	645	643	643	643	643	643	643	643	643	643	643	644	645	646	647	648	648	649	650	651	652	653	655	655	655	657	657	657	657	657	658	658	659	660	660	660	660	660	660	662	662	662	664	665	665	665	665	665	665	664	664	664	664	664	662	661	660	660	660	660	658	658	658	657	657	657	655	655	655	655	655	655	655	655	655	655	655	655	655	655	655	655	656	657	657	657	658	658	659	660	660	660	660	660	660	660	660	660	660	660	659	658	658	658	658	658	658	657	657	657	657	657	657	657	657	657	657	658	658	658	658	658	658	658	658	660	660	660	660	660	660	660	660	660	660	660	660	660	660	660	660	660	660	660	660	660	660	660	660	660	660	660	660	660	660	660	659	658	657	657	657	657	656	655	653	653	653	653	653	653	653	653	653	655	655	655	655	656	657	657	657	658	658	658	658	658	659	660	660	660	660	662	662	662	662	662	662	662	662	662	663	664	664	664	664	664	664	664	664	664	664	664	663	662	662	661	660	658	658	658	657	657	657	655	655	655	653	653	653	653	653	653	653	653	653	653	653	653	653	654	655	655	656	657	657	657	657	657	657	657	657	657	657	657	657	657	657	657	657	657	657	657	657	657	657	657	657	657	655	655	655	655	655	655	653	653	653	653	653	655	655	655	655	656	657	657	657	657	658	658	658	658	658	658	658	657	657	657	657	657	657	657	657	657	658	658	660	661	662	662	663	664	665	665	665	667	667	667	667	667	667	667	667	667	667	667	667	667	667	667	667	667	667	667	667	667	667	667	667	667	666	665	665	665	665	665	665	665	665	665	665	665	665	665	665	665	665	666	667	665	665	665	665	665	665	664	664	664	664	664	664	664	664	664	664	665	665	665	666	667	667	667	667	667	666	665	665	665	665	664	664	664	664	663	662	662	662	662	664	664	664	664	664	664	664	664	664	664	664	664	664	664	664	664	664	664	664	664	664	664	664	664	664	664	665	664	664	664	664	664	664	664	663	662	662	662	662	662	662	662	662	662	662	662	537	0	0	0	0	0	0	0	0	0	0	0	0	0	0	0	0	0	0	0	376	665	665	664	664	664	663	662	662	661	660	660	659	658	655
715	717	722	727	741	755	768	790	798	806	824	832	841	853	847	841	841	819	793	774	767	759	753	749	745	743	741	739	735	732	730	727	725	724	724	727	734	736	737	739	741	739	734	734	526	0	0	0	0	0	0	0	0	0	0	0	0	0	0	0	0	0	0	0	416	629	625	625	623	613	610	608	605	603	602	601	600	599	597	596	595	595	594	594	592	592	592	591	591	591	589	589	589	589	589	588	588	588	588	588	588	588	589	589	589	591	592	594	595	596	597	599	600	602	604	605	608	612	613	614	616	617	619	620	621	624	626	628	630	632	634	636	639	641	643	644	645	646	647	649	651	651	651	651	652	653	651	651	651	651	650	650	650	648	646	643	640	638	633	631	630	625	623	622	617	615	614	613	613	613	613	613	613	616	617	619	622	624	627	633	635	638	644	647	650	655	656	658	660	661	662	662	662	662	662	662	662	662	662	662	662	662	662	662	662	662	662	663	664	664	664	664	664	664	664	665	665	665	665	665	665	665	665	664	664	664	664	663	662	662	661	660	660	659	658	657	657	657	657	656	655	653	653	653	651	651	651	651	650	650	650	650	650	648	648	648	646	646	646	646	646	646	646	646	646	646	647	648	650	650	650	653	653	653	655	656	657	658	658	658	660	661	662	662	662	662	664	664	665	665	665	665	665	665	667	667	667	667	667	667	669	669	669	667	666	665	665	664	664	664	663	662	660	660	660	660	659	658	658	657	657	657	656	655	655	655	655	655	655	655	655	655	655	655	655	655	657	657	657	657	657	658	660	660	660	660	660	660	660	660	660	660	661	662	660	660	660	658	658	658	658	658	657	657	657	657	657	657	657	657	657	657	657	657	658	658	658	658	658	658	658	659	660	660	660	660	660	660	660	660	660	660	660	660	660	660	660	660	660	660	660	660	660	660	660	660	660	660	659	658	658	658	657	657	656	655	653	653	653	653	653	653	653	653	653	653	653	653	653	654	655	655	656	657	657	657	658	658	658	658	660	660	660	660	660	660	662	662	662	662	662	662	662	662	662	663	664	664	664	664	664	664	664	664	664	664	664	664	664	662	661	660	660	660	660	658	658	658	657	657	657	655	655	655	655	655	655	655	655	655	655	655	655	655	655	655	657	657	657	657	657	657	657	657	657	657	657	657	657	657	657	657	657	657	657	657	657	657	657	657	657	656	655	655	655	655	653	653	653	653	653	653	653	653	653	654	655	655	656	657	657	657	657	658	658	658	658	658	658	658	658	658	658	658	658	658	658	658	658	658	658	660	661	662	664	664	664	665	666	667	667	667	667	667	667	667	667	667	667	667	666	665	665	665	665	665	665	665	665	665	665	665	665	665	665	665	664	664	664	664	664	664	664	664	664	664	664	664	664	665	665	665	665	665	665	665	665	665	665	665	664	664	664	664	664	664	664	664	664	664	665	665	665	666	667	667	667	667	667	667	667	665	665	665	664	664	664	664	663	662	662	662	662	662	663	664	664	664	664	664	664	664	664	664	664	664	664	664	664	664	664	664	664	664	664	664	664	664	664	665	664	664	664	662	662	662	660	660	660	660	660	660	660	660	660	660	660	660	660	660	660	212	0	0	0	0	0	0	0	0	0	0	0	0	0	0	0	0	0	379	669	667	666	665	665	664	664	664	663	662	660	659	658	653
716	718	723	728	744	758	771	792	801	811	827	835	844	854	850	844	836	818	797	777	769	762	754	751	748	744	742	740	737	736	734	412	363	362	362	364	367	368	368	370	370	369	367	367	263	0	0	0	0	0	0	0	0	0	0	0	0	0	0	0	0	0	0	0	208	315	312	312	352	613	610	607	605	603	602	601	600	599	598	597	596	596	595	594	593	593	593	592	592	592	590	590	590	590	590	590	590	590	590	590	590	590	590	590	590	593	594	596	596	597	599	600	601	603	605	607	609	612	613	614	616	617	619	621	622	624	627	629	632	633	635	638	641	642	644	646	647	648	650	651	653	653	653	654	655	655	653	653	653	652	651	650	649	648	647	643	640	638	633	631	629	625	623	622	617	615	614	613	613	613	613	613	614	616	617	619	622	624	627	632	635	638	644	646	649	654	656	658	660	661	662	663	663	663	663	663	663	663	663	663	663	663	663	663	663	663	663	663	664	664	664	664	664	664	664	665	665	665	665	665	665	665	665	664	664	664	664	663	663	662	661	661	660	659	659	658	657	657	657	656	656	654	654	654	653	652	652	652	652	652	652	651	650	650	649	649	648	648	648	648	648	648	648	648	648	648	649	650	651	652	652	654	654	655	656	657	658	660	660	660	662	662	663	663	663	664	665	666	666	667	667	667	667	667	669	669	669	669	669	669	670	669	669	667	666	666	665	665	664	664	663	662	661	660	660	660	659	658	658	658	657	657	656	656	655	655	655	655	655	655	655	655	655	655	655	655	657	657	657	657	657	658	660	660	660	660	660	660	660	660	661	661	661	662	661	661	660	659	659	658	658	658	657	657	657	657	657	657	657	657	657	657	657	657	658	658	658	658	658	658	658	659	659	659	659	659	659	660	660	660	660	660	660	660	660	660	660	660	660	659	659	659	659	659	659	659	659	659	658	658	658	657	657	656	655	654	653	653	653	652	652	652	652	652	652	652	652	653	653	653	654	655	656	657	657	657	658	658	658	658	660	660	660	660	660	660	661	661	662	662	662	662	662	662	662	663	663	663	664	664	664	664	664	664	664	664	664	664	664	663	662	661	660	660	660	659	658	658	658	658	657	656	656	656	655	655	655	655	655	655	655	655	656	655	655	655	657	657	657	657	657	658	657	657	657	657	657	657	657	657	657	657	657	657	657	657	657	657	657	656	656	656	655	655	655	654	653	653	653	653	653	653	653	653	653	654	655	655	656	657	657	657	658	658	658	658	659	659	659	659	658	658	658	658	658	658	658	658	658	659	659	661	662	662	664	664	665	665	666	667	667	667	667	667	667	667	667	667	667	666	666	665	665	665	665	665	665	665	665	664	664	664	664	664	664	664	664	663	663	663	663	663	663	663	663	663	663	663	663	664	664	664	665	665	665	665	665	664	664	664	664	664	664	664	664	664	664	664	664	664	665	665	666	667	667	667	667	667	667	667	667	665	665	665	664	664	664	663	662	662	662	662	662	662	662	663	663	663	663	664	664	664	664	664	663	663	663	664	664	664	664	664	664	664	664	664	664	664	665	665	664	664	664	662	662	662	660	660	660	659	659	659	660	660	659	659	659	660	659	659	659	211	0	0	0	0	0	212	330	330	125	0	0	0	0	0	196	336	336	524	669	667	666	666	665	665	664	664	663	662	660	659	658	653
717	719	724	729	748	761	773	793	805	816	830	838	847	856	852	847	831	817	801	779	772	764	755	752	750	745	743	741	739	739	739	98	0	0	0	0	0	0	0	0	0	0	0	0	0	0	0	0	0	0	0	0	0	0	0	0	0	0	0	0	0	0	0	0	0	0	0	0	81	613	609	607	605	603	602	601	600	599	598	597	597	597	596	595	594	594	594	592	592	592	591	591	591	591	591	591	591	591	591	591	591	592	592	592	592	595	596	597	598	599	601	602	603	604	607	608	610	612	613	614	616	617	619	621	623	625	627	629	633	635	636	640	642	644	646	647	648	650	652	653	655	655	655	657	657	657	655	655	655	653	652	651	648	648	648	643	640	638	633	630	628	625	623	622	617	615	614	613	613	613	613	613	614	616	617	619	622	624	627	631	634	638	643	645	648	654	656	658	660	661	662	664	664	664	664	664	664	664	664	664	664	664	664	664	664	664	664	664	664	664	664	664	664	664	664	665	665	665	665	665	665	665	665	664	664	664	664	664	664	662	662	662	660	660	660	658	657	657	657	657	657	655	655	655	655	654	653	653	653	653	653	652	651	651	651	650	650	650	650	650	650	650	650	650	650	650	650	651	653	654	655	655	656	657	658	659	660	662	662	662	664	664	664	664	664	665	667	667	667	669	669	669	669	669	671	671	671	671	671	671	671	670	669	667	667	667	665	665	665	664	663	662	662	661	660	660	659	658	658	658	658	657	657	657	655	655	655	655	655	655	655	655	655	655	655	655	657	657	657	657	657	658	660	660	660	660	660	660	660	661	662	662	662	662	662	661	660	660	659	658	658	658	657	657	657	657	657	657	657	657	657	657	657	657	657	657	657	657	658	658	658	658	658	658	658	658	658	659	660	660	660	660	660	660	660	660	660	660	660	659	658	658	658	658	658	658	658	658	657	657	657	657	657	655	654	653	653	653	653	651	651	651	651	651	651	651	652	653	653	653	653	655	656	657	657	657	658	658	658	658	660	660	660	660	660	660	660	661	662	662	662	662	662	662	662	662	662	662	663	664	664	664	664	664	664	664	664	664	664	664	663	662	660	660	660	660	659	658	658	658	658	657	657	657	655	655	655	655	655	655	655	656	657	655	655	655	657	657	657	657	657	658	657	657	657	657	657	657	657	657	657	657	657	657	657	657	657	657	656	655	655	655	655	655	654	653	653	653	653	653	653	653	653	653	653	654	655	655	656	657	657	658	658	658	658	658	660	660	660	660	659	658	658	658	658	658	658	658	658	659	660	662	662	662	664	665	665	665	666	667	667	667	667	667	667	667	667	667	667	665	665	665	665	665	665	665	665	665	664	664	664	664	664	664	664	664	664	662	662	662	662	662	662	662	662	662	662	662	662	664	664	664	665	665	665	665	665	664	664	664	664	664	664	664	664	664	664	664	664	665	665	665	667	667	667	667	667	667	667	667	667	665	665	665	664	664	664	662	662	662	662	662	662	662	662	662	662	662	662	664	664	664	664	663	662	662	663	664	664	664	664	664	664	664	664	664	664	665	665	665	664	664	664	662	662	662	660	660	660	658	658	658	659	660	658	658	658	660	659	658	658	211	0	0	0	0	0	423	660	660	249	0	0	0	0	0	392	671	671	670	669	667	667	667	665	665	665	665	663	662	660	659	658	653
719	724	728	733	752	766	778	798	807	816	833	843	853	862	858	853	831	817	801	784	778	771	760	757	754	750	749	748	748	466	0	0	0	0	0	0	0	0	0	0	775	955	955	198	0	0	0	0	0	0	0	0	0	0	0	0	0	0	0	0	0	0	0	0	0	0	0	0	81	613	609	607	605	604	604	602	600	599	599	598	598	598	598	598	597	596	595	595	594	594	594	594	594	594	594	594	594	594	594	594	594	595	597	597	597	599	600	601	602	603	604	605	606	607	608	609	611	613	615	616	616	617	620	622	623	625	629	631	633	637	639	641	644	646	650	651	651	653	654	655	657	658	658	658	657	657	657	656	654	651	650	650	646	646	646	641	638	636	631	629	628	625	622	620	617	616	616	613	613	613	613	613	614	616	617	619	622	624	627	631	634	638	643	645	648	654	656	658	660	662	664	664	664	665	665	665	665	664	664	664	664	664	664	664	664	664	665	665	665	664	664	664	664	664	664	665	665	665	665	665	665	665	665	665	665	665	664	664	664	664	663	662	662	661	660	660	659	658	658	657	657	657	657	657	655	655	655	655	655	655	655	655	655	653	653	653	653	653	653	653	653	653	651	651	651	653	654	655	657	657	658	658	659	660	662	663	664	664	664	665	665	665	665	665	666	667	667	668	669	669	669	671	671	671	671	671	671	671	671	671	671	670	669	667	667	667	665	665	665	664	663	662	662	661	660	660	660	660	658	658	658	658	657	657	657	656	655	655	655	655	655	655	655	655	656	657	657	657	657	658	659	660	660	660	660	660	661	662	662	662	662	662	662	662	662	662	662	660	660	660	658	658	658	657	657	657	657	657	657	657	657	657	657	657	657	657	657	657	657	657	657	657	657	657	657	657	658	658	658	658	658	658	658	658	658	658	658	658	658	658	658	658	658	658	658	658	658	657	657	657	657	657	657	655	654	653	653	652	651	651	651	651	651	651	651	651	652	653	653	653	653	655	655	655	657	657	658	658	658	658	660	660	660	660	660	660	660	660	660	660	660	660	660	660	662	662	662	662	662	662	664	664	664	664	664	664	664	664	664	664	663	662	662	662	662	660	660	660	658	658	658	658	658	658	657	657	657	657	656	655	655	656	657	657	657	657	658	658	658	658	658	658	658	658	658	658	658	658	658	658	657	657	657	657	657	657	657	655	655	655	655	655	655	653	653	653	653	653	653	653	653	653	653	653	653	654	655	655	656	657	658	658	658	658	659	660	660	661	662	660	660	660	658	658	658	660	660	660	660	660	660	662	662	662	664	665	665	665	666	667	667	667	667	667	667	667	667	667	667	665	665	665	665	665	665	664	664	664	662	662	662	662	662	662	662	661	660	660	660	660	660	660	660	660	660	660	660	660	660	662	662	662	663	664	664	664	664	664	664	664	664	664	664	665	665	665	665	665	665	665	665	665	667	668	669	669	669	669	667	667	667	665	665	665	664	663	662	662	662	662	662	662	662	662	662	662	662	662	662	664	664	664	664	663	662	662	663	664	664	664	665	665	665	665	665	665	665	665	665	665	665	665	664	662	662	662	660	660	660	658	658	658	658	658	658	658	658	658	658	658	658	657	657	657	659	660	660	660	660	660	660	585	0	0	0	0	392	671	671	670	669	669	668	667	667	667	667	665	664	664	662	660	658	653
720	725	729	734	756	769	781	798	807	816	834	846	858	868	864	859	833	819	804	788	781	774	763	761	760	760	607	374	374	233	0	0	0	0	0	0	0	0	0	0	775	955	955	198	0	0	0	0	0	0	0	0	0	0	0	0	0	0	0	0	0	0	0	0	0	0	0	0	81	612	609	607	605	604	604	602	601	600	600	600	600	600	600	599	598	597	596	596	596	596	596	595	594	594	595	596	596	596	596	596	596	597	598	598	599	601	602	602	603	604	606	606	607	608	609	610	612	614	615	616	616	618	620	622	624	626	629	631	634	638	640	642	645	647	650	652	652	654	655	656	658	658	658	658	657	657	656	654	653	650	649	648	644	644	643	640	638	635	630	629	627	624	622	620	617	616	615	613	613	613	614	614	614	616	617	619	622	624	627	631	634	637	643	645	649	654	656	658	661	662	664	664	665	666	666	666	666	666	666	666	665	664	664	664	664	664	665	665	665	665	664	664	664	664	664	665	665	665	665	665	665	665	665	665	665	665	664	664	664	664	663	662	662	661	660	660	659	659	658	658	658	658	658	657	656	656	656	656	656	656	656	656	656	655	655	655	654	654	654	654	654	654	653	653	653	655	655	656	657	658	659	659	660	661	662	663	664	664	664	665	665	665	665	665	666	667	667	667	668	669	669	670	670	670	670	670	670	670	670	670	670	669	669	667	667	667	665	665	664	664	663	662	662	661	660	660	659	659	658	658	658	658	658	657	657	656	655	655	655	655	655	655	655	655	656	657	657	657	657	657	658	659	660	660	660	660	660	661	662	662	662	662	662	662	662	662	662	660	660	660	658	658	658	657	657	657	657	657	657	657	657	657	657	657	657	657	657	657	657	657	657	657	657	657	657	657	658	658	657	658	658	658	658	658	658	658	658	658	658	658	658	658	658	658	658	658	658	657	657	657	656	656	656	654	654	653	653	652	651	651	651	651	651	651	651	651	652	653	653	653	653	655	655	655	657	657	658	658	658	658	660	660	660	660	660	660	660	660	660	660	660	660	660	660	661	661	661	662	662	662	663	663	663	664	664	664	664	664	664	664	663	663	662	662	662	661	661	661	659	659	659	658	658	658	657	657	657	657	656	656	656	656	657	657	658	658	658	658	658	658	658	659	659	659	658	658	658	658	658	658	657	657	657	657	657	657	657	655	655	655	654	654	654	653	653	653	653	653	653	653	653	653	653	653	654	655	655	656	657	657	658	658	658	659	660	661	661	662	662	661	660	660	659	659	659	660	660	660	661	661	661	662	663	663	664	665	665	665	666	666	666	666	667	667	667	667	667	667	667	665	665	665	665	665	664	664	664	664	662	662	662	662	662	661	661	660	659	659	659	658	658	659	659	659	659	659	659	659	660	661	661	661	662	663	664	664	664	664	664	664	664	664	664	665	665	665	665	665	665	666	666	666	667	668	669	669	669	669	668	667	667	665	665	665	664	663	662	662	662	662	662	662	662	662	662	662	663	663	663	664	664	664	664	664	663	663	663	664	664	665	665	665	665	666	666	666	666	666	666	666	665	665	664	663	663	662	660	660	660	658	658	658	658	658	658	658	658	658	658	658	658	657	657	657	658	659	659	659	659	659	660	585	0	0	0	0	393	672	672	671	671	669	668	668	667	667	667	665	664	664	662	660	658	654
721	726	730	735	759	772	783	798	807	816	836	849	862	874	870	865	834	822	808	791	785	778	767	766	766	771	466	0	0	0	0	0	0	0	0	0	0	0	0	0	775	955	955	198	0	0	0	0	0	0	0	0	0	0	0	0	0	0	0	0	0	0	0	0	0	0	0	0	81	611	609	607	605	604	604	602	602	602	601	601	601	601	601	601	599	598	598	598	597	597	597	596	595	595	596	597	597	597	597	598	598	599	599	600	601	604	604	604	605	606	608	608	609	610	611	612	613	615	616	617	617	618	620	623	625	627	629	631	635	639	641	643	645	647	651	652	653	655	656	657	658	658	658	658	657	657	655	652	651	650	648	646	643	641	640	640	637	635	630	628	627	624	622	620	617	615	614	613	613	613	614	614	614	616	617	619	622	624	627	631	633	636	642	646	650	655	656	658	662	663	665	665	666	667	667	667	667	667	667	667	665	665	665	665	665	665	665	665	665	665	665	665	665	665	665	665	665	665	665	665	665	665	665	665	665	665	665	664	664	664	663	662	662	661	660	660	660	660	658	658	658	658	658	658	658	658	658	658	657	657	657	657	657	657	657	657	655	655	655	655	655	655	655	655	655	657	657	657	658	659	660	660	661	662	662	663	664	664	664	665	665	665	665	665	666	667	667	667	667	669	669	669	669	669	669	669	669	669	669	669	669	669	669	667	667	667	665	664	664	664	663	662	662	661	660	660	659	658	658	658	658	658	658	658	657	656	655	655	655	655	655	655	655	655	656	657	657	657	657	657	657	658	660	660	660	660	660	660	662	662	662	662	662	662	662	662	662	660	660	660	658	658	658	657	657	657	657	657	657	657	657	657	657	657	657	657	657	657	657	657	657	657	657	657	657	657	657	657	657	657	657	657	657	657	657	657	657	657	658	658	658	658	658	658	658	658	658	657	657	657	655	655	655	653	653	653	653	652	651	651	651	651	651	651	651	651	652	653	653	653	653	655	655	655	657	657	658	658	658	658	660	660	660	660	660	660	660	660	660	660	660	660	660	660	660	660	660	662	662	662	662	662	662	664	664	664	664	664	664	664	664	664	662	662	662	662	662	662	660	660	660	658	658	658	657	657	657	657	657	657	657	657	657	658	658	658	658	658	658	658	659	660	660	659	658	658	658	658	658	658	657	657	657	657	657	657	657	655	655	655	653	653	653	653	653	653	653	653	653	653	653	653	653	653	655	655	655	657	657	657	658	658	658	660	661	662	662	662	662	662	661	660	660	660	660	660	660	660	662	662	662	662	663	664	664	665	665	665	665	665	665	666	667	667	667	667	667	667	667	665	665	665	665	665	664	664	664	664	662	662	662	662	661	660	660	659	658	658	658	657	657	657	658	658	658	658	658	659	660	660	660	660	661	662	664	664	664	664	665	665	664	664	664	665	665	665	665	665	665	667	667	667	667	668	669	669	669	669	669	668	667	665	665	665	664	663	662	662	662	662	662	662	662	662	662	662	664	664	664	664	664	664	664	664	664	664	664	664	665	665	665	665	666	667	667	667	667	667	667	667	665	665	664	664	663	662	660	660	660	658	658	657	657	657	658	658	658	657	657	657	658	657	657	657	658	658	658	658	658	658	659	585	0	0	0	0	394	673	673	673	673	669	669	669	667	667	667	665	664	664	662	660	658	655
721	726	733	740	764	775	785	803	811	819	838	845	853	874	870	865	834	822	808	794	787	780	774	772	771	771	466	0	0	0	0	0	0	0	0	0	0	0	0	0	828	1021	1021	1098	1122	1133	1142	1151	1171	1197	1208	1217	1217	1217	1217	344	0	0	0	0	0	0	0	0	0	0	0	0	81	611	610	610	607	607	607	607	605	604	604	604	604	604	604	604	602	601	601	601	601	601	599	599	599	599	599	599	601	601	601	602	602	602	604	604	605	607	607	608	610	610	610	611	612	613	614	615	616	616	616	617	617	618	620	622	623	625	629	631	633	637	639	643	647	649	653	653	654	657	657	657	657	657	657	657	656	654	651	649	648	646	644	643	640	638	636	636	633	631	628	626	625	622	620	619	617	615	614	614	614	614	614	615	616	617	618	620	624	625	627	631	633	636	642	646	650	655	656	658	663	664	665	667	668	669	671	670	669	669	669	669	667	667	667	667	667	667	667	667	667	667	667	665	665	665	665	665	665	665	665	665	665	665	665	665	665	665	664	664	664	664	663	662	662	662	662	660	660	660	660	660	660	660	659	658	658	658	658	658	658	658	658	658	658	658	658	657	657	657	657	658	658	657	657	657	657	658	658	658	660	660	660	662	662	662	664	664	664	664	664	665	665	665	665	665	666	667	667	667	667	667	667	669	669	669	669	669	669	669	669	669	669	668	667	667	666	665	665	664	664	664	663	662	660	660	660	660	659	658	658	658	658	658	657	657	657	656	655	655	655	655	655	655	655	655	655	655	657	657	657	657	657	657	658	659	660	660	660	660	660	661	662	662	662	662	662	662	662	662	661	660	658	658	658	658	658	657	657	657	657	657	657	657	657	657	657	657	657	657	657	657	657	656	655	655	655	655	655	655	655	655	655	655	655	656	657	657	657	657	657	657	657	657	657	657	658	657	657	657	657	657	655	655	655	653	653	653	653	652	651	651	651	651	651	651	651	651	652	653	653	654	655	655	656	657	657	657	658	658	658	658	660	660	660	660	660	660	660	660	660	660	660	660	660	660	660	660	660	660	660	660	662	662	662	662	663	664	664	664	664	664	664	664	662	662	662	662	662	662	660	660	660	658	658	658	658	658	658	658	658	658	658	658	658	658	658	658	660	660	660	660	660	660	660	660	660	658	658	658	657	657	657	657	657	657	655	655	655	655	654	653	653	653	653	653	653	653	653	653	653	655	655	655	655	655	655	656	657	657	658	658	658	659	660	662	662	662	662	662	662	662	662	662	662	661	660	660	661	662	662	662	662	664	664	664	664	665	665	665	665	665	665	666	667	667	667	667	667	667	667	665	665	665	665	665	664	664	663	662	662	661	660	660	659	658	658	658	658	657	656	655	655	655	655	657	657	657	657	657	657	658	658	660	660	660	662	663	664	664	665	665	665	665	665	665	665	665	665	666	667	667	668	669	669	670	671	671	670	669	669	668	667	667	666	665	664	664	664	662	662	662	662	662	662	662	662	662	664	664	664	664	664	664	664	664	664	664	664	665	665	666	667	667	668	669	669	669	669	669	668	667	667	666	664	664	663	662	662	661	660	658	658	657	657	657	657	657	657	657	657	657	657	657	657	657	658	658	658	658	658	658	659	585	0	0	63	673	673	673	673	674	674	673	672	671	669	669	669	667	666	665	664	661	658	655
723	726	734	741	766	776	785	802	811	819	838	845	853	445	435	432	417	411	404	397	394	390	387	386	386	386	233	0	0	0	0	0	0	0	0	0	0	0	168	524	938	1039	1050	1102	1120	1133	1142	1151	1171	1197	1208	1217	1217	1217	1217	779	604	600	595	593	591	591	491	0	0	0	0	0	40	306	305	305	304	489	610	609	608	607	606	606	606	606	606	606	604	604	603	603	603	602	602	601	600	600	601	602	602	603	603	604	605	605	607	607	608	609	610	610	611	612	612	612	613	614	614	615	616	616	616	617	617	618	620	621	623	625	628	630	633	636	638	642	646	648	652	653	654	656	656	656	656	656	656	655	654	653	650	648	647	644	643	641	638	636	634	634	632	629	626	625	623	621	619	618	616	615	614	614	614	614	614	615	616	618	619	621	624	626	628	632	634	637	643	646	650	655	657	659	663	665	666	668	669	670	672	672	671	670	670	670	668	668	668	668	668	668	667	667	667	667	667	666	665	665	665	665	665	665	665	665	665	665	665	665	665	664	664	664	664	663	662	662	662	662	662	661	660	660	660	660	660	660	659	659	659	659	659	659	659	659	659	659	659	658	658	658	658	658	658	659	658	658	658	658	658	659	659	659	661	661	661	662	662	663	664	664	664	664	664	664	664	665	665	665	665	666	666	666	667	667	667	668	668	668	668	668	668	668	668	668	668	667	667	666	665	665	664	664	664	663	662	661	660	660	660	659	658	658	658	658	658	658	657	657	656	655	655	655	655	655	655	655	655	655	655	655	656	656	656	657	657	657	657	658	659	659	659	660	660	660	661	662	662	662	662	662	662	662	661	660	658	658	658	658	658	658	657	657	657	657	657	657	657	657	656	656	656	656	656	656	656	655	654	654	654	654	654	654	654	654	654	654	654	655	655	656	656	656	657	657	657	657	657	657	658	657	657	657	657	657	655	655	655	653	653	653	653	653	652	651	651	651	651	651	651	652	652	653	653	654	655	655	656	657	657	658	658	658	658	658	659	659	659	659	659	659	659	659	659	659	659	659	659	659	659	660	660	660	660	660	661	661	661	662	663	663	664	664	664	664	664	664	662	662	662	662	662	662	661	660	660	659	658	658	658	658	658	658	658	658	658	658	659	659	659	659	660	660	661	660	660	660	660	660	660	658	658	658	657	657	657	657	657	656	655	655	655	655	654	653	653	653	653	653	653	653	653	653	654	655	655	655	655	655	656	657	657	658	658	658	659	660	661	662	662	662	662	663	663	663	663	663	662	661	661	661	662	662	662	663	663	664	664	664	664	665	665	665	665	665	665	666	667	667	667	667	667	667	667	666	666	665	665	665	664	664	663	662	662	661	660	659	659	658	658	658	658	656	656	655	654	654	654	656	656	656	656	656	656	657	658	659	659	659	661	662	663	664	664	665	665	665	665	665	666	666	666	667	667	668	669	669	670	671	671	671	670	670	669	668	668	667	666	665	664	664	664	662	662	662	662	662	662	662	662	663	664	664	664	664	664	664	664	664	664	664	665	665	666	667	668	668	669	670	670	670	670	670	669	668	667	666	664	664	663	662	662	661	660	658	658	657	657	657	657	657	657	657	657	657	657	657	657	657	658	658	658	658	658	658	659	623	334	334	366	672	673	673	674	674	674	674	673	672	671	671	671	669	668	667	664	662	659	655
724	726	734	742	768	777	785	801	810	819	838	845	853	16	0	0	0	0	0	0	0	0	0	0	0	0	0	0	0	0	0	0	0	0	0	0	0	0	336	1047	1047	1057	1079	1106	1119	1133	1142	1151	1171	1197	1208	1217	1217	1217	1217	1213	1209	1199	1191	1186	1182	1182	981	0	0	0	0	0	0	0	0	0	0	370	613	611	610	610	608	608	608	608	608	608	607	606	605	605	604	604	604	603	602	602	603	604	604	604	605	607	607	608	610	610	610	611	612	613	613	613	614	614	614	614	614	615	616	616	616	617	617	618	619	621	623	625	627	629	633	635	637	641	645	647	651	652	653	655	655	655	655	655	655	653	652	651	650	647	646	643	641	640	636	634	633	633	630	628	625	623	622	620	618	617	616	615	614	614	614	614	614	615	616	619	620	622	625	626	628	633	635	638	644	647	650	655	657	660	664	665	667	669	670	671	673	673	673	671	671	671	669	669	669	669	669	669	667	667	667	667	667	667	666	665	665	665	665	665	665	665	665	665	665	665	664	664	664	664	664	662	662	662	662	662	662	662	661	660	660	660	660	660	660	660	660	660	660	660	660	660	660	660	660	658	658	658	658	658	658	660	659	658	658	659	660	660	660	660	662	662	662	662	663	664	664	664	664	664	664	664	664	664	665	665	665	665	665	666	667	667	667	667	667	667	667	667	667	667	667	667	667	667	667	665	665	665	664	664	664	662	661	660	660	660	660	658	658	658	658	657	657	657	657	657	655	655	655	655	655	655	655	655	655	655	655	655	655	655	655	657	657	657	657	657	658	658	659	660	660	660	660	662	662	662	662	662	662	662	661	660	658	658	658	658	658	658	657	657	657	657	657	657	657	657	655	655	655	655	655	655	655	654	653	653	653	653	653	653	653	653	653	653	653	653	653	655	655	655	657	657	657	657	657	657	657	657	657	657	657	657	655	655	655	653	653	653	653	653	653	651	651	651	651	651	651	653	653	653	653	654	655	655	656	657	658	658	658	658	658	658	658	658	658	658	658	658	658	658	658	658	658	658	658	658	658	659	660	660	660	660	660	660	660	662	662	662	664	664	664	664	664	664	662	662	662	662	662	662	662	661	660	660	659	658	658	658	658	658	658	658	658	659	660	660	660	660	660	661	662	660	660	660	660	660	660	658	658	657	657	657	657	657	656	655	655	655	655	655	654	653	653	653	653	653	653	653	653	654	655	655	655	655	655	655	657	657	657	658	658	658	660	661	662	662	662	662	662	663	664	664	664	664	662	662	662	662	662	662	662	663	664	664	664	664	665	665	665	665	665	665	665	666	667	667	667	667	667	667	667	667	666	665	665	665	664	664	663	662	662	661	660	658	658	658	657	657	657	655	655	655	653	653	653	655	655	655	655	655	655	657	657	658	658	658	660	661	662	664	664	664	665	665	665	665	666	667	667	667	667	669	669	669	671	671	671	671	671	671	669	669	669	667	666	665	665	664	664	662	662	662	662	662	662	662	663	664	664	664	664	664	664	664	665	665	665	665	665	665	667	668	669	669	670	671	671	671	671	671	670	669	667	666	665	664	663	662	662	661	660	658	658	657	657	657	657	657	657	657	657	657	657	657	657	657	658	658	658	658	658	658	659	661	669	669	669	671	672	673	674	674	674	674	673	673	673	673	673	671	670	669	665	663	660	655
