1856	1856	1856	0	0	0	0	0	0	0	0	0	0	0	0	0	0	0	0	0	0	0	2203	2203	2203	2200	2200	2200	2200	2203	2203	2203	2207	2207	2207	2211	2211	2211	2218	2218	2218	2222	2222	2222	2222	2222	2222	2222	2222	2222	2222	2222	2218	2218	2218	2211	2207	2207	2203	2192	2192	2185	2170	2160	2160	2149	2139	2139	2135	2128	2128	2128	2128	2128	2128	2125	2125	2128	2128	2128	2135	2135	2135	2135	2128	2128	2128	2128	2128	2128	2128	2128	2128	2128	2125	2125	2125	2125	2125	2128	2128	2128	2135	2135	2135	2139	2139	2139	2146	2146	2149	2156	2156	2156	2156	2156	2160	2163	2163	2163	2170	2170	2174	2174	2174	2181	2181	2181	2181	2181	2174	2174	2174	2170	2170	2170	2163	2163	2163	2160	2160	2160	2160	2156	2156	2160	2160	2160	2160	2160	2163	2170	2170	2174	2185	2185	2189	2189	2189	2192	2192	2196	2196	2196	2200	2200	2203	2203	2203	2203	2203	2207	2207	2207	2207	2215	2215	2218	2222	2222	2230	2241	2241	2253	2253	2257	2268	2268	2276	2280	2280	2280	2280	2280	2284	2284	2284	2284	2292	2292	2292	2296	2296	2296	2304	2304	2304	2304	2304	2308	2312	2312	2316	2321	2321	2329	2329	2329	2329	2329	2329	2333	2333	2333	2337	2337	2337	2341	2346	2346	2346	2350	2350	2350	2350	2350	2354	2358	2358	2358	2367	2367	2367	2375	2375	2388	2410	2410	2442	2456	2479	2532	2532	2628	2628	2682	2682	2797	2797	2851	2870	2961	2995	3030	3044	3044	3058	3065	3065	3080	3094	3094	3116	3154	3154	3169	3169	3208	3224	3224	3240	3256	3256	3264	3264	3264	3264	3264	3256	3256	3256	3248	3240	3240	3240	3240	3240	3240	3240	3248	3248	3248	3256	3256	3264	3264	3264	3280	3288	3288	3297	3313	3313	3322	3330	3330	3339	3339	3330	3322	3322	3322	3305	3297	3297	3297	3288	3288	3280	3272	3272	3272	3272	3272	3272	3272	3272	3272	3272	3272	3272	3280	3288	3288	3297	3313	3313	3339	3365	3365	3373	3399	3399	3417	3435	3435	3453	3462	3462	3481	3490	3490	3490	3490	3490	3499	3499	3499	3490	3490	3490	3481	3481	3453	3426	3399	3399	3365	3330	3330	3313	3297	3297	3288	3264	3264	3264	3256	3248	3248	3248	3240	3240	3240	3248	3248	3248	3256	3264	3264	3264	3272	3272	3280	3297	3297	3305	3322	3322	3339	3365	3365	3373	3399	3399	3399	3399	3391	3391	3391	3365	3365	3365	3347	3339	3339	3330	3322	3322	3313	3305	3297	3297	3297	3297	3297	3297	3297	3297	3297	3297	3297	3297	3297	3297	3288	3288	3288	3288	3288	3288	3288	3280	3280	3280	3272	3272	3272	3272	3264	3264	3264	3264	3264	3264	3264	3272	3272	3272	3280	3280	3288	3305	3305	3322	3347	3347	3373	3373	3399	3417	3417	3426	3435	3435	3435	3435	3435	3435	3435	3435	3435	3435	3435	3435	3435	3435	3453	3453	3453	3462	3481	3481	3481	3490	3490	3509	3518	3509	3509	3528	3528	3537	3537	3537	3537	3537	3537	3528	3528	3518	3499	3490	3490	3481	3462	3462	3435	3426	3426	3426	3417	3417	3399	3399	3391	3391	3373	3365	3365	3365	3347	3347	3347	3347	3347	3347	3347	3365	3365	3365	3365	3365	3365	3365	3365	3365	3365	3347	3347	3347	3347	3339	3339	3339	3330	3330	3330	3322	3313	3313	3313	3305	3305	3305	3305	3305	3305	3313	3313	3313	3330	3330	3330	3339	3365	3365	3373	3391	3391	3399	3417	3417	3435	3453	3453	3453	3453	3462	3481	3481	3481	3481	3481	3462	3462	3481	3481	3481	3490	3490	3490	3499	3499	3509	3518	3518	3528	3528	3537	3537	3537	3547	3547	3547	3547	3547	3547	3547	3547	3547	3547	3547	3547	3537	3537	3537	3537	3528	3528	3528	3518	3518	3509	3509	3509	3499	3499	3499	3490	3490	3490	3481	3453	3435	3435	3417	3399	3399	3373	3347	3330	3330	3322	3313	3313	3305	3297	3297	3297	3288	3288	3280	3272	3272	3272	3264	3256	3256	3256	3248	3248	3240	3232	3232	3216	3208	3208	3192	3184	3184	3161	3154	3139	3139	3116	3109	3109	3087	3080	3080	3065	3058	3051	3051	3044	3037	3037	3023	3016	3016	2988	2954	2896	2851	2851	2821	2797	2738	2738	2687	2655	2633	2633	2618	2587	2561	2561	2536	2512	2498	2498	2488	2479	2479	2469	2451	2428	2428	2401	2375	2358	2358	2346	2337	2337	2329	2325	2325	2312	2304	2296	2296	2284	2280	2280	2280	2276	2276	2276	2276
1862	1862	1862	0	0	0	0	0	0	0	0	0	0	0	0	0	0	0	0	0	0	0	0	0	2203	2203	2203	2203	2203	2203	2203	2207	2207	2207	2207	2211	2211	2211	2215	2215	2218	2218	2218	2218	2222	2222	2222	2222	2222	2222	2222	2218	2218	2215	2215	2211	2203	2203	2200	2189	2189	2181	2163	2156	2156	2146	2139	2139	2135	2128	2128	2128	2128	2128	2128	2128	2128	2128	2128	2128	2135	2135	2135	2135	2135	2135	2135	2135	2135	2135	2135	2135	2135	2135	2128	2128	2128	2128	2128	2128	2135	2135	2135	2135	2135	2139	2139	2139	2139	2139	2146	2149	2149	2156	2156	2156	2156	2160	2160	2160	2163	2163	2170	2174	2174	2174	2174	2174	2174	2174	2170	2170	2170	2170	2163	2163	2163	2160	2160	2160	2156	2156	2156	2156	2156	2156	2156	2160	2160	2160	2163	2170	2170	2174	2185	2185	2189	2189	2189	2192	2192	2196	2196	2196	2200	2200	2203	2203	2203	2203	2203	2207	2207	2207	2207	2215	2215	2215	2222	2222	2226	2237	2237	2245	2245	2253	2264	2264	2268	2276	2276	2276	2280	2280	2280	2280	2280	2284	2284	2284	2284	2292	2284	2284	2292	2292	2296	2296	2296	2296	2296	2296	2304	2312	2312	2316	2321	2321	2325	2329	2329	2333	2333	2333	2337	2337	2337	2341	2346	2346	2346	2350	2350	2350	2350	2350	2354	2358	2358	2358	2367	2367	2367	2375	2375	2388	2410	2410	2442	2479	2479	2532	2532	2628	2628	2682	2682	2797	2797	2851	2961	2961	3030	3030	3044	3044	3058	3065	3065	3080	3094	3094	3116	3154	3154	3169	3169	3208	3224	3224	3240	3256	3256	3264	3264	3264	3264	3264	3256	3256	3256	3248	3240	3240	3240	3240	3240	3240	3240	3248	3248	3248	3256	3256	3264	3264	3264	3280	3288	3288	3297	3305	3305	3313	3322	3322	3322	3322	3322	3313	3313	3313	3305	3297	3297	3297	3288	3288	3280	3272	3272	3272	3272	3272	3272	3272	3272	3272	3272	3272	3272	3280	3280	3280	3297	3305	3305	3322	3330	3330	3347	3373	3373	3399	3426	3426	3435	3453	3453	3462	3481	3481	3490	3490	3490	3490	3490	3481	3462	3462	3462	3453	3453	3426	3399	3373	3373	3339	3313	3313	3297	3288	3272	3272	3264	3256	3256	3240	3232	3232	3232	3224	3224	3224	3224	3224	3224	3232	3248	3248	3248	3264	3264	3264	3272	3272	3288	3297	3297	3313	3330	3330	3347	3365	3365	3365	3365	3365	3347	3347	3339	3330	3330	3322	3313	3313	3305	3297	3297	3297	3288	3288	3288	3288	3288	3288	3288	3288	3288	3288	3288	3288	3288	3288	3288	3288	3288	3288	3288	3280	3280	3280	3272	3272	3272	3272	3264	3264	3264	3264	3264	3256	3256	3256	3256	3256	3256	3256	3264	3264	3264	3272	3280	3280	3297	3305	3305	3330	3339	3339	3365	3365	3373	3391	3391	3399	3399	3399	3399	3399	3399	3391	3391	3399	3399	3399	3399	3399	3417	3417	3417	3426	3435	3435	3453	3453	3481	3490	3490	3509	3528	3528	3537	3537	3537	3537	3537	3537	3528	3528	3518	3499	3490	3490	3481	3462	3462	3435	3426	3426	3426	3417	3417	3399	3399	3391	3391	3373	3365	3365	3365	3347	3347	3347	3347	3347	3347	3347	3365	3365	3365	3365	3365	3365	3365	3365	3365	3365	3347	3347	3347	3347	3339	3339	3339	3330	3330	3330	3322	3313	3313	3313	3305	3305	3305	3305	3305	3305	3313	3313	3313	3330	3330	3330	3339	3365	3365	3373	3391	3391	3399	3417	3417	3435	3453	3453	3453	3453	3462	3481	3481	3481	3417	3417	3417	3417	3417	3417	3426	3435	3435	3453	3462	3462	3481	3499	3499	3509	3528	3528	3537	3537	3537	3537	3547	3547	3547	3547	3547	3547	3547	3547	3547	3547	3537	3537	3537	3537	3528	3528	3518	3518	3518	3509	3499	3499	3499	3490	3490	3490	3462	3453	3453	3435	3417	3417	3399	3373	3373	3365	3339	3330	3330	3322	3313	3313	3313	3305	3305	3297	3297	3297	3288	3280	3280	3272	3264	3264	3264	3256	3248	3248	3240	3232	3232	3224	3208	3208	3192	3169	3169	3161	3139	3131	3131	3109	3094	3094	3080	3072	3072	3058	3051	3051	3051	3044	3030	3030	3023	3016	3016	2988	2954	2896	2845	2845	2821	2791	2732	2732	2682	2649	2628	2628	2602	2571	2551	2551	2522	2502	2488	2488	2479	2469	2469	2456	2433	2401	2401	2375	2358	2346	2346	2337	2329	2329	2321	2312	2304	2304	2292	2280	2280	2276	2268	2268	2268	2264	2264	2264	2264
1862	1862	1862	0	0	0	0	0	0	0	0	0	0	0	0	0	0	0	0	0	0	0	0	0	0	0	0	2215	2207	2207	2207	2207	2207	2207	2211	2211	2211	2211	2215	2215	2218	2218	2218	2218	2222	2222	2222	2222	2222	2222	2222	2218	2218	2215	2215	2211	2203	2203	2200	2189	2189	2181	2163	2156	2156	2146	2139	2139	2135	2135	2128	2128	2128	2128	2128	2128	2128	2128	2128	2135	2135	2135	2135	2135	2135	2135	2135	2135	2135	2135	2135	2135	2135	2135	2135	2135	2135	2135	2135	2135	2135	2135	2135	2135	2139	2139	2139	2139	2139	2139	2146	2149	2149	2156	2156	2149	2149	2156	2156	2156	2160	2160	2163	2170	2170	2170	2170	2170	2170	2170	2170	2163	2163	2163	2160	2160	2160	2156	2156	2156	2149	2149	2156	2156	2156	2156	2156	2160	2160	2160	2163	2170	2170	2174	2185	2185	2189	2189	2192	2196	2196	2196	2200	2200	2200	2203	2203	2203	2203	2203	2203	2207	2207	2207	2207	2211	2211	2215	2222	2222	2222	2233	2233	2241	2241	2245	2257	2257	2264	2268	2268	2268	2276	2276	2276	2276	2276	2280	2280	2280	2280	2280	2280	2284	2284	2284	2284	2284	2284	2284	2284	2292	2292	2296	2304	2304	2312	2312	2316	2321	2321	2325	2329	2329	2329	2333	2333	2333	2337	2337	2337	2341	2341	2341	2346	2346	2346	2346	2350	2350	2350	2354	2354	2362	2371	2371	2388	2388	2415	2460	2460	2502	2502	2607	2607	2682	2682	2773	2773	2839	2941	2941	3023	3023	3044	3044	3051	3058	3058	3072	3087	3087	3109	3131	3131	3161	3161	3184	3216	3216	3232	3248	3248	3256	3256	3256	3256	3256	3256	3248	3248	3240	3232	3232	3224	3224	3232	3232	3224	3224	3240	3240	3248	3248	3256	3264	3264	3272	3280	3280	3297	3305	3305	3313	3322	3322	3322	3322	3322	3313	3313	3313	3305	3297	3297	3297	3288	3288	3288	3272	3272	3272	3272	3272	3272	3272	3272	3272	3272	3272	3272	3280	3280	3280	3297	3305	3305	3322	3330	3330	3347	3373	3373	3399	3426	3426	3435	3453	3453	3462	3481	3481	3490	3490	3490	3490	3490	3481	3462	3462	3462	3453	3453	3426	3399	3373	3373	3339	3313	3313	3297	3288	3272	3272	3264	3256	3256	3240	3232	3232	3232	3224	3224	3224	3224	3224	3224	3232	3248	3248	3248	3264	3264	3264	3272	3272	3272	3288	3288	3297	3305	3305	3322	3330	3330	3330	3330	3330	3322	3322	3313	3305	3305	3297	3297	3288	3288	3288	3280	3280	3280	3272	3272	3272	3272	3272	3272	3272	3272	3272	3272	3272	3272	3272	3272	3272	3272	3280	3280	3280	3280	3280	3272	3272	3272	3264	3264	3264	3264	3256	3256	3248	3248	3248	3248	3248	3248	3248	3248	3256	3256	3256	3264	3264	3272	3280	3280	3288	3305	3305	3313	3330	3330	3330	3339	3339	3339	3347	3347	3347	3347	3347	3347	3347	3347	3347	3347	3347	3347	3365	3365	3373	3391	3391	3399	3426	3426	3453	3453	3490	3499	3499	3518	3528	3528	3537	3537	3528	3518	3518	3499	3490	3462	3462	3435	3426	3426	3399	3391	3391	3391	3391	3373	3373	3373	3373	3373	3373	3365	3365	3347	3347	3347	3347	3347	3347	3347	3347	3347	3347	3347	3347	3347	3347	3347	3347	3339	3339	3339	3339	3330	3330	3330	3330	3330	3330	3322	3322	3322	3313	3313	3313	3305	3305	3305	3305	3305	3305	3313	3313	3313	3322	3322	3322	3330	3330	3330	3339	3347	3347	3365	3373	3373	3399	3417	3417	3417	3417	3417	3426	3426	3426	3417	3417	3417	3417	3417	3417	3426	3435	3435	3453	3462	3462	3481	3499	3499	3509	3528	3528	3537	3537	3537	3537	3547	3547	3547	3547	3547	3547	3547	3547	3547	3547	3537	3537	3537	3537	3528	3528	3518	3518	3518	3509	3499	3499	3499	3490	3490	3490	3462	3453	3453	3435	3417	3417	3399	3373	3373	3365	3339	3330	3330	3322	3322	3322	3313	3305	3305	3305	3297	3297	3288	3288	3288	3272	3272	3272	3264	3256	3256	3256	3248	3232	3232	3224	3208	3208	3192	3169	3169	3161	3139	3131	3131	3109	3094	3094	3080	3065	3065	3058	3051	3044	3044	3044	3030	3030	3023	3009	3009	2988	2941	2889	2839	2839	2815	2779	2715	2715	2666	2639	2623	2623	2597	2561	2532	2532	2512	2493	2483	2483	2474	2460	2460	2442	2410	2375	2358	2358	2346	2337	2337	2329	2321	2321	2308	2296	2284	2284	2276	2268	2268	2264	2264	2264	2257	2257	2257	2253	2253
1867	1867	1867	0	0	0	0	0	0	0	0	0	0	0	0	0	0	0	0	0	0	0	0	0	0	0	0	2215	2207	2207	2207	2207	2207	2207	2211	2211	2211	2211	2211	2211	2215	2218	2218	2218	2218	2218	2218	2218	2218	2218	2218	2215	2215	2211	2211	2207	2203	2203	2192	2185	2185	2174	2163	2149	2149	2146	2139	2139	2135	2135	2128	2128	2128	2128	2128	2128	2128	2128	2128	2135	2135	2135	2135	2135	2135	2135	2135	2135	2135	2135	2135	2135	2135	2135	2135	2135	2135	2135	2135	2135	2135	2135	2135	2135	2139	2139	2139	2139	2139	2139	2146	2146	2146	2146	2149	2149	2149	2156	2156	2156	2160	2160	2163	2170	2170	2170	2170	2170	2170	2170	2170	2163	2163	2163	2160	2160	2160	2156	2156	2156	2149	2149	2156	2156	2156	2160	2160	2163	2163	2163	2170	2170	2181	2185	2185	2189	2192	2192	2192	2196	2196	2200	2203	2203	2203	2203	2203	2203	2203	2207	2207	2207	2207	2207	2207	2211	2211	2215	2222	2222	2222	2233	2233	2241	2241	2245	2257	2257	2264	2268	2268	2268	2276	2276	2276	2276	2276	2280	2280	2280	2280	2280	2280	2284	2284	2284	2284	2284	2284	2280	2280	2284	2284	2284	2292	2292	2296	2304	2304	2308	2312	2312	2316	2321	2321	2325	2329	2329	2329	2333	2333	2333	2333	2333	2337	2337	2337	2337	2341	2341	2346	2346	2346	2350	2358	2358	2367	2384	2384	2428	2428	2479	2479	2561	2561	0	2738	2738	2773	2821	2915	2915	3016	3016	3044	3044	3051	3058	3058	3065	3087	3087	3094	3131	3131	3154	3154	3184	3208	3208	3224	3240	3240	3256	3256	3256	3256	3256	3256	3248	3248	3240	3232	3232	3224	3224	3224	3224	3216	3216	3224	3224	3232	3248	3248	3256	3264	3264	3272	3272	3288	3297	3297	3305	3313	3313	3313	3313	3313	3313	3305	3305	3305	3297	3297	3297	3288	3288	3288	3272	3272	3272	3272	3272	3264	3264	3264	3264	3264	3264	3264	3272	3272	3272	3288	3288	3288	3297	3313	3313	3330	3347	3347	3373	3399	3399	3426	3435	3435	3453	3462	3462	3481	3481	3481	3462	3462	3453	3435	3435	3435	3417	3417	3399	3373	3339	3339	3322	3297	3297	3288	3272	3264	3264	3256	3248	3248	3232	3224	3224	3216	3216	3216	3216	3216	3216	3216	3216	3224	3224	3240	3248	3248	3256	3264	3264	3272	3288	3288	3297	3305	3305	3322	3330	3330	3330	3330	3330	3322	3322	3313	3305	3305	3297	3297	3288	3288	3288	3280	3280	3280	3272	3272	3272	3272	3272	3272	3272	3272	3272	3272	3272	3272	3272	3272	3272	3272	3280	3280	3280	3280	3280	3272	3272	3272	3264	3264	3264	3264	3256	3256	3248	3248	3248	3248	3248	3248	3248	3248	3256	3256	3256	3264	3264	3272	3280	3280	3288	3305	3305	3313	3330	3330	3330	3339	3339	3339	3347	3347	3347	3347	3347	3347	3347	3347	3347	3347	3347	3347	3365	3330	3330	3339	3339	3347	3373	3373	3399	3435	3435	3462	3462	3490	3509	3509	3518	3518	3518	3509	3509	3499	3481	3435	3435	3435	3417	3417	3391	3373	3373	3373	3373	3373	3373	3373	3373	3373	3365	3365	3365	3347	3347	3347	3347	3347	3347	3347	3347	3347	3347	3339	3339	3339	3339	3339	3339	3330	3330	3330	3322	3322	3322	3322	3322	3322	3322	3322	3322	3313	3313	3313	3313	3305	3305	3305	3305	3305	3305	3305	3313	3313	3313	3313	3313	3322	3322	3322	3330	3330	3330	3339	3339	3339	3347	3373	3373	3373	3373	3373	3373	3373	3373	3373	3373	3373	3365	3365	3365	3373	3399	3399	3417	3417	3417	3453	3481	3481	3490	3509	3509	3518	3528	3528	3537	3537	3537	3547	3547	3547	3547	3547	3547	3547	3547	3537	3537	3537	3537	3528	3528	3518	3509	3509	3499	3490	3490	3481	3481	3462	3462	3453	3435	3435	3417	3399	3399	3373	3365	3365	3347	3339	3322	3322	3322	3322	3322	3313	3305	3305	3305	3297	3297	3288	3288	3288	3272	3272	3272	3264	3256	3256	3256	3248	3232	3232	3224	3208	3208	3192	3169	3169	3154	3139	3116	3116	3109	3087	3087	3072	3065	3065	3058	3051	3044	3044	3044	3030	3030	3023	3009	3009	2988	2941	2889	2839	2839	2815	2779	2715	2715	2666	2639	2623	2623	2597	2561	2532	2532	2512	2493	2483	2483	2474	2460	2460	2442	2410	2375	2358	2358	2346	2337	2337	2329	2321	2321	2308	2296	2284	2284	2276	2268	2268	2264	2264	2264	2257	2257	2257	2253	2253
1867	1872	1872	0	0	0	0	0	0	0	0	0	0	0	0	0	0	0	0	0	0	0	0	0	0	0	0	2222	2207	2207	2207	2207	2207	2207	2211	2211	2211	2211	2211	2211	2211	2215	2215	2215	2215	2215	2215	2215	2215	2215	2215	2211	2211	2207	2207	2203	2196	2196	2189	2181	2181	2170	2160	2149	2149	2146	2139	2139	2135	2135	2135	2135	2135	2128	2128	2128	2135	2135	2135	2135	2135	2135	2139	2139	2139	2139	2139	2139	2139	2139	2139	2139	2139	2139	2139	2139	2139	2139	2139	2139	2139	2139	2139	2139	2139	2139	2139	2139	2139	2139	2146	2146	2146	2146	2146	2146	2149	2149	2149	2149	2156	2156	2163	2163	2163	2170	2170	2163	2163	2163	2163	2160	2160	2160	2156	2156	2156	2156	2156	2156	2149	2149	2156	2156	2156	2160	2160	2163	2163	2163	2170	2170	2181	2185	2185	2189	2192	2192	2192	2196	2196	2200	2203	2203	2203	2203	2203	2203	2203	2207	2207	2207	2207	2207	2207	2211	2211	2215	2222	2222	2222	2230	2230	2241	2241	2245	2253	2253	2257	2264	2264	2268	2268	2268	2276	2276	2276	2276	2280	2280	2280	2280	2276	2276	2280	2280	2276	2276	2280	2280	2280	2284	2284	2284	2292	2292	2296	2304	2304	2308	2312	2312	2316	2321	2321	2325	2329	2329	2329	2333	2333	2333	2333	2333	2337	2337	2337	2337	2341	2341	2346	2346	2346	2350	2358	2358	2367	2384	2384	2428	2428	2479	2479	2561	2561	0	2738	2738	2821	2821	2915	2915	3016	3016	3044	3044	3051	3058	3058	3065	3087	3087	3094	3131	3131	3154	3154	3184	3208	3208	3224	3240	3240	3256	3256	3256	3256	3256	3256	3248	3248	3240	3232	3232	3224	3224	3224	3224	3216	3216	3224	3224	3232	3240	3240	3248	3264	3264	3272	3272	3288	3297	3297	3297	3305	3305	3313	3313	3313	3313	3305	3305	3297	3297	3297	3288	3288	3288	3280	3272	3272	3272	3272	3272	3264	3264	3264	3264	3264	3264	3264	3272	3272	3272	3280	3288	3288	3297	3305	3305	3322	3339	3339	3365	3373	3373	3399	3417	3417	3435	3453	3453	3453	3453	3453	3435	3435	3426	3417	3417	3391	3373	3347	3347	3339	3322	3322	3297	3288	3288	3280	3264	3256	3256	3248	3232	3232	3224	3216	3216	3208	3208	3208	3192	3192	3192	3192	3192	3208	3208	3216	3224	3224	3240	3256	3256	3264	3272	3272	3280	3288	3288	3297	3297	3297	3305	3305	3297	3297	3297	3297	3288	3288	3288	3288	3280	3280	3272	3272	3272	3264	3264	3264	3264	3264	3264	3264	3264	3264	3264	3264	3272	3272	3272	3272	3272	3272	3272	3272	3272	3272	3272	3272	3272	3264	3264	3264	3264	3256	3256	3256	3248	3240	3240	3240	3240	3240	3240	3240	3248	3248	3248	3248	3248	3256	3264	3264	3264	3280	3280	3288	3297	3297	3297	3297	3297	3297	3305	3305	3313	3313	3313	3313	3313	3313	3313	3313	3313	3322	3322	3322	3330	3339	3339	3347	3373	3373	3399	3435	3435	3462	3462	3490	3509	3509	3518	3518	3518	3509	3509	3499	3481	3435	3435	3435	3417	3417	3391	3373	3373	3373	3373	3373	3373	3373	3373	3373	3365	3365	3365	3347	3347	3347	3347	3347	3347	3347	3347	3347	3347	3339	3339	3339	3339	3339	3339	3330	3330	3330	3322	3322	3322	3322	3322	3322	3322	3322	3322	3313	3313	3313	3313	3305	3305	3305	3305	3305	3305	3305	3313	3313	3313	3313	3313	3322	3322	3322	3330	3330	3330	3339	3339	3339	3347	3373	3322	3322	3339	3330	3330	3339	3330	3330	3330	3330	3330	3330	3330	3339	3347	3347	3365	3391	3391	3417	3435	3435	3462	3490	3490	3499	3518	3518	3528	3537	3537	3537	3547	3547	3547	3547	3547	3547	3547	3537	3537	3537	3528	3518	3518	3509	3499	3499	3490	3481	3481	3481	3462	3435	3435	3426	3417	3417	3391	3373	3373	3365	3347	3330	3330	3330	3322	3322	3313	3313	3313	3313	3305	3305	3305	3297	3297	3288	3288	3288	3272	3272	3272	3264	3256	3256	3256	3248	3232	3232	3224	3208	3208	3184	3169	3169	3154	3131	3109	3109	3087	3080	3080	3065	3058	3058	3051	3044	3044	3044	3030	3030	3030	3016	3002	3002	2975	2928	2864	2833	2833	2809	2755	2699	2655	2655	2633	2612	2612	2581	2551	2522	2498	2498	2488	2474	2474	2465	2446	2415	2415	2384	2362	2350	2350	2337	2329	2329	2321	2308	2296	2296	2280	2276	2276	2268	2257	2257	2257	2253	2253	2245	2245	2241	2241	2241
1867	1872	1872	1880	0	0	0	0	0	0	0	0	0	0	0	0	0	0	0	0	0	0	0	0	0	0	0	2226	2211	2211	2211	2211	2211	2211	2211	2211	2211	2211	2211	2211	2211	2215	2215	2215	2215	2215	2215	2215	2215	2215	2215	2211	2211	2207	2207	2203	2196	2196	2189	2181	2181	2170	2160	2149	2149	2146	2139	2139	2135	2135	2135	2135	2135	2135	2135	2135	2135	2135	2135	2135	2135	2135	2139	2139	2139	2139	2139	2139	2139	2146	2146	2146	2146	2146	2149	2149	2149	2149	2149	2149	2149	2149	2149	2146	2146	2146	2146	2146	2146	2139	2139	2139	2139	2139	2139	2139	2139	2146	2146	2146	2149	2149	2160	2160	2160	2160	2160	2160	2156	2156	2156	2156	2156	2149	2149	2149	2149	2149	2149	2149	2156	2156	2156	2156	2160	2160	2160	2163	2163	2170	2181	2181	2185	2189	2189	2192	2196	2196	2196	2200	2200	2203	2203	2203	2203	2203	2203	2203	2203	2203	2203	2207	2207	2207	2207	2211	2211	2215	2218	2218	2222	2230	2230	2233	2241	2241	2245	2245	2253	2257	2257	2264	2264	2264	2268	2268	2268	2276	2276	2276	2276	2276	2276	2268	2268	2268	2268	2268	2268	2268	2268	2268	2268	2276	2280	2280	2280	2284	2284	2292	2296	2296	2304	2308	2308	2308	2316	2316	2321	2325	2325	2325	2329	2329	2329	2329	2329	2333	2333	2333	2337	2337	2337	2346	2346	2346	2354	2362	2362	2388	2388	2456	2479	2512	2561	2628	2699	2699	2809	2809	2889	2889	3016	3016	3044	3044	3051	3051	3051	3065	3080	3080	3094	3116	3116	3154	3154	3169	3208	3208	3216	3232	3232	3248	3256	3256	3256	3256	3248	3240	3240	3232	3224	3224	3216	3216	3208	3208	3208	3208	3216	3216	3232	3240	3240	3248	3264	3264	3272	3272	3288	3297	3297	3297	3305	3305	3313	3313	3313	3313	3305	3305	3297	3297	3297	3288	3288	3288	3280	3280	3280	3272	3272	3272	3264	3264	3264	3264	3264	3264	3264	3272	3272	3272	3280	3288	3288	3297	3305	3305	3322	3339	3339	3365	3373	3373	3399	3417	3417	3435	3453	3453	3453	3453	3453	3435	3435	3426	3417	3417	3391	3373	3347	3347	3339	3322	3322	3297	3288	3288	3280	3264	3256	3256	3248	3232	3232	3224	3216	3216	3208	3208	3208	3192	3192	3192	3192	3192	3192	3208	3208	3208	3208	3224	3232	3232	3248	3256	3256	3264	3272	3272	3272	3280	3280	3288	3288	3288	3288	3288	3280	3272	3272	3272	3272	3264	3264	3264	3264	3264	3264	3256	3256	3256	3256	3264	3264	3264	3264	3264	3264	3264	3264	3264	3272	3272	3272	3272	3272	3272	3272	3272	3272	3272	3264	3264	3264	3264	3256	3256	3256	3248	3240	3240	3232	3232	3232	3232	3224	3224	3224	3232	3240	3240	3240	3248	3248	3256	3264	3264	3264	3272	3272	3272	3280	3280	3280	3288	3288	3288	3288	3288	3288	3288	3288	3288	3297	3297	3297	3297	3297	3297	3305	3305	3313	3322	3322	3347	3373	3373	3417	3435	3435	3462	3490	3490	3499	3499	3499	3499	3490	3462	3435	3435	3426	3417	3417	3391	3373	3373	3373	3373	3373	3373	3365	3365	3365	3365	3365	3365	3347	3347	3347	3347	3339	3339	3339	3339	3339	3339	3339	3339	3330	3330	3330	3322	3322	3322	3322	3313	3313	3313	3313	3313	3313	3313	3313	3313	3305	3305	3305	3305	3297	3297	3297	3297	3297	3297	3297	3297	3297	3297	3305	3305	3305	3305	3305	3313	3313	3313	3313	3313	3313	3313	3322	3322	3322	3339	3330	3330	3339	3330	3330	3330	3330	3330	3330	3330	3339	3347	3347	3365	3391	3391	3417	3435	3435	3462	3490	3490	3499	3518	3518	3528	3537	3537	3537	3547	3547	3547	3547	3547	3547	3547	3537	3537	3537	3528	3518	3518	3509	3499	3499	3490	3481	3481	3481	3462	3435	3435	3426	3417	3417	3391	3373	3373	3365	3347	3330	3330	3330	3322	3322	3313	3313	3313	3313	3305	3305	3305	3297	3297	3288	3288	3288	3280	3272	3272	3264	3264	3256	3256	3248	3232	3232	3224	3208	3208	3184	3169	3139	3139	3116	3094	3094	3087	3072	3072	3065	3051	3051	3051	3044	3037	3037	3030	3023	3023	3016	2988	2988	2954	2896	2845	2821	2821	2791	2732	2676	2649	2649	2628	2597	2561	2561	2532	2507	2488	2488	2479	2469	2469	2451	2419	2388	2388	2367	2350	2337	2337	2333	2325	2325	2312	2296	2284	2284	2276	2268	2268	2264	2257	2257	2253	2245	2241	2241	2241	2237	2237	2237
1880	1880	1880	1880	0	0	0	0	0	0	0	0	0	0	0	0	0	0	0	0	0	0	0	0	0	0	0	2226	2211	2211	2211	2211	2211	2211	2211	2211	2211	2211	2211	2211	2211	2211	2211	2211	2211	2211	2211	2211	2211	2211	2207	2207	2207	2203	2203	2200	2189	2189	2181	2170	2160	2160	2156	2146	2146	2139	2135	2135	2135	2135	2135	2135	2135	2135	2135	2135	2135	2135	2135	2135	2135	2135	2139	2139	2139	2139	2139	2139	2139	2146	2146	2146	2146	2146	2149	2149	2149	2149	2149	2149	2149	2149	2149	2149	2149	2149	2146	2146	2146	2139	2139	2139	2139	2139	2139	2139	2139	2146	2146	2146	2149	2149	2160	2160	2160	2160	2160	2160	2156	2156	2156	2156	2156	2149	2149	2149	2149	2149	2149	2149	2156	2156	2156	2160	2163	2163	2170	2174	2174	2181	2185	2185	2189	2192	2192	2192	2196	2196	2200	2200	2200	2203	2203	2203	2203	2203	2203	2203	2203	2203	2203	2207	2207	2207	2211	2211	2211	2215	2218	2218	2222	2230	2230	2233	2241	2241	2245	2245	2253	2257	2257	2264	2264	2264	2268	2268	2268	2276	2264	2264	2264	2264	2264	2264	2264	2264	2264	2257	2257	2257	2257	2257	2257	2257	2264	2264	2264	2268	2268	2276	2280	2280	2280	2284	2284	2292	2296	2296	2304	2308	2308	2312	2312	2312	2316	2321	2321	2325	2329	2329	2329	2329	2329	2333	2337	2337	2346	2346	2346	2362	2388	2415	2488	2488	2587	2587	2699	2699	2791	2791	2864	2864	3002	3002	3044	3044	3051	3051	3051	3065	3080	3080	3094	3116	3116	3154	3154	3169	3192	3192	3216	3232	3232	3240	3248	3248	3256	3256	3248	3240	3240	3232	3216	3208	3208	3208	3192	3192	3192	3192	3192	3192	3216	3216	3216	3232	3256	3256	3264	3272	3272	3288	3288	3297	3297	3297	3305	3305	3305	3305	3305	3305	3297	3297	3297	3288	3288	3288	3280	3272	3272	3272	3272	3272	3264	3264	3264	3264	3264	3264	3264	3264	3272	3272	3272	3288	3288	3288	3297	3297	3305	3322	3322	3339	3365	3365	3391	3399	3399	3417	3426	3426	3426	3426	3417	3399	3399	3391	3373	3365	3365	3339	3322	3322	3313	3297	3297	3288	3280	3280	3272	3264	3256	3256	3240	3232	3232	3224	3216	3216	3208	3192	3192	3192	3192	3192	3192	3192	3192	3208	3208	3208	3208	3224	3232	3232	3248	3256	3256	3264	3272	3272	3272	3280	3280	3288	3288	3288	3288	3288	3280	3272	3272	3272	3272	3264	3264	3264	3264	3264	3264	3256	3256	3256	3256	3264	3264	3264	3264	3264	3264	3264	3264	3264	3272	3272	3272	3272	3272	3272	3272	3272	3272	3272	3264	3264	3264	3264	3256	3256	3256	3248	3240	3240	3232	3232	3232	3232	3224	3224	3224	3232	3240	3240	3240	3248	3248	3256	3264	3264	3264	3272	3272	3272	3280	3280	3280	3288	3288	3288	3288	3272	3272	3272	3272	3272	3272	3272	3272	3280	3280	3280	3288	3288	3288	3297	3297	3305	3330	3330	3347	3391	3391	3426	3435	3435	3462	3462	3462	3481	3481	3462	3435	3435	3426	3417	3417	3391	3373	3373	3373	3373	3365	3365	3365	3365	3365	3347	3347	3347	3339	3339	3339	3339	3330	3330	3330	3330	3330	3330	3322	3322	3322	3322	3322	3313	3313	3313	3313	3305	3305	3305	3305	3297	3297	3297	3297	3297	3297	3297	3297	3297	3297	3297	3297	3288	3288	3288	3297	3297	3288	3288	3297	3297	3297	3297	3297	3297	3297	3297	3297	3297	3297	3297	3297	3297	3297	3297	3297	3297	3297	3297	3297	3297	3297	3297	3297	3305	3305	3313	3330	3330	3347	3347	3373	3399	3399	3435	3462	3462	3481	3499	3499	3509	3528	3528	3537	3537	3537	3537	3537	3537	3537	3537	3537	3537	3537	3528	3509	3509	3499	3490	3490	3481	3453	3453	3453	3435	3426	3426	3399	3391	3391	3373	3365	3365	3347	3339	3330	3330	3322	3322	3322	3313	3313	3313	3313	3305	3305	3305	3297	3297	3288	3288	3288	3280	3272	3272	3264	3264	3256	3256	3248	3232	3232	3224	3208	3208	3184	3161	3139	3139	3116	3094	3094	3087	3072	3072	3065	3051	3051	3051	3044	3037	3037	3030	3023	3023	3016	2988	2988	2954	2896	2845	2821	2821	2791	2732	2676	2649	2649	2628	2597	2561	2561	2532	2507	2488	2488	2479	2469	2469	2451	2419	2388	2388	2367	2350	2337	2337	2333	2325	2325	2312	2296	2284	2284	2276	2268	2268	2264	2257	2257	2253	2245	2241	2241	2241	2237	2237	2237
1883	1883	1883	1886	0	0	0	0	0	0	0	0	0	0	0	0	0	0	0	0	0	0	0	0	0	0	0	0	0	0	2211	2211	2211	2211	2211	2211	2211	2211	2211	2211	2211	2211	2211	2211	2211	2207	2207	2207	2207	2207	2203	2203	2203	2200	2200	2192	2185	2185	2174	2163	2156	2156	2149	2146	2146	2139	2135	2135	2135	2135	2135	2135	2135	2135	2135	2135	2135	2135	2135	2135	2135	2135	2139	2139	2139	2139	2139	2139	2146	2149	2149	2149	2149	2149	2149	2156	2156	2156	2156	2156	2156	2156	2156	2149	2149	2149	2146	2146	2146	2139	2139	2139	2139	2139	2139	2139	2139	2139	2139	2139	2146	2146	2149	2156	2156	2149	2149	2149	2149	2149	2149	2149	2149	2149	2146	2146	2146	2149	2149	2149	2156	2156	2156	2160	2163	2163	2170	2174	2174	2181	2185	2185	2189	2192	2192	2192	2196	2196	2200	2200	2200	2200	2203	2203	2203	2203	2203	2203	2203	2203	2203	2203	2207	2207	2207	2207	2207	2211	2218	2218	2218	2222	2222	2230	2233	2233	2237	2241	2241	2245	2253	2253	2253	2257	2257	2264	2264	2264	2264	2264	2264	2264	2264	2264	2264	2264	2264	2257	2257	2257	2257	2257	2257	2257	2264	2264	2264	2268	2268	2276	2280	2280	2280	2284	2284	2292	2296	2296	2304	2308	2308	2312	2312	2312	2316	2321	2321	2325	2329	2329	2329	2329	2329	2333	2337	2337	2346	2346	2346	2362	2415	2415	2488	2488	2587	2587	0	0	2791	2791	2864	2864	3002	3002	3044	3044	3058	3065	3065	3072	3087	3087	3109	3139	3139	3154	3154	3169	3192	3192	3216	3232	3232	3240	3248	3248	3256	3256	3248	3240	3240	3232	3208	3192	3192	3192	3184	3184	3169	3169	3184	3184	3192	3208	3208	3216	3240	3240	3256	3264	3264	3280	3280	3288	3297	3297	3297	3305	3305	3305	3305	3305	3297	3297	3297	3288	3288	3288	3288	3272	3272	3272	3272	3272	3264	3264	3264	3264	3264	3264	3264	3264	3272	3272	3272	3280	3280	3288	3297	3297	3297	3313	3313	3330	3339	3339	3365	3373	3373	3391	3399	3399	3391	3391	3391	3373	3347	3347	3339	3330	3330	3313	3305	3305	3297	3288	3288	3280	3272	3272	3272	3256	3256	3256	3240	3232	3232	3224	3216	3216	3208	3192	3192	3192	3184	3184	3184	3184	3192	3192	3192	3208	3208	3208	3216	3216	3224	3240	3240	3248	3256	3256	3256	3264	3264	3264	3264	3264	3264	3264	3264	3264	3264	3264	3256	3256	3256	3256	3256	3256	3256	3256	3256	3256	3256	3256	3256	3256	3256	3256	3264	3264	3264	3264	3264	3264	3264	3272	3272	3272	3272	3272	3272	3272	3264	3264	3264	3264	3256	3256	3256	3248	3240	3240	3232	3232	3232	3232	3224	3224	3224	3224	3224	3224	3224	3232	3232	3240	3248	3248	3256	3256	3256	3256	3264	3264	3264	3264	3264	3272	3272	3272	3272	3272	3272	3272	3272	3272	3272	3280	3280	3280	3288	3288	3288	3297	3297	3305	3330	3330	3347	3391	3391	3426	3435	3435	3462	3462	3462	3481	3481	3462	3435	3435	3426	3417	3417	3391	3373	3373	3373	3373	3365	3365	3365	3365	3365	3347	3347	3347	3339	3339	3339	3339	3330	3330	3330	3330	3330	3330	3322	3322	3322	3322	3322	3313	3313	3313	3313	3305	3305	3305	3305	3297	3297	3297	3297	3297	3297	3297	3297	3297	3297	3297	3297	3288	3288	3288	3297	3297	3288	3288	3297	3297	3297	3297	3280	3280	3280	3280	3280	3280	3280	3280	3280	3280	3280	3280	3280	3280	3280	3280	3280	3288	3288	3288	3288	3288	3288	3297	3305	3305	3322	3339	3339	3373	3373	3399	3435	3435	3453	3481	3481	3499	3518	3518	3528	3537	3537	3537	3537	3537	3537	3537	3537	3528	3528	3518	3509	3509	3490	3481	3481	3453	3435	3426	3426	3417	3391	3391	3373	3365	3365	3347	3339	3339	3330	3330	3322	3322	3313	3313	3313	3313	3313	3313	3313	3305	3305	3297	3297	3297	3288	3288	3288	3280	3272	3272	3264	3264	3264	3256	3248	3240	3240	3224	3208	3208	3184	3161	3139	3139	3116	3094	3094	3080	3072	3072	3058	3051	3051	3051	3044	3037	3037	3030	3016	3016	3002	2981	2928	2928	2876	2839	2809	2809	2773	2704	2660	2639	2639	2618	2581	2546	2546	2517	2498	2483	2483	2474	2460	2460	2433	2401	2371	2350	2350	2341	2333	2333	2329	2312	2312	2304	2292	2280	2280	2276	2264	2264	2257	2253	2253	2245	2241	2241	2241	2237	2233	2233	2233
1883	1889	1889	1891	0	0	0	0	0	0	0	0	0	0	0	0	0	0	0	0	0	0	0	0	0	0	0	0	0	0	2211	2211	2211	2211	2211	2211	2211	2211	2211	2211	2211	2211	2211	2211	2211	2207	2207	2207	2207	2207	2203	2203	2203	2200	2200	2192	2185	2185	2174	2163	2156	2156	2149	2146	2146	2139	2135	2135	2135	2135	2135	2135	2135	2135	2135	2135	2135	2135	2135	2135	2135	2135	2139	2139	2139	2139	2139	2139	2146	2149	2149	2149	2156	2156	2156	2156	2156	2160	2160	2160	2160	2160	2160	2156	2156	2156	2149	2149	2146	2139	2139	2139	2135	2135	2135	2128	2128	2128	2128	2128	2135	2135	2146	2146	2146	2149	2149	2146	2146	2146	2146	2146	2149	2149	2146	2146	2146	2149	2149	2149	2156	2160	2160	2163	2170	2170	2174	2181	2181	2185	2189	2189	2192	2196	2196	2196	2200	2200	2200	2200	2200	2200	2200	2200	2196	2196	2200	2200	2196	2196	2196	2200	2203	2203	2203	2203	2203	2207	2211	2211	2215	2218	2218	2222	2226	2226	2230	2233	2233	2233	2241	2241	2241	2245	2245	2245	2253	2253	2253	2253	2253	2253	2253	2253	2253	2253	2253	2245	2245	2245	2245	2245	2245	2245	2245	2245	2253	2253	2253	2257	2257	2257	2264	2268	2268	2268	2276	2276	2280	2284	2284	2292	2296	2296	2296	2304	2304	2308	2312	2312	2316	2321	2321	2325	2329	2329	2333	2333	2333	2346	2367	2367	2460	2460	2532	2532	0	0	2791	2791	2839	2839	2981	2981	3044	3044	3058	3065	3065	3072	3087	3087	3109	3131	3139	3154	3154	3169	3192	3192	3216	3232	3232	3240	3248	3248	3248	3248	3240	3232	3232	3224	3208	3192	3192	3192	3184	3184	3169	3169	3184	3184	3192	3208	3208	3216	3240	3240	3256	3264	3264	3280	3280	3288	3297	3297	3297	3305	3305	3305	3305	3305	3297	3297	3297	3297	3288	3288	3288	3280	3280	3272	3272	3272	3264	3264	3264	3264	3264	3264	3264	3272	3272	3272	3272	3280	3280	3288	3297	3297	3297	3313	3313	3330	3339	3339	3365	3373	3373	3391	3399	3399	3391	3391	3391	3373	3347	3347	3339	3330	3330	3313	3305	3305	3297	3288	3288	3280	3272	3272	3272	3256	3256	3256	3240	3232	3232	3216	3208	3208	3208	3192	3192	3184	3184	3169	3169	3169	3184	3184	3184	3184	3192	3192	3192	3208	3208	3224	3224	3232	3240	3240	3240	3248	3248	3248	3248	3248	3248	3248	3248	3248	3248	3248	3248	3248	3248	3248	3248	3248	3248	3248	3248	3248	3256	3256	3256	3256	3256	3256	3264	3264	3264	3264	3264	3264	3264	3272	3272	3272	3272	3272	3272	3272	3264	3264	3264	3264	3264	3256	3256	3256	3248	3248	3240	3232	3232	3232	3232	3232	3224	3216	3216	3216	3216	3216	3216	3216	3224	3224	3224	3232	3232	3240	3240	3240	3248	3248	3248	3256	3256	3256	3256	3256	3256	3264	3264	3264	3264	3264	3264	3264	3272	3272	3272	3272	3288	3288	3297	3297	3305	3330	3330	3365	3391	3391	3417	3426	3426	3435	3435	3435	3426	3426	3417	3391	3391	3391	3365	3347	3347	3347	3339	3339	3339	3339	3339	3330	3330	3330	3330	3330	3330	3330	3322	3322	3322	3322	3322	3322	3322	3322	3313	3313	3313	3305	3305	3305	3305	3297	3297	3297	3297	3297	3297	3297	3297	3297	3297	3297	3297	3288	3288	3288	3288	3288	3288	3288	3288	3288	3280	3280	3288	3288	3288	3288	3280	3280	3280	3280	3280	3280	3280	3280	3280	3280	3280	3280	3280	3280	3280	3280	3280	3288	3288	3288	3288	3288	3288	3297	3305	3305	3322	3339	3339	3373	3373	3399	3435	3435	3453	3481	3481	3499	3518	3518	3528	3537	3537	3537	3537	3537	3537	3537	3537	3528	3528	3518	3509	3509	3490	3481	3481	3453	3435	3426	3426	3417	3391	3391	3373	3365	3365	3347	3339	3339	3330	3330	3322	3322	3313	3313	3313	3313	3313	3313	3313	3305	3305	3297	3297	3297	3288	3288	3288	3280	3272	3272	3272	3264	3264	3256	3248	3240	3240	3224	3208	3208	3184	3161	3139	3139	3116	3094	3094	3080	3072	3072	3058	3051	3051	3044	3044	3030	3030	3023	3016	3016	2988	2954	2908	2908	2851	2821	2797	2738	2738	2682	2649	2628	2628	2602	2566	2536	2536	2507	2493	2479	2479	2469	2446	2415	2415	2384	2358	2346	2346	2337	2329	2329	2321	2312	2312	2296	2292	2280	2280	2276	2264	2264	2257	2253	2253	2245	2241	2237	2237	2233	2233	2233	2230
1889	1889	1889	1891	0	0	0	0	0	0	0	0	0	0	0	0	0	0	0	0	0	0	0	2483	2483	0	0	0	0	0	2207	2207	2207	2207	2207	2207	2207	2207	2207	2207	2207	2207	2207	2207	2207	2207	2207	2207	2203	2203	2200	2200	2196	2192	2192	2185	2174	2174	2170	2160	2149	2149	2146	2139	2139	2139	2135	2135	2135	2135	2135	2135	2135	2135	2135	2135	2135	2135	2135	2135	2135	2135	2135	2135	2135	2139	2139	2139	2146	2149	2149	2149	2156	2156	2160	2163	2163	2163	2163	2163	2163	2163	2163	2160	2160	2156	2149	2149	2149	2139	2139	2139	2135	2135	2135	2128	2128	2128	2128	2128	2135	2135	2146	2146	2146	2149	2149	2146	2146	2146	2146	2146	2149	2149	2149	2149	2149	2156	2156	2156	2163	2170	2170	2174	2185	2185	2189	2189	2189	2192	2196	2196	2200	2200	2200	2200	2203	2200	2200	2200	2200	2200	2200	2200	2196	2196	2200	2200	2196	2196	2196	2200	2203	2203	2203	2203	2203	2207	2211	2211	2215	2218	2218	2222	2226	2226	2230	2233	2233	2230	2230	2230	2233	2237	2237	2237	2241	2241	2241	2241	2241	2245	2245	2241	2241	2241	2241	2237	2237	2237	2237	2237	2237	2237	2237	2237	2237	2237	2241	2241	2241	2245	2245	2245	2253	2253	2257	2257	2257	2264	2264	2268	2276	2276	2280	2284	2284	2292	2292	2292	2296	2304	2304	2308	2316	2316	2321	2329	2329	2333	2350	2350	2415	2415	2493	2493	0	0	0	2827	2827	2827	2975	2975	3044	3044	3065	3072	3072	3087	3109	3109	3131	3131	3154	3169	3169	3184	3208	3208	3216	3232	3232	3240	3248	3240	3240	3240	3232	3224	3224	3216	3192	3184	3184	3169	3161	3161	3161	3161	3161	3161	3169	3184	3184	3192	3224	3224	3240	3256	3256	3272	3280	3280	3288	3288	3297	3297	3297	3297	3305	3305	3297	3297	3297	3297	3288	3288	3288	3280	3280	3272	3272	3272	3264	3264	3264	3264	3264	3264	3264	3264	3264	3264	3272	3272	3272	3280	3288	3288	3288	3297	3297	3313	3322	3322	3330	3347	3347	3347	3365	3365	3347	3339	3339	3330	3313	3313	3305	3297	3297	3297	3288	3288	3288	3280	3280	3272	3272	3272	3264	3256	3248	3248	3240	3232	3232	3216	3208	3208	3208	3192	3192	3184	3184	3169	3169	3169	3184	3184	3184	3184	3192	3192	3192	3208	3208	3224	3224	3232	3240	3240	3240	3248	3248	3248	3248	3248	3248	3248	3248	3248	3248	3248	3248	3248	3248	3248	3248	3248	3248	3248	3248	3248	3256	3256	3256	3256	3264	3264	3264	3264	3264	3264	3264	3264	3264	3272	3272	3272	3272	3272	3272	3272	3272	3264	3264	3264	3264	3264	3264	3256	3256	3256	3248	3240	3240	3240	3232	3232	3224	3216	3216	3216	3216	3216	3216	3216	3224	3224	3224	3232	3216	3216	3216	3216	3224	3224	3224	3232	3240	3240	3240	3240	3240	3248	3256	3256	3256	3256	3256	3256	3256	3256	3256	3264	3264	3264	3272	3288	3288	3297	3313	3313	3339	3339	3365	3391	3391	3417	3417	3417	3399	3399	3399	3391	3391	3373	3347	3347	3347	3339	3339	3339	3330	3330	3330	3322	3322	3330	3322	3322	3322	3322	3322	3322	3313	3313	3322	3322	3322	3322	3313	3313	3313	3305	3305	3297	3297	3297	3297	3297	3297	3297	3297	3297	3288	3288	3288	3288	3288	3288	3280	3280	3280	3272	3272	3272	3272	3272	3272	3272	3272	3272	3272	3272	3264	3264	3264	3264	3264	3264	3264	3264	3264	3264	3264	3264	3264	3264	3264	3264	3264	3272	3272	3272	3272	3280	3280	3288	3297	3297	3305	3322	3322	3347	3347	3373	3417	3417	3426	3453	3453	3481	3499	3499	3518	3528	3528	3537	3537	3537	3537	3537	3528	3518	3518	3509	3490	3490	3481	3453	3426	3426	3417	3391	3391	3373	3365	3365	3347	3339	3339	3330	3322	3313	3313	3313	3313	3313	3305	3305	3305	3305	3305	3305	3305	3305	3305	3297	3297	3297	3288	3288	3288	3280	3272	3272	3272	3264	3264	3256	3256	3240	3240	3224	3216	3216	3184	3161	3139	3139	3116	3094	3094	3080	3072	3072	3058	3051	3051	3044	3044	3030	3030	3023	3016	3016	2988	2954	2908	2908	2851	2821	2797	2738	2738	2682	2649	2628	2628	2602	2566	2536	2536	2507	2493	2479	2479	2469	2446	2415	2415	2384	2358	2346	2346	2337	2329	2329	2321	2312	2312	2296	2292	2280	2280	2276	2264	2264	2257	2253	2253	2245	2241	2237	2237	2233	2233	2233	2230
1894	1894	1894	1897	1897	0	0	0	0	0	0	0	0	0	0	0	0	0	0	0	0	0	0	2333	2333	2284	2218	2211	2207	2207	2207	2207	2207	2207	2207	2207	2207	2207	2207	2207	2207	2207	2207	2207	2207	2203	2203	2200	2200	2200	2192	2192	2189	2185	2185	2174	2163	2163	2160	2149	2146	2146	2139	2135	2135	2135	2128	2128	2128	2135	2135	2135	2135	2135	2135	2135	2135	2135	2135	2135	2135	2135	2135	2135	2135	2139	2139	2139	2146	2149	2149	2156	2156	2156	2160	2163	2163	2163	2163	2163	2163	2163	2163	2160	2160	2156	2149	2149	2149	2139	2139	2139	2135	2135	2135	2128	2128	2128	2128	2128	2135	2135	2139	2146	2146	2146	2146	2146	2146	2146	2146	2146	2149	2149	2149	2149	2149	2156	2156	2156	2163	2170	2170	2174	2185	2185	2189	2189	2189	2192	2196	2196	2200	2200	2200	2200	2203	2200	2200	2200	2200	2196	2196	2196	2196	2196	2196	2196	2192	2192	2192	2196	2196	2196	2200	2203	2203	2203	2207	2207	2211	2211	2211	2218	2218	2218	2222	2222	2222	2222	2230	2230	2233	2237	2237	2237	2241	2241	2241	2241	2241	2245	2245	2241	2241	2241	2241	2237	2237	2237	2237	2237	2237	2237	2237	2237	2237	2237	2241	2241	2241	2245	2245	2245	2253	2253	2257	2257	2257	2264	2264	2268	2276	2276	2280	2284	2284	2292	2292	2292	2296	2304	2304	2308	2316	2316	2321	2329	2329	2333	2350	2350	2415	2415	2493	2493	0	0	0	2827	2827	2827	2975	2975	3044	3044	3080	3087	3087	3094	3131	3131	3154	3154	3161	3184	3184	3192	3216	3216	3224	3232	3232	3240	3240	3240	3232	3232	3224	3216	3192	3192	3169	3161	3161	3161	3154	3154	3139	3139	3154	3154	3161	3161	3161	3169	3192	3192	3224	3248	3248	3264	3272	3272	3288	3288	3288	3297	3297	3297	3305	3305	3297	3297	3297	3297	3288	3288	3288	3280	3280	3272	3272	3272	3272	3264	3264	3264	3264	3264	3264	3264	3264	3264	3272	3272	3272	3272	3280	3280	3288	3297	3297	3297	3305	3305	3313	3322	3322	3330	3322	3322	3322	3313	3313	3297	3297	3297	3288	3288	3288	3280	3272	3272	3272	3272	3272	3264	3264	3264	3264	3256	3248	3248	3240	3232	3232	3216	3208	3208	3208	3192	3192	3184	3184	3169	3169	3169	3184	3184	3184	3184	3184	3184	3184	3192	3192	3208	3216	3216	3216	3224	3224	3224	3224	3224	3224	3232	3232	3232	3232	3232	3240	3240	3240	3240	3240	3240	3248	3248	3248	3248	3248	3248	3256	3256	3256	3256	3264	3264	3264	3264	3264	3264	3264	3264	3264	3272	3272	3272	3272	3272	3272	3272	3272	3264	3264	3264	3264	3264	3264	3256	3256	3256	3248	3240	3240	3240	3232	3232	3224	3216	3216	3208	3208	3208	3192	3192	3208	3208	3208	3208	3208	3216	3216	3216	3224	3224	3224	3232	3240	3240	3240	3240	3240	3248	3256	3256	3256	3256	3256	3256	3256	3256	3256	3264	3264	3264	3272	3288	3288	3297	3313	3313	3339	3339	3365	3391	3391	3417	3417	3417	3399	3399	3399	3391	3391	3373	3347	3347	3347	3339	3339	3339	3330	3330	3330	3322	3322	3330	3322	3322	3322	3322	3322	3322	3313	3313	3322	3322	3322	3322	3313	3313	3313	3305	3305	3297	3297	3297	3297	3297	3297	3297	3297	3297	3288	3288	3288	3288	3288	3288	3280	3280	3280	3272	3272	3272	3264	3264	3264	3256	3256	3256	3256	3256	3256	3256	3256	3256	3256	3256	3256	3256	3256	3256	3256	3256	3256	3256	3264	3264	3264	3264	3264	3264	3272	3272	3272	3280	3288	3288	3297	3313	3313	3330	3347	3347	3391	3391	3417	3435	3435	3462	3490	3490	3509	3518	3518	3528	3528	3528	3528	3528	3518	3509	3509	3499	3481	3481	3453	3426	3399	3399	3391	3365	3365	3347	3339	3339	3330	3322	3322	3313	3313	3305	3305	3305	3305	3305	3305	3305	3305	3305	3305	3305	3297	3297	3297	3297	3297	3297	3288	3288	3288	3280	3272	3272	3272	3264	3264	3256	3256	3240	3240	3224	3216	3216	3184	3161	3139	3139	3116	3094	3094	3080	3072	3072	3058	3051	3051	3044	3044	3030	3030	3023	3009	3009	2981	2935	2876	2876	2839	2815	2773	2704	2704	2655	2633	2618	2618	2587	2551	2522	2522	2498	2488	2474	2474	2456	2433	2401	2401	2371	2350	2341	2341	2333	2329	2329	2316	2308	2308	2296	2284	2280	2280	2268	2264	2264	2257	2253	2253	2245	2241	2237	2237	2233	2230	2230	2226
1897	1897	1897	1897	1897	0	0	0	0	0	0	0	0	0	0	0	0	0	0	0	0	0	0	2333	2333	2284	2218	2211	2207	2207	2207	2207	2207	2207	2207	2207	2207	2207	2207	2207	2207	2207	2207	2207	2207	2203	2203	2200	2200	2200	2192	2192	2189	2185	2185	2174	2163	2163	2160	2149	2146	2146	2139	2135	2135	2135	2128	2128	2128	2135	2135	2135	2135	2135	2135	2135	2135	2135	2135	2135	2135	2135	2135	2135	2135	2139	2139	2139	2146	2149	2149	2156	2160	2160	2163	2170	2170	2170	2170	2170	2170	2170	2170	2163	2163	2163	2156	2156	2149	2146	2139	2139	2135	2135	2135	2128	2128	2128	2128	2128	2135	2135	2139	2146	2146	2146	2146	2146	2146	2149	2149	2149	2156	2156	2156	2160	2160	2160	2163	2163	2174	2185	2185	2189	2189	2189	2192	2196	2196	2200	2200	2200	2203	2203	2203	2203	2203	2203	2203	2203	2200	2196	2196	2196	2196	2196	2196	2196	2192	2192	2192	2192	2196	2196	2200	2200	2200	2200	2203	2203	2207	2211	2211	2211	2215	2215	2218	2218	2218	2218	2222	2222	2226	2226	2226	2230	2233	2233	2233	2233	2233	2237	2237	2233	2233	2233	2233	2233	2233	2230	2230	2230	2230	2230	2230	2230	2230	2230	2230	2230	2230	2233	2233	2233	2237	2237	2237	2241	2241	2241	2253	2253	2253	2257	2257	2264	2268	2268	2276	2280	2280	2284	2292	2292	2296	2296	2308	2312	2312	2321	2333	2333	2367	2415	2469	2469	0	0	0	2809	2809	2809	2941	2941	3044	3044	3080	3087	3087	3094	3116	3131	3154	3154	3161	3184	3184	3192	3216	3216	3224	3232	3232	3240	3240	3240	3232	3232	3224	3216	3192	3192	3169	3161	3161	3161	3154	3154	3139	3139	3154	3154	3161	3161	3161	3169	3192	3192	3224	3248	3248	3264	3272	3272	3288	3288	3288	3297	3297	3297	3305	3305	3305	3297	3297	3297	3297	3297	3288	3288	3288	3280	3272	3272	3272	3264	3264	3264	3264	3264	3264	3264	3264	3264	3272	3272	3272	3272	3280	3280	3288	3297	3297	3297	3305	3305	3313	3322	3322	3330	3322	3322	3322	3313	3313	3297	3297	3297	3288	3288	3288	3280	3272	3272	3272	3272	3272	3264	3264	3264	3256	3256	3248	3248	3240	3224	3224	3216	3208	3208	3208	3192	3192	3192	3184	3169	3169	3169	3169	3169	3169	3169	3169	3169	3169	3169	3169	3184	3184	3184	3192	3192	3192	3192	3208	3208	3208	3208	3208	3216	3224	3224	3224	3232	3232	3232	3232	3232	3248	3248	3248	3248	3256	3256	3256	3256	3256	3256	3264	3264	3264	3264	3264	3264	3264	3264	3264	3272	3272	3272	3272	3272	3272	3272	3272	3272	3272	3272	3264	3264	3264	3256	3256	3256	3248	3248	3248	3240	3232	3232	3216	3208	3208	3192	3192	3169	3169	3169	3169	3184	3184	3184	3184	3184	3192	3192	3192	3208	3208	3208	3216	3224	3224	3224	3224	3224	3232	3232	3232	3240	3240	3240	3240	3240	3240	3248	3256	3256	3256	3264	3264	3272	3288	3288	3305	3330	3330	3339	3339	3373	3391	3391	3391	3391	3391	3373	3373	3365	3347	3330	3330	3322	3313	3313	3313	3313	3322	3313	3313	3313	3305	3305	3313	3313	3313	3313	3313	3313	3313	3313	3313	3313	3313	3305	3305	3305	3297	3297	3297	3297	3288	3288	3288	3288	3288	3288	3288	3288	3288	3272	3272	3272	3272	3272	3264	3264	3264	3264	3264	3264	3264	3256	3256	3256	3256	3256	3256	3256	3256	3256	3256	3256	3256	3256	3256	3256	3256	3256	3256	3256	3264	3264	3264	3264	3264	3264	3272	3272	3272	3280	3288	3288	3297	3313	3313	3330	3347	3347	3391	3391	3417	3435	3435	3462	3490	3490	3509	3518	3518	3528	3528	3528	3528	3528	3518	3509	3509	3499	3481	3481	3453	3426	3399	3399	3391	3365	3365	3347	3339	3339	3330	3322	3322	3313	3313	3305	3305	3305	3305	3305	3305	3305	3305	3305	3305	3305	3297	3297	3297	3297	3297	3297	3288	3288	3288	3280	3272	3272	3264	3264	3264	3256	3248	3240	3240	3224	3208	3208	3184	3161	3161	3139	3116	3094	3094	3087	3072	3072	3058	3051	3051	3044	3037	3030	3030	3016	3002	3002	2975	2928	2870	2870	2833	2803	2744	2682	2682	2649	2628	2602	2602	2566	2536	2512	2512	2493	2479	2469	2469	2451	2419	2388	2388	2367	2350	2337	2337	2333	2325	2325	2316	2308	2308	2296	2284	2280	2280	2268	2264	2264	2257	2253	2253	2245	2241	2241	2237	2233	2230	2230	2222
1897	1897	1897	1897	1897	0	0	0	0	0	0	0	0	0	0	0	0	0	0	0	0	0	0	2226	2222	2222	2218	2211	2207	2207	2207	2207	2207	2207	2207	2207	2207	2207	2207	2203	2203	2203	2203	2203	2203	2203	2200	2196	2196	2192	2189	2189	2185	2174	2174	2163	2160	2149	2149	2146	2139	2139	2135	2135	2135	2135	2128	2128	2128	2135	2135	2135	2135	2135	2135	2135	2135	2135	2128	2128	2128	2128	2135	2135	2135	2139	2146	2146	2146	2149	2149	2160	2163	2163	2170	2170	2170	2174	2174	2174	2174	2174	2174	2170	2170	2170	2160	2160	2149	2146	2146	2146	2139	2135	2135	2135	2135	2135	2135	2135	2135	2135	2146	2146	2146	2146	2149	2149	2149	2149	2149	2156	2160	2160	2163	2163	2163	2170	2181	2181	2185	2189	2189	2192	2196	2196	2203	2203	2203	2203	2203	2203	2203	2203	2203	2203	2203	2203	2203	2203	2203	2200	2200	2200	2196	2196	2196	2196	2192	2192	2192	2192	2196	2196	2200	2200	2200	2200	2203	2203	2207	2207	2207	2211	2211	2211	2215	2215	2215	2215	2218	2218	2218	2222	2222	2222	2222	2222	2226	2226	2226	2230	2230	2230	2226	2226	2226	2226	2226	2226	2222	2222	2222	2222	2222	2222	2222	2222	2222	2222	2222	2222	2222	2222	2222	2222	2226	2230	2230	2230	2233	2233	2237	2241	2241	2245	2253	2253	2253	2264	2264	2264	2276	2276	2280	2284	2284	2296	2296	2296	2312	2312	2341	2419	2419	2469	2517	0	0	2809	2809	2809	2935	2935	3051	3051	3094	3109	3109	3116	3116	3139	3161	3161	3184	3192	3192	3208	3216	3216	3224	3232	3232	3232	3232	3232	3224	3224	3216	3192	3169	3169	3161	3139	3139	3139	3131	3131	3131	3116	3116	3116	3131	3139	3139	3154	3169	3169	3208	3232	3232	3248	3264	3264	3272	3288	3288	3288	3297	3297	3305	3305	3305	3297	3297	3297	3297	3297	3288	3288	3288	3280	3272	3272	3272	3264	3264	3264	3264	3264	3264	3264	3264	3264	3264	3272	3272	3272	3272	3280	3280	3288	3288	3288	3297	3297	3297	3297	3305	3305	3297	3297	3297	3288	3288	3280	3280	3280	3272	3272	3272	3264	3264	3272	3264	3264	3264	3264	3264	3264	3256	3256	3248	3248	3240	3224	3224	3216	3208	3208	3208	3192	3192	3192	3184	3169	3169	3169	3169	3169	3169	3169	3169	3169	3169	3169	3169	3184	3184	3184	3192	3192	3192	3192	3208	3208	3208	3208	3208	3216	3224	3224	3224	3232	3232	3232	3232	3232	3248	3248	3248	3256	3256	3256	3256	3256	3256	3256	3264	3264	3264	3264	3264	3264	3264	3264	3272	3272	3272	3272	3280	3280	3280	3280	3280	3272	3272	3272	3272	3272	3272	3264	3256	3256	3256	3248	3248	3240	3232	3232	3216	3208	3208	3169	3169	3161	3161	3154	3154	3154	3154	3154	3154	3154	3161	3161	3161	3169	3169	3169	3184	3192	3192	3192	3208	3208	3208	3216	3216	3216	3216	3216	3224	3224	3224	3224	3232	3232	3240	3248	3248	3264	3272	3272	3288	3305	3305	3322	3322	3339	3347	3347	3365	3365	3365	3365	3347	3347	3330	3322	3322	3313	3297	3297	3297	3297	3297	3297	3297	3297	3297	3297	3297	3297	3297	3297	3297	3297	3305	3305	3305	3305	3297	3297	3297	3297	3297	3297	3297	3288	3288	3288	3288	3288	3288	3288	3272	3272	3272	3272	3272	3264	3264	3264	3256	3256	3256	3256	3248	3248	3248	3248	3240	3240	3240	3240	3240	3240	3240	3240	3240	3248	3248	3248	3248	3256	3256	3256	3256	3256	3256	3256	3256	3256	3264	3264	3264	3272	3272	3272	3280	3280	3288	3297	3297	3313	3330	3330	3365	3365	3391	3417	3417	3435	3481	3481	3499	3499	3499	3509	3518	3509	3509	3509	3499	3490	3490	3462	3453	3453	3426	3399	3373	3373	3347	3339	3339	3330	3322	3322	3313	3313	3305	3305	3305	3305	3305	3305	3305	3305	3305	3305	3305	3305	3305	3305	3297	3297	3297	3297	3297	3297	3288	3288	3288	3280	3272	3272	3264	3264	3264	3256	3248	3240	3240	3224	3208	3208	3184	3169	3169	3139	3116	3109	3109	3087	3072	3072	3058	3051	3051	3044	3037	3030	3030	3016	3002	3002	2975	2928	2870	2870	2833	2803	2744	2682	2682	2649	2628	2602	2602	2566	2536	2512	2512	2493	2479	2469	2469	2451	2419	2388	2388	2367	2350	2337	2337	2333	2325	2325	2316	2308	2308	2296	2292	2280	2280	2276	2264	2264	2257	2253	2253	2245	2241	2241	2237	2233	2230	2230	2222
1897	1897	1897	1900	1900	0	0	0	0	0	0	0	0	0	0	0	0	0	0	0	0	0	0	2222	2218	2218	2215	2211	2207	2207	2207	2207	2207	2207	2203	2203	2203	2203	2203	2203	2203	2203	2200	2200	2200	2196	2192	2189	2189	2185	2181	2181	2174	2163	2163	2160	2156	2149	2149	2139	2139	2139	2135	2135	2135	2128	2128	2128	2128	2135	2135	2135	2135	2135	2135	2135	2135	2135	2128	2128	2128	2128	2128	2135	2135	2135	2146	2146	2146	2149	2149	2156	2160	2160	2163	2170	2170	2170	2174	2174	2174	2174	2174	2170	2170	2170	2160	2160	2149	2146	2146	2146	2139	2135	2135	2135	2135	2135	2135	2135	2135	2135	2146	2146	2146	2146	2149	2149	2149	2149	2149	2156	2160	2160	2163	2163	2163	2170	2181	2181	2185	2189	2189	2192	2196	2196	2203	2203	2203	2203	2203	2203	2203	2203	2203	2203	2203	2203	2203	2203	2203	2200	2200	2200	2196	2196	2196	2192	2192	2192	2192	2192	2192	2192	2196	2196	2196	2196	2203	2203	2207	2207	2207	2211	2211	2211	2215	2215	2215	2215	2218	2218	2218	2222	2222	2222	2222	2222	2226	2226	2226	2230	2230	2230	2226	2226	2226	2226	2226	2226	2222	2222	2222	2222	2222	2222	2222	2222	2222	2222	2222	2222	2222	2222	2222	2222	2226	2230	2230	2230	2233	2233	2237	2241	2241	2245	2253	2253	2253	2264	2264	2264	2276	2276	2280	2284	2284	2296	2296	2296	2312	2312	2341	2419	2419	2517	2517	0	0	0	0	2935	2935	2935	3051	3051	3116	3116	3131	3139	3139	3161	3184	3184	3192	3208	3208	3224	3224	3224	3232	3232	3232	3224	3224	3224	3216	3216	3192	3169	3161	3161	3139	3131	3131	3116	3116	3116	3109	3109	3109	3109	3109	3116	3116	3131	3154	3154	3184	3216	3216	3240	3256	3256	3264	3280	3280	3288	3297	3297	3297	3297	3297	3297	3297	3297	3297	3297	3288	3288	3288	3272	3272	3272	3264	3264	3264	3264	3264	3264	3264	3264	3264	3264	3264	3264	3264	3264	3264	3272	3272	3272	3280	3280	3288	3288	3288	3288	3288	3288	3280	3280	3272	3272	3272	3264	3264	3264	3264	3264	3264	3264	3264	3264	3256	3256	3264	3256	3256	3256	3256	3240	3232	3232	3224	3208	3208	3208	3192	3192	3192	3184	3184	3169	3169	3161	3161	3161	3154	3154	3154	3154	3154	3154	3154	3154	3154	3154	3161	3161	3161	3161	3161	3169	3169	3169	3169	3184	3184	3184	3192	3192	3208	3216	3216	3224	3224	3224	3232	3240	3240	3248	3248	3248	3256	3256	3256	3256	3264	3264	3264	3264	3264	3264	3264	3264	3272	3272	3272	3272	3280	3280	3280	3280	3280	3272	3272	3272	3272	3272	3272	3264	3256	3256	3256	3248	3248	3240	3224	3224	3208	3192	3192	3169	3169	3161	3161	3154	3154	3154	3154	3154	3154	3154	3161	3161	3161	3169	3169	3169	3184	3192	3192	3192	3208	3208	3208	3216	3216	3216	3216	3216	3224	3224	3224	3224	3232	3232	3240	3248	3248	3264	3272	3272	3288	3305	3305	3322	3322	3339	3347	3347	3365	3365	3365	3365	3347	3347	3330	3322	3322	3313	3297	3297	3297	3297	3297	3297	3297	3297	3297	3297	3297	3297	3297	3297	3297	3297	3305	3305	3305	3305	3297	3297	3297	3297	3297	3297	3297	3288	3288	3288	3288	3288	3288	3288	3272	3272	3272	3264	3264	3256	3256	3256	3248	3240	3240	3232	3232	3224	3224	3224	3224	3224	3224	3224	3224	3224	3224	3232	3232	3232	3240	3240	3248	3248	3248	3256	3256	3256	3256	3256	3256	3256	3264	3264	3264	3272	3272	3272	3280	3280	3288	3297	3297	3305	3322	3322	3339	3365	3365	3391	3391	3417	3435	3435	3462	3481	3481	3490	3490	3490	3490	3490	3481	3453	3453	3435	3417	3399	3399	3373	3347	3347	3339	3322	3322	3313	3305	3305	3297	3297	3297	3297	3297	3297	3297	3297	3297	3297	3297	3297	3297	3297	3297	3297	3297	3297	3297	3297	3288	3288	3288	3272	3272	3272	3264	3264	3264	3256	3256	3248	3240	3232	3232	3216	3192	3192	3169	3161	3161	3139	3116	3109	3109	3087	3072	3072	3058	3051	3051	3044	3037	3023	3023	3016	2995	2995	2961	2908	2851	2821	2821	2785	2744	2666	2639	2639	2612	2587	2551	2551	2532	2507	2507	2493	2479	2465	2465	2442	2415	2384	2384	2362	2346	2337	2337	2329	2325	2325	2316	2308	2308	2296	2292	2280	2280	2276	2264	2264	2257	2253	2253	2245	2241	2233	2233	2230	2226	2226	2222
1900	1900	1900	1900	1900	0	0	0	0	0	0	0	0	0	0	0	0	0	0	0	0	0	0	2222	2218	2218	2215	2211	2207	2207	2207	2207	2207	2207	2203	2203	2203	2203	2203	2203	2203	2203	2200	2200	2200	2196	2192	2189	2189	2185	2181	2181	2174	2163	2163	2160	2156	2149	2149	2139	2139	2139	2135	2135	2135	2128	2128	2128	2128	2135	2135	2135	2135	2135	2135	2135	2135	2135	2128	2128	2128	2128	2128	2135	2135	2135	2146	2146	2146	2149	2149	2156	2160	2160	2163	2163	2163	2170	2170	2170	2170	2170	2170	2170	2170	2163	2160	2160	2156	2149	2146	2146	2146	2139	2139	2135	2135	2135	2135	2139	2139	2139	2146	2156	2156	2156	2156	2156	2156	2160	2160	2160	2163	2163	2170	2174	2174	2174	2181	2181	2189	2192	2192	2196	2200	2200	2203	2203	2203	2203	2203	2203	2203	2203	2203	2203	2203	2203	2203	2203	2203	2200	2200	2200	2200	2196	2196	2192	2192	2192	2189	2189	2189	2189	2192	2192	2192	2192	2196	2196	2203	2203	2203	2207	2207	2207	2211	2211	2211	2211	2215	2215	2218	2218	2218	2218	2218	2218	2222	2222	2222	2222	2222	2222	2222	2222	2222	2222	2222	2222	2222	2218	2218	2218	2218	2218	2218	2218	2218	2218	2218	2218	2218	2218	2218	2218	2218	2222	2222	2222	2226	2226	2230	2230	2230	2233	2237	2237	2241	2245	2245	2253	2257	2257	2264	2268	2268	2280	2284	2284	2284	2312	2325	2367	2367	2483	2483	0	0	0	0	2935	2935	2935	3051	3051	3116	3116	3131	3139	3139	3161	3192	3192	3208	3216	3216	3224	3232	3232	3232	3232	3232	3224	3224	3224	3216	3216	3192	3169	3161	3161	3139	3131	3131	3116	3116	3116	3109	3109	3109	3109	3109	3116	3116	3131	3154	3154	3184	3216	3216	3240	3256	3256	3264	3280	3280	3288	3297	3297	3297	3297	3297	3297	3297	3297	3297	3297	3288	3288	3288	3272	3272	3272	3264	3264	3264	3264	3264	3264	3264	3264	3264	3264	3264	3264	3264	3264	3264	3272	3272	3272	3280	3280	3288	3288	3288	3288	3288	3288	3280	3280	3272	3272	3272	3264	3264	3264	3248	3248	3248	3248	3248	3248	3248	3256	3256	3256	3256	3248	3248	3240	3224	3224	3216	3208	3208	3208	3192	3192	3192	3184	3184	3169	3161	3154	3154	3154	3139	3139	3139	3131	3131	3131	3131	3131	3131	3131	3131	3131	3139	3139	3139	3139	3139	3139	3154	3154	3154	3161	3169	3169	3184	3192	3192	3208	3208	3208	3224	3224	3224	3232	3240	3240	3248	3256	3256	3256	3256	3256	3264	3264	3264	3264	3264	3264	3264	3272	3272	3272	3288	3288	3288	3288	3288	3288	3288	3280	3280	3280	3272	3264	3256	3256	3248	3240	3240	3216	3208	3208	3184	3169	3154	3154	3139	3131	3131	3116	3116	3116	3116	3116	3116	3116	3131	3131	3131	3139	3139	3139	3154	3161	3161	3169	3184	3184	3184	3192	3192	3192	3192	3192	3192	3192	3192	3208	3208	3208	3216	3224	3224	3240	3256	3256	3264	3280	3280	3297	3313	3313	3330	3330	3339	3339	3339	3339	3330	3330	3322	3305	3305	3297	3297	3297	3288	3288	3288	3288	3288	3288	3288	3288	3288	3288	3288	3288	3288	3288	3288	3288	3297	3297	3288	3288	3297	3297	3288	3288	3288	3288	3288	3288	3288	3280	3280	3272	3272	3272	3264	3264	3264	3256	3256	3256	3248	3240	3240	3232	3232	3224	3224	3224	3224	3224	3224	3224	3224	3224	3224	3232	3232	3232	3240	3240	3248	3248	3248	3256	3256	3256	3256	3256	3256	3264	3264	3264	3264	3272	3272	3272	3280	3280	3288	3297	3297	3305	3322	3322	3339	3365	3365	3391	3391	3417	3435	3435	3462	3481	3481	3490	3490	3490	3490	3490	3481	3453	3453	3435	3417	3399	3399	3373	3347	3347	3339	3322	3322	3313	3305	3305	3297	3297	3297	3297	3297	3297	3297	3297	3297	3297	3297	3297	3297	3297	3297	3297	3297	3288	3288	3288	3288	3288	3272	3272	3272	3264	3264	3264	3256	3248	3248	3240	3232	3216	3216	3208	3192	3192	3169	3154	3154	3139	3116	3109	3109	3087	3072	3072	3058	3051	3051	3044	3037	3023	3023	3009	2988	2988	2961	2889	2839	2809	2809	2761	2699	2649	2628	2628	2602	2571	2546	2546	2522	2502	2502	2488	2474	2460	2460	2442	2415	2384	2384	2362	2346	2337	2337	2329	2325	2325	2316	2308	2308	2296	2292	2280	2280	2276	2268	2268	2264	2253	2253	2245	2237	2233	2233	2230	2222	2222	2222
1900	1900	1900	1900	1900	0	0	0	0	0	0	0	0	0	0	0	0	0	0	0	0	2207	2207	2207	2207	2211	2211	2207	2207	2207	2203	2203	2203	2203	2203	2203	2203	2203	2203	2200	2196	2196	2196	2192	2192	2192	2189	2185	2185	2181	2170	2170	2170	2160	2160	2156	2149	2146	2146	2135	2135	2135	2128	2128	2128	2128	2128	2128	2128	2135	2135	2135	2135	2135	2135	2135	2135	2135	2135	2128	2128	2128	2135	2135	2135	2139	2146	2146	2146	2149	2149	2156	2160	2160	2163	2163	2163	2170	2170	2170	2170	2170	2170	2170	2170	2163	2160	2160	2156	2149	2146	2146	2146	2146	2146	2146	2146	2146	2146	2146	2149	2149	2156	2160	2160	2160	2163	2163	2163	2163	2163	2170	2170	2170	2174	2174	2174	2181	2185	2185	2192	2196	2196	2196	2200	2200	2203	2203	2203	2203	2203	2203	2203	2203	2203	2203	2203	2203	2203	2203	2203	2203	2203	2203	2200	2200	2196	2196	2192	2192	2185	2185	2185	2185	2189	2192	2192	2192	2192	2192	2196	2203	2203	2203	2207	2207	2207	2207	2207	2211	2211	2211	2215	2215	2215	2215	2218	2218	2218	2218	2218	2218	2218	2218	2218	2218	2218	2218	2218	2218	2218	2218	2218	2218	2215	2215	2215	2215	2215	2211	2211	2211	2211	2211	2215	2215	2215	2215	2215	2218	2218	2218	2222	2222	2222	2226	2230	2230	2233	2237	2237	2237	2241	2241	2245	2253	2253	2264	2268	2268	2276	2304	2304	2337	2337	2446	2446	0	0	0	0	2935	2935	2935	3058	3058	3131	3131	3139	3154	3154	3169	3192	3192	3208	3216	3216	3224	3232	3232	3232	3232	3224	3216	3216	3208	3192	3169	3169	3161	3139	3139	3116	3109	3109	3094	3087	3087	3087	3094	3094	3094	3094	3109	3109	3131	3154	3154	3169	3208	3208	3232	3256	3256	3264	3272	3272	3280	3288	3288	3297	3297	3297	3297	3297	3297	3288	3288	3288	3280	3280	3272	3272	3272	3264	3264	3264	3264	3256	3256	3256	3256	3256	3256	3256	3264	3264	3264	3264	3264	3264	3264	3272	3272	3272	3272	3272	3272	3272	3264	3264	3264	3264	3256	3256	3248	3248	3248	3248	3248	3248	3248	3248	3248	3248	3256	3256	3256	3256	3248	3248	3240	3224	3224	3216	3208	3208	3208	3192	3192	3192	3184	3184	3169	3161	3154	3154	3154	3139	3139	3139	3131	3131	3131	3131	3131	3131	3131	3131	3131	3139	3139	3139	3139	3139	3139	3154	3154	3154	3161	3169	3169	3184	3192	3192	3208	3208	3208	3224	3224	3224	3232	3240	3240	3248	3256	3256	3256	3256	3256	3264	3264	3264	3264	3264	3264	3264	3272	3272	3272	3288	3288	3288	3288	3288	3288	3288	3288	3280	3280	3272	3264	3256	3256	3232	3216	3216	3192	3169	3154	3154	3139	3116	3116	3109	3094	3094	3087	3087	3087	3087	3087	3087	3087	3094	3094	3094	3109	3109	3109	3116	3139	3139	3139	3161	3161	3161	3169	3169	3169	3169	3169	3184	3184	3184	3184	3184	3184	3192	3208	3208	3216	3232	3232	3256	3264	3264	3280	3297	3297	3305	3322	3322	3322	3330	3330	3330	3330	3322	3305	3305	3297	3288	3288	3288	3280	3280	3280	3272	3272	3272	3272	3272	3272	3272	3280	3280	3280	3288	3288	3288	3288	3288	3288	3288	3288	3288	3280	3280	3280	3272	3272	3272	3272	3272	3264	3264	3264	3256	3256	3256	3240	3232	3232	3232	3224	3216	3216	3208	3192	3192	3192	3192	3192	3192	3208	3208	3208	3216	3224	3224	3224	3232	3232	3240	3248	3248	3256	3256	3256	3256	3256	3256	3264	3264	3264	3264	3272	3272	3272	3280	3280	3288	3297	3297	3297	3313	3313	3330	3347	3347	3373	3373	3399	3417	3417	3435	3435	3435	3453	3462	3453	3453	3453	3435	3417	3399	3399	3373	3347	3347	3339	3322	3322	3313	3305	3305	3297	3297	3297	3297	3288	3288	3288	3288	3288	3297	3297	3297	3297	3297	3297	3297	3297	3297	3297	3297	3288	3288	3288	3288	3288	3272	3272	3272	3264	3264	3264	3256	3248	3248	3240	3232	3216	3216	3208	3192	3192	3169	3154	3154	3139	3116	3109	3109	3087	3072	3072	3065	3051	3051	3044	3037	3023	3023	3009	2988	2988	2961	2889	2839	2809	2809	2761	2699	2649	2628	2628	2602	2571	2546	2546	2522	2502	2502	2488	2474	2460	2460	2442	2415	2388	2388	2362	2350	2337	2337	2333	2329	2329	2321	2312	2312	2304	2296	2284	2284	2280	2268	2268	2264	2257	2257	2245	2237	2237	2233	2230	2222	2222	2222
1902	1902	1902	1905	1905	1908	0	0	0	0	0	0	0	0	0	0	0	0	0	0	0	2203	2203	2203	2203	2203	2203	2203	2203	2203	2203	2200	2200	2200	2200	2200	2196	2196	2196	2192	2192	2192	2189	2189	2185	2185	2181	2174	2174	2170	2163	2163	2160	2156	2149	2149	2139	2135	2135	2128	2128	2128	2128	2128	2128	2128	2128	2128	2128	2128	2135	2135	2135	2135	2135	2135	2135	2135	2135	2128	2128	2128	2135	2135	2135	2139	2146	2146	2146	2149	2149	2156	2156	2156	2160	2163	2163	2163	2163	2163	2163	2163	2163	2163	2163	2163	2160	2160	2156	2149	2146	2146	2146	2146	2146	2146	2146	2146	2146	2146	2149	2149	2156	2160	2160	2160	2163	2163	2163	2163	2163	2170	2170	2170	2174	2174	2174	2181	2185	2185	2192	2196	2196	2196	2200	2200	2203	2203	2203	2203	2203	2203	2203	2203	2203	2203	2203	2203	2203	2203	2203	2203	2203	2203	2200	2200	2196	2196	2192	2192	2185	2185	2185	2185	2189	0	0	2192	2192	2192	2196	2203	2203	2203	2207	2207	2207	2207	2207	2211	2211	2211	2215	2215	2215	2215	2218	2218	2218	2218	2218	2218	2218	2218	2218	2218	2218	2218	2218	2218	2218	2218	2218	2218	2215	2215	2215	2215	2215	2211	2211	2211	2211	2211	2215	2215	2215	2215	2215	2218	2218	2218	2222	2222	2222	2226	2230	2230	2233	2237	2237	2237	2241	2241	2245	2253	2253	2264	2268	2268	2276	2304	2304	2337	2337	2446	2446	0	0	0	0	2941	2941	2941	3065	3065	3139	3139	3154	3161	3161	3184	3208	3208	3216	3224	3224	3232	3232	3224	3224	3224	3216	3208	3208	3192	3169	3154	3154	3139	3116	3116	3094	3087	3087	3080	3080	3080	3080	3080	3080	3087	3087	3094	3109	3116	3139	3139	3161	3192	3192	3224	3248	3248	3256	3272	3272	3272	3280	3280	3288	3288	3288	3288	3288	3288	3288	3288	3280	3280	3280	3272	3264	3264	3264	3256	3256	3256	3256	3256	3256	3256	3256	3256	3256	3256	3256	3256	3256	3256	3256	3256	3256	3256	3256	3256	3256	3256	3256	3256	3248	3248	3240	3224	3224	3224	3224	3224	3224	3224	3224	3224	3232	3232	3232	3240	3240	3240	3240	3232	3232	3224	3216	3216	3208	3192	3192	3184	3184	3184	3169	3161	3161	3161	3154	3139	3139	3131	3131	3131	3116	3109	3109	3109	3109	3109	3109	3109	3109	3109	3109	3109	3109	3116	3116	3116	3116	3131	3131	3139	3154	3154	3161	3169	3169	3184	3192	3192	3216	3216	3216	3224	3232	3232	3240	3240	3240	3240	3248	3248	3248	3256	3256	3256	3256	3256	3256	3264	3264	3264	3272	3272	3280	3288	3288	3288	3288	3280	3272	3272	3264	3256	3248	3248	3232	3216	3216	3192	3169	3154	3154	3139	3116	3116	3109	3094	3094	3087	3087	3087	3087	3087	3087	3087	3094	3094	3094	3109	3109	3109	3116	3139	3139	3139	3161	3161	3161	3169	3169	3169	3169	3169	3184	3184	3184	3184	3184	3184	3192	3208	3208	3216	3232	3232	3256	3264	3264	3280	3297	3297	3305	3322	3322	3322	3330	3330	3330	3330	3322	3305	3305	3297	3288	3288	3288	3280	3280	3280	3272	3272	3272	3272	3272	3272	3272	3280	3280	3280	3288	3288	3288	3288	3288	3288	3288	3288	3288	3280	3280	3280	3264	3264	3264	3264	3264	3256	3256	3256	3240	3232	3232	3224	3216	3216	3208	3192	3192	3192	3184	3169	3169	3169	3169	3169	3169	3169	3184	3184	3192	3208	3208	3216	3232	3232	3240	3248	3248	3256	3256	3256	3256	3264	3264	3264	3264	3264	3272	3272	3272	3280	3288	3288	3288	3297	3297	3297	3305	3305	3322	3339	3339	3347	3373	3373	3391	3391	3399	3417	3417	3417	3426	3426	3417	3417	3399	3373	3365	3365	3330	3322	3322	3313	3297	3297	3297	3288	3288	3288	3288	3288	3288	3288	3288	3288	3288	3288	3288	3288	3288	3288	3288	3288	3288	3288	3288	3288	3288	3288	3288	3280	3272	3272	3272	3264	3264	3256	3256	3256	3248	3232	3224	3224	3216	3208	3208	3184	3169	3169	3161	3139	3139	3131	3109	3094	3094	3087	3072	3072	3065	3051	3051	3044	3037	3023	3023	3009	2981	2981	2941	2876	2833	2803	2803	2761	2676	2644	2623	2623	2597	2566	2536	2536	2517	2502	2502	2488	2474	2460	2460	2442	2415	2388	2388	2362	2350	2337	2337	2333	2329	2329	2321	2312	2312	2304	2296	2284	2284	2280	2268	2268	2264	2257	2257	2245	2237	2237	2233	2226	2222	2222	2218
1902	1902	1905	1908	1908	1908	0	0	0	0	0	0	0	0	0	0	0	0	0	0	0	2203	2203	2203	2203	2203	2203	2203	2203	2203	2203	2200	2200	2200	2200	2200	2196	2196	2196	2192	2192	2192	2189	2189	2185	2185	2181	2174	2174	2170	2163	2163	2160	2156	2149	2149	2139	2135	2135	2128	2128	2128	2128	2125	2125	2125	2125	2125	2125	2125	2128	2128	2128	2135	2135	2135	2135	2135	2135	2135	2135	2135	2135	2135	2135	2139	2146	2146	2146	2149	2149	2156	2156	2156	2156	2160	2160	2160	2160	2160	2160	2160	2160	2160	2160	2160	2156	2156	2149	2149	2149	2146	2146	2146	2146	2146	2146	2146	2146	2146	2156	2156	2160	2163	2163	2163	2163	2163	2163	2170	2170	2170	2174	2174	2174	2181	2181	2181	2185	2185	2192	2196	2196	2196	2200	2200	2200	2203	2203	2203	2203	2203	2203	2203	2203	2203	2203	2203	2203	2203	2203	2203	2203	2203	2200	2200	2200	2196	2192	2192	2185	2185	2185	2185	2189	0	0	2192	2192	2192	2196	2200	2200	2203	2203	2203	2207	2207	2207	2207	2211	2211	2211	2211	2211	2211	2211	2211	2211	2215	2215	2215	2218	2218	2218	2218	2218	2215	2215	2215	2215	2215	2215	2211	2211	2211	2211	2211	2211	2211	2211	2211	2207	2207	2207	2207	2207	2211	2211	2211	2211	2211	2215	2218	2218	2218	2222	2222	2222	2226	2226	2230	2230	2230	2237	2237	2237	2241	2253	2253	2257	2268	2268	2280	2337	2337	2446	0	0	0	0	0	0	3072	3072	3072	3154	3154	3161	3169	3169	3192	3208	3208	3216	3224	3224	3232	3232	3224	3224	3224	3216	3208	3208	3192	3169	3154	3154	3139	3116	3116	3094	3087	3087	3080	3080	3080	3080	3080	3080	3087	3087	3094	3116	3116	3139	3139	3161	3192	3192	3224	3248	3248	3256	3272	3272	3272	3280	3280	3288	3288	3288	3288	3288	3288	3288	3288	3280	3280	3280	3272	3264	3264	3264	3256	3256	3256	3256	3256	3256	3256	3256	3256	3256	3256	3256	3256	3256	3256	3256	3256	3256	3256	3256	3256	3256	3256	3256	3224	3216	3216	3208	3192	3184	3184	3184	3184	3184	3184	3192	3192	3192	3208	3216	3216	3224	3232	3232	3224	3224	3216	3208	3208	3192	3184	3184	3169	3161	3161	3161	3154	3154	3154	3131	3131	3131	3109	3109	3109	3094	3087	3087	3087	3080	3080	3080	3080	3080	3087	3087	3087	3087	3087	3094	3094	3094	3109	3116	3116	3139	3139	3154	3161	3161	3169	3184	3184	3192	3208	3208	3216	3224	3224	3224	3232	3232	3232	3232	3232	3232	3232	3224	3224	3232	3232	3232	3232	3232	3240	3256	3256	3256	3264	3264	3264	3264	3264	3256	3256	3256	3232	3216	3216	3208	3169	3169	3154	3131	3116	3116	3094	3087	3087	3080	3072	3072	3065	3065	3065	3065	3065	3065	3065	3072	3080	3080	3087	3087	3087	3094	3116	3116	3131	3139	3139	3154	3154	3154	3161	3161	3161	3161	3161	3161	3161	3169	3169	3184	3184	3184	3208	3216	3216	3240	3256	3256	3264	3272	3272	3288	3297	3297	3305	3305	3305	3313	3313	3305	3297	3297	3288	3288	3288	3272	3272	3272	3272	3264	3264	3264	3264	3264	3264	3264	3272	3272	3272	3272	3272	3272	3272	3272	3272	3272	3272	3272	3272	3272	3272	3264	3264	3264	3264	3264	3256	3256	3256	3240	3232	3232	3224	3216	3216	3208	3192	3192	3192	3184	3169	3169	3169	3169	3169	3169	3169	3184	3184	3192	3208	3208	3216	3232	3232	3240	3248	3248	3256	3256	3256	3264	3264	3264	3272	3272	3272	3272	3280	3280	3280	3288	3288	3288	3297	3297	3297	3305	3305	3322	3339	3339	3347	3373	3373	3391	3391	3399	3417	3417	3417	3426	3426	3417	3417	3399	3373	3365	3365	3330	3322	3322	3313	3297	3297	3297	3288	3288	3288	3288	3288	3288	3288	3288	3288	3288	3288	3288	3288	3288	3288	3288	3288	3288	3288	3288	3288	3288	3280	3280	3272	3272	3272	3264	3256	3256	3256	3248	3248	3232	3224	3208	3208	3192	3184	3184	3169	3161	3161	3139	3131	3116	3116	3109	3094	3094	3080	3072	3072	3058	3051	3051	3044	3037	3023	3023	3002	2981	2981	2935	2870	2827	2791	2791	2791	2666	2639	2612	2612	2587	2566	2536	2536	2517	2502	2502	2488	2474	2465	2465	2446	2419	2397	2397	2371	2354	2354	2346	2337	2333	2333	2329	2321	2321	2312	2304	2304	2292	2280	2268	2268	2264	2257	2257	2245	2237	2237	2230	2222	2218	2218	2218
1902	1902	1905	1908	1908	1908	0	0	0	0	0	0	0	0	0	0	0	0	0	0	0	2196	2196	2196	2196	2196	2196	2196	2196	2196	2192	2192	2192	2192	2189	2189	2189	2189	2189	2185	2185	2181	2181	2181	2174	2174	2170	2163	2163	2160	2156	2156	2149	2146	2139	2139	2135	2128	2128	2128	2125	2125	2125	2125	2125	2125	2125	2125	2125	2125	2128	2128	2128	2135	2135	2135	2135	2135	2135	2135	2135	2135	2139	2139	2139	2146	2146	2146	2149	2149	2149	2156	2156	2156	2156	2160	2160	2160	2160	2160	2160	2160	2160	2160	2160	2160	2156	2156	2149	2149	2149	2149	2146	2146	2146	2146	2146	2146	2146	2149	2156	2156	2160	2163	2163	2163	2170	2170	2170	2170	2170	2174	2174	2174	2181	2181	2181	2185	2189	2189	2192	2196	2196	2196	2200	2200	2200	2203	2203	2203	2203	2203	2203	2203	2203	2203	2203	2203	2203	2203	2203	2203	2203	2203	2200	2200	2200	2196	2196	0	0	0	0	0	0	0	0	0	0	0	2200	2200	2200	2200	2203	2203	2203	2203	2203	2207	2207	2207	2207	2207	2207	2211	2211	2211	2211	2211	2211	2211	2211	2211	2211	2211	2211	2211	2211	2211	2211	2211	2211	2211	2207	2207	2207	2207	2207	2207	2207	2207	2207	2207	2207	2207	2207	2207	2207	2207	2211	2211	2211	2211	2211	2215	2218	2218	2218	2218	2218	2222	2222	2222	2226	2226	2226	2233	2237	2237	2237	2241	2241	2245	2304	2304	0	0	0	0	0	0	0	3065	3065	3065	3154	3154	3161	3169	3169	3192	3208	3208	3216	3224	3224	3224	3224	3224	3216	3216	3208	3192	3192	3184	3161	3139	3139	3116	3109	3109	3087	3080	3080	3072	3072	3065	3065	3065	3072	3080	3080	3094	3116	3116	3139	3139	3161	3192	3192	3224	3240	3240	3256	3264	3264	3272	3272	3272	3288	3288	3288	3288	3288	3288	3288	3288	3280	3272	3272	3272	3264	3264	3264	3256	3256	3256	3256	3256	3248	3248	3248	3248	3248	3248	3248	3248	3248	3248	3248	3248	3248	3248	3240	3240	3240	3232	3232	3224	3216	3216	3208	3192	3184	3184	3184	3184	3184	3184	3192	3192	3192	3208	3216	3216	3224	3232	3232	3224	3224	3216	3208	3208	3192	3184	3184	3169	3161	3161	3161	3154	3154	3154	3131	3131	3131	3109	3109	3109	3094	3087	3087	3087	3080	3080	3080	3080	3080	3087	3087	3087	3087	3087	3094	3094	3094	3109	3116	3116	3139	3139	3154	3161	3161	3169	3184	3184	3192	3208	3208	3216	3224	3224	3224	3232	3232	3232	3232	3232	3232	3232	3224	3224	3232	3232	3232	3232	3232	3240	3256	3256	3256	3264	3264	3232	3224	3224	3224	3216	3216	3192	3184	3184	3154	3131	3109	3109	3087	3080	3080	3072	3065	3065	3058	3051	3051	3051	3051	3051	3051	3051	3051	3051	3051	3058	3065	3065	3072	3087	3087	3094	3094	3109	3116	3116	3131	3139	3139	3139	3139	3139	3154	3154	3154	3154	3161	3161	3161	3169	3169	3184	3192	3192	3216	3240	3240	3256	3264	3264	3272	3288	3288	3297	3297	3297	3297	3297	3297	3288	3288	3288	3280	3280	3272	3264	3264	3264	3264	3264	3256	3256	3256	3256	3264	3264	3264	3264	3264	3264	3264	3264	3264	3264	3264	3264	3264	3264	3264	3256	3256	3256	3256	3256	3256	3248	3240	3240	3224	3216	3216	3208	3192	3184	3184	3169	3169	3169	3161	3154	3154	3154	3154	3161	3161	3161	3169	3169	3184	3192	3192	3208	3224	3224	3240	3248	3248	3256	3256	3256	3264	3264	3264	3272	3272	3272	3272	3280	3280	3280	3288	3288	3288	3297	3297	3297	3297	3297	3305	3313	3313	3330	3339	3339	3347	3373	3373	3373	3373	3373	3373	3373	3365	3339	3339	3330	3313	3313	3297	3297	3297	3288	3288	3288	3280	3280	3272	3272	3272	3272	3280	3280	3280	3280	3280	3280	3288	3288	3288	3288	3288	3288	3288	3288	3288	3288	3288	3280	3280	3272	3272	3272	3264	3256	3256	3256	3248	3248	3232	3224	3208	3208	3192	3184	3184	3169	3161	3161	3139	3131	3116	3116	3109	3094	3094	3080	3072	3072	3058	3051	3051	3044	3037	3023	3023	3002	2981	2981	2935	2870	2827	2791	2791	2791	2666	2639	2612	2612	2587	2566	2546	2546	2522	2502	2502	2488	2479	2469	2469	2456	2433	2410	2410	2388	2362	2362	2350	2346	2337	2337	2333	2329	2329	2321	2308	2308	2296	2284	2276	2276	2264	2257	2257	2245	2237	2226	2226	2222	2218	2218	2211
1908	1908	1908	1911	1911	1911	0	0	0	0	0	0	0	0	0	0	0	0	0	0	0	2189	2189	2189	2189	2185	2185	2185	2185	2185	2181	2181	2185	2181	2181	2181	2174	2174	2174	2174	2170	2170	2170	2163	2163	2163	2160	2160	2160	2156	2149	2149	2146	2139	2135	2135	2128	2125	2125	2125	2121	2121	2121	2121	2121	2121	2121	2125	2125	2125	2125	2125	2128	2135	2135	2135	2135	2135	2135	2135	2135	2135	2139	2139	2139	2146	2146	2146	2149	2149	2149	2149	2156	2156	2156	2156	2156	2156	2156	2156	2156	2156	2156	2156	2156	2156	2149	2149	2149	2149	2149	2149	2146	2146	2146	2146	2146	2146	2146	2149	2156	2156	2160	2163	2163	2163	2170	2170	2170	2170	2170	2170	2174	2174	2181	2181	2181	2185	2185	2185	2189	2192	2192	2192	2196	2196	2200	2200	2200	2203	2203	2203	2203	2203	2203	2203	2203	2203	2203	2203	2203	2203	2203	2203	2203	2203	2200	2196	2196	0	0	0	0	0	0	0	0	0	0	0	0	0	2200	2200	2203	2203	2203	2203	2203	2207	2207	2207	2207	2207	2207	2211	2211	2211	2211	2211	2211	2211	2211	2211	2211	2211	2211	2211	2211	2211	2211	2211	2211	2211	2207	2207	2207	2207	2207	2207	2207	2207	2207	2207	2207	2207	2207	2207	2207	2207	2211	2211	2211	2211	2211	2215	2218	2218	2218	2218	2218	2222	2222	2222	2226	2226	2226	2233	2237	2237	2237	2241	2241	2245	2304	2304	0	0	0	0	0	0	0	3065	3065	3065	3169	3169	3169	3184	3184	3192	3208	3208	3216	3216	3216	3216	3216	3216	3216	3216	3192	3184	3184	3161	3154	3131	3131	3109	3094	3094	3080	3080	3080	3072	3065	3065	3065	3065	3072	3080	3080	3087	3116	3116	3131	3131	3161	3184	3184	3216	3232	3232	3256	3256	3256	3264	3272	3272	3272	3280	3280	3280	3280	3280	3280	3280	3272	3272	3272	3264	3264	3264	3264	3256	3256	3256	3248	3248	3240	3240	3240	3240	3240	3240	3240	3232	3232	3232	3232	3232	3232	3224	3224	3224	3216	3216	3216	3192	3192	3169	3169	3161	3161	3161	3154	3154	3161	3161	3161	3169	3169	3192	3192	3192	3216	3224	3224	3216	3216	3208	3192	3192	3184	3169	3169	3161	3154	3139	3139	3139	3131	3131	3109	3094	3094	3087	3080	3080	3072	3065	3065	3065	3058	3058	3058	3058	3058	3065	3065	3065	3065	3065	3072	3080	3080	3080	3094	3094	3116	3131	3131	3139	3139	3154	3161	3161	3184	3192	3192	3192	3208	3208	3208	3208	3208	3208	3208	3192	3192	3184	3184	3169	3169	3169	3169	3184	3192	3192	3208	3216	3216	3232	3232	3232	3224	3224	3224	3216	3216	3192	3184	3184	3154	3131	3109	3109	3087	3080	3080	3072	3065	3065	3058	3051	3051	3051	3051	3051	3051	3051	3051	3051	3051	3058	3065	3065	3072	3087	3087	3094	3094	3109	3116	3116	3131	3139	3139	3139	3139	3139	3154	3154	3154	3154	3161	3161	3161	3169	3169	3184	3192	3192	3216	3240	3240	3256	3264	3264	3272	3288	3288	3297	3297	3297	3297	3297	3297	3288	3288	3288	3280	3280	3272	3264	3264	3264	3264	3264	3256	3256	3256	3256	3264	3264	3264	3264	3264	3264	3264	3256	3256	3256	3256	3256	3256	3256	3256	3248	3248	3248	3240	3240	3240	3224	3224	3224	3216	3208	3184	3184	3169	3161	3161	3161	3161	3161	3139	3139	3139	3139	3139	3139	3139	3154	3161	3161	3161	3184	3184	3192	3216	3216	3232	3240	3240	3256	3264	3264	3264	3272	3272	3272	3280	3280	3288	3288	3288	3288	3288	3288	3288	3297	3297	3297	3297	3297	3297	3297	3297	3305	3322	3322	3322	3330	3330	3330	3330	3330	3322	3322	3313	3305	3305	3297	3288	3288	3280	3280	3280	3272	3272	3272	3272	3264	3264	3272	3272	3272	3272	3272	3272	3272	3272	3280	3280	3280	3280	3280	3280	3280	3280	3280	3280	3280	3272	3272	3272	3272	3264	3264	3256	3256	3256	3248	3232	3232	3224	3208	3192	3192	3184	3169	3169	3154	3154	3154	3131	3131	3116	3116	3094	3087	3087	3080	3072	3072	3058	3051	3051	3044	3030	3023	3023	3002	2975	2915	2915	2858	2821	2785	2785	2785	2660	2633	2607	2607	2587	2566	2546	2546	2522	2502	2502	2488	2479	2469	2469	2456	2433	2410	2410	2388	2362	2362	2350	2346	2337	2337	2333	2329	2329	2321	2308	2308	2296	2284	2276	2276	2264	2257	2257	2245	2233	2226	2226	2222	2218	2218	2211
1908	1908	1911	1911	1911	1916	0	0	0	0	0	0	0	0	0	0	0	0	0	0	0	2189	2189	2189	2189	2185	2185	2185	2185	2185	2181	2181	2185	2181	2181	2181	2174	2174	2174	2174	2170	2170	2170	2163	2163	2163	2160	2160	2160	2156	2149	2149	2146	2128	2128	2128	2125	2125	2125	2121	2118	2118	2118	2118	2118	2118	2121	2121	2121	2125	2125	2125	2125	2128	2135	2135	2135	2135	2135	2135	2139	2139	2146	2146	2146	2146	2149	2149	2149	2149	2149	2149	2149	2149	2149	2149	2149	2146	2146	2146	2146	2149	2149	2149	2149	2149	2149	2149	2146	2146	2146	2146	2146	2146	2149	2149	2149	2149	2149	2149	2149	2149	2156	2160	2160	2160	2163	2163	2170	2170	2170	2170	2170	2170	2174	2174	2174	2181	2185	2185	2185	2189	2189	2192	2192	2192	2192	2196	2196	2196	2200	2200	2200	2203	2203	2203	2203	2203	2203	2203	2203	2203	2203	2203	2203	2203	2200	2196	2196	2203	0	0	0	0	0	0	0	0	0	0	0	0	2200	2200	2203	2203	2203	2203	2203	2203	2207	2207	2207	2207	2207	2207	2207	2207	2207	2207	2207	2207	2211	2211	2211	2211	2211	2211	2207	2207	2207	2207	2207	2207	2207	2207	2207	2203	2203	2203	2203	2203	2203	2203	2203	2203	2203	2203	2203	2203	2207	2207	2207	2207	2207	2211	2211	2211	2211	2215	2215	2215	2218	2218	2218	2222	2222	2222	2222	2222	2222	2226	2226	2226	2230	0	0	0	0	0	0	0	0	0	3131	3131	3169	3169	3169	3184	3184	3208	3208	3208	3216	3216	3216	3216	3216	3216	3216	3216	3192	3184	3184	3161	3154	3131	3131	3109	3094	3094	3080	3080	3080	3072	3065	3065	3065	3065	3072	3080	3080	3087	3116	3116	3131	3131	3161	3184	3184	3216	3232	3232	3256	3256	3256	3264	3272	3272	3272	3280	3280	3280	3280	3280	3280	3280	3272	3272	3272	3264	3264	3264	3264	3256	3256	3256	3248	3248	3240	3240	3240	3240	3240	3240	3240	3232	3224	3224	3216	3216	3216	3208	3208	3208	3192	3184	3184	3184	3169	3154	3154	3139	3139	3139	3131	3131	3139	3139	3154	3154	3154	3161	3169	3169	3192	3208	3208	3208	3208	3192	3184	3184	3169	3161	3161	3154	3139	3131	3131	3116	3109	3109	3087	3080	3080	3072	3058	3051	3051	3051	3051	3051	3044	3044	3044	3044	3044	3044	3044	3051	3051	3051	3051	3058	3058	3065	3072	3072	3087	3094	3094	3116	3131	3131	3139	3139	3154	3161	3161	3169	3169	3169	3169	3161	3161	3161	3154	3154	3131	3116	3116	3116	3109	3109	3109	3116	3131	3131	3154	3154	3154	3169	3184	3184	3184	3184	3169	3161	3161	3139	3131	3109	3109	3087	3072	3072	3058	3051	3051	3051	3044	3044	3044	3044	3037	3037	3037	3037	3037	3037	3037	3044	3044	3044	3051	3051	3058	3072	3072	3080	3087	3087	3094	3109	3109	3109	3109	3116	3116	3116	3131	3131	3131	3131	3139	3139	3154	3154	3154	3161	3169	3169	3192	3216	3216	3232	3248	3248	3264	3272	3272	3280	3288	3288	3288	3288	3288	3288	3288	3280	3272	3272	3272	3264	3264	3264	3256	3256	3256	3256	3256	3256	3256	3256	3256	3256	3256	3256	3256	3256	3256	3256	3256	3256	3256	3256	3256	3248	3248	3248	3240	3240	3240	3224	3224	3224	3216	3208	3184	3184	3169	3161	3161	3161	3161	3161	3139	3139	3139	3139	3139	3139	3139	3154	3161	3161	3161	3184	3184	3192	3216	3216	3232	3240	3240	3256	3264	3264	3264	3272	3272	3280	3280	3280	3288	3288	3288	3288	3288	3288	3288	3297	3297	3297	3297	3297	3297	3297	3297	3305	3322	3322	3322	3330	3330	3330	3330	3330	3322	3322	3313	3305	3305	3297	3288	3288	3280	3280	3280	3272	3272	3272	3272	3264	3264	3272	3264	3264	3264	3264	3272	3272	3272	3272	3272	3272	3280	3280	3280	3272	3272	3272	3272	3272	3272	3264	3264	3264	3256	3256	3256	3240	3240	3232	3224	3208	3208	3192	3169	3169	3161	3154	3154	3139	3131	3131	3116	3116	3109	3109	3094	3087	3087	3072	3065	3065	3058	3051	3051	3044	3030	3016	3016	2988	2954	2896	2896	2839	2809	2785	2785	2785	2655	2628	2607	2607	2581	2566	2546	2546	2522	2507	2507	2493	2483	2474	2474	2465	2451	2451	2428	2410	2384	2384	2362	2350	2350	2346	2337	2333	2333	2329	2321	2321	2308	2296	2284	2284	2276	2257	2257	2245	2233	2222	2222	2218	2211	2211	2207
1908	1908	1911	1911	1911	1916	0	1933	1933	0	0	0	0	0	0	0	0	0	0	0	0	2189	2181	2181	2174	2174	2174	2174	2170	2170	2170	2163	2163	2163	2163	2163	2163	2163	2160	2160	2160	2156	2156	2156	2156	2156	2149	2149	2149	2146	2139	2135	2135	2128	2128	2128	2125	2125	2125	2121	2118	2118	2118	2118	2118	2118	2121	2121	2121	2125	2125	2125	2125	2128	2135	2135	2135	2135	2135	2139	2139	2139	2146	2146	2146	2149	2149	2149	2149	2149	2149	2149	2149	2149	2149	2149	2149	2146	2146	2146	2146	2149	2149	2149	2149	2149	2149	2149	2146	2146	2146	2146	2146	2146	2149	2149	2149	2149	2149	2149	2149	2149	2156	2160	2160	2160	2163	2163	2170	2170	2170	2170	2170	2170	2174	2174	2174	2181	2185	2185	2185	2189	2189	2192	2192	2192	2192	2196	2196	2196	2196	2196	2200	2200	2200	2200	2200	2200	2203	2203	2203	2203	2203	2203	2203	2203	2203	2203	2203	2203	0	0	0	0	0	0	0	0	0	0	0	0	2200	2200	2200	2200	2203	2203	2203	2203	2203	2203	2203	2207	2207	2207	2207	2207	2207	2207	2207	2207	2207	2207	2207	2207	2207	2207	2207	2207	2207	2203	2203	2203	2203	2203	2203	2203	2203	2203	2203	2203	2200	2200	2200	2200	2200	2200	2200	2200	2203	2203	2203	2203	2203	2207	2207	2207	2207	2207	2211	2211	2211	2211	2211	2215	2218	2218	2218	2218	2218	2218	2222	2222	2222	0	0	0	0	0	0	0	0	0	3131	3131	3161	3161	3169	3184	3184	3184	3192	3192	3208	3208	3208	3208	3208	3192	3192	3192	3184	3161	3154	3154	3131	3116	3116	3094	3087	3087	3080	3072	3072	3072	3065	3065	3065	3065	3072	3080	3080	3087	3116	3116	3131	3131	3161	3184	3184	3216	3232	3232	3248	3256	3256	3264	3264	3264	3272	3272	3272	3272	3272	3272	3272	3272	3272	3272	3272	3264	3264	3264	3256	3256	3256	3248	3248	3248	3240	3240	3232	3232	3232	3224	3224	3224	3224	3224	3216	3216	3216	3208	3208	3208	3192	3184	3184	3184	3169	3154	3154	3139	3139	3139	3131	3131	3139	3139	3154	3154	3154	3161	3169	3169	3192	3208	3208	3208	3208	3192	3184	3184	3169	3161	3161	3154	3139	3131	3131	3116	3109	3109	3087	3080	3080	3072	3058	3051	3051	3051	3051	3051	3044	3044	3044	3044	3044	3044	3044	3051	3051	3051	3051	3058	3058	3065	3072	3072	3087	3094	3094	3116	3131	3131	3139	3139	3154	3161	3161	3169	3169	3169	3169	3161	3161	3161	3154	3154	3131	3116	3116	3116	3109	3109	3072	3072	3087	3087	3094	3109	3109	3116	3131	3131	3131	3131	3131	3116	3094	3094	3080	3065	3065	3058	3051	3051	3044	3044	3044	3037	3030	3030	3030	3030	3030	3030	3030	3030	3030	3030	3030	3030	3030	3044	3044	3044	3051	3051	3051	3058	3072	3072	3080	3087	3087	3087	3087	3087	3094	3109	3109	3109	3109	3109	3116	3131	3131	3139	3139	3139	3161	3161	3169	3192	3192	3216	3232	3232	3248	3256	3256	3264	3272	3272	3280	3280	3280	3280	3280	3272	3272	3272	3264	3264	3264	3256	3256	3256	3256	3248	3248	3248	3248	3248	3248	3248	3248	3248	3248	3248	3248	3248	3248	3248	3248	3240	3240	3240	3232	3232	3232	3232	3232	3216	3208	3208	3192	3184	3169	3169	3161	3161	3161	3154	3139	3139	3131	3131	3131	3131	3131	3131	3131	3131	3139	3139	3154	3161	3161	3184	3208	3208	3224	3240	3240	3256	3264	3264	3264	3272	3272	3280	3280	3280	3288	3288	3288	3288	3288	3288	3288	3288	3288	3288	3288	3288	3288	3288	3288	3288	3297	3297	3297	3297	3297	3297	3297	3297	3288	3288	3288	3280	3280	3272	3272	3272	3264	3264	3264	3264	3264	3264	3264	3264	3264	3264	3264	3264	3264	3264	3272	3272	3272	3272	3272	3272	3280	3280	3280	3272	3272	3272	3272	3272	3272	3264	3264	3264	3256	3256	3256	3240	3240	3232	3224	3208	3208	3192	3169	3169	3161	3154	3154	3139	3131	3131	3116	3116	3109	3109	3094	3087	3087	3072	3065	3065	3058	3051	3051	3044	3030	3016	3016	2988	2954	2896	2896	2839	2809	2809	0	0	2655	2628	2607	2607	2581	2566	2551	2551	2532	2512	2512	2493	2488	2479	2479	2469	2460	2460	2446	2428	2401	2401	2384	2367	2367	2354	2350	2341	2341	2333	2329	2329	2321	2308	2308	2292	2280	2264	2264	2245	2233	2222	2222	2215	2207	2207	2203
1911	1911	1911	1916	1916	1922	0	1933	1933	1953	1953	1971	1971	0	0	0	0	0	0	0	0	0	2170	2170	2163	2163	2163	2163	2160	2156	2156	2156	2149	2149	2149	2149	2149	2149	2146	2146	2146	2146	2146	2146	2139	2139	2139	2139	2135	2135	2135	2128	2128	2125	2125	2125	2121	2121	2121	2118	2114	2114	2114	2114	2114	2114	2118	2118	2118	2121	2121	2125	2125	2128	2128	2128	2135	2135	2135	2139	2139	2139	2139	2146	2146	2146	2146	2146	2146	2146	2146	2146	2146	2146	2146	2146	2139	2139	2139	2139	2139	2146	2146	2146	2146	2146	2146	2146	2146	2146	2146	2146	2146	2146	2146	2146	2146	2146	2146	2149	2149	2149	2156	2156	2156	2160	2160	2160	2163	2163	2163	2163	2163	2163	2170	2174	2174	2174	2181	2181	2181	2185	2185	2189	2189	2189	2192	2192	2192	2196	2196	2196	2200	2200	2200	2200	2200	2200	2203	2203	2203	2203	2203	2203	2203	2203	2203	2203	2203	2203	0	0	0	0	0	0	0	0	0	0	0	0	0	2200	2200	2200	2203	2203	2203	2203	2203	2203	2203	2207	2207	2207	2207	2207	2207	2207	2207	2207	2207	2207	2207	2207	2207	2207	2207	2207	2207	2203	2203	2203	2203	2203	2203	2203	2203	2203	2203	2203	2200	2200	2200	2200	2200	2200	2200	2200	2203	2203	2203	2203	2203	2207	2207	2207	2207	2207	2211	2211	2211	2211	2211	2211	2211	2211	2211	2211	2211	2211	2211	2211	2215	2215	2215	0	0	0	0	0	0	0	3154	3154	3154	3154	3154	3161	3161	3169	3169	3169	3184	3184	3184	3184	3184	3184	3169	3169	3161	3154	3139	3139	3131	3109	3109	3094	3087	3087	3080	3072	3072	3072	3065	3065	3065	3065	3072	3080	3080	3094	3109	3116	3139	3139	3161	3192	3192	3208	3232	3232	3240	3248	3248	3256	3256	3256	3264	3264	3264	3264	3264	3264	3264	3264	3264	3264	3264	3256	3256	3256	3256	3248	3248	3240	3232	3232	3232	3224	3224	3224	3224	3216	3216	3216	3208	3208	3208	3208	3208	3192	3184	3184	3184	3169	3161	3161	3154	3139	3139	3131	3116	3116	3116	3116	3131	3131	3131	3139	3139	3154	3161	3161	3169	3192	3192	3184	3184	3169	3161	3161	3154	3139	3131	3131	3116	3116	3116	3094	3087	3087	3080	3065	3065	3051	3051	3044	3044	3044	3044	3044	3037	3037	3037	3037	3037	3037	3037	3037	3037	3037	3044	3044	3044	3044	3051	3051	3065	3080	3080	3087	3109	3109	3116	3131	3131	3139	3139	3139	3139	3139	3139	3131	3131	3116	3094	3094	3094	3080	3080	3072	3072	3072	3072	3072	3087	3087	3094	3109	3109	3116	3131	3131	3131	3131	3131	3116	3094	3094	3080	3065	3065	3058	3051	3051	3044	3044	3044	3037	3030	3030	3030	3030	3030	3030	3030	3030	3030	3030	3030	3030	3030	3044	3044	3044	3051	3051	3051	3058	3072	3072	3080	3087	3087	3087	3087	3087	3094	3109	3109	3109	3109	3109	3116	3131	3131	3139	3139	3139	3161	3161	3169	3192	3192	3216	3232	3232	3248	3256	3256	3264	3272	3272	3280	3280	3280	3280	3280	3272	3272	3272	3264	3264	3264	3256	3256	3256	3256	3248	3232	3232	3224	3224	3232	3232	3232	3232	3232	3232	3232	3232	3224	3224	3224	3224	3224	3224	3216	3216	3216	3216	3216	3208	3192	3192	3184	3169	3161	3161	3154	3139	3139	3131	3131	3131	3116	3109	3109	3109	3109	3109	3109	3116	3116	3116	3131	3139	3139	3161	3184	3184	3208	3224	3224	3248	3256	3256	3264	3272	3272	3272	3280	3280	3280	3288	3280	3280	3288	3288	3288	3288	3288	3272	3272	3272	3272	3272	3272	3272	3272	3272	3272	3272	3272	3272	3272	3272	3264	3264	3264	3264	3264	3256	3256	3256	3248	3248	3248	3248	3248	3256	3256	3256	3256	3256	3256	3264	3264	3264	3272	3272	3272	3272	3272	3272	3272	3272	3272	3272	3272	3272	3264	3264	3264	3264	3264	3256	3256	3256	3240	3232	3232	3224	3208	3192	3192	3169	3161	3161	3154	3139	3139	3131	3116	3109	3109	3109	3094	3094	3087	3080	3080	3072	3065	3065	3051	3051	3051	3044	3023	3009	3009	2975	2915	2864	2864	2827	2791	2791	2671	2671	2649	2628	2602	2602	2581	2566	2551	2551	2532	2512	2512	2493	2488	2479	2479	2469	2460	2460	2446	2428	2401	2401	2384	2367	2367	2354	2350	2341	2341	2333	2329	2329	2329	2321	2321	2304	2292	2268	2268	2245	2233	2222	2222	2215	2207	2207	2203
1911	1911	1913	1919	1919	1925	0	1942	1942	1953	1953	1971	1971	0	0	0	0	0	0	0	0	0	2170	2170	2163	2163	2163	2163	2160	2156	2156	2156	2149	2149	2149	2149	2149	2149	2146	2146	2146	2146	2146	2128	2128	2128	2128	2128	2125	2125	2125	2121	2121	2121	2118	2118	2118	2114	2114	2114	2111	2111	2111	2111	2111	2111	2114	2114	2118	2118	2118	2121	2121	2125	2125	2125	2128	2135	2135	2135	2135	2135	2139	2146	2146	2146	2146	2146	2139	2139	2139	2139	2139	2135	2135	2135	2135	2135	2135	2135	2135	2135	2135	2135	2135	2135	2135	2135	2139	2139	2139	2139	2139	2139	2146	2146	2146	2146	2146	2146	2146	2146	2149	2149	2149	2149	2156	2156	2156	2156	2156	2156	2156	2156	2160	2163	2163	2170	2170	2170	2174	2174	2174	2181	2185	2185	2185	2189	2189	2189	2192	2192	2196	2196	2196	2196	2200	2200	2200	2200	2200	2200	2200	2200	2200	2203	2200	2200	2203	2203	0	0	0	0	0	0	0	0	0	0	0	0	0	2200	2200	2200	2203	2203	2203	2203	2203	2203	2203	2203	2203	2203	2203	2203	2203	2203	2203	2203	2203	2203	2203	2203	2203	2203	2203	2203	2203	2203	2203	2200	2200	2200	2200	2196	2196	2196	2196	2196	2196	2196	2196	2192	2192	2192	2192	2196	2196	2196	2200	2200	2200	2203	2203	2203	2203	2203	2207	2207	2207	2207	2207	2207	2211	2211	2211	2211	2211	2211	2211	2211	2215	2215	2215	0	0	0	0	0	0	0	3154	3154	3154	3154	3154	3161	3161	3169	3169	3169	3184	3184	3184	3184	3184	3184	3169	3169	3161	3154	3139	3139	3131	3109	3109	3094	3087	3087	3080	3072	3072	3072	3072	3072	3072	3072	3072	3087	3087	3109	3109	3116	3139	3139	3169	3192	3192	3208	3232	3232	3240	3248	3248	3256	3256	3256	3264	3264	3264	3264	3264	3264	3264	3264	3264	3264	3264	3256	3256	3256	3256	3248	3248	3240	3232	3224	3224	3224	3216	3216	3216	3216	3216	3208	3208	3208	3192	3184	3184	3184	3169	3169	3169	3161	3154	3154	3154	3139	3139	3131	3116	3116	3116	3116	3131	3131	3131	3139	3139	3154	3161	3161	3161	3192	3184	3184	3184	3169	3161	3161	3139	3131	3116	3116	3109	3109	3109	3087	3072	3072	3072	3058	3058	3051	3044	3044	3044	3037	3030	3030	3030	3030	3030	3030	3030	3030	3030	3030	3030	3030	3030	3030	3030	3037	3044	3044	3051	3058	3058	3065	3072	3072	3087	3094	3094	3094	3109	3094	3094	3094	3094	3087	3087	3080	3072	3072	3065	3058	3058	3058	3051	3051	3058	3058	3058	3065	3065	3072	3087	3087	3087	3094	3094	3087	3087	3072	3065	3065	3058	3051	3051	3044	3037	3037	3030	3030	3030	3023	3023	3023	3023	3023	3016	3016	3016	3016	3016	3016	3023	3023	3023	3030	3030	3030	3037	3044	3044	3051	3051	3051	3065	3072	3072	3072	3072	3072	3080	3080	3080	3087	3094	3094	3094	3116	3116	3116	3131	3131	3139	3154	3154	3169	3169	3192	3208	3208	3224	3240	3240	3256	3264	3264	3264	3264	3264	3264	3264	3264	3256	3256	3256	3256	3256	3248	3240	3240	3240	3232	3232	3232	3224	3224	3232	3232	3232	3232	3232	3232	3232	3232	3224	3224	3224	3224	3224	3224	3216	3216	3216	3216	3216	3208	3192	3192	3184	3169	3161	3161	3154	3139	3139	3131	3131	3131	3116	3109	3109	3109	3109	3109	3109	3116	3116	3116	3131	3139	3139	3161	3184	3184	3208	3224	3224	3248	3256	3256	3264	3272	3272	3272	3280	3280	3280	3288	3280	3280	3288	3288	3288	3288	3288	3272	3272	3272	3272	3272	3272	3272	3272	3272	3272	3272	3272	3272	3272	3272	3264	3264	3264	3264	3264	3256	3256	3256	3248	3248	3232	3232	3232	3232	3240	3240	3248	3256	3256	3256	3264	3264	3264	3272	3272	3272	3272	3272	3272	3272	3272	3264	3264	3264	3264	3264	3256	3256	3256	3248	3240	3240	3232	3216	3216	3208	3192	3184	3184	3161	3154	3154	3139	3131	3131	3116	3109	3109	3109	3094	3094	3094	3087	3080	3080	3072	3065	3065	3051	3044	3044	3030	3016	2988	2988	2935	2870	2839	2839	2809	2755	2755	2655	2655	2639	2623	2602	2602	2587	2571	2571	2551	2536	2517	2517	2502	2493	2493	2483	2474	2469	2469	2460	2446	2446	2428	2410	2388	2388	2375	2362	2362	2350	2346	2337	2337	2329	2321	2321	2304	2292	2268	2268	2245	2233	2222	2222	2215	2207	2207	2203
1911	1911	1913	1919	1919	1925	1936	1936	1942	1953	1953	1971	1971	0	0	0	0	0	0	0	0	0	2170	2170	2149	2149	2146	2146	2146	2139	2139	2139	2135	2135	2135	2135	2135	2135	2135	2135	2135	2128	2128	2128	2128	2128	2128	2128	2125	2125	2125	2121	2121	2121	2118	2118	2118	2114	2114	2114	2111	2111	2111	2111	2111	2111	2114	2114	2118	2118	2118	2121	2121	2125	2125	2125	2128	2135	2135	2135	2135	2135	2139	2146	2146	2146	2146	2146	2139	2139	2139	2139	2139	2135	2135	2135	2135	2135	2135	2135	2135	2135	2135	2135	2135	2135	2135	2135	2139	2139	2139	2139	2139	2139	2146	2146	2146	2146	2146	2146	2146	2146	2149	2149	2149	2149	2156	2156	2156	2156	2156	2156	2156	2156	2160	2163	2163	2170	2170	2160	2160	2163	2163	2170	2170	2170	2174	2181	2181	2185	2185	2185	2185	2189	2189	2189	2189	2189	2192	2192	2192	2192	2192	2192	2192	2192	2192	2196	2196	2196	2196	0	0	0	0	0	0	0	0	0	0	0	0	0	0	2203	2200	2200	2200	2200	2200	2200	2203	2203	2200	2200	2203	2203	2200	2200	2200	2200	2200	2200	2200	2200	2200	2200	2200	2200	2196	2196	2196	2196	2196	2196	2196	2192	2192	2192	2189	2189	2189	2189	2189	2189	2189	2189	2189	2189	2192	2192	2192	2196	2196	2196	2200	2200	2200	2200	2200	2200	2203	2203	2203	2203	2203	2203	2207	2207	2207	2207	2207	2207	2207	2211	2211	0	0	0	0	0	0	0	3131	3131	3131	3131	3139	3139	3139	3154	3154	3154	3161	3161	3161	3161	3161	3161	3154	3139	3139	3139	3116	3116	3116	3094	3094	3087	3080	3080	3080	3072	3072	3072	3072	3072	3072	3072	3072	3087	3087	3109	3109	3116	3139	3139	3161	3184	3184	3208	3216	3216	3232	3232	3232	3240	3248	3248	3248	3256	3256	3256	3256	3256	3256	3256	3256	3256	3256	3256	3248	3248	3248	3240	3240	3232	3232	3224	3224	3224	3216	3216	3216	3216	3216	3208	3208	3208	3192	3184	3184	3184	3169	3169	3169	3161	3154	3154	3154	3139	3139	3131	3116	3116	3116	3116	3131	3131	3131	3139	3139	3154	3161	3161	3161	3192	3184	3184	3184	3169	3161	3161	3139	3131	3116	3116	3109	3109	3109	3087	3072	3072	3072	3058	3058	3051	3044	3044	3044	3037	3030	3030	3030	3030	3030	3030	3030	3030	3030	3030	3030	3030	3030	3030	3030	3037	3044	3044	3051	3058	3058	3065	3072	3072	3087	3094	3094	3094	3109	3094	3094	3094	3094	3087	3087	3051	3051	3051	3051	3044	3044	3044	3044	3044	3044	3044	3044	3044	3044	3051	3051	3051	3065	3065	3058	3058	3058	3058	3051	3051	3044	3037	3037	3030	3023	3023	3023	3016	3016	3016	3016	3016	3016	3009	3009	3009	3009	3009	3009	3009	3009	3016	3016	3016	3023	3023	3030	3030	3030	3044	3044	3044	3051	3051	3051	3051	3058	3058	3058	3065	3065	3065	3080	3080	3080	3094	3094	3094	3109	3109	3131	3131	3131	3154	3154	3161	3184	3184	3192	3216	3216	3232	3240	3240	3256	3256	3256	3256	3256	3256	3256	3256	3248	3248	3248	3240	3232	3224	3224	3224	3216	3216	3216	3216	3216	3216	3216	3216	3216	3216	3216	3216	3216	3216	3216	3216	3216	3216	3208	3208	3208	3208	3208	3208	3192	3192	3184	3169	3154	3154	3154	3139	3139	3131	3116	3116	3109	3109	3109	3109	3094	3094	3094	3094	3094	3109	3109	3116	3116	3139	3161	3161	3184	3192	3192	3224	3240	3240	3248	3256	3256	3264	3272	3272	3272	3272	3272	3272	3272	3272	3272	3272	3272	3264	3264	3264	3264	3264	3256	3256	3256	3256	3256	3256	3256	3248	3248	3248	3248	3248	3240	3240	3232	3232	3232	3224	3224	3224	3224	3232	3232	3232	3240	3240	3248	3256	3256	3256	3264	3264	3264	3272	3272	3272	3272	3272	3272	3272	3272	3264	3264	3264	3264	3264	3256	3256	3256	3248	3240	3240	3232	3216	3216	3208	3192	3184	3184	3161	3154	3154	3139	3131	3131	3116	3109	3109	3109	3094	3094	3094	3087	3080	3080	3072	3065	3065	3051	3044	3044	3030	3016	2988	2988	2935	2870	2839	2839	2809	2755	2755	2655	2655	2639	2623	2602	2602	2587	2571	2571	2561	2546	2522	2522	2507	2498	2498	2493	2488	2479	2479	2474	2465	2465	2451	2433	2433	2419	2401	2388	2388	2371	2358	2358	2350	2337	2333	2333	2321	2304	2280	2280	2253	2233	2222	2222	2215	2207	2207	2200
