2230	2204	2191	2178	2165	2153	2141	2128	2116	2116	2116	2116	2116	2128	2141	2141	2153	2165	2165	2191	2191	2204	2217	2230	2243	2257	2270	2270	2284	2284	2298	2298	2284	2284	2284	2270	2270	2257	2257	2257	2270	2284	2298	2327	2371	2386	2417	2448	2464	2497	2514	2531	2548	2566	2566	2583	2601	2620	2620	2620	2620	2620	2620	2601	2583	2566	2548	2531	2514	2497	2464	2464	2448	2432	2417	2401	2401	2401	2401	2386	2386	2386	2386	2386	2386	2386	2386	2386	2386	2417	2464	2514	2601	2676	2754	2817	2882	2950	2997	3021	3046	3046	3046	3046	3046	3046	3070	3070	3122	3175	3202	3257	3315	3375	3437	3469	3469	3405	3375	3345	3286	3229	3202	3202	3202	3202	3202	3229	3286	3315	3345	3405	3437	3469	3534	3602	3637	3637	3673	3709	3746	3784	3784	3822	3862	3902	3985	4028	4072	4072	4116	4116	4116	4116	4072	3985	3985	4028	3985	3985	3985	3943	3943	3943	3943	3943	3985	3985	4028	4028	4072	4116	4116	4162	4209	4209	4257	4257	4257	4306	4306	4356	4356	4356	4356	0	0	0	0	0	0	0	0	0	0	0	0	0	0	0	0	0	598	597	596	596	595	593	592	591	590	589	587	585	584	583	582	580	579	578	577	576	576	576	576	577	577	577	577	578	579	580	581	581	582	582	583	583	583	583	583	583	583	583	582	582	581	580	580	580	580	580	580	580	580	580	579	579	579	580	580	580	581	582	583	584	586	588	589	591	593	594	595	595	595	594	593	592	591	590	589	589	589	6141	6042	5946	5853	5853	5763	5676	5591	5591	5591	5676	5853	5946	6042	6141	6243	6349	6459	6459	6459	6459	6459	6459	6459	6459	6459	6572	6572	6572	6689	6689	6689	6689	6572	6459	6349	6349	6243	6243	6141	6042	5946	5946	5946	5946	5946	6042	6042	6042	6141	6141	6243	6243	6141	6042	5946	5853	5853	5763	5676	5676	5591	5509	5429	5429	5351	5351	5276	5276	5276	5276	5351	4625	4625	0	0	2620	2620	0	0	0	0	0	0	0	0	0	0	1012	1010	1007	1007	1007	1002	999	996	994	991	988	986	986	986	986	986	986	986	986	986	986	986	986	983	981	981	978	978	981	981	981	981	983	983	986	988	991	991	994	996	999	1002	1007	1007	1007	1010	1010	1010	1010	1010	1007	1004	1002	996	994	991	986	983	976	968	958	948	937	920	905	890	875	867	859	848	834	831	831	0	799	799	0	0	0	0	596	594	594	594	593	592	592	592	593	593	593	593	593	593	593	593	593	593	593	593	592	592	591	591	590	589	587	586	585	583	583	582	581	580	580	580	580	580	580	580	580	581	581	581	581	581	581	582	583	585	586	588	591	592	594	596	596	596	595	595	595	595	595	595	595	595	595	596	597	602	0	0	0	0	0	0	0	0	0	0	0	0	0	0	0	0	0	0	0	0	0	0	0	0	0	0	0	0	0	0	937	934	932	930	927	927	927	932	939	946	953	961	970	978	986	991	996	1002	1004	1007	1007	1010	1010	1012	1012	1012	1015	1018	1018	1021	1023	1023	1023	1026	1026	1026	1029	1029	1032	1035	1035	1041	1046	1049	1055	1061	1064	1070	1073	1080	1083	1086	0	0	0	3746	3746	3746	3746	3746	3746	3746	3746	3746	3746	3746	3784	3784	3822	3902	3985	4116	4306	4513	4742	4995	0	0	0	0	0	0	0	0	0	0	0	0	0	0	0	0	0	0	0	0	0	0	0	0	0	547	547	547	547	545	545	544	543	541	539	537	535	533	531	529	527	525	522	520	517	515	513	512	510	508	507	506	504	503	502	500	497	494	492	489	486	483	482	480	479	478	478	477	477	478	478	478	478	480	481	482	483	485	486	486	488	488	488	488	486	485	483	481	478	475	474	473	473	473	474	476	479	483
2204	2191	2178	2165	2153	2141	2141	2128	2116	2116	2116	2128	2128	2141	2141	2153	2165	2178	2178	2204	2204	2217	2230	2230	2243	2257	2270	2270	2284	2284	2284	2298	2284	2284	2270	2270	2270	2257	2257	2257	2270	2270	2298	2327	2356	2386	2417	2432	2464	2481	2514	2531	2531	2548	2566	2566	2583	2601	2601	2601	2601	2601	2583	2583	2566	2566	2566	2531	2514	2514	2497	2481	2464	2448	2432	2417	2417	2401	2401	2386	2386	2386	2386	2386	2386	2386	2386	2386	2386	2417	2448	2514	2583	2657	2754	2838	2904	2973	3046	3046	3070	3070	3070	3070	3070	3070	3070	3070	3122	3175	3202	3257	3286	3375	3405	3437	3437	3405	3375	3345	3286	3229	3202	3202	3202	3202	3202	3229	3257	3286	3345	3375	3405	3469	3501	3534	3602	3602	3637	3637	3673	3709	3746	3784	3822	3862	3943	3985	4028	4072	4116	4116	4116	4116	4072	4028	4028	4028	4028	4028	4028	4028	3985	3985	4028	4028	4072	4072	4116	4162	4209	4257	4306	4306	4306	4306	4306	4356	4356	4407	4407	4407	4407	4407	4460	4568	0	0	0	0	0	0	0	0	0	0	0	0	0	0	0	0	598	596	596	595	595	593	592	590	589	588	586	585	583	583	581	580	579	578	577	576	576	576	576	577	577	577	578	579	580	581	582	583	583	583	584	584	584	584	583	583	583	583	583	582	581	581	580	580	580	580	580	580	580	580	579	579	579	579	580	580	581	581	582	583	584	587	588	590	592	593	594	595	594	593	593	592	591	590	589	589	588	588	5946	5853	5853	5763	5676	5676	5591	5591	5591	5676	5763	5946	6042	6141	6243	6349	6459	6459	6459	6459	6459	6459	6459	6459	6459	6572	6572	6572	6689	6689	6689	6689	6572	6459	6349	6349	6243	6243	6243	6042	6042	5946	5946	5946	5946	6042	6042	6141	6141	6141	6243	6243	6243	6042	6042	5946	5853	5853	5763	5676	5591	5509	5429	5429	5351	5351	5351	5351	5351	5351	5351	4568	4568	0	0	2754	2754	0	0	0	0	0	0	0	0	0	0	1021	1010	1007	1004	1004	1002	999	996	994	991	988	986	986	986	986	986	986	986	986	986	986	986	986	983	983	981	981	981	981	981	981	983	986	986	988	988	991	991	994	996	999	999	1002	1004	1004	1004	1004	1004	1002	1002	999	994	991	988	986	983	981	976	970	965	958	948	937	923	909	896	883	873	863	851	836	836	0	0	708	708	0	0	0	597	596	594	594	594	593	592	592	592	592	593	593	593	593	593	593	593	593	593	592	592	592	592	591	590	590	589	588	586	585	584	583	582	581	581	581	580	580	580	580	580	580	580	580	580	581	580	580	581	582	583	584	585	587	589	592	594	595	595	595	595	594	594	594	594	594	594	594	596	596	0	0	0	0	0	0	0	0	0	0	0	0	0	0	0	0	0	0	0	0	0	0	0	0	0	0	0	0	930	925	923	920	920	920	918	916	916	916	920	925	930	937	941	951	956	963	973	981	986	991	996	999	1004	1007	1012	1012	1012	1015	1018	1021	1021	1023	1026	1026	1026	1029	1029	1029	1029	1032	1035	1038	1043	1046	1049	1055	1061	1064	1070	1073	1080	1083	0	0	0	0	3784	3784	3784	3784	3784	3746	3746	3746	3746	3746	3784	3784	3822	3862	3902	4028	4162	4356	4568	4865	4995	5132	5132	5132	0	0	0	0	0	0	0	0	0	0	0	0	0	0	0	0	0	0	0	0	0	0	548	548	548	547	546	546	545	544	541	540	537	536	534	532	530	528	526	523	521	519	517	515	512	510	509	508	506	505	503	502	499	497	494	492	489	486	483	482	480	479	478	477	477	477	477	477	478	478	479	480	481	483	485	485	486	487	488	488	487	486	485	483	481	478	476	474	473	473	473	474	477	479	483
2191	2178	2178	2165	2153	2141	2141	2128	2128	2128	2128	2128	2128	2141	2153	2165	2165	2178	2191	2204	2217	2217	2230	2230	2243	2257	2270	2270	2284	2284	2284	2284	2284	2284	2270	2270	2270	2257	2257	2257	2270	2270	2298	2327	2356	2386	2401	2432	2464	2481	2497	2514	2531	2531	2531	2548	2566	2566	2566	2566	2583	2583	2566	2566	2566	2548	2548	2531	2514	2514	2497	2481	2464	2448	2448	2432	2432	2432	2417	2417	2417	2417	2401	2401	2386	2386	2386	2401	2401	2401	2448	2497	2583	2657	2754	2838	2904	2973	3046	3070	3096	3096	3070	3070	3070	3070	3070	3096	3122	3175	3229	3257	3286	3345	3405	3437	3437	3375	3375	3315	3286	3229	3229	3202	3202	3202	3202	3229	3257	3286	3315	3345	3375	3437	3469	3501	3568	3568	3568	3602	3602	3637	3673	3709	3746	3822	3862	3943	3985	4028	4072	4116	4116	4162	4116	4072	4072	4072	4116	4116	4116	4072	4072	4072	4116	4116	4162	4209	4257	4306	4306	4356	4407	4407	4407	4407	4407	4407	4407	4460	4513	4513	4513	4513	4513	4568	0	0	0	0	0	0	0	0	0	0	0	0	0	0	0	602	600	596	596	595	594	592	591	590	588	587	585	584	583	582	581	580	579	578	577	577	576	576	577	577	577	578	579	580	581	582	583	583	584	585	586	586	585	585	584	584	583	583	583	582	582	581	580	580	580	580	580	580	580	580	580	579	579	579	580	580	581	581	582	583	584	587	588	590	592	593	594	595	594	593	593	592	591	590	589	589	588	588	5946	5853	5853	5763	5676	5676	5591	5591	5591	5676	5763	5946	6042	6141	6243	6349	6459	6459	6459	6459	6459	6459	6459	6459	6572	6572	6572	6689	6689	6811	6811	6811	6689	6572	6459	6459	6459	6349	6243	6141	6042	5946	5946	5946	5946	6042	6042	6042	6042	6141	6141	6243	6243	6141	6042	6042	5946	5853	5853	5676	5591	5509	5509	5429	5351	5351	5351	5351	5351	5429	5429	4513	4513	0	0	2796	2796	0	0	0	0	0	0	0	0	0	0	0	1012	1010	1004	1004	1004	1002	996	994	991	988	988	988	986	986	986	986	986	986	986	988	988	986	986	983	983	983	983	983	983	986	986	988	988	988	988	991	994	994	999	999	999	1002	1002	1002	999	999	996	996	994	991	988	983	978	976	976	973	970	965	961	956	951	941	930	918	905	894	883	873	853	853	0	0	0	708	708	616	616	0	597	596	594	594	593	592	592	591	591	592	593	593	593	593	593	593	593	593	593	592	592	592	592	592	590	590	589	588	587	586	585	583	582	581	581	580	580	579	579	579	579	579	579	579	579	580	579	579	580	582	582	583	585	587	589	591	594	595	594	594	594	593	593	593	593	594	594	594	595	596	596	0	0	0	0	0	0	0	0	0	0	0	0	0	0	0	0	0	0	0	0	0	0	0	0	0	0	925	918	918	914	914	911	911	909	909	909	909	911	916	918	925	930	937	944	948	958	965	973	981	988	994	999	1007	1012	1012	1012	1018	1021	1023	1023	1026	1026	1026	1029	1029	1029	1032	1032	1035	1038	1041	1043	1049	1052	1055	1061	1064	1070	1073	1080	1083	0	0	0	0	3822	3784	3784	3784	3784	3784	3784	3784	3784	3784	3822	3862	3862	3902	3943	4072	4257	4407	4625	4865	5062	5132	5132	5132	5132	0	0	0	0	0	0	0	0	0	0	0	0	0	0	0	0	0	0	0	0	0	0	549	548	548	547	547	546	544	543	541	539	537	535	533	531	529	527	525	522	520	517	516	514	512	510	508	507	506	503	502	499	497	495	492	489	486	484	482	480	479	478	477	477	477	477	477	477	478	479	480	481	483	485	485	486	486	487	487	486	485	485	483	481	478	477	474	474	474	474	475	477	480	483
2191	2178	2178	2165	2153	2141	2141	2128	2128	2128	2128	2141	2141	2141	2165	2165	2178	2191	2204	2204	2217	2217	2243	2243	2257	2257	2270	2270	2284	2284	2298	2284	2284	2284	2270	2270	2270	2257	2257	2257	2270	2270	2298	2327	2356	2386	2401	2432	2448	2464	2481	2497	2497	2514	2514	2514	2514	2514	2514	2514	2531	2531	2566	2566	2566	2548	2548	2531	2514	2514	2497	2481	2464	2448	2448	2448	2432	2432	2432	2432	2432	2432	2432	2417	2417	2401	2401	2401	2401	2401	2448	2497	2583	2657	2754	2838	2927	2997	3070	3096	3096	3096	3096	3096	3070	3070	3070	3096	3122	3175	3229	3257	3286	3315	3375	3405	3405	3375	3315	3315	3286	3257	3229	3202	3202	3202	3202	3229	3257	3286	3315	3345	3375	3405	3437	3469	3501	3534	3534	3568	3568	3602	3637	3637	3673	3746	3862	3943	3943	3985	4072	4116	4209	4209	4162	4162	4162	4162	4162	4162	4209	4209	4162	4162	4209	4209	4306	4306	4356	4407	4407	4460	4460	4513	4513	4513	4513	4513	4513	4513	4568	4568	4568	4568	4625	0	0	0	0	0	0	0	0	0	0	0	0	0	0	0	0	602	600	598	596	595	593	591	590	588	587	586	585	583	583	582	581	580	579	578	577	577	577	577	577	577	578	578	579	581	582	583	584	585	586	587	587	587	587	586	585	585	584	583	583	582	582	581	580	580	580	580	580	580	580	580	580	580	580	580	580	581	581	582	583	584	585	587	589	590	592	593	595	595	595	594	593	592	592	591	590	590	589	589	6042	5946	5946	5853	5763	5676	5676	5676	5763	5763	5853	5946	6141	6243	6349	6349	6459	6459	6459	6459	6459	6459	6459	6572	6689	6689	6689	6811	6811	6937	6937	6811	6811	6572	6572	6459	6459	6349	6243	6141	6042	5946	5946	5946	5946	5946	5946	5946	6042	6042	6141	6243	6141	6141	6042	6042	6042	5946	5853	5763	5676	5591	5509	5509	5429	5429	5429	5429	5509	5509	5509	4513	4513	0	0	2796	2796	0	0	0	0	0	0	0	0	0	0	0	1015	1012	1007	1007	1007	1002	999	996	994	991	991	988	988	988	988	988	988	986	986	988	988	988	988	986	986	986	986	988	988	988	991	991	991	991	991	994	994	999	999	1002	1002	1002	1002	1002	999	996	994	991	988	986	981	978	973	973	970	970	970	965	961	956	953	946	937	927	918	907	896	896	0	0	0	0	667	667	0	616	616	0	597	596	594	593	592	592	592	591	591	592	593	593	593	593	593	593	593	593	593	593	593	593	592	592	591	591	590	588	587	586	585	583	583	581	581	580	579	579	579	579	579	579	579	579	579	579	579	579	580	582	582	583	585	587	588	590	595	594	593	593	593	593	593	593	593	593	593	593	595	595	596	0	0	0	0	0	0	0	0	0	0	0	0	0	0	0	0	0	0	0	0	0	0	0	0	0	0	925	918	918	914	914	911	911	909	909	909	909	911	916	918	925	930	937	944	948	958	965	973	981	988	994	999	1007	1012	1015	1018	1021	1023	1026	1029	1029	1029	1029	1032	1032	1032	1035	1035	1038	1041	1046	1049	1052	1055	1055	1061	1064	1070	1073	1076	0	0	0	3862	3862	3822	3822	3822	3822	3822	3822	3822	3822	3822	3822	3862	3902	3943	3985	4028	4162	4356	4513	4995	4995	5062	5062	5132	5132	5062	5062	0	0	0	0	0	0	0	0	0	0	0	0	0	0	0	0	0	0	0	0	0	550	549	549	548	548	547	545	544	541	540	538	536	534	532	530	528	525	523	521	518	516	515	512	510	509	507	506	503	502	500	497	495	492	489	486	484	483	481	480	478	477	477	477	477	477	477	478	479	481	482	483	484	485	485	486	486	486	485	485	484	483	481	479	477	476	475	475	475	476	478	480	485
2191	2178	2178	2165	2153	2141	2141	2141	2141	2141	2141	2141	2141	2165	2165	2178	2191	2204	2204	2217	2230	2230	2243	2243	2257	2257	2270	2270	2284	2284	2298	2298	2298	2284	2284	2270	2270	2270	2270	2270	2284	2284	2312	2327	2371	2386	2401	2417	2432	2448	2481	2497	2497	2514	2514	2514	2514	2514	2514	2514	2531	2531	0	0	0	0	0	0	0	0	0	0	0	0	0	0	0	0	0	0	0	0	0	0	0	0	0	2401	2401	2401	2448	2497	2583	2676	2775	2860	2927	3021	3070	3096	3096	3096	3096	3096	3070	3070	3070	3096	3122	3175	3229	3257	3286	3315	3375	3405	3405	3345	3315	3315	3286	3257	3229	3202	3202	3202	3202	3229	3257	3286	3315	3315	3375	3405	3437	3469	3501	3534	3534	3568	3568	3602	3637	3637	3673	3746	0	3943	3943	3985	0	0	0	4209	4209	4209	4209	4209	4209	4209	4209	4209	4209	4209	4257	4306	4356	4407	4460	4513	4513	4513	4568	4568	4568	4568	4568	4568	4568	4568	4625	4625	4625	4625	4683	0	0	0	0	0	0	0	0	0	0	0	0	0	0	0	0	0	603	600	596	594	592	590	588	587	586	585	584	583	582	581	581	580	579	578	578	577	577	577	577	577	578	579	581	582	583	584	586	587	588	589	589	589	588	587	587	585	585	584	583	582	582	581	580	580	580	580	580	581	581	581	581	581	581	581	582	582	582	583	583	584	586	588	590	591	593	594	595	596	596	596	595	594	593	593	592	592	591	591	5853	5853	5763	5763	5763	5763	5763	5763	5853	5853	5946	6042	6141	6243	6349	6459	6459	6459	6459	6459	6459	6572	6572	6689	6811	6937	6937	6937	6937	6937	6937	6937	6811	6572	6459	6459	6349	6243	6243	6042	6042	5946	5946	5946	5946	5946	5946	5946	5946	5946	6042	6141	6141	6042	6042	6042	6042	5946	5853	5763	5763	5676	5676	5591	5509	5509	5509	5509	5509	5509	5591	4625	4625	0	0	2882	2882	0	0	0	0	0	0	0	0	0	0	0	1021	1018	1015	1012	1012	1010	1002	999	999	996	996	994	994	994	994	994	994	991	991	994	994	991	991	991	991	991	991	994	994	994	994	994	994	996	996	996	999	1002	1002	1002	1004	1002	1002	999	996	994	991	986	983	981	976	973	970	968	968	970	970	968	965	963	961	953	946	941	932	932	0	0	0	0	0	0	667	622	619	613	608	608	597	596	594	593	592	592	592	592	592	593	594	594	593	593	593	593	593	593	593	593	593	593	593	592	592	591	590	589	588	586	585	584	583	582	581	580	579	579	579	579	579	579	579	579	579	579	579	580	580	582	583	584	586	588	588	590	595	594	593	593	593	592	592	592	592	592	592	592	593	595	0	0	0	0	0	0	0	0	0	0	0	0	0	0	0	0	0	0	0	0	0	0	0	0	0	0	0	937	927	923	916	914	914	911	909	909	911	911	914	916	923	927	934	939	946	951	961	968	976	983	988	996	1004	1010	1018	1021	1023	1026	1029	1032	1032	1035	1035	1035	1035	1035	1038	1038	1041	1043	1046	1049	1052	1055	1055	1061	1064	1067	1070	1073	1076	0	0	0	3862	3862	3862	3862	3862	3862	3822	3822	3862	3862	3862	3862	3902	3985	4028	4072	4116	4209	4407	0	0	5062	5062	4929	4929	4929	4929	4929	0	0	0	0	0	0	0	0	0	0	0	0	0	0	0	0	0	0	0	0	0	551	551	549	548	548	547	546	544	542	541	539	537	535	533	530	528	525	522	520	518	516	515	512	511	509	508	506	503	502	500	497	495	492	489	486	484	483	481	479	478	477	477	477	477	477	477	478	479	481	482	483	484	484	485	485	485	485	484	484	483	483	481	480	478	477	476	476	477	478	480	483	487
2191	2178	2178	2165	2165	2153	2141	2141	2141	2141	2141	2153	2165	2165	2178	2191	2204	2204	2217	2230	2230	2243	2243	2243	2257	2270	2270	2284	2284	2284	2284	2298	2298	2298	2284	2284	2284	2284	2284	2284	2284	2298	2312	2341	2371	2386	2401	2417	2432	2448	0	0	0	0	0	0	0	0	0	0	0	0	0	0	0	0	0	0	0	0	0	0	2531	2497	2497	2481	2481	2481	2481	2497	2497	2497	2514	2514	2497	2464	2464	0	0	0	0	0	0	0	0	2950	2950	3046	3096	3122	3122	3096	3096	3096	3096	3096	3096	3096	3122	3175	3229	3257	3286	415	414	414	414	3345	3315	3315	3286	3257	3229	3229	3229	3229	3229	3229	417	417	417	417	416	416	416	416	416	416	416	417	419	419	420	420	421	422	422	423	423	423	423	422	422	421	421	421	421	420	420	420	421	421	0	0	4306	4306	4407	4460	4513	4568	4568	4568	4568	4568	4568	4568	4568	4568	4568	4625	4625	4625	4625	4683	4683	0	0	0	0	0	0	0	0	0	0	0	0	0	0	0	613	613	605	599	596	593	591	589	587	586	585	585	584	583	582	581	581	580	579	579	578	578	578	578	578	578	578	580	581	583	584	586	588	589	590	591	591	590	589	588	587	586	585	584	583	582	581	581	580	580	580	581	581	581	581	581	581	582	582	582	582	583	583	583	584	586	587	589	590	592	593	594	595	596	596	596	596	595	595	594	593	593	594	5763	5763	5763	5763	5763	5763	5763	5853	5853	5946	5946	6042	6141	6243	6349	6459	6459	6459	6459	6459	6459	6572	6572	6689	6689	6937	6937	6937	7068	7068	7068	6937	6811	6689	6572	6459	6349	6243	6243	6141	6042	5946	5946	5946	5946	5946	5946	5946	5946	5946	5946	6042	6042	6042	6042	6042	6042	6042	6042	5946	5946	5853	5763	5763	5676	5676	5591	5591	5591	5591	5591	5591	4742	4742	0	0	3070	3070	0	0	0	0	0	0	0	0	0	0	0	1026	1023	1021	1018	1012	1012	1007	1004	1004	1004	1002	1002	1002	999	999	999	996	996	996	996	996	996	996	996	996	996	999	999	999	999	1002	1002	1002	1002	1002	1002	1007	1007	1007	1007	1004	1004	1002	999	994	991	986	981	981	976	973	970	968	968	968	970	970	970	970	968	965	963	958	953	944	944	0	0	0	0	0	0	621	619	616	612	607	602	598	596	594	593	593	592	592	592	592	593	594	594	594	594	594	594	594	593	593	593	593	592	592	592	592	591	590	590	588	587	585	584	583	582	581	580	579	579	579	579	579	580	580	580	580	581	581	581	582	583	584	586	587	589	589	591	594	594	592	592	591	591	591	591	591	591	590	590	593	0	0	0	0	0	0	0	0	0	0	0	0	0	0	0	0	0	0	0	0	0	0	0	0	0	0	0	0	963	951	941	934	927	920	918	916	916	916	916	918	923	927	932	937	946	951	958	965	973	981	986	994	1002	1007	1015	1023	1026	1029	1032	1035	1041	1041	1041	1041	1041	1041	1041	1041	1043	1046	1049	1052	1052	1052	1055	1058	1061	1064	1067	1070	1073	0	0	0	0	3902	3902	3902	3902	3862	3862	3862	3862	3862	3902	3902	3902	3943	4028	4072	4116	4162	4257	0	0	0	0	0	4929	4865	4865	4865	4865	0	0	0	0	0	0	0	0	0	0	0	0	0	0	0	0	0	0	0	0	0	551	551	549	548	548	547	546	545	543	541	540	537	535	532	530	528	525	522	520	517	516	514	512	511	510	508	506	503	502	500	497	494	491	488	485	483	481	480	479	477	477	477	477	477	477	477	477	478	479	480	481	482	483	483	483	483	483	483	482	482	481	481	480	479	478	478	478	478	480	481	485	489
2191	2191	2178	2178	2165	2153	2153	2153	2153	2153	2153	2165	2165	2178	2191	2191	2217	2230	2230	2230	2243	2243	2257	2257	2257	2270	2270	2284	2284	2284	2284	2298	2298	2298	2298	2284	2284	2284	2284	2298	2298	2312	0	0	0	0	0	0	0	0	0	0	0	0	0	0	0	0	0	0	0	0	0	0	0	0	0	0	0	2676	2620	2583	2531	2497	2497	2481	2481	2481	2481	2497	2497	2497	2514	2514	2497	2464	2448	2448	0	0	0	0	0	0	0	0	0	3122	3122	3148	3148	3148	3148	0	0	0	0	0	0	0	0	0	413	413	413	413	413	413	413	413	0	0	0	0	0	0	0	415	415	416	416	416	416	415	415	415	415	416	416	417	418	418	419	419	419	420	420	420	420	420	420	420	420	419	419	419	419	419	419	419	419	420	420	420	0	4407	4407	4460	4568	4568	4568	4513	4513	4568	4568	4568	4568	4568	4625	4625	4625	4625	4625	4683	0	0	0	0	0	0	0	0	0	0	0	0	0	0	0	621	613	609	605	599	595	592	590	588	586	586	585	584	583	583	582	582	581	580	579	579	579	578	578	578	578	579	580	580	583	584	586	588	589	590	592	593	592	591	590	589	588	586	585	583	583	582	581	580	580	580	580	580	581	581	581	582	582	583	583	583	583	583	584	584	585	587	587	589	590	591	592	594	594	596	596	596	596	596	596	595	595	594	594	5676	5676	5676	5676	5676	5676	5763	5763	5853	5946	6042	6042	6243	6243	6349	6459	6459	6459	6459	6459	6572	6572	6689	6689	6811	6937	7068	7068	7068	7068	6937	6811	6689	6572	6459	6349	6243	6141	6141	6042	5946	5946	5946	5946	5946	5946	5853	5853	5853	5853	5946	5946	6042	6042	6042	6042	6042	6042	6042	6042	5946	5946	5946	5853	5853	5763	5763	5763	5763	5676	5676	5676	4865	4865	0	0	3673	3673	0	0	0	0	0	0	0	0	0	0	1061	1035	1029	1026	1026	1021	1021	1018	1012	1010	1010	1007	1007	1010	1007	1007	1004	1004	1002	1002	1002	1002	1004	1004	1004	1004	1007	1007	1010	1010	1010	1007	1007	1010	1010	1015	1015	1018	1018	1015	1012	1010	1007	1002	999	991	986	981	976	976	973	970	970	968	968	968	970	970	976	976	976	976	976	973	965	965	978	0	0	0	0	0	0	617	617	613	611	607	602	598	596	594	594	593	593	592	592	593	594	595	595	595	595	595	594	594	593	593	593	593	592	592	592	591	591	590	590	589	587	586	585	584	583	582	581	581	581	581	581	581	581	581	581	582	582	583	583	583	585	586	588	589	590	591	592	593	593	591	591	590	590	590	590	589	589	589	589	0	0	0	0	0	0	0	0	0	0	0	0	0	0	0	0	0	0	0	0	0	0	0	0	0	1029	1029	1018	1018	986	976	965	956	946	939	934	927	927	925	925	925	930	934	941	946	953	958	965	973	981	986	994	1002	1007	1012	1021	1026	1032	1035	1041	1043	1043	1046	1049	1049	1049	1049	1049	1049	1052	1052	1052	1052	1055	1058	1061	1061	1064	1067	1070	1073	1076	0	0	0	0	3902	3902	3902	3902	3902	3902	3902	3902	3902	3902	3943	3943	3985	4072	4116	4162	4209	4306	4407	0	0	4803	4742	4742	4803	4803	4803	4803	0	0	0	0	0	0	0	0	0	0	0	0	0	0	0	0	0	0	0	0	0	0	551	549	548	547	547	545	544	543	541	539	537	534	532	529	527	524	522	520	517	515	514	512	511	510	508	506	503	502	500	497	494	490	487	484	481	480	479	478	477	477	477	477	477	477	477	477	477	478	479	479	480	480	480	481	481	481	481	480	480	480	480	480	480	479	478	478	480	481	482	486	490
2191	2191	2178	2178	2165	2165	2153	2153	2153	2153	2153	2165	2178	2191	2204	2217	2217	2230	2230	2243	2243	2243	2257	2257	2257	0	0	0	0	0	0	0	0	0	0	0	0	0	0	0	0	0	0	0	0	0	0	0	0	0	0	0	0	0	0	0	0	0	0	0	0	0	0	0	2775	2775	2817	2796	2775	2676	2620	2583	2531	2497	2481	2481	2481	2481	2481	2497	2514	2514	2548	2566	2548	2464	2448	2448	0	0	0	0	0	0	0	0	0	3122	3122	3148	3148	3148	3148	0	0	0	0	0	0	412	412	412	412	412	412	411	411	411	411	411	410	410	411	411	411	413	413	414	414	415	415	415	415	415	415	415	415	415	415	416	416	417	417	417	418	418	419	419	418	418	419	418	418	418	418	418	418	418	418	418	418	419	419	419	420	0	0	4513	4513	4513	4513	4513	4513	4513	4568	4568	4568	4568	4568	4625	4625	4625	4625	0	0	0	0	0	0	0	0	0	0	0	0	0	0	0	0	621	614	609	606	599	594	591	589	587	586	585	584	583	583	583	582	582	581	580	580	580	580	580	580	580	580	580	581	582	583	585	587	589	591	592	593	594	593	592	590	589	587	585	584	583	582	581	581	580	580	580	580	580	581	581	582	582	582	583	583	583	583	584	584	585	585	587	587	589	590	591	592	593	594	595	596	596	596	596	596	596	596	596	596	5591	5591	5591	5676	5676	5676	5763	5763	5853	5946	6042	6141	6243	6349	6349	6459	6459	6572	6572	6572	6572	6689	6689	6689	6937	6937	7068	7068	6937	6937	6811	6689	6572	6349	6243	6141	6042	6042	5946	5946	5946	5853	5853	5853	5853	5853	5853	5853	5853	5853	5946	5946	6042	6042	6042	6042	6042	6141	6141	6141	6141	6141	6042	6042	6042	6042	5946	5853	5853	5853	5763	5763	5062	5062	0	0	4116	4116	0	0	0	0	0	0	0	0	0	0	1061	1041	1035	1032	1029	1026	1021	1021	1018	1015	1015	1015	1015	1015	1015	1012	1012	1010	1007	1007	1007	1007	1007	1010	1010	1010	1010	1012	1015	1015	1015	1015	1015	1018	1021	1026	1029	1026	1026	1023	1021	1012	1007	1002	999	991	986	981	976	976	973	970	970	968	968	968	973	976	978	981	983	986	986	986	983	978	978	0	0	0	0	0	615	614	613	611	610	605	601	598	596	595	593	593	593	592	592	593	595	595	596	596	595	595	594	594	594	593	592	592	591	591	591	590	590	590	589	589	588	587	586	584	583	583	583	582	582	582	582	582	582	583	583	583	584	584	584	585	587	588	589	590	591	591	593	593	592	591	590	589	588	587	587	587	586	586	587	0	0	0	0	0	0	0	0	0	0	0	0	0	0	0	0	0	0	0	0	0	1032	1032	1035	1035	1029	1029	1018	1018	1023	1015	1010	999	965	958	948	944	939	937	934	934	939	941	948	953	961	968	973	981	986	994	999	1007	1010	1015	1023	1029	1038	1041	1043	1049	1052	1055	1055	1058	1058	1058	1058	1058	1061	1055	1055	1058	1061	1064	1064	1067	1070	1070	1070	1073	1076	0	0	0	0	3902	3902	3902	3902	3902	3902	3902	3902	3902	3902	3902	3943	4028	4072	4072	4116	4116	4162	4257	4306	4407	4407	4460	4460	4513	4803	4803	4803	0	0	0	0	0	0	0	0	0	0	0	0	0	0	0	0	0	0	0	0	0	0	0	549	548	547	546	545	544	542	541	538	536	533	531	528	525	523	521	519	517	515	514	512	511	510	508	506	504	503	500	497	494	490	486	483	481	480	478	478	477	477	476	476	477	477	477	477	477	477	477	478	478	478	478	478	478	478	478	478	479	479	479	479	479	478	478	478	480	481	483	486	490
2204	2191	2178	2178	2165	2165	2153	2153	2153	2165	2165	2178	2178	2191	2204	2217	2230	2243	2243	2243	0	0	0	0	0	0	0	0	0	0	0	0	0	0	0	0	0	0	0	0	0	0	0	0	0	398	398	398	398	0	0	0	0	0	0	0	0	0	0	0	0	0	2734	2734	2775	2775	2817	2796	2775	2695	2638	2583	2531	2497	2481	2481	2481	2481	2481	2497	2514	2531	2548	2583	2548	2548	0	0	0	0	0	0	0	0	0	0	0	0	0	0	0	0	0	0	0	0	0	410	410	410	410	411	411	411	411	410	410	410	410	409	409	409	409	409	409	410	410	411	412	413	413	413	414	413	413	413	413	413	414	414	414	414	415	415	415	416	416	416	417	417	417	417	417	417	417	417	417	417	417	417	418	419	419	419	420	420	0	4513	4460	4460	4460	4513	4513	4513	4513	4513	4513	4568	4568	4568	4568	4568	4568	0	0	0	0	0	0	0	0	0	0	0	0	0	0	0	0	622	615	610	606	599	594	590	589	586	585	584	583	583	583	583	582	582	582	581	581	581	581	581	581	581	581	581	582	583	585	587	589	591	592	593	594	593	592	591	589	587	586	585	583	583	582	581	580	579	579	580	580	580	581	581	582	582	583	583	583	583	584	584	584	585	586	587	588	589	590	591	592	593	594	595	596	596	596	596	596	596	596	597	0	5509	5509	5509	5509	5509	5591	5676	5763	5853	5946	5946	6141	6243	6243	6349	6459	6459	6572	6572	6572	6572	6689	6689	6811	6811	6937	6937	6937	6811	6811	6689	6459	6349	6243	6042	5946	5946	5853	5853	5853	5763	5763	5763	5763	5763	5763	5853	5853	5853	5853	5946	5946	6042	6042	6042	6042	6042	6141	6243	6243	6243	6243	6243	6243	6243	6243	6141	6042	5946	5946	5853	5763	5203	5203	5203	0	0	0	0	0	0	0	0	0	0	0	0	0	1070	1043	1038	1038	1035	1029	1023	1023	1021	1021	1021	1021	1021	1021	1021	1018	1018	1015	1010	1010	1012	1012	1012	1015	1015	1015	1015	1018	1021	1023	1023	1023	1026	1029	1032	1035	1035	1038	1035	1029	1026	1015	1010	1004	999	991	983	978	973	973	970	968	968	968	968	970	976	981	986	988	991	994	996	999	999	0	0	0	0	0	0	0	612	611	610	609	607	605	600	598	596	595	593	593	593	593	593	593	595	596	596	596	596	596	595	594	593	593	592	591	591	590	590	590	589	589	589	588	588	587	586	586	585	584	583	583	583	583	583	583	583	584	584	585	585	586	586	588	589	590	591	591	592	592	592	591	590	588	587	587	586	585	585	585	584	584	587	0	0	0	0	0	0	0	0	0	0	0	0	0	0	0	0	0	0	0	0	0	1032	1032	1035	1035	1035	1032	1032	1029	1023	1015	1010	999	991	981	973	963	958	951	948	948	948	951	958	963	970	976	983	988	994	1002	1007	1012	1018	1021	1029	1035	1041	1046	1049	1055	1058	1061	1061	1067	1064	1064	1067	1061	1061	1061	1064	1064	1067	1067	1070	1070	1073	1073	1076	1076	1080	0	0	0	3902	3902	3862	3862	3902	3902	3902	3862	3862	3862	3862	3902	3902	3985	4028	4028	4072	4072	4116	4162	4209	4257	4257	4257	4257	4306	4356	4356	4356	0	0	0	0	0	0	0	0	0	0	0	0	0	0	0	0	0	0	0	0	0	0	0	548	548	546	545	544	542	541	540	537	535	532	530	527	525	522	520	518	516	515	513	512	511	510	509	507	505	503	499	497	493	489	486	483	481	480	478	478	477	477	476	476	477	476	476	476	476	476	476	476	475	475	476	476	477	477	477	477	477	477	478	478	478	478	478	478	479	480	483	486	490
2217	2204	2204	2178	2178	2165	2165	2165	2165	2165	2178	2178	2178	2204	2204	2230	2230	0	0	0	0	0	0	0	0	0	0	0	0	0	0	0	0	0	0	0	0	0	392	392	392	393	396	396	397	397	398	398	398	397	397	0	0	0	0	0	0	0	0	0	0	0	2734	2734	2775	2796	2817	2796	2775	2695	2638	2583	2531	2497	2481	2481	2481	2481	2481	2497	2514	2531	0	0	0	0	0	0	0	0	0	0	0	0	0	0	0	0	0	0	0	0	0	0	0	0	0	409	409	409	409	410	410	410	410	410	410	410	409	409	408	408	407	407	407	408	408	409	409	410	411	411	412	412	412	412	412	412	412	412	413	413	413	415	415	416	415	415	415	415	415	416	416	416	416	416	416	417	417	417	418	419	419	419	420	420	0	0	4407	4407	4460	4460	4460	4460	4460	4513	4513	4513	4513	4568	4568	4568	4568	0	0	0	0	0	0	0	0	0	0	0	0	0	0	0	0	623	623	0	607	599	594	590	588	586	584	583	583	583	583	583	583	582	582	582	582	582	582	582	582	582	583	583	583	585	587	588	590	591	593	593	593	592	591	589	588	586	585	583	583	582	581	580	579	579	579	579	579	580	580	581	582	582	583	583	583	583	584	584	584	585	586	587	588	589	590	591	592	593	594	595	596	596	596	597	597	597	598	0	0	5276	5276	5276	5351	5429	5509	5591	5591	5763	5853	5946	6042	6141	6243	6349	6349	6459	6459	6572	6572	6572	6572	6572	6689	6811	6811	6811	6811	6689	6572	6572	6349	6243	6141	5946	5853	5853	5853	5853	5763	5763	5763	5763	5763	5763	5763	5853	5853	5853	5853	5946	5946	6042	6042	6042	6042	6141	6243	6243	6349	6349	6349	6349	6459	6459	6459	6349	6243	6141	6042	5946	5853	5351	5203	5203	5276	5203	5132	5062	5062	0	0	0	0	0	0	0	0	1076	1046	1041	1038	1035	1032	1026	1023	1023	1023	1023	1026	1026	1026	1023	1023	1021	1018	1015	1015	1015	1015	1018	1018	1018	1021	1023	1023	1026	1029	1026	1026	1032	1035	1041	1043	1046	1046	1041	1038	1026	1018	1012	1004	996	988	981	973	968	968	965	965	965	965	968	973	978	983	991	994	996	1002	1007	1010	1010	0	0	0	0	0	0	0	609	608	608	607	606	603	599	597	596	595	594	594	593	593	594	594	596	596	596	596	596	596	595	594	593	592	591	591	590	590	589	588	588	588	588	588	588	587	587	586	586	585	585	585	584	584	585	585	585	585	586	587	587	588	588	588	590	591	592	592	593	593	592	591	589	587	586	585	585	583	583	583	583	583	0	0	0	0	0	0	0	0	0	0	0	0	0	0	0	0	0	0	0	0	0	1038	1035	1035	1035	1035	1038	1038	1038	1041	1041	1038	1032	1026	1015	1004	996	986	978	968	963	963	963	965	968	973	978	983	991	996	1004	1007	1015	1018	1021	1026	1032	1038	1043	1046	1052	1055	1061	1064	1067	1070	1073	1067	1067	1067	1067	1070	1073	1073	1073	1073	1073	1076	1076	1076	1076	1080	0	0	0	0	3902	3862	3862	3862	3862	3862	3862	3862	3862	3862	3862	3862	3862	3902	3943	3985	3985	4028	4028	4072	4116	4116	4072	4028	4028	4028	4356	4356	4356	0	0	0	0	0	0	0	0	0	0	0	0	0	0	0	0	0	0	0	0	0	0	0	548	547	545	544	544	542	541	538	536	534	531	528	526	524	521	519	517	515	514	513	512	511	510	509	507	506	503	499	496	493	489	486	483	481	479	478	478	477	477	477	477	477	476	476	475	475	475	475	475	474	474	474	474	474	474	475	475	476	476	477	477	477	477	477	477	478	480	482	485	490
2243	2230	2204	2204	2191	2191	2178	2165	2165	2178	2191	2191	0	0	0	0	0	0	0	0	0	0	0	0	0	0	0	0	0	0	0	0	0	0	0	0	389	389	390	391	392	393	394	396	396	397	398	398	398	397	397	0	0	0	0	0	0	0	0	0	0	0	0	0	0	2817	2775	2775	2754	2695	2638	2583	2531	2497	2481	2481	2481	2481	2481	0	0	0	0	0	0	0	0	0	0	0	0	0	0	0	0	0	0	0	0	0	0	0	0	0	0	0	407	407	408	408	409	409	409	409	409	409	408	408	408	407	406	406	405	405	405	405	405	406	406	406	407	408	409	409	409	409	409	409	409	409	409	409	409	410	410	411	411	412	412	412	413	413	413	414	414	414	415	415	416	416	417	418	419	419	419	420	0	0	4407	4407	4460	4460	4460	4460	4460	4513	4513	4513	4513	4513	4513	4568	4568	0	0	0	0	0	0	0	0	0	0	0	0	0	0	0	0	0	0	0	608	601	594	589	587	585	584	583	583	583	583	583	583	583	583	583	583	583	583	583	583	583	584	584	585	586	588	589	591	592	592	592	591	590	589	588	586	584	583	583	581	581	579	579	578	578	578	578	579	580	580	581	582	582	583	583	583	583	584	584	585	585	586	587	587	588	589	590	591	592	592	594	595	596	596	596	597	597	598	0	0	5276	5132	5132	5203	5276	5351	5429	5509	5676	5763	5853	6042	6141	6243	6243	6349	6459	6459	6459	6459	6572	6572	6572	6572	6572	6689	6811	6811	6689	6572	6459	6349	6243	6141	5946	5853	5853	5853	5853	5763	5763	5763	5763	5763	5763	5853	5853	5853	5853	5853	5946	5946	6042	6042	6042	6141	6243	6243	6349	6459	6459	6459	6572	6572	6689	6572	6459	6349	6243	6141	6042	5853	5509	5351	5276	5276	5203	5132	5062	5062	0	0	0	0	0	0	0	0	1076	1049	1041	1038	1032	1026	1023	1021	1021	1021	1021	1021	1023	1023	1023	1021	1021	1021	1018	1018	1018	1018	1018	1021	1023	1023	1026	1029	1029	1032	1032	1032	1038	1043	1046	1049	1052	1052	1049	1043	1032	1023	1012	1004	996	986	978	970	963	963	963	963	963	963	965	970	978	983	994	996	1002	1007	1012	1018	0	0	0	0	0	0	0	0	607	606	606	605	604	601	598	596	596	595	594	594	594	594	594	595	596	597	597	597	596	596	596	595	593	592	591	590	589	589	588	588	588	588	588	588	588	588	588	588	587	587	587	586	586	586	586	586	586	587	588	588	589	589	590	590	591	592	593	593	593	592	591	590	588	586	585	584	583	583	583	582	582	582	0	0	0	0	0	0	0	0	0	0	0	0	0	0	0	0	0	0	0	0	0	1038	1038	1035	1035	1038	1041	1043	1043	1049	1055	1055	1049	1046	1038	1029	1021	1010	999	988	983	981	978	978	981	983	988	994	999	1004	1010	1015	1018	1023	1026	1029	1032	1038	1043	1046	1049	1052	1055	1058	1061	1064	1073	1073	1073	1073	1073	1073	1076	1080	1076	1076	1080	1080	1080	1080	1080	1080	0	0	0	0	0	3862	3862	3862	3822	3822	3822	3822	3822	3822	3822	3822	3822	3862	3862	3943	3943	3943	3985	3985	4028	4028	4028	3902	3902	4028	0	0	0	0	0	0	0	0	0	0	0	0	0	0	0	0	0	0	0	0	0	0	0	0	0	0	0	546	544	544	543	541	540	537	535	533	530	528	525	523	521	519	517	515	514	513	512	511	510	509	508	506	503	500	496	493	489	486	483	481	479	478	478	478	477	477	477	477	477	476	475	475	474	474	474	473	472	472	473	473	473	474	474	475	475	475	476	475	475	475	476	478	479	481	485	489
2257	2243	2230	2230	0	0	0	0	0	0	0	0	0	0	0	0	0	0	0	0	0	0	0	0	0	0	0	0	0	0	0	0	0	0	0	0	388	388	389	390	391	393	394	395	396	397	398	398	398	397	397	0	0	0	0	0	0	0	0	0	0	0	0	0	0	0	2775	2775	2754	2695	2638	2583	2531	2497	2497	2481	2481	2481	2481	0	0	0	0	0	0	0	0	0	0	0	0	0	0	0	0	0	0	0	0	0	0	0	0	0	404	404	405	407	408	408	408	409	408	408	408	407	407	406	406	405	405	404	404	403	403	403	403	403	404	404	405	405	406	407	407	407	407	407	407	407	407	407	407	407	408	408	409	409	409	410	411	412	412	413	413	414	414	414	415	415	416	418	418	419	419	419	420	0	4460	4460	4460	4460	4460	4460	4460	4513	4513	4513	4513	4513	4513	4513	4513	4513	0	0	0	0	0	0	0	0	0	0	0	0	0	0	0	627	627	0	608	601	594	588	586	585	584	583	583	583	583	583	583	583	583	583	583	583	583	584	584	585	586	586	586	588	589	590	591	591	591	590	589	588	586	585	584	583	582	581	579	579	578	578	577	577	577	578	578	579	580	580	581	582	582	583	583	583	584	584	585	585	586	586	587	588	589	590	590	591	592	592	593	595	595	596	596	596	597	0	0	0	5132	5062	5062	5132	5203	5276	5429	5591	5676	5853	5946	6042	6141	6141	6243	6243	6243	6243	6243	6349	6349	6349	6459	6459	6572	6689	6689	6572	6459	6459	6349	6243	6042	5946	5853	5763	5763	5763	5763	5763	5763	5763	5763	5763	5853	5853	5853	5853	5853	5946	5946	6042	6042	6141	6243	6243	6349	6459	6459	6572	6572	6689	6811	6937	6811	6572	6459	6349	6141	6042	5853	5591	5429	5351	5351	5429	5351	5351	5351	5676	0	0	0	0	0	0	0	0	1052	1041	1041	1032	1023	1018	1015	1015	1015	1015	1015	1015	1018	1018	1018	1018	1015	1015	1015	1015	1018	1018	1018	1021	1023	1023	1023	1026	1026	1029	1029	1035	1043	1046	1052	1058	1058	1055	1049	1038	1026	1012	1004	994	983	973	968	961	961	961	961	961	961	965	970	976	983	991	996	1002	1010	1015	1021	0	0	0	0	0	0	0	0	607	606	606	605	604	601	597	596	596	595	594	594	594	595	596	596	597	599	599	598	597	596	595	594	592	591	590	589	589	588	588	587	587	587	587	588	588	588	588	588	588	588	588	588	588	588	588	588	589	589	589	589	590	590	590	591	592	593	593	593	592	591	590	589	587	586	584	583	583	582	582	582	581	581	581	0	0	0	0	0	0	0	0	0	0	0	0	0	0	0	0	0	0	0	0	1041	1041	1041	1041	1041	1043	1046	1049	1055	1061	1064	1064	1064	1058	1046	1038	1032	1021	1007	999	994	991	991	991	991	994	999	1002	1007	1012	1015	1018	1021	1026	1029	1032	1035	1038	1041	1043	1046	1049	1052	1055	1064	1067	1070	1070	1073	1076	1076	1080	1080	1083	1083	1083	1083	1083	1083	1083	1083	0	0	0	0	3862	3862	3862	3862	3822	3822	3822	3784	3784	3784	3784	3784	3784	3784	3784	3862	3862	3862	3902	3943	3943	3943	3902	3784	3746	3746	0	0	0	0	0	0	0	0	0	0	0	0	0	0	0	0	0	0	0	0	0	0	0	0	0	0	0	544	544	543	542	541	539	537	534	531	529	527	525	523	521	519	517	515	514	514	513	512	511	510	508	506	503	500	496	493	490	486	483	481	480	479	478	478	478	477	477	477	477	476	475	474	474	472	472	472	471	471	471	471	471	472	472	473	474	474	475	474	474	475	475	477	478	481	485	488
2284	2270	2270	2284	0	0	0	0	0	0	0	0	0	0	0	0	0	0	0	0	0	0	0	0	0	0	0	0	0	0	0	0	0	0	0	387	387	388	388	389	390	391	393	394	396	396	397	398	398	397	397	398	0	0	0	0	0	0	0	0	0	0	0	0	0	0	0	0	2775	2714	2676	2601	2601	0	0	0	0	0	0	0	0	0	0	0	0	0	0	0	0	0	0	0	0	0	0	0	0	0	393	393	395	397	399	400	402	404	405	406	406	406	406	406	406	405	405	405	404	404	402	402	401	401	400	399	399	399	399	400	401	402	402	403	404	405	405	405	405	405	405	405	405	404	404	404	405	405	405	406	406	407	408	409	410	411	412	413	413	413	414	414	415	416	417	418	418	419	420	4513	4460	4460	4460	4460	4460	4513	4513	4513	4513	4513	4513	4513	4513	4513	4513	4513	0	0	0	0	0	0	0	0	0	0	0	0	0	0	0	624	624	0	604	598	592	587	586	585	583	583	583	583	583	583	583	583	583	583	583	584	584	585	586	586	587	588	588	589	590	590	590	590	589	588	587	585	584	583	582	581	579	579	578	577	577	576	576	577	577	577	577	578	579	579	580	581	582	583	583	583	583	584	585	585	586	586	587	588	588	589	590	590	590	591	592	593	594	595	595	596	596	0	0	0	0	4929	4929	5062	5062	5203	5276	5509	5591	5763	5853	5946	6042	6042	6141	6243	6243	6243	6243	6243	6243	6243	6349	6459	6459	6459	6572	6572	6459	6349	6349	6243	6042	5946	5853	5763	5763	5763	5763	5763	5763	5763	5763	5853	5853	5853	5853	5853	5853	5946	6042	6042	6141	6243	6243	6349	6459	6459	6572	6572	6689	6811	6811	6937	6811	6572	6459	6243	6141	5946	5763	5591	5509	5509	5509	5591	5591	5591	5591	5676	0	0	0	0	0	0	0	0	0	0	0	0	1012	1010	1007	1007	1007	1007	1010	1010	1010	1010	1012	1012	1012	1012	1012	1015	1015	1018	1018	1018	1018	1018	1021	1021	1023	1023	1026	1032	1041	1046	1052	1058	1058	1055	1049	1038	1026	1012	1002	994	981	973	963	961	958	956	956	956	958	961	965	973	978	986	991	999	1007	1015	1018	1021	0	0	0	0	0	0	0	608	607	606	605	604	600	597	596	596	595	594	594	595	595	596	597	599	600	599	597	596	596	594	593	592	590	589	589	588	587	587	587	587	587	587	588	588	588	589	590	590	590	590	590	590	590	590	590	590	590	590	590	591	591	591	592	592	593	592	592	591	590	589	588	586	584	583	583	582	581	581	581	581	580	580	0	0	0	0	0	0	0	0	0	0	0	0	0	0	0	0	0	0	0	0	1043	1043	1043	1043	1046	1046	1052	1052	1058	1064	1067	1067	1067	1064	1058	1052	1041	1032	1023	1012	1004	1002	996	996	996	996	999	1002	1004	1010	1012	1015	1018	1021	1026	1029	1029	1032	1038	1038	1041	1041	1052	1055	1058	1061	1064	1067	1070	1073	1073	1076	1080	1083	1083	1083	1083	1083	1083	1083	1083	0	0	0	0	3822	3822	3822	3784	3784	3784	3784	3746	3709	3709	3709	3709	3709	3709	3746	3784	3784	3822	3822	3822	3862	3862	3822	3709	3673	3568	3568	0	0	0	0	0	0	0	0	0	0	0	0	0	0	0	0	0	0	0	0	0	0	0	0	0	544	544	544	542	541	540	538	536	534	531	528	527	525	522	521	520	518	517	516	516	515	514	512	511	510	508	505	501	497	494	490	487	485	481	480	479	478	478	478	478	478	477	477	476	475	474	473	472	471	471	470	470	470	471	471	472	472	473	474	474	475	474	474	475	475	477	478	481	485	488
2298	2298	2284	2284	0	0	0	0	0	0	0	0	0	0	0	0	0	0	0	0	0	0	0	0	0	0	0	0	0	0	0	0	0	0	0	386	386	387	388	388	389	390	392	393	395	396	397	398	398	397	397	398	0	0	0	0	0	0	0	0	0	0	0	0	0	0	0	0	0	0	0	0	0	0	0	0	0	0	0	0	0	0	0	0	0	0	0	0	0	0	0	0	0	0	0	391	391	391	392	393	395	397	398	400	402	403	405	405	405	405	405	404	403	403	402	402	401	400	399	399	398	397	397	396	396	396	396	397	398	399	400	401	402	403	404	404	404	404	403	403	402	402	402	402	403	403	403	404	405	405	406	408	409	410	410	412	413	413	413	414	415	416	417	418	418	419	420	4513	4513	4513	4513	4513	4513	4513	4513	4513	4513	4513	4513	4513	4513	4513	4460	4460	0	0	0	0	0	0	0	0	0	0	0	0	0	0	0	624	613	613	602	597	591	587	587	585	583	583	583	583	583	583	583	583	584	584	585	585	586	587	588	588	589	589	590	590	590	589	589	588	587	586	584	583	582	581	580	578	578	577	576	576	576	575	575	576	576	576	576	577	578	578	579	580	581	582	583	583	583	583	584	584	585	586	587	587	588	589	589	589	590	591	591	593	593	594	595	596	596	0	0	0	0	4929	4929	5062	5062	5203	5276	5429	5591	5676	5763	5946	6042	6042	6042	6141	6141	6141	6141	6141	6141	6243	6243	6349	6349	6459	6459	6459	6459	6349	6349	6243	6042	5946	5853	5853	5853	5853	5853	5853	5853	5853	5853	5946	5946	5853	5853	5853	5946	6042	6141	6141	6243	6243	6349	6459	6459	6572	6572	6689	6811	6811	6811	6811	6689	6459	6349	6141	6042	5853	5763	5591	5509	5509	5509	5591	5591	5591	5591	5676	0	0	0	0	0	0	0	0	0	0	0	0	1004	999	999	999	999	999	1002	1002	1002	1004	1004	1010	1010	1012	1012	1012	1015	1018	1018	1018	1018	1018	1018	1021	1021	1021	1023	1029	1038	1043	1052	1055	1058	1055	1052	1041	1026	1015	1002	991	981	970	963	956	956	953	953	953	956	958	961	968	973	978	986	991	999	1012	1018	1021	0	0	0	0	0	0	0	0	608	607	606	604	600	597	596	595	594	594	593	593	594	596	596	598	598	597	596	595	594	592	591	590	589	588	588	587	586	586	586	586	586	587	587	588	589	590	590	590	590	590	590	590	590	590	590	591	591	591	591	591	591	591	592	592	592	591	591	591	590	589	587	585	583	583	583	582	580	580	580	581	580	580	0	0	0	0	0	0	0	0	0	0	0	0	0	0	0	0	0	0	0	0	1046	1046	1049	1049	1049	1052	1055	1055	1061	1064	1064	1064	1064	1058	1052	1046	1041	1032	1023	1015	1010	1002	999	996	996	996	996	999	1002	1007	1010	1012	1015	1018	1021	1023	1026	1029	1029	1032	1041	1041	1043	1046	1049	1055	1055	1061	1064	1067	1073	1076	1080	1083	1083	1083	1086	1086	1086	1086	1086	0	0	0	3822	3822	3822	3784	3784	3784	3746	3746	3709	3709	3709	3673	3673	3673	3709	3709	3709	3746	3746	3784	3784	3784	3784	3784	3673	3602	3501	3286	3229	3229	0	0	0	0	0	0	0	0	0	0	0	0	0	0	0	0	0	0	0	0	0	0	544	544	543	543	541	541	539	537	536	533	531	528	526	524	522	521	520	518	517	517	517	515	514	512	511	510	508	506	502	499	496	492	490	486	483	481	480	480	479	479	478	478	478	478	477	475	474	473	472	471	471	470	470	470	471	471	472	473	473	474	474	475	475	475	475	476	477	480	481	485	488
2312	2312	2298	2298	0	0	0	0	0	0	0	0	0	0	0	0	0	0	0	0	0	0	0	0	0	0	0	0	0	0	0	0	0	0	384	384	385	386	387	387	388	389	391	392	393	394	395	396	396	397	397	397	398	0	0	0	0	0	0	0	0	0	0	0	0	0	0	0	0	0	0	0	0	0	0	0	0	0	0	0	0	0	0	0	0	0	0	0	0	0	0	0	0	0	389	389	390	391	392	393	395	397	398	399	401	402	403	403	404	403	403	402	402	401	400	399	398	397	396	396	395	394	394	393	393	393	393	394	395	396	398	399	401	402	402	403	403	402	402	402	402	402	402	402	402	402	402	403	404	405	405	407	408	409	410	412	413	413	413	414	415	416	417	418	418	419	420	4513	4513	4568	4513	4513	4568	4568	4568	4568	4568	4513	4513	4513	4460	4460	4460	4460	0	0	0	0	0	0	0	0	0	0	0	0	0	0	0	0	611	611	602	597	591	587	587	585	584	583	583	583	583	583	583	584	585	585	586	586	587	588	589	589	590	590	590	590	589	588	587	586	585	584	583	581	580	579	578	577	576	575	575	575	575	575	575	575	575	575	575	575	576	577	578	578	580	580	582	582	583	583	583	584	585	585	586	587	588	588	589	589	589	590	591	592	593	594	595	596	596	599	0	0	0	4865	4865	4929	5062	5132	5203	5429	5509	5676	5763	5946	5946	6042	6042	6141	6141	6141	6141	6141	6141	6141	6243	6243	6349	6459	6459	6459	6459	6349	6349	6243	6141	6042	5946	5946	5946	5946	5946	5946	5946	5946	5946	5946	5946	5946	5946	5946	6042	6141	6243	6243	6349	6349	6459	6459	6572	6572	6689	6689	6811	6811	6811	6689	6572	6349	6243	6042	5946	5853	5676	5591	5509	5509	5509	5591	5591	5591	5591	5676	0	0	0	0	0	0	0	0	0	0	0	0	991	988	988	991	991	991	991	994	996	996	999	1002	1004	1007	1010	1010	1012	1015	1015	1015	1015	1015	1012	1012	1015	1015	1018	1023	1029	1035	1043	1049	1052	1052	1046	1038	1026	1015	1002	991	981	970	963	956	956	953	953	953	956	956	958	963	970	973	978	991	999	1012	0	0	0	0	0	0	0	0	0	612	609	608	607	605	601	597	596	595	593	592	592	592	592	593	594	596	595	594	593	592	591	590	589	588	587	587	586	586	586	586	586	586	586	587	587	588	589	590	590	590	590	590	590	590	589	589	589	589	589	590	590	590	590	591	591	591	592	591	591	591	590	588	587	585	583	583	583	582	580	580	580	580	580	581	581	0	0	0	0	0	0	0	0	0	0	0	0	0	0	0	0	0	0	0	1052	1052	1052	1055	1055	1055	1058	1058	1058	1058	1058	1055	1052	1046	1043	1038	1032	1026	1021	1015	1010	1004	999	996	996	994	994	999	1002	1004	1007	1007	1010	1012	1015	1018	1018	1021	1021	1032	1032	1032	1035	1038	1043	1046	1052	1052	1058	1064	1067	1070	1076	1080	1080	1083	1083	1083	1086	1086	1086	0	0	0	3784	3784	3784	3784	3746	3746	3746	3746	3709	3709	3673	3673	3673	3673	3673	3673	3709	3746	3746	3746	3784	3784	3784	3746	3637	3568	3437	3257	3148	3148	0	0	0	0	0	0	0	0	0	0	0	0	0	0	0	0	0	0	0	0	0	544	544	543	542	541	541	540	538	537	535	533	530	528	526	524	522	521	520	519	517	517	516	515	513	512	510	509	507	505	501	499	496	493	490	487	484	482	481	481	480	480	479	478	478	478	477	476	475	474	472	472	471	471	471	471	471	472	472	473	474	474	475	475	475	475	476	476	478	480	483	485	488
2312	2312	2312	2312	0	0	0	0	0	0	0	0	0	0	0	0	0	0	0	0	0	0	0	0	0	0	0	0	0	0	0	0	0	0	384	384	385	385	386	386	387	388	389	391	391	392	393	394	396	397	397	397	398	0	0	0	0	0	0	0	0	0	0	0	0	0	0	0	0	0	0	0	0	0	0	0	0	0	0	0	0	0	0	0	0	0	0	0	0	0	0	0	0	0	388	388	389	390	391	392	393	396	397	399	400	401	402	402	402	402	401	400	399	399	397	397	396	395	394	393	392	391	391	391	391	391	391	392	393	394	396	397	399	400	401	402	402	402	402	401	401	400	400	400	400	401	401	402	402	404	405	406	408	409	411	412	413	413	414	414	415	416	417	418	418	419	420	4513	4513	4568	4568	4568	4568	4568	4568	4568	4568	4568	4513	4460	4460	4407	4407	4407	4407	0	0	0	0	0	0	0	0	0	0	0	0	0	0	0	610	610	0	597	592	588	587	585	585	584	584	584	584	584	585	585	585	586	587	588	588	589	590	590	590	590	589	589	588	587	586	584	583	582	581	580	579	578	576	576	575	575	575	574	574	574	574	574	574	575	575	575	575	576	577	577	579	580	581	582	583	583	583	584	585	585	586	587	588	588	589	589	589	590	591	592	593	594	595	596	597	599	0	0	0	4865	4865	4929	4995	5132	5203	5429	5509	5591	5763	5853	5946	6042	6042	6042	6042	6141	6042	6042	6042	6042	6141	6243	6243	6349	6459	6572	6572	6459	6459	6349	6243	6243	6141	6141	6141	6141	6141	6141	6141	6141	5946	5946	5946	6042	6042	6042	6141	6243	6243	6349	6459	6459	6572	6572	6572	6572	6689	6689	6689	6572	6572	6572	6349	6141	6042	5946	5853	5763	5591	5591	5509	5509	5591	5676	5676	5676	5676	5763	0	0	0	0	0	0	0	0	0	0	0	0	981	978	978	981	983	983	983	986	988	988	991	996	999	1004	1007	1010	1010	1012	1012	1012	1010	1010	1010	1010	1010	1010	1010	1015	1021	1026	1032	1038	1041	1043	1043	1035	1023	1015	1002	991	983	973	963	958	956	956	956	956	956	956	958	963	965	970	978	0	0	0	0	0	0	0	0	0	0	0	0	612	612	610	608	606	601	597	595	594	592	591	590	590	591	591	592	593	593	592	591	590	589	588	588	587	586	586	586	585	585	585	585	586	586	587	588	588	589	590	590	590	590	589	589	589	588	588	588	589	589	589	589	590	590	590	590	590	591	591	591	590	589	588	587	585	583	583	583	582	580	580	580	580	580	581	581	0	0	0	0	0	0	0	0	0	0	0	0	0	0	0	0	0	0	0	1058	1058	1058	1058	1058	1058	1058	1061	1058	1052	1049	1046	1043	1038	1032	1029	1023	1018	1012	1010	1004	1002	996	994	994	991	991	994	996	999	1002	1002	1004	1007	1010	1012	1012	1021	1021	1023	1023	1026	1026	1032	1035	1038	1041	1046	1052	1055	1061	1067	1070	1073	1080	1080	1080	1083	1083	1083	1086	0	0	0	3784	3784	3784	3784	3746	3746	3746	3709	3709	3673	3673	3673	3673	3673	3673	3673	3709	3709	3709	3746	3784	3784	3784	3746	3637	3568	3405	3257	3122	3122	0	0	0	0	0	0	0	0	0	0	0	0	0	0	0	0	0	0	0	0	0	543	543	543	542	541	541	540	538	537	535	533	530	528	526	525	522	521	520	519	517	517	515	515	512	511	509	508	506	503	501	497	496	493	490	487	485	483	482	481	481	480	479	478	478	478	477	476	475	474	473	472	472	471	471	471	472	472	473	474	474	475	475	477	477	477	477	477	480	481	483	485	487
2327	2312	2312	2312	0	0	0	0	0	0	0	0	0	0	0	0	0	0	0	0	0	0	0	0	0	0	0	0	0	0	0	0	0	0	384	383	383	384	384	385	385	386	387	387	388	392	393	394	0	0	0	0	0	0	0	0	0	0	0	0	0	0	0	0	0	0	0	0	0	0	0	0	0	0	0	0	0	0	0	0	0	0	0	0	0	0	0	0	0	0	0	0	0	0	388	388	388	389	390	391	393	395	396	397	399	399	400	401	401	400	399	399	397	396	396	395	393	392	391	391	390	390	389	389	389	390	390	391	391	393	394	396	397	399	400	401	401	401	401	400	400	400	399	399	399	400	400	401	402	403	405	406	408	409	411	412	413	413	414	415	415	417	418	419	419	419	421	0	0	4625	4568	4568	4568	4568	4568	4568	4568	4513	4513	4460	4460	4407	4407	4407	4407	4407	0	0	0	0	0	0	0	0	0	0	0	0	0	0	610	610	0	597	593	589	587	586	585	585	585	585	585	585	586	586	587	588	588	589	589	590	590	591	591	590	589	588	587	585	584	583	582	581	580	578	578	577	576	575	575	575	574	574	574	573	573	573	573	573	574	574	574	575	575	576	577	578	580	581	582	583	583	584	585	586	586	587	588	589	589	589	590	591	591	592	594	594	596	596	597	599	601	0	0	4865	4865	4865	4929	5062	5132	5351	5509	5591	5763	5853	5946	5946	6042	6042	6042	6042	6042	6042	6042	6042	6141	6141	6243	6349	6459	6572	6572	6572	6572	6572	6459	6349	6349	6349	6349	6349	6349	6349	6243	6141	6042	6042	6042	6141	6141	6141	6243	6243	6349	6459	6459	6572	6572	6459	6459	6459	6459	6459	6349	6349	6349	6243	6042	5946	5853	5763	5676	5676	5591	5509	5509	5509	5591	5676	5763	5676	5676	5763	0	0	0	0	0	0	0	0	0	0	0	0	976	973	973	976	976	976	978	978	983	986	986	991	994	999	1004	1007	1007	1010	1010	1010	1007	1004	1004	1004	1004	1004	1004	1007	1010	1015	1023	1029	1035	1038	1038	1032	1023	1015	1004	996	986	976	968	963	961	958	956	956	956	956	958	961	963	965	0	0	0	0	0	0	0	0	0	0	0	0	0	614	613	611	609	606	601	596	595	594	591	589	588	588	589	589	589	590	590	589	588	587	586	586	586	585	585	584	584	585	585	585	585	586	586	587	588	589	590	590	590	590	589	588	588	587	587	587	587	587	587	587	588	588	589	589	590	590	591	591	591	590	589	588	587	585	583	583	583	582	581	581	581	582	582	582	0	0	0	0	0	0	0	0	0	0	0	0	0	0	0	0	0	0	0	1067	1064	1064	1061	1061	1061	1061	1058	1058	1052	1049	1041	1035	1032	1026	1023	1018	1012	1010	1004	1002	999	996	994	991	991	988	988	991	994	996	996	996	999	1002	1004	1012	1012	1012	1012	1015	1018	1018	1021	1021	1026	1029	1035	1041	1046	1049	1055	1061	1067	1070	1073	1076	1080	1080	1083	1083	1086	0	0	3746	3746	3784	3784	3784	3746	3746	3746	3709	3709	3673	3673	3673	3673	3673	3673	3673	3709	3709	3709	3746	3784	3784	3784	3784	3673	3534	3405	3257	3122	3122	3021	3021	0	0	0	0	0	0	0	0	0	0	0	0	0	0	0	0	0	0	0	542	542	542	541	541	541	540	538	537	535	532	530	528	526	525	522	522	520	519	517	517	515	514	512	510	508	506	505	502	500	497	495	493	491	488	486	484	483	481	481	480	479	478	478	478	477	476	475	474	474	474	473	473	473	473	473	474	474	475	475	475	476	477	477	477	477	478	480	481	483	485	486
2312	2312	2312	2312	0	0	0	0	0	0	0	0	0	0	0	0	0	0	0	0	0	0	0	0	0	0	0	0	0	0	0	0	0	0	0	383	383	383	383	383	383	384	384	384	385	0	0	0	0	0	0	0	0	0	0	0	0	0	0	0	0	0	0	0	0	0	0	0	0	0	0	0	0	0	0	0	0	0	0	0	0	0	0	0	0	0	0	0	0	0	0	0	0	386	386	387	387	388	389	390	391	393	395	396	398	399	399	399	399	399	398	397	396	395	393	393	392	391	389	389	388	388	388	388	388	389	389	390	391	393	394	396	397	399	400	401	401	401	401	400	400	400	399	399	399	400	400	401	402	403	405	406	408	410	411	413	414	414	415	416	416	418	419	419	420	420	422	0	0	4568	4568	4568	4568	4568	4568	4568	4568	4513	4460	4460	4407	4407	4407	4356	4356	4356	0	0	0	0	0	0	0	0	0	0	0	0	0	0	0	0	0	597	593	589	588	588	587	587	586	586	587	587	587	588	588	589	589	590	590	591	591	591	590	589	588	587	585	584	583	582	581	580	579	578	577	576	576	575	575	575	574	574	573	573	573	572	572	572	573	573	573	574	575	575	576	578	579	580	582	583	583	585	585	586	587	588	589	589	590	590	590	591	591	593	594	595	596	596	598	599	601	0	0	0	4865	4865	4929	5062	5132	5351	5509	5676	5763	5853	5946	5946	6042	6042	6042	6042	6042	5946	5946	6042	6141	6141	6243	6349	6459	6572	6572	6689	6689	6689	6689	6689	6459	6459	6459	6572	6459	6459	6243	6243	6243	6243	6243	6243	6243	6243	6349	6349	6459	6459	6459	6459	6459	6459	6459	6349	6349	6349	6349	6243	6141	6042	5853	5763	5676	5676	5591	5509	5509	5429	5429	5509	5591	5676	5676	5676	5676	5763	0	0	0	0	0	0	0	0	0	0	0	0	970	968	968	970	970	970	973	976	978	981	981	986	991	996	1002	1004	1007	1007	1010	1007	1004	1002	1002	1002	999	999	999	999	1004	1007	1010	1018	1023	1029	1029	1029	1023	1018	1010	999	988	981	973	968	963	961	961	958	958	958	958	961	963	965	0	0	0	0	0	0	0	0	0	0	0	0	0	617	615	613	610	606	600	596	594	591	589	587	587	587	587	587	587	588	586	586	585	585	584	583	583	583	583	583	583	583	584	585	585	586	587	587	589	590	590	590	589	589	588	587	586	585	585	585	585	585	586	586	587	587	587	588	589	590	591	591	591	590	589	588	588	585	584	583	583	583	583	583	583	583	583	584	0	0	0	0	0	0	0	0	0	0	0	0	0	0	0	0	0	0	0	1067	1067	1067	1064	1064	1061	1061	1058	1055	1046	1041	1035	1026	1021	1018	1012	1010	1004	1002	999	996	996	994	994	991	988	988	988	988	988	991	994	994	994	996	1004	1007	1007	1007	1007	1007	1010	1010	1012	1012	1018	1021	1026	1032	1038	1046	1052	1055	1061	1067	1070	1076	1080	1080	1080	1083	1083	0	3709	3709	3746	3784	3784	3784	3746	3746	3746	3746	3709	3709	3673	3673	3673	3673	3673	3709	3709	3746	3784	3822	3822	3822	3822	3784	3709	3534	3437	3286	3175	3122	3021	3021	0	0	0	0	0	0	0	0	0	0	0	0	0	0	0	0	0	0	0	542	542	542	541	541	541	540	538	537	535	532	531	528	527	525	523	522	520	519	517	517	515	514	512	510	508	506	505	502	499	497	495	493	491	488	486	484	483	481	481	480	479	478	478	478	478	477	476	475	475	474	474	474	474	474	474	475	475	475	476	477	477	478	478	478	478	478	480	481	483	484	485
2284	2284	2284	2284	0	0	0	0	0	0	0	0	0	0	0	0	0	0	0	0	0	0	0	0	0	0	0	0	0	0	0	0	0	0	0	0	382	382	382	382	382	383	383	382	381	381	382	383	0	0	0	0	0	0	0	0	0	0	0	0	0	0	0	0	0	0	0	0	0	0	0	0	0	0	0	0	0	0	0	0	0	0	0	0	0	0	0	0	0	0	0	0	0	385	385	385	386	387	387	388	390	392	393	395	396	397	399	399	398	397	396	395	394	393	392	391	390	389	389	388	388	387	387	387	388	388	389	390	391	392	393	396	397	399	400	401	401	401	401	401	400	400	400	400	400	400	401	402	402	404	405	407	409	411	413	414	415	415	416	417	417	418	419	420	421	421	422	0	0	4513	4513	4513	4513	4513	4513	4513	4513	4513	4460	4460	4407	4407	4356	4306	4306	4306	0	0	0	0	0	0	0	0	0	0	0	0	0	0	0	0	0	595	593	590	589	589	588	588	588	588	588	588	589	589	590	590	591	591	592	591	591	591	590	589	587	586	584	583	582	581	580	579	578	578	577	576	576	575	575	575	574	573	573	573	573	572	572	572	572	572	573	574	575	575	576	577	579	580	582	583	583	585	586	587	588	589	590	590	590	590	591	591	592	593	594	595	596	597	598	600	601	0	0	0	4995	4995	5062	5132	5203	5509	5676	5763	5853	5946	6042	6042	6141	6141	6042	6042	6042	5946	5946	6141	6141	6243	6243	6459	6572	6689	6811	6811	6811	6937	6811	6811	6689	6689	6689	6689	6689	6459	6459	6349	6349	6349	6349	6349	6349	6349	6349	6459	6459	6459	6459	6459	6459	6349	6243	6243	6243	6141	6141	6042	5946	5853	5763	5676	5591	5509	5509	5509	5509	5429	5429	5509	5591	5676	5676	5676	5676	5676	0	0	0	0	0	0	0	0	0	0	0	0	970	968	968	970	970	970	973	973	976	981	981	986	991	996	1002	1004	1007	1007	1010	1007	1004	1002	1002	1002	999	996	996	996	996	999	1004	1007	1012	1018	1023	1023	1023	1018	1010	1004	994	986	981	973	970	968	968	965	963	963	963	965	965	968	976	976	978	986	991	988	988	0	0	0	0	0	0	0	0	614	611	606	600	596	592	590	587	586	585	584	584	584	584	584	583	583	582	581	581	581	581	581	581	582	582	583	583	584	584	586	586	587	588	589	589	589	588	587	586	585	585	584	584	584	584	585	585	585	585	586	587	587	589	589	590	591	592	592	591	590	589	587	585	584	584	584	584	584	584	585	585	587	0	0	0	0	0	0	0	0	0	0	0	0	0	0	0	0	0	0	0	1070	1070	1070	1067	1067	1064	1058	1052	1046	1041	1035	1026	1018	1012	1007	1004	1002	996	994	991	991	991	988	988	988	986	986	986	986	986	988	988	991	994	996	999	999	1002	1002	1002	1002	1004	1004	1007	1010	1012	1018	1021	1026	1032	1041	1046	1052	1058	1064	1070	1073	1076	1080	1080	1083	1083	0	3709	3709	3746	3746	3746	3784	3784	3746	3746	3746	3746	3709	3709	3709	3709	3709	3709	3709	3746	3784	3822	3862	3902	3902	3862	3862	3709	3568	3437	3315	3229	3175	3096	3096	3096	0	0	0	0	0	0	0	0	0	0	0	0	0	0	0	0	0	0	542	541	541	541	541	541	540	538	537	535	533	531	529	527	525	524	522	521	520	519	517	516	515	512	510	509	507	505	502	499	497	496	493	491	488	486	484	483	482	481	480	479	478	478	478	478	477	477	476	475	475	475	474	474	474	475	475	475	475	477	477	477	478	478	478	478	479	480	481	483	484	485
2257	2270	2270	2270	0	0	0	0	0	0	0	0	0	0	0	0	0	0	0	0	0	0	0	0	0	0	0	0	0	0	0	0	0	0	0	0	382	382	382	382	382	383	383	382	381	381	382	383	0	0	0	0	0	0	0	0	0	377	377	377	0	0	0	0	0	0	0	0	0	0	0	0	0	0	0	0	0	0	0	0	0	0	0	0	0	0	0	0	0	0	0	0	0	384	384	384	385	385	386	387	388	390	392	394	395	396	397	398	398	396	395	394	393	393	391	391	389	389	388	387	387	387	387	387	387	388	389	390	391	392	393	396	397	399	400	401	401	401	401	401	401	401	400	400	401	401	401	402	403	405	406	408	410	412	414	415	416	417	417	418	418	419	420	421	422	422	424	0	0	4513	4460	4460	4460	4460	4460	4513	4513	4460	4460	4407	4356	4356	4306	4306	4306	4306	0	0	0	0	0	0	0	0	0	0	0	0	0	0	0	0	0	593	593	591	591	590	590	590	590	590	590	590	591	591	592	592	592	592	592	592	592	591	589	587	586	584	583	582	581	580	579	578	578	578	577	577	576	575	575	575	574	573	573	573	572	572	572	572	572	572	573	574	575	575	576	577	579	580	582	583	584	586	587	587	589	590	591	591	591	591	591	592	592	593	594	596	596	598	599	600	601	0	0	0	0	0	0	0	0	0	0	6243	6243	6243	6141	6141	6141	6141	6141	6042	6042	6042	6042	6141	6243	6349	6459	6572	6689	6811	6937	6937	7068	7068	6937	6937	6811	6689	6689	6689	6689	6572	6459	6459	6349	6349	6349	6349	6349	6349	6349	6349	6349	6459	6459	6349	6243	6243	6141	6042	6042	5946	5853	5763	5763	5591	5509	5429	5429	5351	5351	5429	5429	5429	5429	5509	5591	5676	5676	5591	5591	5676	0	0	0	0	0	0	0	0	0	0	0	0	970	968	968	970	970	970	973	973	976	981	986	986	991	996	1002	1004	1007	1007	1010	1007	1004	1002	1002	1002	999	996	996	996	996	999	1002	1007	1010	1015	1021	1023	1023	1018	1012	1007	999	994	988	983	978	978	976	973	970	970	970	973	973	973	976	976	978	986	991	988	988	0	0	0	0	0	0	0	0	616	616	606	600	594	590	588	586	583	583	582	582	582	581	581	580	578	578	578	577	577	578	578	579	580	580	582	583	583	583	585	586	587	588	588	588	588	587	587	585	585	583	583	583	583	583	583	584	584	585	585	586	587	588	589	590	591	592	592	592	591	590	588	587	585	585	585	585	586	586	587	587	589	0	0	0	0	0	0	0	0	0	0	0	0	0	0	0	0	0	0	0	0	1067	1064	1064	1058	1055	1052	1043	1038	1032	1026	1018	1010	1004	1004	999	996	991	988	988	988	988	988	988	988	986	986	986	986	986	988	988	991	991	994	996	996	996	999	999	999	999	1002	1002	1004	1007	1012	1015	1021	1029	1035	1041	1049	1058	1064	1070	1073	1076	1080	1080	1083	0	0	3709	3709	3746	3746	3746	3784	3784	3784	3784	3746	3746	3746	3709	3709	3709	3746	3746	3746	3822	3862	3902	3943	3985	3943	3943	3943	3784	3637	3501	3501	0	3229	3175	3096	3096	0	0	0	0	0	0	0	0	0	0	0	0	0	0	0	0	0	0	542	541	541	541	541	540	539	538	537	534	533	531	529	527	525	523	522	521	520	518	517	515	513	512	510	508	506	504	502	500	497	496	493	491	488	486	485	483	482	481	480	480	479	479	479	478	478	477	477	476	475	475	475	475	475	475	476	476	477	477	477	478	479	479	479	479	480	480	481	483	484	485
2230	2243	2257	2257	0	0	0	0	0	0	0	0	0	0	0	0	0	0	0	0	0	0	0	0	0	0	0	0	0	0	377	377	378	378	380	383	383	383	384	384	384	385	385	385	385	385	385	386	0	0	0	0	0	0	0	0	0	377	377	377	378	0	0	0	0	0	0	0	0	0	0	0	0	0	0	0	0	0	0	0	0	0	0	0	0	0	0	0	0	0	0	0	0	383	383	383	384	384	385	386	387	388	390	391	393	394	396	396	396	395	394	393	392	391	390	389	389	388	387	387	387	387	387	387	387	388	389	390	391	392	393	395	396	398	399	401	401	402	402	402	402	402	402	402	402	402	402	403	405	406	408	410	412	414	415	417	418	418	418	419	419	420	421	422	422	423	424	0	0	4356	4356	4407	4407	4407	4407	4460	4460	4407	4407	4356	4306	4306	4306	4257	4257	4306	0	0	0	0	0	0	0	0	0	0	0	0	0	0	0	0	0	593	592	592	592	592	592	592	591	591	592	592	593	593	593	593	593	593	593	592	592	591	589	587	585	583	583	582	581	580	579	578	578	578	577	577	577	576	575	575	575	574	574	573	572	572	572	572	572	572	573	574	574	575	576	577	579	581	582	583	585	586	587	589	590	590	591	591	591	592	592	593	593	594	595	596	597	599	600	601	0	0	0	0	0	0	0	0	0	0	0	0	6459	6459	6349	6349	6349	6243	6243	6243	6243	6243	6349	6349	6459	6572	6689	6811	6937	6937	7068	7068	7068	7068	6937	6937	6811	6689	6689	6689	6572	6459	6459	6349	6349	6349	6349	6349	6349	6243	6243	6243	6243	6243	6141	6141	6042	5946	5946	5853	5853	5763	5676	5591	5509	5429	5351	5276	5276	5351	5351	5351	5351	5351	5429	5509	5591	5591	5591	5591	5591	5591	0	0	0	0	0	0	0	0	0	0	0	0	973	973	973	973	973	973	973	976	978	983	988	994	994	999	1004	1007	1010	1012	1012	1010	1007	1004	1004	1002	1002	996	996	996	996	999	1002	1007	1010	1015	1021	1023	1023	1021	1021	1015	1010	1004	999	994	991	988	986	983	978	978	981	981	981	981	983	983	986	991	994	994	994	0	0	0	0	0	0	0	0	0	0	603	596	592	588	585	583	582	581	580	579	579	578	578	576	575	575	575	575	575	575	576	577	578	579	581	582	583	583	584	585	586	588	588	588	588	587	586	585	585	583	583	583	583	583	583	583	584	584	585	586	586	588	589	590	592	592	593	593	593	592	590	588	587	587	587	587	588	588	589	589	592	0	0	0	0	0	0	0	0	0	0	0	0	0	0	0	0	0	0	0	0	1067	1064	1052	1049	1046	1043	1038	1032	1026	1018	1010	1004	1002	996	994	991	988	986	986	986	986	986	988	988	986	986	986	986	986	988	988	988	991	991	994	994	994	994	996	996	996	996	999	1002	1004	1010	1015	1018	1026	1032	1041	1049	1055	1064	1070	1073	1076	1080	1080	1083	0	0	3709	3709	3746	3784	3784	3784	3784	3822	3822	3822	3784	3784	3784	3784	3784	3784	3822	3822	3862	3902	3943	3985	4028	4028	3985	3985	3902	3709	3602	3469	3375	3286	3202	3148	3148	0	0	0	0	0	0	0	0	0	0	0	0	0	0	0	0	0	0	0	541	541	541	540	539	538	537	536	534	532	531	528	526	524	522	521	519	517	516	515	512	511	509	507	506	504	502	500	498	496	494	492	490	488	486	485	483	483	481	480	480	480	480	479	479	478	478	478	477	477	477	477	477	477	477	478	478	478	478	479	480	480	480	480	481	481	481	482	483	484	485
2204	2217	2257	2257	0	0	0	0	0	0	0	0	0	0	0	0	0	0	0	0	0	0	0	0	0	0	0	0	0	0	377	377	378	378	380	383	384	385	385	386	387	387	387	387	387	387	388	388	391	392	0	0	0	0	0	0	0	378	378	378	378	378	378	380	381	381	0	0	0	0	0	0	0	0	0	0	0	0	0	0	0	0	0	0	0	0	0	0	0	0	0	0	0	383	383	383	383	383	384	385	385	387	388	389	391	393	394	395	395	394	393	392	391	390	389	389	388	387	387	387	386	386	386	387	387	387	389	389	390	391	393	395	396	398	399	400	401	402	402	402	402	402	402	402	402	403	404	405	406	408	409	411	414	415	417	418	419	419	419	419	419	420	422	422	423	423	424	0	0	4306	4306	4306	4356	4356	4356	4407	4407	4407	4356	4356	4306	4306	4257	4257	4209	4209	0	0	0	0	0	0	0	0	0	0	0	0	0	0	0	0	0	593	592	592	593	593	593	593	593	593	594	594	595	595	595	595	595	594	594	593	592	590	589	587	585	583	583	582	581	580	580	580	579	579	579	578	578	577	576	575	575	575	574	574	574	573	572	572	573	573	573	574	574	575	576	577	579	581	582	583	585	586	588	589	590	590	591	591	592	592	592	593	594	595	596	596	598	599	601	601	603	0	0	0	0	0	0	0	0	0	0	0	6689	6572	6459	6243	6243	6141	6042	6042	6141	6243	6459	6572	6689	6811	6937	6937	7068	7068	7204	7204	7204	7068	7068	6937	6811	6689	6572	6572	6572	6459	6459	6349	6349	6349	6349	6349	6243	6243	6141	6042	6042	5946	5946	5853	5763	5763	5676	5591	5591	5509	5509	5429	5351	5276	5276	5203	5203	5203	5203	5276	5276	5351	5351	5429	5509	5591	5509	5509	5509	5509	0	0	0	0	0	0	0	0	0	0	0	0	978	978	981	981	981	981	981	981	983	988	994	999	999	1004	1007	1010	1015	1018	1018	1015	1012	1010	1007	1007	1004	1002	999	999	999	999	1002	1007	1010	1015	1018	1023	1026	1026	1026	1026	1021	1015	1010	1007	1004	1002	996	994	988	986	986	988	988	991	991	994	994	996	999	999	999	0	0	0	0	0	0	0	0	0	604	598	594	590	587	584	583	580	579	578	577	577	576	575	575	574	574	574	574	574	575	575	575	577	578	580	581	582	583	583	585	586	587	588	588	588	587	586	585	585	583	583	583	583	583	583	583	584	584	585	586	586	588	589	590	592	592	593	594	594	593	592	589	588	588	588	588	590	590	590	591	594	0	0	0	0	0	0	0	0	0	0	0	0	0	0	0	0	0	0	0	0	0	0	1052	1041	1038	1035	1032	1026	1021	1012	1007	1002	999	994	994	991	988	986	986	986	986	986	988	988	986	986	988	986	986	988	988	988	991	991	991	991	991	994	994	994	996	996	996	999	1004	1007	1012	1018	1023	1032	1041	1049	1055	1064	1070	1073	1076	1080	1080	1083	0	0	3746	3746	3784	3784	3822	3822	3822	3862	3862	3862	3862	3822	3822	3822	3822	3862	3862	3862	3943	3985	4028	4072	4072	4116	4116	4072	3985	3746	3637	3469	3345	3257	3257	0	0	0	0	0	0	0	0	0	0	0	0	0	0	0	0	0	0	0	0	0	541	540	539	539	538	538	537	535	534	532	530	528	525	523	522	520	517	516	514	512	510	509	507	505	503	502	499	498	496	495	492	490	488	486	484	483	483	481	481	480	480	480	479	479	479	478	478	478	478	478	478	478	478	479	479	479	480	480	480	480	480	481	481	481	481	482	483	483	484	485	486
2191	2204	2204	0	0	0	0	0	0	0	0	0	0	0	0	0	0	0	0	0	0	0	0	0	0	0	0	0	0	0	378	378	379	380	382	384	386	387	388	389	389	389	390	390	391	391	391	391	391	392	394	394	394	0	0	381	381	380	380	380	379	378	378	380	381	381	0	0	0	0	0	0	0	0	0	0	0	0	0	0	0	0	0	0	0	0	0	0	0	0	0	0	0	0	382	382	383	383	383	384	385	386	387	388	390	391	393	393	393	393	392	391	391	389	389	388	387	387	386	386	386	386	386	386	387	387	388	389	390	391	393	394	396	397	399	400	401	402	402	402	403	403	403	403	404	404	405	407	408	410	412	414	415	417	418	419	419	420	420	420	420	421	423	423	423	424	425	0	0	4257	4257	4257	4306	4306	4356	4356	4356	4356	4356	4306	4306	4257	4257	4209	4209	4209	0	0	0	0	0	0	0	0	0	0	0	0	0	0	0	0	594	593	593	593	594	594	594	594	594	595	595	596	596	596	596	596	596	596	594	593	593	590	589	587	585	584	583	582	581	580	580	580	580	580	580	580	578	578	577	576	575	575	575	574	574	574	574	573	573	573	574	574	575	575	576	578	579	581	582	583	584	586	587	588	589	590	590	591	591	591	591	592	593	594	596	596	597	599	601	602	603	0	0	0	0	6689	6689	7204	7204	7345	7345	6811	6572	6243	6042	5946	5946	5763	5763	5763	5853	6042	6243	6459	6811	7068	7204	7204	7345	7345	7492	7492	7345	7204	6937	6937	6811	6572	6459	6459	6349	6243	6243	6141	6141	6141	6141	6141	6141	6141	6042	5853	5853	5853	5763	5676	5509	5509	5509	5429	5351	5351	5276	5203	5203	5132	5062	5062	5062	5132	5132	5203	5276	5276	5351	5429	5509	5509	5509	5509	5509	5509	5509	0	0	0	0	0	0	0	0	0	0	0	991	991	988	986	986	986	986	988	991	996	1002	1004	1010	1010	1012	1018	1021	1023	1023	1023	1021	1015	1015	1010	1007	1004	1002	999	999	999	1002	1007	1010	1015	1018	1023	1026	1029	1029	1032	1032	1029	1026	1023	1021	1015	1012	1004	999	996	996	996	996	999	999	999	999	1004	1004	1002	1002	1004	0	0	0	0	0	0	0	0	604	598	594	590	586	583	582	580	579	578	577	575	575	575	573	573	572	572	572	572	573	574	575	576	577	579	580	581	583	583	585	586	587	588	588	588	587	587	585	585	584	583	583	583	583	584	584	584	585	585	586	587	588	589	590	591	592	594	594	595	594	593	590	589	589	589	591	591	591	592	593	595	0	0	0	0	0	0	0	0	0	0	0	0	0	0	0	0	0	0	0	0	0	0	0	1032	1032	1029	1026	1021	1018	1010	1007	1002	999	994	994	991	988	986	986	986	986	986	988	988	988	988	988	988	988	988	988	988	991	991	991	991	991	991	994	994	994	996	996	999	1004	1007	1012	1018	1023	1032	1041	1049	1055	1064	1070	1073	1076	1080	1080	1083	0	3822	3784	3784	3822	3822	3862	3862	3862	3902	3902	3902	3902	3862	3862	3862	3902	3902	3943	3943	3985	4028	4072	4116	4162	4116	4116	4072	4028	3862	3673	3469	3286	3148	3148	0	0	0	0	0	0	0	0	0	0	0	0	0	0	0	0	0	0	0	0	0	0	539	539	539	538	537	536	535	534	531	529	527	525	523	521	518	517	515	512	510	509	508	506	503	501	500	499	497	496	494	492	489	486	485	483	482	481	481	480	480	480	479	479	479	478	478	478	478	478	478	478	478	478	480	480	480	480	480	480	480	480	481	481	481	481	482	483	483	485	485	486
2178	2178	2178	0	0	0	0	0	0	0	0	0	0	0	0	0	0	0	0	0	0	0	0	0	0	0	0	0	0	0	380	380	381	381	384	386	388	389	391	391	392	392	393	393	396	395	395	395	394	394	394	393	392	388	384	381	381	380	380	380	379	379	379	380	381	381	381	0	0	0	0	0	0	0	0	0	0	0	0	0	0	0	0	0	0	0	0	0	0	0	0	0	0	0	382	382	383	383	383	384	384	385	386	387	389	391	391	393	393	392	391	391	390	389	388	387	387	386	386	386	386	386	386	386	387	387	388	389	390	391	393	394	396	397	398	399	400	401	402	403	403	404	404	405	405	405	407	409	410	412	414	415	417	418	419	420	420	420	420	421	421	422	423	423	424	424	425	0	4209	4209	4257	4257	4257	4306	4306	4356	4356	4356	4306	4306	4306	4257	4257	4209	4209	4209	0	0	0	0	0	0	0	0	0	0	0	0	0	0	0	0	593	593	594	594	594	594	594	594	595	596	596	596	596	596	597	596	596	596	595	593	593	591	589	587	585	584	583	583	582	581	581	581	581	581	581	581	580	579	578	577	577	576	575	575	575	575	575	575	575	575	575	575	575	576	577	578	579	581	582	583	584	585	587	588	588	589	590	590	590	591	591	592	593	594	595	596	597	599	600	601	603	605	0	0	6042	6042	6349	6689	6811	6811	6689	6459	6141	6042	5763	5676	5591	5509	5509	5509	5591	5763	6042	6243	6459	6689	6937	7204	7492	7492	7492	7345	7204	6937	6937	6689	6572	6349	6141	6042	6042	5946	5946	5946	5946	5946	6042	6042	5946	5853	5853	5763	5763	5676	5591	5429	5351	5351	5276	5203	5132	5132	5062	5062	4995	4995	4995	4995	4995	4995	5132	5132	5203	5276	5351	5351	5429	5429	5429	5351	5351	5351	5429	0	0	0	0	0	0	0	0	0	0	0	1004	999	996	994	994	994	994	996	996	1002	1007	1010	1015	1015	1018	1023	1026	1032	1032	1026	1023	1023	1021	1015	1010	1004	1002	999	999	1002	1002	1007	1010	1012	1015	1021	1026	1032	1038	1041	1043	1043	1043	1043	1041	1038	1032	1026	1021	1015	1015	1015	1015	1012	1012	1010	1010	1010	1012	1007	1004	1004	0	0	0	0	0	0	0	0	0	0	0	0	585	583	582	580	579	578	577	575	575	575	573	572	572	572	572	572	573	574	575	575	577	578	579	581	582	583	584	586	587	588	589	589	589	588	587	586	585	585	584	584	584	585	585	585	585	586	586	587	588	589	590	591	592	594	595	595	595	594	591	590	590	590	591	593	592	592	593	596	0	0	0	0	0	0	0	0	0	0	0	0	0	0	0	0	0	0	0	0	0	0	1026	1026	1023	1023	1023	1018	1015	1010	1007	1002	999	996	994	991	988	986	986	986	988	988	991	991	988	988	988	991	991	991	991	991	991	994	991	991	991	991	994	994	994	996	999	999	1004	1007	1012	1018	1026	1032	1041	1049	1058	1064	1070	1076	1080	1083	1083	0	0	3822	3822	3822	3862	3862	3902	3902	3943	3943	3943	3943	3943	3943	3943	3943	3943	3943	3943	3985	4028	4072	4116	4162	4162	4116	4116	4072	3985	3862	3673	3437	3229	3070	3070	2882	2882	0	0	0	0	0	0	0	0	0	0	0	0	0	0	0	0	0	0	0	0	539	539	0	0	536	535	534	533	531	529	526	525	522	520	517	515	513	511	509	507	506	504	502	501	499	497	496	494	493	490	488	485	483	482	481	480	480	480	479	479	479	479	478	478	478	478	478	478	478	478	478	479	480	480	480	480	480	480	480	480	481	481	481	481	481	482	483	484	485	486
2153	2153	2153	2153	0	0	0	0	0	0	0	0	0	0	0	0	0	0	0	0	0	0	0	0	0	0	0	0	0	387	384	384	384	384	386	388	391	392	393	393	394	395	396	396	396	395	395	395	394	394	394	393	391	388	384	382	381	381	381	381	380	380	380	380	381	381	381	381	0	0	0	0	0	0	0	0	0	0	0	0	0	0	0	0	0	0	0	0	0	0	0	0	0	0	0	383	383	383	383	384	384	385	386	387	389	390	391	392	392	391	391	390	389	388	387	386	386	385	385	385	385	385	385	386	386	387	388	389	390	391	392	393	395	396	398	399	400	401	402	403	404	404	405	406	407	407	409	411	412	414	415	417	418	419	420	420	421	421	421	421	422	422	423	424	424	424	425	4116	4116	4209	4257	4257	4257	4306	4306	4356	4356	4356	4306	4306	4306	4257	4257	4209	4209	4209	0	0	0	0	0	0	0	0	0	0	0	0	0	0	0	0	593	593	594	594	594	594	595	595	595	596	596	596	597	597	597	596	596	596	595	594	593	592	590	588	586	585	584	583	583	582	582	582	582	583	582	582	581	580	580	578	578	577	577	576	576	576	575	575	575	575	575	576	576	577	577	578	580	581	582	583	583	585	586	587	587	588	589	590	590	591	591	592	593	594	595	596	597	599	600	601	603	605	0	0	6042	5946	5946	6141	6243	6243	6243	6042	5853	5676	5509	5429	5429	5351	5351	5351	5429	5591	5763	5946	6243	6349	6689	6937	7068	7204	7204	7068	6937	6937	6811	6572	6349	6042	5946	5763	5763	5591	5591	5509	5509	5591	5676	5676	5676	5591	5591	5591	5591	5509	5351	5276	5203	5132	5132	5062	4995	4929	4929	4929	4865	4865	4865	4865	4929	4995	5062	5132	5132	5203	5276	5276	5351	5351	5351	5276	5276	5276	5276	0	0	0	0	0	0	0	0	1032	1032	0	1012	1010	1004	1004	1002	1002	1004	1004	1007	1010	1015	1018	1023	1026	1026	1032	1035	1041	1038	1035	1032	1026	1021	1015	1010	1004	1002	999	999	1002	1004	1007	1007	1012	1015	1021	1023	1032	1041	1049	1055	1058	1058	1058	1058	1058	1055	1049	1041	1038	1035	1035	1032	1029	1026	1023	1021	1021	1021	1015	1010	1010	0	0	0	0	0	0	0	0	0	596	591	591	585	583	582	580	579	578	577	576	575	574	573	572	572	572	572	572	573	573	574	575	577	578	579	580	582	583	584	586	587	588	589	589	589	589	588	587	586	586	586	586	586	586	586	586	586	587	587	588	588	589	591	592	593	594	595	595	596	594	592	591	591	591	592	593	593	593	593	596	0	0	0	0	0	0	0	0	0	0	1046	1043	1041	1038	1035	1035	1029	1029	0	0	1018	1018	1018	1018	1018	1018	1018	1015	1012	1010	1007	1002	999	996	994	994	991	991	991	991	994	994	991	991	991	994	994	994	994	994	994	994	994	994	994	994	994	994	994	996	996	996	999	1002	1004	1010	1015	1021	1026	1035	1043	1052	1058	1067	1073	1080	1083	1086	1086	1089	0	3862	3862	3902	3902	3943	3943	3943	3943	3985	4028	4028	4028	4028	3985	3985	3985	3985	4028	4028	4072	4116	4162	4162	4162	4116	4072	4028	3985	3902	3673	3405	3175	3070	2927	2882	2882	0	0	0	0	0	0	0	0	0	0	0	0	0	0	0	0	0	0	0	0	0	0	0	0	535	535	534	532	531	529	526	524	522	520	516	514	512	509	507	506	503	502	500	499	498	496	495	493	492	489	486	484	482	481	480	480	479	479	479	479	479	478	478	478	478	478	478	478	478	478	478	478	480	480	480	480	480	480	480	480	480	480	480	481	481	482	482	483	485	486
2141	2141	2128	2128	0	0	0	0	0	0	0	0	0	0	0	0	0	0	0	0	0	0	0	0	0	0	0	0	0	387	387	387	387	387	393	393	393	394	395	396	396	397	398	398	397	397	397	396	395	395	394	392	391	389	387	384	383	382	382	381	381	381	381	381	381	381	381	381	0	0	0	0	0	0	0	0	0	0	0	0	0	0	0	0	0	0	0	0	0	0	0	0	0	0	0	385	384	384	384	384	385	385	386	387	389	390	391	391	391	390	389	389	388	387	386	385	385	385	385	385	385	385	385	385	386	387	388	389	390	391	392	393	395	396	398	399	399	400	401	402	404	405	405	407	408	409	411	412	414	415	417	418	419	420	420	421	422	422	422	422	422	423	424	424	424	424	425	4116	4116	4209	4257	4257	4306	4306	4306	4356	4356	4356	4356	4306	4306	4257	4257	4257	4257	4257	0	0	0	0	0	0	0	0	0	0	0	0	0	0	0	0	594	594	594	595	595	595	595	595	596	596	596	597	597	598	598	597	597	596	596	595	594	592	590	589	587	586	585	584	583	583	583	583	583	583	583	583	582	581	581	580	579	579	578	578	577	577	577	577	577	577	577	577	577	577	578	579	580	581	582	583	583	584	585	586	586	587	588	589	590	590	591	592	593	594	595	596	598	599	600	602	603	605	0	5203	5203	5351	5591	5763	5853	5946	5853	5763	5591	5509	5351	5276	5276	5132	5132	5132	5203	5351	5591	5676	5946	6141	6349	6572	6811	6937	6811	6811	6811	6689	6572	6349	6141	5946	5763	5676	5591	5429	5351	5351	5351	5351	5429	5429	5429	5429	5429	5429	5351	5276	5203	5132	5062	5062	5062	4929	4929	4929	4865	4865	4865	4865	4865	4865	4865	4995	5062	5062	5132	5132	5203	5276	5276	5203	5203	5203	5203	5203	5276	0	0	0	0	0	0	0	1043	1032	1032	1029	1021	1018	1012	1012	1010	1010	1012	1012	1015	1021	1023	1026	1032	1035	1035	1041	1043	1046	1046	1043	1038	1032	1026	1021	1012	1010	1004	1002	1002	1002	1004	1007	1007	1012	1015	1018	1023	1035	1041	1052	1061	1067	1070	1073	1076	1076	1073	1067	1064	1058	1055	1052	1049	1046	1041	1035	1032	1029	1026	1021	1015	1015	0	0	0	0	0	0	0	606	601	596	591	590	586	584	583	581	579	578	577	576	575	574	573	572	572	572	572	572	572	573	574	575	577	578	579	580	582	583	584	586	587	588	590	590	591	591	590	589	589	589	588	588	588	588	588	588	588	589	589	589	590	590	591	592	593	594	595	595	596	595	592	592	592	592	593	593	593	592	592	594	0	0	0	0	0	0	0	0	0	1055	1046	1043	1041	1038	1035	1029	1029	1023	1023	1015	1015	1015	1015	1015	1015	1018	1015	1015	1012	1010	1007	1002	1002	999	996	994	994	994	994	994	996	994	994	996	996	996	999	999	999	999	999	999	999	996	996	994	994	996	996	996	996	999	1002	1002	1007	1012	1015	1021	1029	1038	1043	1052	1064	1070	1076	1083	1086	1086	1089	1089	0	3902	3902	3943	3943	3985	3985	3985	4028	4028	4028	4072	4072	4028	4028	4072	4072	4072	4072	4072	4072	4116	4162	4162	4116	4116	4072	4028	3943	3902	3602	3345	3096	3096	2838	2734	2531	2531	0	0	0	0	0	0	0	0	0	0	0	0	0	0	0	0	0	0	0	0	0	0	0	534	534	533	531	531	528	525	523	521	518	515	512	510	508	506	504	502	501	499	498	497	496	494	492	491	488	485	483	481	480	480	479	479	479	479	479	479	478	478	478	477	477	477	477	478	478	478	478	480	480	480	480	480	480	480	480	480	480	480	480	481	481	482	483	485	486
2128	2128	2116	2116	2128	2128	0	0	0	0	0	0	0	0	0	0	0	0	0	0	0	0	0	0	0	0	0	0	0	391	391	392	397	393	393	397	397	398	398	398	399	399	400	400	399	399	398	397	396	395	393	391	390	389	386	385	384	383	383	383	382	382	381	381	381	381	381	381	381	0	0	0	0	0	0	0	0	0	0	0	0	0	0	0	0	0	0	0	0	0	0	0	0	0	0	385	385	385	385	385	385	386	387	387	389	390	391	391	390	389	388	387	386	385	385	384	384	383	383	384	384	384	385	385	386	387	388	389	390	391	392	393	395	396	397	398	399	400	401	402	403	404	405	407	408	409	411	413	415	416	418	419	419	420	421	421	422	422	422	423	423	423	424	424	424	424	425	4209	4209	4257	4257	4306	4306	4306	4356	4356	4356	4356	4356	4306	4306	4306	4306	4257	4257	4257	0	0	0	0	0	0	0	0	0	0	0	0	0	0	0	0	594	594	594	595	595	595	595	596	596	596	597	597	598	598	598	598	597	596	596	595	594	592	591	589	588	587	586	584	583	583	583	583	583	584	583	583	583	582	581	581	580	580	579	579	579	579	578	578	578	578	578	578	578	578	579	580	580	581	581	582	583	583	584	585	585	586	587	588	589	590	590	591	593	594	595	596	598	599	600	601	603	604	4995	4995	5062	5132	5351	5509	5676	5763	5676	5509	5429	5351	5203	5062	5062	4929	4929	4929	4995	5132	5351	5509	5676	5853	6042	6349	6572	6689	6811	6811	6689	6572	6459	6141	5946	5763	5676	5509	5429	5351	5276	5203	5203	5203	5203	5276	5276	5276	5276	5203	5203	5132	5132	5062	5062	5062	4995	4929	4929	4865	4865	4865	4865	4803	4803	4803	4865	4929	4995	5062	5132	5132	5203	5203	5203	5203	5132	5132	5132	5132	0	0	0	0	0	0	0	0	1043	1038	1035	1029	1026	1023	1018	1018	1018	1018	1018	1021	1023	1026	1029	1035	1038	1043	1046	1046	1052	1052	1052	1049	1043	1038	1032	1023	1018	1010	1004	1002	1002	1004	1004	1007	1010	1012	1015	1018	1023	1035	1041	1055	1064	1073	1080	1086	1089	1095	1092	1089	1086	1080	1073	1073	1067	1061	1055	1046	1041	1038	1032	1026	1026	0	0	0	0	0	0	615	614	606	601	597	594	590	588	585	583	582	580	579	578	577	576	575	573	572	572	572	572	572	572	573	574	575	577	578	579	581	582	583	585	587	588	590	591	593	594	594	594	593	592	592	591	591	590	590	590	589	589	590	590	590	590	590	591	592	593	594	595	596	596	596	593	593	593	593	593	592	592	591	591	592	0	0	0	0	0	0	0	0	1058	1055	1052	1049	1043	1041	1038	1029	1029	1023	1023	1015	1012	1012	1012	1015	1015	1018	1015	1015	1012	1010	1010	1007	1004	1002	1002	999	999	999	996	996	996	996	999	999	1002	1004	1007	1007	1007	1007	1004	1004	1002	1002	999	999	996	996	999	999	999	1002	1002	1004	1010	1015	1018	1023	1032	1038	1049	1058	1064	1073	1080	1083	1089	1092	1092	1092	0	3943	3943	3985	3985	4028	4028	4028	4028	4072	4116	4116	4116	4116	4116	4116	4116	4116	4116	4116	4162	4162	4162	4162	4116	4116	4072	4028	3943	3902	3602	3286	3046	3046	2754	2676	2481	2312	2312	0	0	0	0	0	0	0	0	0	0	0	0	0	0	0	0	0	0	0	0	0	534	534	533	532	531	530	528	525	522	520	517	515	512	510	507	505	503	502	500	498	497	496	495	494	492	490	487	485	483	481	480	480	479	479	479	479	479	479	478	478	478	477	477	477	477	478	478	479	479	480	481	481	480	480	480	480	480	480	480	480	480	480	481	481	483	485	486
2128	2128	2116	2116	2116	2116	0	0	0	0	0	0	0	0	0	0	0	0	0	0	0	0	0	0	0	0	0	0	0	0	399	398	397	397	398	399	400	400	400	400	400	400	402	401	400	399	398	397	396	394	393	391	389	388	386	385	384	383	383	383	382	382	381	381	381	381	381	381	381	0	0	0	0	0	0	0	0	0	0	0	0	0	0	0	0	0	0	0	0	0	0	0	0	0	387	385	385	386	386	386	386	387	387	388	389	389	390	390	389	388	387	386	385	384	383	383	382	382	383	383	383	383	384	385	385	386	387	389	389	391	392	393	395	396	397	398	399	399	400	402	403	404	405	407	408	409	411	413	415	416	417	419	419	420	421	421	422	422	422	423	423	423	424	424	424	424	425	4257	4257	4306	4356	4356	4356	4356	4407	4407	4407	4407	4356	4356	4306	4306	4306	4306	4257	4257	0	0	0	0	0	0	0	0	0	0	0	0	0	0	0	595	595	595	595	595	596	595	595	596	596	596	597	598	598	598	597	596	596	596	595	593	593	591	589	589	587	586	585	585	584	583	583	584	584	584	584	584	583	582	582	581	581	581	580	580	580	580	579	579	579	579	579	579	579	579	579	580	580	580	580	581	582	582	583	583	584	585	586	587	588	589	590	591	593	594	595	596	598	600	600	601	602	604	4929	4929	4929	4995	5203	5276	5351	5429	5429	5351	5203	5203	5062	4995	4929	4865	4865	4865	4865	4929	5132	5276	5429	5591	5853	6141	6349	6572	6811	6689	6689	6459	6349	6042	5853	5676	5591	5429	5276	5203	5203	5132	5132	5132	5132	5203	5203	5132	5132	5132	5203	5132	5132	5062	5062	5062	4995	4929	4929	4865	4865	4865	4865	4803	4803	4803	4865	4929	4929	4995	4995	5062	5132	5132	5132	5132	5062	5062	5062	5062	0	0	0	0	0	0	0	0	1046	1041	1038	1035	1032	1026	1023	1023	1023	1023	1023	1026	1029	1032	1038	1041	1046	1049	1052	1052	1058	1061	1061	1055	1049	1041	1035	1026	1021	1015	1010	1004	1004	1007	1007	1010	1012	1015	1018	1021	1026	1038	1046	1058	1070	1080	1089	1095	1102	1105	1108	1108	1105	1102	1095	1092	1089	1080	1073	1067	1058	1055	1055	0	0	0	0	0	0	0	0	615	614	613	608	602	597	594	591	587	585	583	582	581	579	578	577	575	574	574	573	573	573	573	573	574	574	575	577	579	580	581	583	584	586	588	590	592	594	595	596	596	596	596	595	595	594	593	592	592	591	591	591	591	591	591	591	591	591	592	594	595	596	596	596	596	594	593	593	592	591	590	590	589	589	589	0	0	0	0	0	0	0	1061	1058	1058	1052	1049	1046	1043	1041	1032	1032	1023	1023	1012	1012	1012	1012	1012	1012	1012	1015	1015	1012	1012	1010	1010	1007	1004	1002	1002	1004	999	996	996	999	1002	1002	1007	1010	1010	1012	1015	1015	1012	1012	1010	1007	1004	1002	1002	1002	1002	1002	1002	1004	1004	1007	1010	1012	1018	1021	1029	1035	1043	1052	1058	1067	1076	1080	1086	1089	1092	1095	1095	0	3985	3985	3985	4028	4028	4072	4072	4116	4116	4116	4162	4162	4162	4162	4162	4162	4162	4162	4162	4162	4162	4162	4162	4116	4116	4072	4028	3985	3902	3568	3257	3046	3046	2754	2657	2481	2312	2312	0	0	0	0	0	0	0	0	0	0	0	0	0	0	0	0	0	0	0	0	0	534	534	533	532	531	530	528	525	522	520	517	515	512	510	507	505	503	502	500	498	497	496	495	494	492	490	487	485	483	481	480	480	479	479	479	479	479	479	479	478	478	478	478	478	478	479	479	480	480	481	483	482	481	481	480	480	480	480	479	479	479	479	480	481	482	484	486
2128	2116	2116	2116	2116	2116	0	0	0	0	0	0	0	0	0	0	0	0	0	0	0	0	0	0	0	0	0	0	0	0	412	405	403	402	402	403	402	402	401	401	401	401	402	401	399	399	398	396	394	393	391	390	388	387	385	384	384	383	383	383	382	382	382	382	382	0	0	0	0	0	0	0	0	0	0	0	0	0	0	0	0	0	0	0	0	0	0	0	0	0	0	0	0	389	387	387	387	387	387	387	387	387	388	388	389	389	390	389	389	387	386	385	384	383	382	382	381	381	381	382	382	383	383	384	385	386	387	389	389	391	392	393	395	396	397	398	399	399	400	401	403	404	405	406	408	409	411	413	414	416	417	418	419	419	420	421	422	422	422	423	423	423	424	424	424	424	425	0	4407	4407	4407	4407	4407	4460	4460	4460	4407	4407	4407	4356	4306	4306	4306	4306	0	0	0	0	0	0	0	0	0	0	0	0	0	0	0	0	0	594	594	595	595	595	596	596	596	596	596	596	596	597	597	596	596	595	595	593	592	591	590	588	588	586	586	584	584	585	584	583	583	584	584	584	584	584	583	583	582	582	581	581	581	581	581	580	580	580	580	580	579	579	579	579	580	580	580	580	580	581	581	582	583	583	584	585	586	587	588	589	590	591	593	594	595	596	598	600	601	602	602	604	4865	4865	4865	4929	5062	5132	5203	5203	5203	5132	5062	4929	4865	4803	4742	4625	4625	4625	4683	4803	4995	5132	5276	5429	5676	5946	6141	6572	6572	6572	6572	6459	6141	5946	5763	5676	5509	5429	5276	5203	5132	5132	5062	5062	5132	5203	5203	5132	5132	5132	5203	5132	5132	5062	5062	5062	4995	4995	4929	4929	4929	4865	4865	4803	4803	4803	4865	4865	4929	4995	4995	5062	5062	5062	5062	5062	5062	4995	4995	5062	0	0	0	0	0	0	0	1067	1055	1049	1043	1041	1035	1032	1026	1026	1026	1026	1026	1029	1032	1038	1041	1046	1049	1055	1058	1061	1061	1064	1064	1061	1052	1046	1038	1029	1023	1015	1010	1007	1007	1007	1007	1010	1012	1015	1018	1023	1026	1038	1046	1058	1073	1086	1099	1105	1112	1122	1125	1125	1125	1118	1118	1112	1105	1095	1089	1083	1076	1070	1070	1076	0	0	0	0	0	0	0	620	618	618	613	607	602	597	595	591	588	585	583	582	580	579	578	576	575	575	574	574	574	574	574	575	575	576	578	579	581	582	583	585	587	589	591	593	595	597	598	599	599	598	597	596	596	595	594	593	592	592	592	592	591	591	590	590	591	592	593	594	595	596	596	595	594	593	592	592	590	589	588	587	587	587	0	0	0	0	0	0	0	1061	1058	1058	1055	1052	1046	1043	1041	1032	1023	1023	1023	1012	1012	1012	1012	1012	1012	1012	1015	1015	1012	1012	1012	1012	1012	1010	1010	1010	1004	1004	1004	1004	1007	1007	1010	1015	1018	1018	1021	1023	1021	1021	1015	1015	1012	1010	1004	1004	1004	1004	1004	1007	1007	1007	1010	1012	1018	1021	1026	1032	1041	1046	1055	1064	1070	1076	1083	1089	1089	1095	1095	1099	0	4028	4028	4072	4072	4116	4116	4116	4116	4162	4162	4209	4209	4209	4209	4162	4162	4162	4162	4162	4162	4209	4162	4162	4116	4116	4072	4028	3985	3902	3568	3257	3046	3046	2754	2657	2481	2327	2327	0	0	0	0	0	0	0	0	0	0	0	0	0	0	0	0	0	0	0	0	0	534	533	533	532	531	530	528	525	522	520	517	515	512	510	508	505	503	502	501	499	497	496	495	494	492	490	488	485	483	481	480	480	480	479	479	479	479	479	479	479	479	479	479	479	479	480	480	480	481	483	483	483	482	481	481	480	480	480	479	479	479	479	480	481	481	484	486
2116	2116	2104	2104	2104	2104	0	0	0	0	0	0	0	0	0	0	0	0	0	0	0	0	0	0	0	0	0	0	0	417	412	412	409	406	406	406	404	403	402	401	400	400	400	400	399	397	396	394	393	391	390	389	387	386	385	384	383	383	383	383	382	382	382	382	382	382	382	382	0	0	0	0	0	0	0	0	0	0	0	0	0	0	0	0	0	0	0	0	0	0	0	0	389	389	388	388	388	388	388	388	388	388	389	389	389	390	390	389	388	387	385	383	383	382	382	381	381	380	380	381	381	381	382	383	385	386	387	389	390	391	392	394	395	396	397	398	399	399	400	401	402	404	405	406	408	409	411	413	414	415	416	417	418	419	420	420	421	422	422	423	423	423	424	424	424	424	425	0	4460	4460	4460	4513	4513	4513	4513	4513	4460	4460	4407	4356	4356	4356	4356	0	0	0	0	0	0	0	0	0	0	0	0	0	0	0	0	0	0	594	594	595	595	595	595	595	595	596	596	596	596	596	595	595	594	593	592	591	589	588	587	586	586	585	584	584	583	583	583	583	583	583	583	583	583	584	583	583	582	582	582	582	582	582	582	581	581	581	581	580	580	580	580	580	580	580	580	580	580	581	581	583	583	583	584	585	586	587	589	590	590	592	593	594	595	596	598	600	601	602	602	604	4865	4803	4803	4929	4995	5062	4995	4995	4995	4865	4803	4742	4683	4625	4625	4568	4513	4513	4568	4683	4865	4995	5132	5276	5509	5853	6141	6349	6459	6459	6459	6243	6141	5853	5763	5591	5429	5351	5203	5132	5132	5062	5062	5062	5132	5203	5203	5203	5203	5203	5203	5203	5203	5203	5132	5132	5132	5062	5062	4929	4929	4929	4929	4865	4865	4865	4865	4865	4929	4995	4995	5062	5062	5062	4995	4995	4995	4995	4929	4929	0	0	0	0	0	0	0	1067	1061	1052	1049	1043	1038	1032	1029	1029	1029	1029	1029	1032	1038	1041	1043	1049	1055	1058	1061	1064	1064	1067	1067	1061	1055	1049	1041	1032	1023	1015	1010	1007	1007	1007	1007	1010	1012	1015	1018	1023	1026	1038	1046	1058	1067	1080	1092	1105	1118	1128	1132	1139	1139	1135	1128	1125	1118	1112	1102	1095	1089	1083	1076	1076	0	0	0	0	0	629	627	626	622	620	616	611	606	601	596	595	591	588	584	583	581	580	579	578	576	575	575	575	575	575	575	575	576	577	579	581	582	583	584	586	588	591	593	595	596	598	600	600	600	600	599	598	597	596	595	594	593	592	592	591	590	589	589	590	590	590	592	593	594	595	595	595	593	592	591	589	588	587	586	585	584	584	0	0	0	0	0	0	0	1067	1064	1061	1058	1055	1049	1046	1043	1038	1023	1023	1023	1018	1015	1015	1012	1012	1015	1015	1015	1015	1015	1015	1018	1015	1015	1018	1010	1010	1010	1010	1012	1012	1015	1018	1018	1021	1023	1029	1029	1029	1026	1023	1023	1018	1015	1012	1010	1010	1010	1010	1010	1010	1012	1012	1015	1018	1023	1026	1032	1038	1043	1052	1058	1067	1073	1080	1086	1089	1092	1095	1099	1099	1099	4072	4072	4072	4072	4116	4116	4162	4162	4162	4162	4209	4209	4257	4257	4209	4209	4209	4209	4209	4209	4209	4209	4209	4162	4116	4116	4116	4028	3985	3673	3315	3046	3046	2775	2657	2481	2356	2356	0	2217	2217	0	0	0	0	0	0	0	0	0	0	0	0	0	0	0	0	0	0	535	533	533	533	531	531	528	525	524	521	518	516	514	512	509	506	505	503	501	500	499	497	496	494	493	492	489	486	484	482	481	480	480	480	480	479	479	480	480	480	480	480	480	480	480	481	481	481	483	483	485	484	483	482	482	481	481	480	479	479	0	0	0	481	481	484	487
2093	2081	2081	2081	2081	2104	0	0	0	0	0	0	0	0	0	0	0	0	0	0	0	0	0	0	0	0	0	0	420	417	416	416	412	410	409	409	405	404	402	400	399	399	399	398	397	396	394	393	391	390	389	387	386	386	385	384	383	383	383	383	383	383	382	382	382	382	382	382	0	0	0	0	0	0	0	0	0	0	0	0	0	0	0	0	0	0	0	0	0	0	0	389	389	389	389	389	389	389	389	389	389	389	390	390	391	390	390	389	388	387	384	383	382	381	381	380	380	380	380	380	380	381	381	383	384	386	387	389	390	391	393	394	396	396	397	398	399	399	400	401	402	404	405	406	408	409	411	412	413	414	416	417	418	419	419	420	421	422	422	423	423	424	424	424	425	425	425	0	4568	4568	4568	4568	4568	4568	4568	4513	4513	4460	4460	4407	4407	4407	0	0	0	0	0	0	0	0	0	0	0	0	0	0	0	0	0	0	0	593	593	594	594	595	595	595	594	594	594	595	595	594	594	593	592	591	589	588	587	586	585	584	584	583	583	583	582	582	583	583	583	583	583	583	583	583	583	583	582	582	582	582	582	582	582	582	582	582	582	582	582	582	582	582	582	582	581	581	581	581	582	583	583	583	584	585	586	588	590	591	592	592	594	596	596	597	598	600	601	602	602	604	4742	4742	4742	4742	4742	4742	4683	4683	4683	4625	4568	4568	4513	4460	4460	4460	4513	4513	4513	4625	4803	4865	4995	5203	5509	5853	6042	6243	6349	6459	6349	6243	6042	5853	5676	5509	5351	5276	5203	5132	5132	5062	5062	5062	5132	5203	5203	5203	5276	5276	5276	5276	5276	5276	5276	5276	5203	5132	5132	4995	4995	4995	4929	4865	4865	4865	4865	4929	4929	4929	4995	4995	5062	5062	4929	4929	4865	4865	4865	4929	0	0	0	0	0	0	0	1067	1061	1055	1049	1043	1038	1035	1029	1029	1032	1032	1032	1035	1041	1043	1046	1052	1055	1061	1064	1067	1067	1067	1067	1064	1055	1049	1041	1032	1023	1015	1012	1007	1007	1007	1007	1010	1012	1015	1018	1023	1026	1035	1043	1052	1064	1073	1086	1099	1108	1122	1128	1135	1142	1142	1139	1139	1132	1122	1115	1108	1108	1108	1108	0	0	0	0	0	0	629	627	626	625	623	619	614	609	605	600	596	594	590	586	583	583	581	580	579	578	577	577	576	576	576	576	577	577	579	580	582	583	584	585	587	589	592	594	596	597	599	601	601	602	601	600	599	597	596	595	594	593	592	591	590	589	589	589	589	589	590	591	592	593	594	594	593	591	591	589	589	587	585	584	583	583	583	0	0	0	0	0	0	0	1076	1073	1070	1067	1061	1055	1049	1043	1038	1029	1026	1023	1018	1015	1015	1015	1015	1015	1015	1018	1018	1018	1021	1021	1021	1021	1018	1018	1018	1018	1021	1023	1023	1029	1029	1032	1035	1038	1038	1038	1035	1032	1029	1026	1023	1018	1015	1012	1012	1012	1012	1015	1015	1015	1018	1021	1026	1029	1032	1038	1043	1049	1055	1064	1070	1076	1083	1086	1092	1095	1095	1099	1099	1099	0	4028	4028	4072	4072	4116	4162	4162	4162	4162	4209	4209	4257	4257	4257	4257	4257	4257	4257	4306	4306	4306	4356	4407	4356	4356	4306	4162	4162	3784	3405	3405	0	2817	2676	2497	2371	2371	0	2204	2204	2204	0	0	0	0	0	0	0	0	0	0	0	0	0	0	0	0	0	535	534	534	534	533	531	530	528	525	523	521	519	517	514	511	510	508	506	504	502	500	499	497	496	494	492	490	488	485	484	482	481	480	480	480	480	480	480	480	481	481	481	481	481	481	482	483	483	484	485	486	485	485	484	483	483	483	481	480	480	479	479	480	481	483	485	488
2070	2058	2058	2058	2081	0	0	0	0	0	0	0	0	0	0	0	0	0	0	0	0	0	0	0	0	0	0	421	420	419	419	418	414	412	410	410	406	404	401	398	397	397	397	396	395	393	392	391	390	389	388	387	386	386	385	384	384	383	383	383	383	383	383	383	383	383	383	383	0	0	0	0	0	0	0	0	0	0	0	0	0	0	0	0	0	0	0	0	0	0	389	389	389	389	390	390	390	390	390	390	391	391	391	391	391	391	391	390	388	387	384	382	381	380	380	380	379	379	379	379	380	380	381	382	384	386	387	389	390	392	393	395	396	397	398	399	399	400	401	402	403	404	405	406	408	409	410	411	413	414	415	416	417	418	419	420	421	422	422	423	424	424	425	425	425	425	426	0	4625	4625	4625	4625	4625	4625	4625	4568	4568	4513	4513	0	0	0	0	0	0	0	0	0	0	0	0	0	0	0	0	583	583	585	588	591	591	592	593	593	593	594	594	593	593	593	593	593	593	592	592	591	590	589	587	586	585	584	583	583	583	582	582	582	582	582	582	582	582	582	582	582	582	583	583	582	582	582	582	582	583	583	583	583	583	583	583	583	583	583	583	583	583	583	582	582	582	582	583	583	584	584	585	586	588	590	591	592	593	594	596	596	597	598	599	601	602	602	603	605	4742	4625	4625	4625	4683	4625	4568	4513	4513	4513	4460	4460	4460	4407	4407	4407	4407	4460	4460	4568	4683	4742	4865	5203	5429	5676	5946	6141	6243	6243	6349	6141	5946	5853	5676	5509	5351	5276	5203	5132	5132	5062	5062	5062	5132	5203	5203	5276	5351	5351	5429	5429	5429	5429	5429	5351	5351	5276	5203	5132	5062	4995	4995	4929	4929	4929	4929	4929	4929	4929	4995	4995	4995	4995	4929	4865	4865	4865	4865	0	0	0	0	0	0	0	1083	1070	1061	1055	1049	1043	1038	1035	1032	1032	1032	1032	1035	1038	1041	1043	1049	1052	1058	1061	1061	1064	1064	1064	1064	1058	1052	1046	1038	1032	1023	1018	1012	1007	1007	1007	1007	1010	1012	1015	1018	1023	1026	1032	1041	1049	1058	1067	1076	1089	1102	1112	1118	1125	1132	1139	1139	1142	1135	1132	1125	1122	1115	1108	1108	0	0	0	0	0	0	0	631	630	629	627	623	618	613	608	604	599	596	592	588	585	583	583	582	581	579	579	578	578	578	578	578	578	579	580	581	582	583	584	586	588	590	592	595	596	598	600	601	602	602	601	600	598	597	596	595	593	592	591	590	589	588	588	588	588	588	589	590	591	591	592	592	591	590	589	588	587	585	583	583	582	581	581	0	0	0	0	0	0	0	1086	1080	1076	1073	1067	1061	1055	1049	1041	1032	1026	1026	1023	1018	1018	1018	1018	1018	1018	1021	1021	1023	1023	1026	1021	1021	1026	1029	1029	1032	1035	1041	1041	1043	1046	1046	1046	1046	1046	1043	1041	1035	1032	1029	1023	1021	1018	1015	1015	1015	1018	1018	1021	1023	1026	1029	1032	1038	1041	1043	1049	1055	1061	1067	1073	1080	1083	1089	1092	1095	1099	1099	1099	1102	0	4028	4028	4072	4072	4116	4162	4162	4162	4162	4209	4257	4257	4257	4257	4257	4257	4306	4306	4356	4407	4407	4460	4513	4513	4513	4460	4306	4209	3902	3534	3405	3122	2860	2714	2548	2417	2417	2257	2204	2191	2191	0	0	0	0	0	0	0	0	0	0	0	0	0	0	0	0	0	537	536	536	535	534	534	532	530	528	527	525	523	520	519	516	514	512	510	508	506	504	503	500	499	496	494	492	489	487	485	483	481	481	481	480	480	481	481	481	481	481	482	483	483	483	483	483	485	486	487	488	487	486	485	485	483	483	481	480	480	479	479	480	481	483	487	494
