949	949	949	949	949	949	949	950	951	952	953	953	955	956	958	959	960	961	961	961	961	962	962	962	962	962	962	962	962	962	962	962	963	963	963	963	963	962	959	958	954	953	950	948	946	945	943	943	941	941	940	0	0	0	0	0	0	0	0	0	0	0	0	0	0	0	0	0	0	0	0	0	0	0	0	0	0	0	0	0	0	0	0	0	0	0	0	951	951	951	950	950	950	950	949	0	0	0	0	0	0	0	0	0	0	0	0	0	948	949	950	950	950	950	950	951	951	950	950	951	951	953	954	955	957	0	959	962	963	965	966	967	969	970	971	971	971	972	972	971	971	970	970	969	969	971	973	975	0	982	988	991	994	996	997	999	999	998	998	997	996	995	995	994	993	992	992	992	992	992	992	992	992	992	0	0	0	0	0	0	0	0	0	0	0	0	0	0	0	0	1572	1572	1573	1573	1575	1574	1577	1577	1577	1578	1579	1578	1577	1575	1574	1574	1573	1572	1570	1570	1569	1569	1568	1567	1567	1568	1568	1568	1569	1570	1573	1574	1577	1580	1582	1586	1589	1592	1596	1598	1601	1601	1602	1602	1602	1600	1598	1596	1594	1592	1591	1589	1588	1588	1587	1586	1586	1587	1587	1588	1591	1591	1592	1594	1596	1596	1598	1598	1600	1600	1601	1601	1600	1597	1591	1587	1584	1582	1579	1577	1575	1575	1577	1578	1578	1579	1579	1579	1578	1579	1579	1575	1574	1574	1573	1572	1573	1575	1575	1575	1577	1577	1578	1578	1578	1579	1582	1583	1584	1588	1591	1592	1596	1598	1602	1605	1605	1605	1605	1607	1607	1607	1606	1605	1605	1604	1602	1601	1597	1594	1593	1592	1591	1588	1587	1586	1586	1586	1584	1586	1587	1587	1588	1591	1592	1593	1594	1596	1597	1597	1597	1596	1597	1597	1597	1597	1598	1600	1600	1602	1602	1604	1605	1606	1605	1604	1604	1602	1601	1600	1598	1596	1594	1593	1589	1588	1586	1584	1582	1582	1579	1578	1577	1574	1574	1573	1573	1572	1570	1570	1570	1570	1572	1572	1572	1573	1574	1575	1577	1577	1577	1577	1575	1577	1575	1574	1573	1573	1572	1572	1572	1570	1570	1572	1573	1577	1579	1583	1586	1588	1591	1593	1594	1596	1597	1597	1598	1598	1600	1600	1598	1597	1596	1593	1592	1589	1588	1587	1584	1583	1582	1579	1578	1577	1575	1574	1573	1573	1572	1572	1572	1570	1570	1570	1570	1569	1569	1569	1569	1568	1569	1569	1569	1569	1569	1570	1570	1570	1570	1572	1572	1573	1574	1575	1575	1577	1578	1578	1579	1580	1583	1583	1584	1584	1587	1588	1587	1587	1587	1586	1586	1587	1586	1586	1587	1588	1588	1591	1591	1591	1591	1591	1591	1591	1591	1589	1588	1587	1586	1583	1582	1579	1578	1577	1575	1574	1574	1574	1574	1574	1574	1574	1575	1577	1578	1579	1579	1582	1582	1583	1586	1586	1588	1589	1591	1593	1594	1596	1596	1597	1598	1598	1597	1596	1596	1594	1592	1589	1588	1586	1583	1582	1579	1578	1578	1575	1574	1574	1574	1574	1575	1578	1579	1580	1583	1584	1587	1588	1589	1591	1592	1593	1593	1594	1594	1596	1597	1598	1600	1600	1601	1602	1602	1604	1604	1602	1602	1601	1600	1598	1596	1594	1593	1593	1594	1594	1596	1597	1598	1602	1605	1607	1610	1610	1610	1611	1610	1609	1609	1607	1605	1602	1598	1596	1594	1593	1592	1591	1589	1588	1587	1586	1584	1583	1582	1580	1579	1579	1579	1579	1579	1582	1584	1586	1589	1592	1594	1597	1600	1601	1604	1604	1604	1604	1602	1601	1600	1598	1596	1594	1592	1591	1589	1587	1586	1584	1583	1582	1582	1580	1580	1580	1583	0	1586	1586	1587	1591	1592	1596	1597	1598	1600	1600	1601	1602	1602	1602	1602	1602	1602	1604	1604	1605	1606	0	1609	1611	1614	1617	1619	1622	1623	1626	1627	1629	1630	1630	1630	1629	1627	1623	1619	1615	1611	1606	1601	1597	1593	1592	1589	1587	1587	1586	1584	1584	1584	1583	1582	1582	1579	1575	1573	1570
949	949	949	949	949	949	950	950	951	952	952	953	954	956	958	959	959	961	961	961	961	961	961	961	961	961	961	961	961	961	961	961	961	961	961	960	958	957	955	953	951	948	947	945	944	943	943	942	941	941	940	0	0	0	0	0	0	0	0	0	0	0	0	0	0	0	0	0	0	0	0	0	0	0	0	0	0	0	0	0	0	0	0	0	0	0	0	0	951	950	949	949	949	948	0	0	0	0	0	0	0	0	0	0	0	0	0	0	0	0	0	947	947	947	947	947	947	946	947	947	948	949	950	952	954	957	0	959	961	964	966	967	968	969	970	971	971	971	971	971	970	969	968	968	968	969	0	0	0	980	985	988	991	993	996	997	998	997	996	996	995	994	993	992	991	991	991	990	990	990	991	990	991	991	992	0	0	0	0	0	0	0	0	0	0	0	0	0	0	0	1574	1574	1575	1577	1577	1578	1579	1578	1579	1579	1579	1578	1577	1573	1573	1572	1570	1569	1568	1567	1567	1568	1567	1565	1565	1565	1567	1568	1569	1570	1572	1574	1577	1579	1583	1587	1589	1593	1597	1600	1602	1602	1604	1601	1601	1598	1597	1594	1592	1589	1587	1586	1584	1584	1583	1582	1583	1583	1583	1584	1586	1587	1588	1589	1591	1592	1593	1594	1596	1597	1598	1597	1596	1591	1588	1584	1582	1579	1577	1574	1573	1574	1575	1577	1578	1578	1578	1578	1577	1577	1577	1573	1572	1572	1570	1570	1570	1573	1573	1573	1574	1574	1574	1574	1574	1577	1578	1579	1582	1583	1586	1588	1591	1594	1597	1601	1601	1602	1602	1602	1604	1604	1604	1602	1600	1598	1598	1597	1593	1591	1589	1588	1587	1586	1584	1583	1582	1582	1582	1583	1583	1584	1587	1589	1591	1592	1593	1596	1596	1596	1596	1597	1597	1597	1597	1598	1600	1600	1600	1602	1604	1605	1604	1604	1602	1602	1601	1600	1598	1597	1596	1593	1592	1591	1588	1587	1584	1584	1582	1582	1579	1578	1577	1575	1574	1573	1573	1573	1572	1572	1570	1570	1572	1573	1573	1573	1574	1575	1577	1577	1577	1577	1577	1577	1577	1575	1575	1574	1572	1572	1572	1570	1570	1572	1573	1575	1579	1580	1584	1587	1589	1591	1593	1594	1596	1597	1597	1598	1600	1598	1598	1597	1596	1593	1592	1589	1587	1586	1584	1582	1580	1579	1577	1575	1575	1573	1573	1572	1572	1570	1570	1570	1570	1569	1569	1568	1568	1568	1568	1568	1568	1568	1568	1568	1568	1569	1570	1570	1570	1570	1570	1570	1572	1572	1572	1573	1573	1574	1575	1577	1578	1579	1580	1582	1584	1584	1584	1584	1584	1584	1584	1584	1586	1586	1586	1587	1588	1588	1589	1589	1589	1588	1588	1588	1588	1588	1587	1586	1584	1583	1582	1579	1578	1577	1575	1574	1574	1574	1574	1574	1574	1574	1575	1575	1577	1577	1578	1578	1579	1579	1579	1580	1583	1584	1586	1588	1589	1591	1593	1594	1596	1596	1596	1594	1594	1593	1592	1589	1588	1586	1583	1580	1579	1577	1575	1573	1573	1572	1572	1572	1572	1573	1574	1575	1577	1578	1579	1580	1582	1584	1584	1587	1588	1588	1591	1592	1593	1596	1597	1598	1600	1602	1602	1604	1602	1602	1602	1601	1600	1598	1597	1594	1593	1593	1594	1594	1596	1597	1600	1602	1606	1609	1610	1611	1611	1611	1611	1610	1609	1609	1606	1604	1602	1597	1596	1593	1592	1592	1591	1589	1588	1588	1586	1584	1582	1580	1579	1578	1578	1579	1578	1580	1582	1584	1587	1589	1593	1596	1597	1601	1602	1604	1602	1602	1601	1600	1597	1596	1594	1593	1591	1589	1587	1586	1583	1582	1580	1579	1579	1578	1579	1580	1583	1584	0	1587	1588	1591	1593	1596	1597	1598	1598	1600	1600	1601	1600	1600	1601	1600	1601	1601	1602	1602	1605	1606	0	1609	1611	1614	1615	1618	1621	1622	1623	1625	1625	1626	1625	1623	1621	1617	1614	1609	1605	1601	1594	1591	1588	1586	1584	1583	1582	1582	1580	1580	1579	1579	1579	1579	1579	1575	1573	1573
949	949	949	949	949	949	949	950	951	952	953	954	955	957	958	959	960	959	960	961	960	961	961	960	960	960	960	960	960	960	960	960	959	959	959	956	954	953	951	948	947	946	944	943	943	942	942	941	941	941	940	0	0	0	0	0	0	0	0	0	0	0	0	0	0	0	0	0	0	0	0	0	0	0	0	0	0	0	0	0	0	0	0	0	0	0	0	0	0	950	949	948	948	948	948	1725	0	0	0	0	0	0	0	0	0	0	0	0	0	0	0	944	944	944	944	944	944	944	944	945	945	946	948	949	951	953	956	959	0	961	963	965	966	968	969	970	970	970	970	970	969	968	967	967	968	0	0	0	0	978	982	986	988	990	991	0	0	992	992	992	991	991	988	988	988	988	988	988	989	990	991	990	990	990	991	0	0	0	0	0	0	0	0	0	0	0	0	0	0	0	0	1577	1579	1579	1580	1582	1580	1580	1579	1579	1579	1577	1573	1570	1569	1568	1567	1567	1565	1565	1565	1565	1567	1565	1567	1567	1567	1569	1569	1572	1573	1575	1577	1580	1583	1587	1589	1593	1597	1600	1601	1601	1601	1600	1598	1597	1594	1592	1589	1587	1584	1583	1582	1582	1580	1579	1579	1580	1580	1582	1583	1584	1584	1586	1587	1589	1591	1592	1593	1594	1596	1596	1593	1588	1586	1583	1580	1578	1575	1574	1574	1574	1575	1577	1577	1578	1578	1577	1575	1575	1574	1572	1569	1569	1568	1569	1568	1570	1570	1570	1573	1573	1572	1573	1573	1573	1575	1577	1578	1579	1582	1584	1587	1591	1593	1596	1597	1597	1598	1598	1600	1600	1600	1598	1596	1596	1593	1592	1589	1587	1586	1584	1582	1582	1580	1579	1579	1578	1579	1579	1580	1582	1584	1586	1587	1589	1591	1593	1594	1594	1596	1596	1596	1596	1597	1597	1598	1598	1600	1601	1602	1602	1602	1602	1600	1598	1598	1596	1594	1593	1592	1589	1589	1588	1586	1584	1583	1583	1582	1580	1579	1578	1577	1575	1574	1573	1573	1573	1572	1570	1570	1572	1572	1572	1572	1572	1574	1574	1575	1575	1575	1575	1577	1575	1575	1575	1573	1573	1572	1570	1570	1570	1570	1570	1572	1574	1577	1580	1583	1586	1588	1589	1592	1593	1594	1596	1597	1597	1598	1598	1598	1596	1593	1592	1591	1588	1586	1583	1582	1580	1579	1578	1575	1575	1574	1573	1572	1570	1570	1570	1569	1569	1569	1568	1568	1567	1567	1567	1567	1565	1567	1567	1567	1567	1567	1568	1569	1569	1569	1569	1569	1569	1569	1569	1569	1569	1569	1570	1570	1572	1574	1575	1577	1579	1582	1582	1583	1583	1582	1583	1584	1584	1584	1584	1586	1586	1586	1587	1587	1587	1587	1587	1587	1587	1587	1586	1584	1584	1583	1582	1580	1579	1578	1577	1575	1575	1574	1574	1574	1574	1574	1574	1575	1574	1575	1575	1575	1575	1575	1574	1574	1575	1577	1578	1579	0	1583	1584	1587	1589	1592	1593	1593	1593	1593	1592	1591	1588	1587	1584	1582	1579	1578	1575	1573	1572	1570	1569	1568	1568	1568	1569	1570	1570	1572	1573	1574	1575	1575	1578	1579	1582	1583	1584	1586	1588	1591	1593	1596	1598	1600	1601	1602	1604	1602	1602	1602	1601	1598	1597	1596	1593	1593	1593	1593	1596	1596	1597	1600	1602	1606	1609	1610	1611	1611	1611	1611	1611	1610	1609	1607	1605	1602	1598	1597	1594	1593	1592	1591	1589	1588	1586	1586	1583	1580	1579	1578	1577	1577	1577	1578	1578	1579	1582	1586	1588	1591	1593	1594	1598	1601	1601	1600	1598	1597	1596	1596	1593	1592	1589	1589	1587	1586	1584	1582	1580	1579	1578	1577	1577	1578	1579	1582	1582	1584	0	1587	1589	1591	1593	1594	1596	1596	1597	1597	1597	1597	1598	1598	1598	1598	1598	1600	1601	1601	1604	1605	1607	0	1610	1611	1614	1615	1615	1618	1618	1618	1618	1618	1615	1614	1611	1607	1604	1600	1594	1591	1587	1584	1582	1579	1579	1578	1578	1577	1577	1575	1577	1577	1578	1578	1575	1574	1572
949	949	948	949	949	950	950	950	951	953	954	955	956	957	959	959	959	960	961	960	960	961	961	960	960	960	960	960	960	959	959	959	959	958	956	954	952	951	949	947	946	944	943	943	943	942	942	941	941	941	940	0	0	0	0	0	0	0	0	0	0	0	0	0	0	0	0	0	0	0	0	0	0	0	0	0	0	0	0	0	0	0	0	0	0	0	0	0	0	0	1724	1725	1724	1725	1725	1725	1725	0	0	0	0	0	0	0	0	0	0	0	0	0	941	942	942	942	942	942	943	943	943	943	943	945	947	948	950	952	954	956	958	960	0	962	964	965	967	967	968	969	968	968	967	966	965	965	967	0	0	0	972	975	978	981	983	986	987	988	988	989	985	984	984	985	986	986	986	987	987	987	988	989	989	990	990	990	990	0	0	0	0	0	0	0	0	0	0	0	0	0	0	0	0	0	1582	1582	1582	1582	1582	1582	1580	1579	1578	1575	1570	1568	1567	1567	1565	1564	1564	1565	1564	1565	1565	1565	1567	1567	1568	1569	1570	1572	1573	1575	1578	1580	1582	1586	1589	1593	1596	1598	1598	1600	1600	1598	1597	1594	1592	1589	1587	1584	1582	1580	1579	1579	1578	1578	1578	1578	1578	1579	1580	1582	1583	1583	1584	1587	1588	1589	1591	1592	1592	1592	1587	1586	1583	1580	1578	1577	1574	1574	1573	1575	1575	1577	1578	1578	1577	1577	1574	1573	1573	1570	1569	1568	1568	1567	1567	1569	1569	1570	1572	1570	1570	1572	1572	1572	1573	1575	1577	1578	1580	1582	1583	1586	1589	1591	1592	1592	1593	1593	1594	1596	1594	1593	1593	1591	1589	1588	1586	1583	1582	1580	1579	1578	1577	1575	1575	1575	1575	1575	1577	1578	1580	1582	1583	1586	1588	1589	1591	1592	1593	1593	1593	1594	1594	1596	1596	1596	1597	1598	1598	1598	1597	1597	1596	1594	1593	1591	1591	1588	1587	1586	1584	1583	1583	1582	1580	1580	1579	1577	1578	1577	1575	1574	1573	1573	1573	1572	1570	1570	1569	1570	1572	1572	1572	1572	1572	1574	1574	1574	1574	1573	1574	1574	1573	1573	1572	1570	1569	1568	1568	1568	1568	1570	0	1573	1574	1577	1579	1583	1586	1587	1589	1591	1592	1593	1594	1596	1597	1597	1596	1594	1591	1589	1588	1586	1583	1580	1579	1578	1577	1574	1573	1572	1570	1570	1569	1569	1568	1568	1568	1567	1567	1567	1565	1565	1564	1564	1564	1564	1564	1565	1564	1565	1565	1567	1568	1568	1568	1568	1568	1568	1567	1565	1567	1565	1565	1567	1567	1568	1569	1570	1572	1574	1578	1579	1579	1580	1582	1582	1583	1583	1584	1584	1584	1584	1586	1584	1584	1584	1583	1583	1583	1583	1583	1583	1582	1580	1580	1579	1579	1578	1578	1577	1575	1575	1574	1574	1574	1574	1574	1574	1574	1574	1574	1574	1573	1572	1570	1570	1569	1570	1572	1572	1574	1575	1579	1579	1583	0	1587	1588	1589	1591	1591	1591	1589	1588	1586	1583	1580	1578	1575	1573	1570	1568	1565	1565	1564	1565	1565	1565	1567	1567	1568	1569	1570	1572	1573	1574	1577	1578	1580	1582	1584	1587	1589	1592	1596	1597	1600	1602	1604	1604	1604	1602	1602	1601	1600	1598	1596	1594	1593	1593	1594	1596	1597	1598	1600	1602	1606	1609	1610	1611	1611	1613	1611	1610	1610	1609	1606	1604	1604	1598	1593	1592	1591	1589	1588	1587	1586	1584	1583	1580	1579	1578	1575	1575	1575	1574	1574	1575	1578	1579	1582	1584	1587	1589	1592	1594	1597	1597	1596	1596	1594	1593	1593	1591	1589	1588	1587	1586	1584	1583	1580	1580	1578	1578	1578	1578	1578	1579	1580	1582	1584	1584	1586	0	1588	1589	1591	1592	1592	1593	1594	1594	1594	1594	1594	1594	1596	1596	1597	1597	1598	1600	1602	1604	1605	1606	1607	1609	1610	1610	1611	1611	1613	1613	1610	1609	1607	1605	1602	1598	1593	1588	1584	1582	1580	1578	1575	1575	1574	1574	1574	1573	1573	1574	1574	1577	1577	1577	1575	1574
948	949	949	949	950	950	950	951	952	953	954	956	957	958	959	959	961	961	961	961	961	961	961	961	961	960	960	960	959	959	959	959	959	958	956	954	953	950	948	947	945	944	943	942	942	941	941	941	941	0	0	0	0	0	0	0	0	0	0	0	0	0	0	0	0	0	0	0	0	0	0	0	0	0	0	0	0	0	0	0	0	0	0	0	0	0	0	0	0	0	1725	1725	1725	1725	1725	1725	1727	0	0	0	0	0	0	0	0	0	0	0	0	0	940	940	940	940	940	941	941	941	942	942	943	943	945	947	948	950	952	954	956	958	959	960	0	962	964	965	965	966	966	966	965	964	964	964	965	966	968	969	0	971	975	977	974	977	978	0	0	0	0	0	0	982	982	983	984	985	986	986	987	988	989	989	990	990	990	0	0	0	0	0	0	0	0	0	0	0	0	0	0	0	0	0	1583	1584	1584	1584	1583	1582	1580	1579	1578	1574	1570	1568	1567	1565	1564	1564	1564	1564	1564	1564	1565	1565	1567	1568	1568	1570	1570	1572	1573	1574	1577	1578	1579	1582	1584	1587	1589	1592	1592	1593	1593	1592	1591	1589	1588	1586	1583	1580	1579	1578	1577	1577	1577	1577	1577	1577	1577	1578	1579	1579	1580	1582	1583	1584	1586	1587	1588	1589	1589	1587	1584	1583	1580	1578	1577	1575	1573	1573	1573	1574	1575	1577	1577	1577	1575	1575	1573	1573	1572	1569	1568	1567	1567	1567	1567	1568	1569	1569	1570	1570	1569	1569	1570	1570	1572	1572	1574	1574	1577	1578	1579	1582	1584	1587	1587	1589	1589	1589	1591	1592	1592	1589	1588	1587	1587	1584	1583	1580	1579	1577	1575	1574	1574	1573	1573	1573	1572	1573	1574	1574	1577	1578	1580	1582	1584	1586	1587	1588	1591	1589	1591	1591	1591	1591	1592	1593	1593	1593	1593	1593	1593	1592	1591	1589	1587	1586	1584	1584	1580	1579	1579	1579	1578	1578	1577	1575	1575	1574	1574	1574	1573	1572	1572	1572	1572	1570	1570	1570	1569	1570	1569	1570	1570	1570	1572	1572	1572	1573	1573	1573	1572	1570	1570	1569	1569	1568	1567	1565	1565	1565	1565	1568	1569	1572	0	1574	1577	1579	1582	1583	1586	1588	1589	1591	1592	1593	1596	1596	1594	1591	1589	1588	1586	1583	1580	1578	1577	1574	1573	1572	1570	1569	1568	1568	1568	1567	1567	1567	1565	1565	1565	1564	1564	1563	1562	1562	1562	1562	1562	1562	1562	1563	1564	1565	1567	1567	1567	1565	1567	1565	1564	1564	1564	1563	1563	1564	1563	1564	1565	1565	1568	1569	1573	1573	1575	1577	1578	1579	1582	1582	1583	1583	1583	1583	1583	1582	1582	1582	1582	1580	1580	1579	1579	1579	1578	1578	1577	1575	1575	1574	1574	1574	1573	1574	1573	1573	1573	1573	1573	1573	1573	1573	1572	1572	1569	1568	1568	1567	1565	1565	1567	1568	1569	1570	1573	1575	1578	1580	1583	1586	0	1588	1588	1588	1587	1586	1583	1582	1579	1575	1572	1569	1568	1564	1563	1562	1562	1562	1562	1562	1563	1564	1565	1567	1568	1568	1569	1572	1573	1574	1578	1579	1583	1586	1588	1592	1594	1597	1600	1602	1604	1605	1604	1604	1602	1602	1600	1598	1597	1596	1594	1594	1596	1596	1597	1600	1601	1602	1605	1607	1609	1610	1609	1609	1609	1607	1607	1606	1604	1594	1593	1591	1589	1588	1587	1586	1584	1584	1583	1582	1580	1578	1577	1575	1573	1572	1572	1570	1572	1572	1574	1575	1578	1582	1583	1586	1588	1591	1593	1592	1592	1592	1591	1591	1589	1588	1587	1587	1586	1584	1583	1582	1579	1579	1578	1577	1577	1577	1578	1579	1580	1582	1583	1584	0	1586	1587	1588	1588	1588	1589	1589	1591	1591	1591	1591	1591	1593	1593	1593	1594	1594	1596	1597	1598	1600	1600	1601	1602	1602	1604	1604	1604	1605	1605	1605	1602	1601	1600	1598	1594	1591	1587	1583	1582	1579	1577	1574	1574	1573	1572	1572	1572	1572	1572	1573	1574	1577	1577	1577	1577	1575
948	948	949	949	950	950	950	0	952	953	956	956	958	959	960	961	961	962	961	962	961	961	961	961	961	960	960	959	960	959	959	959	958	958	956	954	952	951	949	947	946	944	943	942	942	941	941	941	0	0	0	0	0	0	0	0	0	0	0	0	0	0	0	0	0	0	0	0	0	0	0	0	0	0	0	0	0	0	0	0	0	0	0	0	0	0	0	0	0	0	1724	1724	1725	1725	1727	1725	0	0	0	0	0	0	0	0	0	0	0	0	939	939	939	939	939	939	939	940	939	940	940	941	941	942	943	945	947	948	950	952	954	955	956	958	959	960	961	962	963	963	963	963	963	963	962	961	963	964	965	965	967	968	968	969	970	971	972	972	973	974	975	0	976	978	978	980	981	983	984	985	986	987	989	989	989	990	990	991	0	0	0	0	0	0	0	0	0	0	0	0	0	0	0	0	1584	1584	1584	1584	1583	1583	1582	1580	1579	1575	1572	1569	1568	1567	1565	1565	1564	1564	1564	1565	1565	1567	1567	1568	1569	1570	1572	1573	1573	1574	1574	1575	1575	1578	1579	1580	1583	1584	1586	1586	1586	1587	1584	1583	1582	1580	1579	1577	1575	1575	1575	1575	1575	1575	1577	1577	1577	1578	1578	1579	1579	1579	1580	1582	1583	1584	1584	1587	1587	1584	1582	1579	1578	1575	1574	1574	1573	1573	1573	1575	1574	1575	1575	1575	1574	1574	1572	1572	1569	1568	1567	1565	1565	1564	1565	1567	1567	1569	1570	1569	1569	1570	1569	1570	1572	1573	1573	1573	1574	1574	1575	1578	1580	1583	1583	1584	1586	1587	1588	1588	1587	1587	1586	1584	1583	1580	1580	1578	1575	1574	1573	1572	1572	1570	1570	1570	1570	1570	1570	1572	1574	1575	1577	1578	1580	1582	1583	1584	1586	1586	1584	1584	1586	1586	1587	1588	1588	1588	1588	1587	1588	1587	1586	1584	1583	1580	1578	1577	1577	1575	1574	1574	1573	1573	1573	1572	1568	1568	1568	1568	1569	1569	1570	1570	1569	1569	1569	1569	1568	1568	1569	1569	1569	1569	1570	1570	1570	1570	1570	1569	1569	1567	1567	1567	1565	1564	1563	1564	1564	1564	1564	1564	1565	1568	1570	1573	1574	0	1577	1578	1580	1584	1586	1587	1588	1591	1593	1593	1592	1588	1587	1586	1583	1580	1577	1575	1573	1572	1570	1569	1568	1567	1567	1565	1565	1565	1565	1564	1563	1563	1562	1562	1560	1560	1559	1558	1559	1559	1559	1560	1562	1562	1563	1565	1565	1565	1565	1565	1565	1564	1564	1563	1562	1560	1560	1560	1562	1562	1563	1564	1564	1567	1569	1570	1573	1574	1575	1578	1579	1580	1580	1582	1582	1582	1582	1580	1580	1579	1578	1578	1577	1577	1575	1575	1574	1573	1573	1572	1572	1572	1572	1572	1570	1572	1572	1572	1572	1572	1572	1572	1572	1572	1570	1568	1567	1565	1564	1563	1563	1562	1562	1562	1563	1565	1567	1569	1573	1577	1578	1580	1584	1586	1586	1586	1584	1583	1582	1579	1575	1572	1569	1567	1563	1562	1559	1559	1558	1558	1558	1559	1559	1560	1563	1564	1565	1567	1567	1569	1572	1573	1575	1578	1580	1583	1587	1591	1593	1597	1600	1602	1604	1605	1605	1605	1605	1604	1601	1600	1598	1597	1596	1597	1597	1598	1598	1600	1601	1604	1605	1606	1606	1606	1606	1606	1598	1598	1597	1596	1592	1589	1588	1586	1584	1583	1582	1582	1582	1582	1580	1579	1577	1577	1575	1573	1572	1569	1568	1568	1568	1568	1568	1569	1572	1573	1577	1578	1580	1582	1586	1586	1587	1587	1586	1586	1586	1586	1584	1584	1583	1583	1580	1580	1579	1579	1577	1577	1577	1577	1578	1579	1580	1582	1583	1584	0	1586	1586	1586	1586	1586	1586	1587	1587	1587	1587	1588	1588	1589	1589	1591	1591	1591	1592	1592	1593	1594	1594	1594	1594	1596	1596	1596	1597	1596	1597	1596	1594	1593	1592	1589	1587	1584	1582	1579	1577	1574	1573	1572	1572	1570	1569	1570	1570	1570	1570	1572	1573	1575	1577	1577	1577	1577
948	948	948	948	949	950	0	0	0	0	0	958	959	960	961	961	962	961	962	962	962	962	961	961	961	960	960	960	959	959	959	959	958	958	956	955	953	952	950	948	946	944	944	0	0	0	0	0	0	0	0	0	0	0	0	0	0	0	0	0	0	0	0	0	0	0	0	0	0	0	0	0	0	0	0	0	0	0	0	0	0	0	0	0	0	0	0	0	0	0	0	1725	1727	1725	1727	1727	0	0	0	0	0	0	0	0	0	0	0	0	938	938	938	938	939	939	939	939	939	940	940	940	941	942	943	944	946	947	948	950	952	953	954	955	956	957	959	959	959	960	960	961	961	961	959	959	960	960	962	962	963	964	965	966	967	967	967	967	968	969	970	971	973	975	976	0	978	981	982	984	985	987	988	989	989	990	990	991	0	0	0	0	0	0	0	0	0	0	0	0	0	0	0	0	1584	1584	1584	1584	1583	1583	1582	1580	1579	1577	1572	1569	1568	1567	1567	1565	1565	1564	1564	1567	1567	1567	1568	1568	1569	1570	1570	1572	1572	1573	1573	1573	1574	1574	1575	1574	1577	1577	1577	1578	1578	1578	1577	1577	1577	1575	1575	1574	1574	1573	1574	1574	1575	1575	1575	1577	1577	1578	1578	1578	1579	1579	1579	1580	1580	1582	1583	1583	1583	1580	1578	1577	1575	1574	1573	1570	1570	1570	1572	1573	1574	1574	1575	1575	1574	1573	1570	1569	1568	1565	1564	1564	1564	1563	1564	1565	1567	1568	1568	1569	1569	1570	1569	1570	1570	1570	1570	1570	1572	1573	1574	0	1577	1579	1580	1582	1582	1583	1584	1584	1584	1583	1583	1582	1580	1579	1578	1575	1574	1572	1572	1570	1569	1568	1568	1568	1568	1567	1568	1568	1569	1572	1573	1574	1575	1577	1579	1580	1580	1579	1579	1578	1579	1579	1579	1579	1582	1582	1582	1582	1582	1580	1580	1579	1578	1577	1575	1574	1573	1572	1570	1570	1565	1565	1565	1565	1564	1564	1564	1565	1567	1567	1567	1567	1567	1567	1565	1565	1567	1565	1565	1565	1567	1567	1568	1568	1568	1568	1567	1565	1564	1563	1563	1562	1562	1562	1560	1562	1562	1562	1562	1562	1563	1564	1567	1568	1569	1572	1573	1575	1578	0	1582	1584	1586	1588	1591	1591	1588	1587	1584	1583	1580	1578	1574	1572	1570	1569	1568	1567	1565	1565	1564	1563	1563	1563	1563	1563	1562	1560	1560	1559	1558	1558	1557	1557	1557	1557	1558	1559	1560	1560	1562	1563	1563	1564	1563	1564	1563	1562	1562	1560	1560	1560	1558	1559	1559	1560	1560	1562	1563	1564	1567	1568	1570	1572	1573	1575	1577	1579	1579	1579	1579	1580	1579	1579	1578	1577	1575	1575	1574	1573	1573	1570	1569	1569	1569	1568	1568	1568	1568	1569	1569	1570	1570	1570	1570	1570	1572	1572	1570	1570	1569	1567	1564	1563	1560	1560	1559	1559	1558	1559	1559	1560	1563	1565	1568	1572	1574	1577	1579	1580	1583	1582	1582	1579	1577	1574	1570	1567	1564	1562	1558	1557	1556	1556	1554	1554	1556	1557	1557	1558	1560	1562	1563	1564	1565	1568	1569	1572	1574	1577	1579	1583	1587	1589	1593	1597	1600	1602	1605	1605	1606	1606	1605	1605	1602	1601	1600	1598	1597	1598	1598	1600	1600	1601	1601	1602	1602	1604	1598	1597	1596	1594	1592	1592	1589	1587	1586	1584	1582	1580	1578	1577	1577	1577	1578	1578	1577	1575	1574	1573	1573	1569	1568	1565	1565	1564	1564	1564	1565	1564	1567	1569	1569	1572	1573	1575	1577	1579	1580	1580	1580	1582	1583	1583	1583	1582	1582	1580	1580	1579	1578	1578	1577	1575	0	1577	1578	0	1580	1582	1583	1584	1584	1586	1584	1584	1583	1583	1584	1583	1583	1583	1583	1584	1584	1584	1586	1586	1587	1587	1587	1588	1589	1589	1589	1589	1589	1589	1589	1589	1589	1588	1588	1588	1586	1586	1584	1582	1579	1578	1575	1574	1573	1572	1570	1569	1568	1568	1568	1569	1569	1570	1570	1572	1573	1574	1575	1577	1578	1578
946	946	947	947	947	948	0	0	0	0	0	0	0	0	960	961	962	962	962	962	961	961	961	960	960	960	959	959	959	959	959	958	958	958	956	955	954	953	951	0	0	0	0	0	0	0	0	0	0	0	0	0	0	0	0	0	0	0	0	0	0	0	0	0	0	0	0	0	0	0	0	0	0	0	0	0	0	0	0	0	0	0	0	0	0	0	0	0	0	0	0	0	0	1727	1727	1728	1728	0	0	0	0	0	0	0	0	0	0	0	0	938	938	938	938	938	938	939	939	939	939	939	940	941	942	943	945	946	948	949	951	952	953	954	954	955	956	956	957	956	957	957	958	958	959	959	959	960	961	961	962	963	963	963	963	964	964	964	965	966	967	968	971	972	974	977	978	0	980	982	984	985	987	987	988	989	989	990	0	0	0	0	0	0	0	0	0	0	0	0	0	0	0	0	1586	1586	1584	1584	1584	1582	1582	1580	1579	1577	1573	1572	1570	1568	1567	1565	1565	1565	1565	1567	1567	1568	1568	1569	1569	1570	1570	1572	1572	1572	1572	1572	1572	1572	1572	1572	1572	1572	1572	1570	1570	1570	1572	1572	1572	1572	1572	1572	1572	1573	1574	1574	1575	1577	1578	1578	1578	1578	1579	1578	1579	1578	1579	1579	1579	1580	1580	1580	1579	1577	1574	1573	1572	1572	1570	1568	1568	1569	1569	1572	1573	1573	1574	1574	1573	1573	1570	1568	1567	1565	1563	1563	1563	1563	1563	1564	1565	1567	1569	1569	1570	1570	1570	1570	1570	1570	1570	1570	0	1572	1573	1574	1575	1578	1578	1579	1580	1582	1583	1583	1582	1582	1580	1580	1579	1577	1575	1574	1573	1570	1569	1568	1567	1567	1565	1565	1564	1564	1565	1565	1567	1568	1569	1570	1572	1573	1575	1575	1575	1575	1574	1573	1573	1573	1574	1574	1574	1575	1575	1577	1577	1575	1574	1574	1574	1573	1572	1568	1565	1567	1564	1564	1563	1563	1562	1562	1562	1560	1560	1562	1562	1563	1563	1563	1563	1563	1562	1562	1563	1563	1563	1563	1563	1564	1565	1565	1565	1564	1563	1562	1560	1560	1559	1559	1559	1559	1559	1559	1560	1560	1559	1560	1560	1562	1563	1564	1565	1567	1569	1572	1575	1578	1580	0	1583	1586	1587	1587	1586	1583	1582	1580	1578	1574	1572	1569	1568	1567	1565	1564	1564	1563	1563	1562	1562	1562	1562	1560	1559	1558	1558	1557	1557	1554	1553	1553	1554	1554	1556	1557	1558	1559	1560	1562	1562	1563	1563	1563	1562	1562	1562	1560	1559	1558	1558	1558	1559	1559	1560	1560	1563	1563	1565	1567	1568	1569	1572	1574	1575	1577	1578	1578	1578	1578	1577	1577	1575	1573	1573	1572	1570	1569	1569	1567	1564	1565	1565	1564	1564	1564	1565	1565	1567	1568	1568	1568	1569	1569	1570	1570	1569	1569	1568	1564	1562	1560	1559	1558	1557	1556	1556	1556	1557	1558	1560	1563	1564	1567	1570	1573	1575	1577	1578	1578	1575	1573	1570	1568	1564	1562	1559	1556	1553	1553	1552	1552	1551	1552	1552	1553	1556	1557	1558	1560	1562	1563	1564	1567	1568	1570	1573	1575	1578	1582	1586	1588	1592	1597	1600	1602	1604	1605	1606	1606	1606	1606	1604	1601	1600	1600	1600	1598	1600	1600	1600	1598	1598	1598	1596	1596	1593	1591	1588	1586	1586	1584	1582	1580	1579	1577	1575	1574	1573	1573	1572	1572	1573	1573	1573	1572	1570	1570	1568	1567	1564	1563	1562	1562	1560	1560	1560	1562	1562	1563	1564	1567	1569	1569	1572	1574	1575	1575	1577	1578	1579	1579	1580	1579	1579	1579	1578	1578	1578	1577	1577	1577	1577	1577	1578	1579	1580	1582	1583	1584	1584	1586	1584	1584	1583	1583	1582	1582	1580	1580	1580	1580	1580	1582	1582	1583	1584	1584	1584	1584	1586	1587	1587	1586	1586	1586	1584	1584	1584	1583	1582	1582	1580	1578	1577	1574	1573	1572	1570	1569	1569	1568	1568	1568	1568	1568	1568	1569	1569	1570	1570	1572	1573	1574	1575	1577	1577	1577
943	944	944	944	945	0	0	0	0	0	0	0	0	0	0	961	961	961	961	961	961	961	961	960	960	959	959	959	959	958	958	958	958	958	956	956	954	954	0	0	0	0	0	0	0	0	0	0	0	0	0	0	0	0	0	0	0	0	0	0	0	0	0	0	0	0	0	0	0	0	0	0	0	0	0	0	0	0	0	0	0	0	0	0	0	0	0	0	0	0	0	0	0	0	0	0	0	0	0	0	0	0	0	0	0	0	0	0	0	0	938	938	937	937	938	938	938	939	939	939	939	940	942	943	944	946	947	948	950	951	953	953	953	953	953	954	955	956	956	957	958	958	958	959	959	959	960	960	961	961	961	961	962	962	962	962	963	963	965	967	968	970	972	975	977	0	979	980	982	984	986	987	987	988	988	989	0	0	0	0	0	0	0	0	0	0	0	0	0	0	0	0	1586	1584	1584	1583	1582	1582	1580	1579	1577	1575	1574	1570	1570	1569	1568	1567	1567	1567	1567	1568	1569	1568	1569	1569	1569	1570	1570	1570	1570	1569	1570	1569	1569	1569	1568	1567	1567	1567	1567	1565	1565	1567	1567	1567	1568	1569	1569	1570	1570	1573	1574	1575	1577	1577	1578	1579	1579	1579	1579	1579	1579	1578	1578	1578	1578	1577	1577	1577	1575	1573	1570	1570	1569	1567	1565	1565	1564	1565	1567	1569	1569	1570	1572	1570	1570	1569	1568	1567	1565	1563	1563	1562	1562	1562	1562	1563	1564	1565	1568	1569	1570	1572	1572	1572	1572	1572	1570	1570	1569	1569	1570	1572	1573	1574	1575	1577	1578	1578	1579	1579	1579	1578	1578	1577	1577	1575	1574	1573	1570	1570	1568	1567	1565	1564	1563	1563	1562	1563	1563	1562	1564	1564	1565	1567	1569	1570	1572	1572	1572	1572	1570	1570	1570	1569	1569	1569	1570	1570	1572	1572	1572	1572	1568	1567	1568	1567	1565	1564	1565	1563	1562	1560	1560	1559	1558	1558	1558	1558	1558	1558	1559	1560	1560	1559	1559	1559	1558	1559	1559	1559	1559	1559	1560	1562	1563	1563	1563	1562	1560	1559	1558	1558	1557	1558	1557	1557	1558	1558	1559	1559	1558	1558	1559	1560	1562	1563	1563	1565	1567	1569	1573	1575	1578	1580	1583	1584	1584	1584	1582	1582	1579	1577	1574	1573	1569	1567	1565	1564	1564	1563	1563	1562	1562	1562	1562	1560	1560	1558	1557	1556	1554	1553	1551	1551	1549	1551	1551	1552	1554	1554	1556	1558	1559	1560	1563	1563	1563	1563	1562	1562	1560	1560	1559	1558	1558	1558	1559	1559	1560	1560	1562	1563	1564	1567	1568	1569	1572	1573	1575	1577	1577	1577	1578	1577	1577	1575	1573	1572	1570	1569	1568	1565	1565	1563	1560	1562	1562	1560	1560	1560	1562	1563	1564	1565	1565	1565	1567	1568	1568	1568	1568	1568	1565	1563	1562	1559	1558	1557	1554	1553	1553	1553	1554	1557	1557	1560	1562	1563	1567	1569	1572	1573	1574	1573	1572	1569	1565	1563	1559	1556	1553	1552	1549	1548	1548	1548	1547	1548	1549	1551	1553	1554	1557	1558	1559	1560	1563	1564	1567	1569	1572	1574	1578	1580	1584	1588	1591	1594	1597	1601	1602	1604	1606	1606	1606	1606	1605	1602	1601	1600	1600	1598	1598	1598	1597	1596	1596	1594	1594	1592	1588	1583	1582	1580	1579	1577	1575	1574	1573	1573	1572	1569	1568	1567	1568	1568	1569	1569	1569	1568	1568	1567	1565	1564	1562	1560	1559	1559	1558	1558	1558	1558	1560	1560	1562	1563	1564	1567	1568	1570	1573	1573	1573	1575	1577	1578	1578	1578	1577	1577	1577	1577	1577	1577	1577	1577	1577	1578	1579	1580	1582	1583	1584	1584	1584	1584	1584	1584	1583	1582	1580	1579	1579	1578	1578	1578	1578	1579	1579	1580	1580	1580	1582	1583	1583	1583	1583	1583	1583	1582	1582	1580	1580	1578	1578	1577	1575	1574	1572	1570	1569	1567	1567	1567	1567	1567	1567	1568	1568	1568	1568	1569	1570	1570	1572	1572	1573	1574	1575	1575	1575	1575
942	942	943	943	943	944	0	0	0	0	0	0	0	0	0	961	961	961	960	960	960	960	959	959	959	959	959	958	958	958	958	958	958	956	956	955	954	954	953	0	0	949	0	0	0	0	0	0	0	0	0	0	0	0	0	0	0	0	0	0	0	0	0	0	0	0	0	0	0	0	0	0	0	0	0	0	0	0	0	0	0	0	0	0	0	0	0	0	0	0	0	0	0	0	0	0	0	0	0	0	0	0	0	0	0	0	0	0	0	939	938	938	938	937	937	938	938	938	939	939	939	940	941	942	944	945	947	948	950	951	952	953	953	954	954	954	955	956	956	957	957	958	958	958	958	959	959	960	960	960	960	960	960	960	961	961	962	963	964	966	967	968	971	973	975	977	979	0	980	982	984	985	985	986	986	987	0	0	0	0	0	0	0	0	0	0	0	0	0	0	0	0	1586	1583	1582	1580	1579	1578	1578	1577	1575	1574	1572	1570	1569	1569	1568	1567	1567	1567	1567	1568	1568	1568	1569	1569	1568	1569	1569	1568	1568	1568	1568	1567	1567	1565	1565	1564	1563	1563	1563	1562	1562	1563	1563	1564	1567	1567	1568	1569	1570	1572	1573	1575	1577	1577	1578	1579	1579	1580	1580	1579	1578	1578	1578	1577	1577	1575	1575	1574	1573	1570	1568	1567	1564	1562	1560	1559	1559	1559	1559	1560	1562	1562	1564	1564	1565	1564	1563	1563	1562	1562	1560	1559	1559	1560	1560	1562	1563	1565	1568	1569	1570	1572	1572	1572	1572	1572	1570	1569	1568	1568	1569	1569	1570	1572	1573	1573	1574	1575	1575	1577	1575	1575	1575	1575	1574	1574	1573	1572	1569	1568	1565	1564	1563	1562	1562	1559	1560	1559	1559	1560	1562	1562	1563	1564	1565	1567	1568	1569	1568	1568	1568	1568	1568	1567	1567	1567	1567	1565	1565	1565	1564	1565	1565	1564	1565	1565	1563	1563	1562	1562	1560	1559	1558	1557	1557	1554	1554	1554	1554	1554	1556	1556	1556	1556	1556	1554	1554	1556	1556	1556	1556	1557	1557	1558	1560	1560	1560	1559	1558	1557	1557	1556	1556	1556	1557	1557	1556	1557	1557	1557	1557	1557	1558	1557	1559	1560	1560	1562	1564	1567	1569	1572	1574	1577	1579	1580	1582	1580	1580	1578	1577	1575	1573	1570	1568	1565	1564	1563	1563	1562	1562	1560	1560	1560	1560	1559	1558	1557	1554	1553	1549	1549	1547	1546	1546	1546	1547	1548	1551	1552	1554	1556	1557	1559	1560	1562	1562	1562	1562	1562	1560	1559	1559	1559	1559	1559	1559	1559	1560	1562	1563	1564	1565	1567	1568	1569	1570	1573	1574	1577	1575	1577	1575	1575	1574	1573	1572	1569	1568	1567	1564	1563	1563	1560	1559	1558	1558	1558	1558	1558	1559	1560	1560	1562	1563	1564	1565	1567	1567	1568	1568	1567	1564	1563	1560	1559	1557	1556	1554	1553	1552	1552	1554	1554	1556	1558	1559	1562	1564	1567	1569	1572	1572	1570	1568	1565	1562	1559	1556	1552	1551	1549	1548	1546	1546	1546	1545	1546	1547	1548	1549	1552	1554	1556	1558	1559	1560	1563	1565	1568	1572	1573	1577	1579	1583	1586	1588	1592	1596	1597	1600	1602	1604	1605	1606	1607	1605	1604	1602	1600	1600	1600	1598	1597	1597	1596	1594	1593	1591	1588	1583	1580	1578	1577	1574	1573	1572	1569	1569	1567	1565	1564	1564	1563	1564	1563	1565	1565	1565	1565	1565	1564	1563	1563	1560	1559	1558	1558	1557	1557	1557	1556	1557	1559	1559	1560	1563	1564	1567	1569	1570	1572	1573	1573	1574	1575	1575	1575	1575	1575	1575	1575	1575	1575	1577	1575	1577	1578	1579	1580	1582	1583	1583	1584	1584	1583	1583	1583	1582	1580	1579	1579	1578	1577	1575	1575	1575	1575	1577	1578	1578	1579	1579	1580	1582	1582	1580	1580	1580	1579	1578	1578	1577	1575	1574	1573	1572	1569	1568	1567	1565	1564	1564	1564	1564	1565	1567	1568	1568	1568	1569	1569	1570	1570	1572	1572	1573	1574	1574	1574	1574	1574
940	940	941	942	943	943	943	945	0	0	0	0	0	0	0	961	961	960	960	959	959	959	959	958	958	957	957	957	957	956	956	955	955	954	953	953	952	952	950	950	949	948	0	0	0	0	0	0	0	0	0	0	0	0	0	0	0	0	0	0	0	0	0	0	0	0	0	0	0	0	0	0	0	0	0	0	0	0	0	0	0	0	0	0	0	0	0	0	0	0	0	0	0	0	0	0	0	0	0	0	0	0	0	0	0	0	0	0	0	939	938	938	937	937	937	937	938	938	938	939	939	940	939	941	943	944	947	948	950	951	953	953	954	954	954	955	956	956	957	957	958	958	958	959	959	959	959	960	959	960	960	960	960	960	960	961	961	962	963	965	966	968	970	972	974	976	977	979	0	981	982	984	985	984	985	985	0	0	0	0	0	0	0	0	0	0	0	0	0	0	0	0	1580	1579	1577	1575	1574	1574	1573	1573	1572	1570	1570	1569	1569	1568	1568	1567	1567	1567	1567	1567	1567	1567	1567	1567	1567	1567	1567	1567	1567	1567	1565	1564	1563	1564	1562	1560	1560	1559	1558	1559	1558	1559	1560	1562	1563	1564	1567	1567	1569	1570	1573	1574	1577	1577	1579	1579	1579	1580	1579	1579	1578	1577	1575	1574	1573	1572	1570	1570	1568	1567	1563	1562	1559	1557	1554	1553	1552	1551	1551	1552	1552	1553	1554	1554	1556	1556	1557	1557	1558	1558	1558	1557	1558	1559	1559	1559	1560	1563	1565	1567	1569	1569	1569	1570	1570	1570	1570	1569	1568	1568	1568	1568	1569	1569	1569	1570	1570	1572	1573	1573	1573	1573	1573	1572	1572	1572	1570	1569	1568	1565	1564	1562	1560	1560	1559	1558	1557	1557	1558	1558	1559	1560	1562	1562	1563	1564	1565	1567	1567	1565	1565	1565	1565	1564	1563	1563	1563	1563	1563	1563	1563	1564	1564	1564	1564	1563	1563	1562	1562	1560	1559	1557	1557	1556	1554	1553	1552	1551	1551	1551	1552	1552	1552	1552	1552	1552	1552	1553	1553	1554	1554	1556	1556	1557	1559	1559	1558	1557	1557	1556	1556	1556	1554	1556	1556	1554	1556	1556	1557	1556	1556	1554	1556	1556	1557	1557	1558	1560	1562	1564	1567	1569	1573	1574	1575	1578	1578	1579	1578	1577	1574	1572	1570	1568	1565	1564	1563	1563	1562	1562	1560	1560	1559	1559	1559	1558	1557	1554	1552	1549	1546	1546	1543	1542	1542	1542	1545	1545	1547	1549	1552	1554	1557	1558	1560	1562	1563	1563	1563	1562	1562	1560	1560	1560	1560	1560	1560	1562	1563	1563	1564	1565	1567	1568	1568	1570	1572	1573	1574	1575	1575	1575	1574	1574	1573	1572	1570	1569	1568	1565	1563	1562	1560	1559	1558	1557	1557	1556	1556	1556	1557	1558	1559	1560	1562	1563	1565	1567	1567	1568	1568	1568	1565	1563	1562	1560	1558	1557	1556	1554	1554	1554	1554	1556	1557	1558	1559	1560	1563	1565	1567	1568	1569	1568	1567	1564	1560	1558	1554	1552	1551	1548	1547	1545	1545	1545	1543	1545	1546	1547	1548	1549	1553	1554	1556	1558	1559	1562	1564	1567	1570	1573	1575	1578	1580	1583	1586	1589	1593	1594	1597	1600	1598	1602	1604	1605	1605	1604	1602	1601	1601	1600	1598	1597	1596	1594	1593	1591	1588	1586	1580	1578	1575	1573	1570	1570	1568	1567	1564	1564	1562	1560	1560	1559	1559	1560	1560	1562	1563	1562	1563	1563	1562	1560	1559	1558	1557	1557	1556	1556	1556	1556	1557	1558	1558	1560	1563	1563	1565	1568	1569	1572	1572	1573	1574	1574	1575	1574	1574	1574	1574	1574	1574	1574	1575	1575	1577	1578	1579	1580	1582	1583	1584	1584	1583	1583	1582	1582	1580	1579	1578	1578	1577	1575	1574	1574	1573	1574	1575	1575	1577	1577	1578	1578	1580	1579	1579	1578	1578	1577	1577	1575	1574	1573	1570	1569	1568	1567	1565	1564	1563	1562	1562	1563	1563	1564	1565	1567	1568	1568	1569	1570	1570	1570	1570	1570	1572	1572	1573	1573	1572	1573
939	939	939	940	941	942	943	943	945	0	0	0	0	0	0	0	960	959	959	959	958	957	956	956	956	955	955	954	954	954	953	953	953	952	951	950	950	949	949	948	948	0	0	0	0	0	0	0	0	0	0	0	0	0	0	0	0	0	0	0	0	0	0	0	0	0	0	0	0	0	0	0	0	0	0	0	0	0	0	0	0	0	0	0	0	0	0	0	0	0	0	0	0	0	0	0	0	0	0	0	0	0	0	0	942	941	940	940	939	939	938	938	938	937	937	937	937	938	938	938	939	939	939	940	942	943	946	948	950	951	953	954	955	955	955	955	956	957	957	958	958	958	958	959	959	959	959	960	960	960	960	960	960	961	961	961	962	962	964	965	966	967	969	971	972	974	976	978	979	980	0	982	983	983	984	984	984	0	0	0	0	0	0	0	0	0	0	0	0	0	0	0	0	0	0	1570	1572	1570	1570	1569	1569	1569	1568	1568	1568	1567	1567	1567	1565	1565	1565	1565	1565	1565	1565	1564	1565	1564	1564	1564	1564	1563	1563	1562	1562	1562	1560	1558	1558	1557	1556	1556	1558	1558	1559	1559	1562	1563	1564	1567	1567	1569	1573	1573	1575	1577	1578	1579	1579	1579	1578	1578	1577	1574	1573	1572	1570	1569	1568	1567	1565	1563	1559	1558	1554	1552	1549	1547	1545	1545	1543	1543	1543	1543	1545	1545	1547	1547	1549	1551	1553	1553	1554	1554	1556	1558	1558	1558	1559	1562	1564	1565	1567	1568	1568	1569	1569	1569	1568	1568	1567	1567	1567	1567	1567	1567	1568	1567	1568	1569	1570	1570	1570	1570	1570	1570	1570	1569	1568	1567	1565	1564	1562	1560	1559	1558	1557	1556	1556	1556	1557	1557	1558	1559	1559	1562	1563	1563	1564	1565	1565	1564	1563	1563	1563	1562	1562	1562	1563	1563	1563	1562	1563	1563	1564	1563	1563	1563	1562	1562	1560	1560	1558	1557	1556	1554	1553	1552	1551	1549	1548	1548	1549	1549	1549	1549	1551	1551	1551	1552	1552	1552	1554	1554	1556	1557	1558	1558	1558	1557	1556	1554	1554	1554	1554	1554	1554	1554	1554	1556	1554	1556	1554	1553	1554	1554	1554	1556	1557	1558	1559	1562	1564	1567	1569	1573	1574	1574	1575	1575	1574	1573	1572	1570	1568	1567	1565	1564	1563	1563	1562	1562	1560	1560	1559	1559	1558	1557	1554	1553	1549	1546	1543	1542	1540	1539	1539	1540	1541	1542	1545	1547	1549	1552	1554	1557	1559	1560	1563	1563	1563	1563	1562	1562	1562	1562	1562	1562	1563	1563	1564	1564	1565	1567	1567	1568	1568	1570	1570	1572	1573	1574	1575	1575	1574	1574	1573	1572	1570	1568	1567	1564	1562	1560	1559	1558	1557	1557	1556	1554	1554	1556	1556	1557	1557	1559	1560	1563	1564	1565	1568	1568	1568	1568	1568	1564	1563	1562	1560	1559	1558	1557	1556	1556	1556	1557	1557	1558	1559	1560	1563	1564	1565	1568	1568	1568	1565	1563	1560	1558	1554	1552	1549	1548	1547	1546	1545	1545	1543	1545	1546	1547	1549	1551	1552	1553	1554	1557	1559	1562	1564	1567	1569	1572	1574	1577	1578	1580	1583	1586	1584	1586	1589	1591	1594	1598	1601	1602	1601	1601	1601	1598	1598	1598	1597	1596	1594	1593	1592	1589	1587	1580	1578	1575	1573	1570	1569	1567	1564	1563	1560	1559	1559	1558	1558	1557	1557	1558	1558	1559	1560	1562	1562	1560	1560	1560	1559	1558	1557	1557	1557	1556	1556	1556	1557	1558	1559	1560	1563	1564	1567	1569	1572	1572	1573	1574	1574	1575	1574	1574	1574	1574	1574	1574	1574	1573	1574	1574	1575	1577	1578	1579	1580	1582	1583	1584	1583	1582	1582	1580	1579	1579	1577	1577	1575	1574	1573	1573	1572	1572	1573	1573	1574	1574	1575	1577	1578	1578	1578	1577	1575	1574	1574	1573	1572	1570	1569	1567	1564	1563	1563	1562	1560	1560	1560	1562	1562	1564	1565	1565	1567	1568	1568	1569	1569	1569	1569	1569	1570	1570	1570	1570	1570	1570
938	938	939	939	940	0	942	942	944	945	946	0	0	0	0	0	958	958	956	956	956	954	954	953	953	952	952	951	951	951	950	951	950	949	948	948	947	947	946	946	0	0	0	0	0	0	0	0	0	0	0	0	0	0	0	0	0	0	0	0	0	0	0	0	0	0	0	0	0	0	0	0	0	0	0	0	0	0	0	0	0	0	0	0	0	0	0	0	0	0	0	0	0	0	0	0	0	0	0	0	0	0	0	0	942	942	941	940	940	939	939	938	938	938	937	937	938	938	938	938	939	939	939	941	943	945	947	949	952	953	955	956	957	957	957	958	958	958	958	959	959	959	959	959	960	960	960	960	961	961	961	961	961	961	961	962	962	963	964	965	966	967	968	970	971	973	975	976	978	979	980	981	981	981	981	982	0	0	0	0	0	0	0	0	0	0	0	0	0	0	0	0	0	0	0	0	1567	1565	1565	1565	1565	1567	1567	1567	1567	1565	1565	1565	1565	1564	1564	1564	1564	1564	1563	1564	1563	1563	1562	1562	1562	1562	1560	1560	1562	1560	1559	1558	1558	1557	1556	1556	1556	1557	1557	1559	1560	1562	1563	1564	1565	1569	1570	1572	1573	1575	1575	1578	1578	1578	1577	1575	1574	1573	1572	1569	1568	1567	1565	1564	1563	1560	1557	1556	1551	1547	1545	1542	1539	1537	1535	1535	1535	0	1537	1539	1540	0	1542	1545	1548	1549	1551	1552	1554	1556	1557	1557	1558	1559	1562	1565	1565	1567	1567	1568	1569	1569	1567	1567	1567	1565	1565	1565	1565	1565	1565	1565	1567	1567	1568	1568	1568	1568	1568	1568	1568	1567	1565	1565	1563	1562	1560	1559	1558	1557	1556	1556	1554	1556	1556	1556	1557	1558	1559	1562	1562	1563	1564	1564	1564	1563	1563	1563	1562	1562	1560	1560	1562	1562	1562	1562	1562	1563	1563	1563	1563	1563	1563	1563	1562	1560	1559	1557	1556	1553	1552	1551	1549	1547	1547	1547	1547	1547	1547	1548	1548	1548	1548	1551	1552	1552	1552	1553	1554	1556	1557	1557	1557	1557	1556	1553	1553	1553	1554	1554	1554	1554	1554	1554	1554	1554	1553	1553	1552	1552	1552	1554	1554	1557	1558	1560	1562	1564	1567	1569	1570	1572	1572	1573	1572	1570	1569	1568	1567	1565	1564	1563	1563	1562	1562	1562	1560	1559	1560	1559	1559	1556	1554	1551	1546	1543	1541	1540	1537	1536	1536	1537	1539	1540	1543	1545	1547	1551	1553	1556	1558	1559	1560	1562	1562	1563	1563	1564	1563	1563	1563	1563	1564	1565	1565	1567	1567	1568	1568	1569	1569	1570	1570	1572	1573	1574	1574	1574	1574	1573	1572	1572	1569	1568	1565	1564	1562	1560	1559	1558	1557	1554	1554	1553	1553	1553	1554	1556	1557	1559	1560	1563	1565	1568	1569	1570	1570	1570	1569	1569	1565	1564	1563	1562	1560	1559	1558	1558	1558	1559	1559	1560	1560	1562	1564	1565	1567	1567	1567	1567	1565	1563	1560	1558	1556	1553	1552	1549	1548	1547	1546	1545	1545	1545	1545	1546	1548	1549	1552	1553	1554	1557	1559	1562	1563	1565	1568	1570	1573	1573	1573	1574	1575	1577	1578	1579	1582	1584	1588	1591	1596	1597	1597	1598	1597	1596	1594	1594	1593	1593	1592	1589	1589	1587	1584	1579	1575	1574	1570	1568	1567	1564	1562	1560	1558	1558	1556	1556	1553	1554	1554	1554	1557	1558	1558	1559	1560	1560	1560	1559	1559	1559	1558	1558	1557	1556	1556	1557	1558	1559	1562	1563	1564	1567	1568	1570	1573	1573	1574	1574	1575	1575	1575	1574	1574	1574	1573	1573	1573	1573	1573	1573	1574	1575	1577	1578	1579	1579	1580	1582	1582	1580	1580	1580	1579	1577	1577	1575	1574	1573	1572	1570	1570	1570	1570	1570	1570	1572	1573	1573	1575	1575	1575	1575	1574	1573	1572	1570	1570	1568	1567	1564	1563	1562	1560	1559	1559	1559	1559	1560	1562	1563	1564	1565	1567	1567	1568	1568	1568	1568	1569	1569	1569	1569	1569	1569	1568	1568
936	937	938	939	939	940	941	0	942	943	945	946	0	0	0	0	0	0	0	0	953	952	951	949	950	950	950	950	950	949	949	949	948	948	947	946	945	945	945	944	0	0	0	0	0	0	0	0	0	0	0	0	0	0	0	0	0	0	0	0	0	0	0	0	0	0	0	0	0	0	0	0	0	0	0	0	0	0	0	0	0	0	0	0	0	0	0	0	0	0	0	0	0	0	0	0	0	0	0	0	0	0	0	0	942	942	941	941	940	940	939	939	939	938	938	938	938	938	938	938	938	939	939	941	943	946	948	951	953	955	956	958	959	959	959	959	959	960	960	961	961	961	961	961	961	961	961	962	962	962	962	963	962	962	962	963	963	964	964	965	966	967	968	970	971	972	974	975	976	978	979	978	979	980	980	980	0	0	0	0	0	0	0	0	0	0	0	0	0	0	0	0	0	0	0	1562	1562	1562	1562	1562	1563	1563	1564	1564	1564	1564	1564	1563	1563	1563	1563	1562	1562	1562	1562	1562	1562	1560	1560	1559	1559	1560	1560	1559	1559	1560	1559	1558	1558	1557	1557	1556	1556	1556	1557	1558	1559	1560	1562	1563	1564	1567	1568	1570	1572	1573	1574	1575	1575	1575	1574	1573	1572	1570	1569	1568	1567	1565	1564	1562	1560	1558	1554	1552	1548	1543	1540	1537	1534	1530	1529	1528	1528	1529	1530	1531	1533	1537	1541	0	0	0	1547	1549	1552	1554	1554	1554	1556	1558	1560	1564	1564	1567	1567	1567	1568	1568	1567	1565	1565	1565	1565	1565	1564	1564	1564	1564	1565	1565	1565	1565	1565	1567	1565	1565	1565	1564	1564	1563	1562	1560	1559	1558	1557	1556	1556	1556	1556	1556	1556	1557	1558	1559	1559	1562	1563	1564	1564	1564	1563	1563	1563	1562	1562	1560	1559	1560	1560	1560	1560	1562	1562	1560	1563	1563	1563	1563	1563	1562	1562	1560	1559	1558	1556	1554	1552	1549	1548	1548	1546	1545	1546	1546	1546	1547	1547	1548	1548	1549	1551	1551	1551	1553	1553	1554	1556	1557	1557	1556	1556	1554	1554	1554	1554	1553	1553	1554	1554	1554	1553	1553	1552	1551	1551	1552	1551	1552	1552	1553	1556	1558	1560	1562	1564	1565	1565	1568	1568	1568	1567	1567	1567	1565	1565	1564	1563	1562	1562	1562	1562	1562	1560	1560	1560	1559	1558	1557	1553	1551	1543	1541	1539	1537	1535	1535	1535	1536	1537	1539	1541	1543	1546	1549	1551	1553	1556	1558	1559	1560	1562	1563	1562	1563	1563	1563	1564	1564	1565	1567	1567	1569	1569	1570	1570	1570	1572	1572	1573	1573	1574	1574	1574	1574	1574	1573	1572	1570	1568	1567	1565	1564	1562	1560	1560	1559	1558	1557	1556	1554	1554	1554	1556	1557	1558	1560	1563	1564	1567	1569	1570	1572	1573	1573	1573	1572	1569	1567	1565	1564	1563	1562	1560	1560	1560	1560	1562	1562	1562	1564	1564	1565	1567	1567	1568	1567	1567	1564	1562	1560	1557	1556	1553	1551	1551	1548	1547	1547	1546	1546	1546	1547	1548	1551	1552	1553	1554	1557	1559	1560	1563	1564	1567	1568	1570	1570	1572	1572	1572	1573	1573	1574	1575	1578	1580	1584	1588	1589	1591	1591	1591	1589	1588	1588	1588	1588	1588	1587	1586	1584	1582	1578	1574	1572	1569	1567	1564	1562	1559	1557	1556	1554	1553	1552	1551	1552	1553	1553	1554	1557	1558	1559	1560	1560	1560	1560	1560	1560	1559	1559	1559	1559	1559	1559	1559	1562	1563	1564	1565	1569	1570	1573	1574	1575	1574	1575	1575	1575	1575	1574	1574	1573	1573	1572	1572	1572	1572	1572	1573	1574	1575	0	1577	1578	1579	1579	1579	1579	1578	1578	1577	1575	1575	1574	1573	1572	1570	1569	1568	1569	1568	1568	1569	1569	1570	1572	1573	1573	1573	1573	1572	1572	1570	1569	1568	1567	1565	1563	1562	1562	1560	1559	1559	1559	1559	1560	1562	1563	1564	1565	1567	1567	1567	1568	1568	1568	1568	1568	1568	1568	1568	1567	1565	1565
935	936	937	938	939	940	941	0	943	943	944	945	0	0	0	0	0	0	0	0	948	948	947	946	947	948	948	948	948	948	948	948	947	947	946	945	944	944	944	943	943	0	0	0	0	0	0	0	0	0	0	0	0	0	0	0	0	0	0	0	0	0	0	0	0	0	0	0	0	0	0	0	0	0	0	0	0	0	0	0	0	0	0	0	0	0	0	0	0	0	0	0	0	0	0	0	0	0	0	0	0	0	0	943	943	942	942	942	941	941	940	939	939	939	938	938	938	938	938	938	939	939	940	942	944	947	0	952	955	958	959	960	960	961	961	962	962	962	962	963	963	963	962	962	962	963	962	963	963	963	964	964	964	964	964	964	964	965	965	966	967	967	968	970	971	972	973	974	975	977	978	978	979	979	979	979	979	0	0	0	0	0	0	0	0	0	0	0	0	0	0	0	0	0	0	1557	1557	1558	1558	1558	1559	1560	1560	1560	1562	1562	1562	1562	1562	1562	1562	1560	1562	1560	1560	1559	1559	1558	1558	1558	1558	1558	1558	1559	1559	1560	1559	1558	1558	1558	1557	1557	1556	1556	1557	1558	1559	1559	1560	1562	1563	1564	1567	1567	1569	1569	1570	1572	1572	1572	1570	1569	1568	1568	1565	1564	1563	1562	1560	1559	1558	1554	1552	1549	1545	1541	1536	1534	1526	1524	1523	1523	1523	1523	1524	1526	1528	1531	1536	1540	1542	1545	0	1548	1551	1552	1553	1554	1554	1557	1559	1562	1563	1565	1565	1567	1567	1568	1567	1565	1565	1565	1564	1564	1564	1564	1564	1564	1564	1564	1564	1564	1564	1564	1563	1563	1563	1562	1562	1562	1559	1559	1558	1557	1557	1556	1554	1556	1556	1556	1557	1559	1560	1562	1563	1564	1564	1564	1564	1563	1562	1562	1560	1558	1558	1558	1557	1557	1558	1558	1559	1559	1560	1560	1562	1563	1563	1563	1562	1562	1562	1562	1560	1558	1556	1554	1552	1551	1549	1548	1547	1546	1546	1547	1547	1547	1547	1547	1548	1549	1549	1551	1551	1552	1553	1554	1556	1556	1556	1556	1554	1554	1554	1554	1554	1554	1554	1554	1554	1554	1553	1553	1551	1551	1551	1549	1549	1549	1551	1552	1553	1556	1557	1558	1560	1562	1564	1563	1564	1564	1565	1564	1563	1563	1563	1562	1562	1562	1560	1560	1560	1562	1562	1560	1560	1559	1557	1556	1552	1549	1543	1540	1537	1536	1535	1534	1535	1535	1537	1539	1541	1542	1546	1548	1551	1552	1554	1557	1558	1559	1559	1562	1562	1562	1563	1564	1564	1565	1567	1567	1568	1568	1569	1570	1570	1572	1572	1573	1573	1573	1574	1574	1574	1574	1574	1573	1570	1570	1568	1567	1564	1564	1562	1562	1560	1559	1559	1558	1557	1557	1557	1557	1557	1558	1559	1562	1563	1565	1568	1570	1572	1574	1574	1575	1574	1573	1573	1570	1569	1567	1564	1564	1563	1563	1563	1563	1563	1563	1564	1564	1565	1567	1567	1568	1568	1568	1567	1564	1563	1562	1559	1558	1557	1554	1553	1551	1549	1549	1549	1548	1547	1548	1549	1551	1552	1553	1554	1557	1559	1562	1562	1564	1567	1567	1569	1569	1569	1569	1568	1568	1568	1568	1569	1570	1572	1575	1578	1579	1580	1582	1582	1580	1582	1580	1582	1584	1584	1583	1583	1580	1579	1575	1573	1570	1567	1564	1563	1560	1558	1554	1553	1552	1551	1549	1549	1549	1551	1552	1553	1554	1558	1559	1560	1562	1562	1562	1562	1562	1562	1562	1562	1562	1562	1562	1563	1564	1567	1568	1569	1570	1573	1574	1575	1575	1577	1577	1577	1575	1575	1575	1574	1574	1573	1573	1572	1570	1570	1572	1572	1573	1573	1575	1575	1577	1577	1577	1577	1577	1575	1575	1574	1574	1573	1572	1570	1570	1568	1568	1567	1567	1565	1565	1565	1568	1568	1569	1569	1572	1572	1570	1570	1570	1569	1568	1567	1567	1564	1563	1563	1562	1562	1560	1560	1560	1560	1562	1562	1563	1564	1565	1565	1567	1567	1567	1567	1567	1567	1567	1567	1567	1567	1565	1565	1564
935	935	936	937	938	939	940	0	942	943	944	0	0	0	0	0	0	0	947	946	945	945	944	945	945	945	945	946	946	946	946	946	946	944	944	943	943	943	942	942	940	0	0	0	0	0	0	0	0	0	0	0	0	0	0	0	0	0	0	0	0	0	0	0	0	0	0	0	0	0	0	0	0	0	0	0	0	0	0	0	0	0	0	0	0	0	0	0	0	0	0	0	0	0	0	0	0	0	0	0	0	0	0	943	942	942	943	942	942	941	941	940	939	939	939	938	938	939	938	939	939	939	940	943	945	948	0	954	957	959	0	960	962	962	963	963	963	963	0	964	964	963	963	963	963	963	963	963	964	964	965	965	965	966	966	966	966	966	967	967	967	968	969	970	971	972	973	974	975	976	977	977	978	978	978	978	978	0	0	0	0	0	0	0	0	0	0	0	0	0	0	0	0	0	0	0	1554	1554	1554	1556	1557	1557	1557	1558	1558	1559	1559	1559	1560	1560	1560	1560	1560	1560	1559	1559	1558	1558	1558	1557	1557	1558	1558	1559	1559	1559	1559	1558	1558	1558	1558	1558	1558	1558	1557	1557	1558	1559	1559	1560	1562	1563	1564	1565	1567	1567	1568	1568	1568	1567	1565	1565	1564	1564	1562	1560	1559	1559	1558	1556	1556	1552	1549	1546	1541	1537	1534	1527	1523	1521	1520	1520	1521	1521	1521	1523	1524	1529	1533	1537	1540	1543	1546	1548	0	1551	1552	1553	1554	0	1558	1560	1562	1563	1564	1565	1567	1567	1567	1565	1564	1564	1564	1564	1564	1564	1563	1564	1563	1564	1563	1563	1563	1563	1562	1562	1560	1560	1560	1559	1558	1557	1557	1556	1557	1556	1556	1557	1557	1558	1559	1560	1562	1563	1563	1564	1564	1564	1563	1562	1560	1559	1557	1556	1554	1554	1553	1554	1554	1556	1557	1558	1559	1559	1562	1562	1563	1563	1562	1562	1562	1563	1560	1559	1557	1556	1553	1552	1549	1549	1547	1547	1546	1547	1547	1547	1548	1548	1547	1548	1549	1551	1551	1552	1552	1553	1554	1554	1556	1556	1554	1554	1554	1554	1554	1554	1554	1554	1553	1553	1553	1552	1551	1548	1548	1547	1547	1547	1548	1548	1549	1552	1553	1556	1556	1558	1558	1558	1559	1560	1560	1560	1560	1560	1560	1560	1560	1560	1560	1562	1562	1560	1560	1560	1559	1559	1558	1554	1552	1549	1542	1540	1537	1535	1534	1534	1534	1535	1536	1537	1540	1542	1545	1547	1549	1551	1553	1556	1557	1558	1558	1559	1560	1560	1562	1562	1564	1564	1567	1568	1568	1569	1569	1570	1570	1572	1573	1573	1573	1573	1574	1574	1574	1574	1573	1572	1570	1569	1568	1565	1564	1563	1563	1560	1562	1560	1559	1559	1558	1558	1558	1558	1558	1559	1560	1563	1564	1567	1569	1570	1573	1574	1575	1575	1575	1575	1573	1572	1572	1568	1567	1565	1564	1564	1564	1563	1564	1564	1565	1565	1565	1567	1568	1568	1569	1568	1568	1567	1565	1564	1562	1560	1559	1557	1556	1554	1553	1552	1551	1549	1549	1551	1551	1552	1553	1554	1556	1558	1560	1562	1563	1563	1565	1567	1568	1568	1567	1567	1565	1565	1564	1563	1563	1564	1564	1565	1569	1570	1573	1573	1574	1574	1574	1575	1577	1578	1579	1580	1579	1577	1575	1574	1570	1568	1565	1563	1560	1559	1556	1553	1551	1549	1548	1547	1546	1546	1547	1548	1551	1553	1554	1557	1559	1559	1562	1562	1562	1564	1564	1563	1564	1564	1565	1565	1567	1568	1569	1572	1573	1574	1575	1577	1578	1578	1578	1578	1577	1577	1575	1575	1574	1573	1573	1573	1572	1570	1570	1570	1572	1572	1573	1573	1574	1574	1574	1574	1573	1573	1573	1573	1572	1572	1570	1570	1569	1568	1567	1567	1565	1564	1564	1564	1564	1565	1565	1567	1568	1568	1569	1569	1569	1568	1568	1567	1567	1565	1564	1564	1563	1563	1562	1562	1562	1562	1562	1563	1563	1563	1564	1564	1565	1565	1565	1567	1567	1567	1567	1565	1565	1565	1567	1564	1564	1564
934	934	935	936	937	938	940	941	942	0	943	0	0	0	0	0	0	0	0	943	943	942	942	942	942	942	943	943	943	943	944	944	943	943	942	941	941	940	940	939	0	0	0	0	0	0	0	0	0	0	0	0	0	0	0	0	0	0	0	0	0	0	0	0	0	0	0	0	0	0	0	0	0	0	0	0	0	0	0	0	0	0	0	0	0	0	0	0	0	0	0	0	0	0	0	0	0	0	0	0	0	0	0	0	0	943	943	943	942	942	942	941	940	940	939	0	0	939	939	939	939	939	941	944	947	0	953	955	958	0	960	961	962	963	963	964	964	964	964	964	964	963	963	963	962	963	963	964	964	965	966	966	967	967	967	966	967	967	967	968	968	969	970	971	972	972	973	974	975	975	976	976	976	977	977	977	976	976	0	0	0	0	0	0	0	0	0	0	0	0	0	0	0	0	0	0	1553	1553	1554	1554	1554	1554	1554	1556	1556	1557	1558	1559	1559	1559	1559	1559	1560	1559	1559	1558	1558	1557	1557	1557	1557	1558	1558	1559	1559	1560	1560	1559	1559	1559	1558	1558	1558	1558	1558	1558	1558	1559	1559	1560	1560	1562	1562	1563	1563	1564	1564	1564	1563	1562	1562	1560	1560	1559	1558	1557	1556	1556	1554	1553	1552	1549	1547	1543	1540	1536	1533	1526	1522	1520	1518	1518	1518	1520	1520	1521	1523	1528	1531	1535	1537	1540	1543	1546	1548	0	1551	1552	1553	0	1556	1558	1560	1562	1562	1563	1564	1565	1565	1564	1564	1564	1564	1564	1563	1563	1563	1562	1562	1562	1562	1562	1562	1562	1560	1559	1558	1557	1557	1557	1556	1556	1556	1556	1557	1557	1557	1558	1558	1559	1560	1560	1563	1563	1564	1564	1564	1563	1563	1562	1559	1558	1556	1553	1553	1552	1551	1552	1552	1553	1556	1556	1557	1559	1560	1563	1563	1563	1563	1563	1562	1563	1562	1560	1558	1557	1554	1553	1552	1551	1549	1548	1547	1547	1547	1547	1548	1548	1548	1548	1548	1551	1551	1552	1552	1552	1553	1553	1554	1554	1554	1554	1554	1554	1553	1553	1554	1553	1553	1553	1552	1551	1549	1548	1547	1546	1545	1545	1546	1546	1547	1548	1549	1552	1552	1553	1554	1554	1556	1556	1557	1557	1557	1557	1558	1558	1559	1559	1560	1560	1560	1560	1560	1560	1560	1558	1557	1554	1551	1548	1542	1540	1537	1536	1535	1535	1535	1536	1537	1539	1541	1542	1545	1547	1549	1551	1552	1554	1556	1557	1557	1558	1559	1559	1560	1562	1563	1564	1567	1567	1568	1569	1569	1569	1570	1570	1570	1572	1572	1572	1572	1573	1572	1572	1572	1570	1568	1568	1567	1565	1564	1563	1563	1562	1562	1560	1560	1559	1559	1559	1559	1559	1559	1560	1562	1564	1565	1568	1570	1572	1573	1574	1575	1577	1575	1575	1574	1572	1572	1568	1567	1565	1564	1563	1564	1564	1564	1564	1565	1567	1567	1568	1569	1570	1569	1569	1569	1568	1568	1565	1565	1563	1562	1560	1559	1558	1556	1554	1553	1553	1552	1552	1554	1556	1556	1557	1558	1559	1562	1563	1563	1564	1565	1567	1567	1567	1565	1564	1564	1563	1562	1560	1559	1559	1560	0	1563	1564	1567	1568	1568	1569	1569	0	1572	1574	1575	1575	1574	1574	1573	1570	1568	1565	1563	1560	1558	1557	1553	1551	1548	1546	1546	1543	1543	1543	1543	1546	1548	1549	1552	1554	1557	1559	1560	1562	1564	1565	1565	1567	1567	1567	1567	1568	1569	1570	1573	1573	1575	1577	1577	1578	1578	1578	1578	1577	1577	1575	1575	1574	1573	1573	1573	1573	1572	1570	1569	1570	1570	1570	1570	1572	1572	1572	1573	1572	1570	1570	1570	1569	1569	1569	1568	1568	1567	1565	1565	1565	1564	1563	1563	1563	1563	1563	1563	1564	1565	1567	1568	1568	1568	1567	1567	1567	1567	1565	1565	1564	1564	1564	1563	1563	1563	1562	1563	1563	1563	1564	1564	1565	1565	1565	1565	1565	1565	1565	1565	1564	1564	1564	1564	1564	1563	1563
934	935	935	936	937	938	939	940	942	942	0	0	0	0	0	0	0	0	0	0	940	939	939	940	940	940	940	941	941	941	941	941	941	940	939	939	939	938	937	0	0	0	0	0	0	0	0	0	0	0	0	0	0	0	0	0	0	0	0	0	0	0	0	0	0	0	0	0	0	0	0	0	0	0	0	0	0	0	0	0	0	0	0	0	0	0	0	0	0	0	0	0	0	0	0	0	0	0	0	0	0	0	0	0	0	0	943	943	943	942	942	942	942	0	0	0	0	0	0	0	940	0	0	945	949	0	955	957	0	959	961	962	963	963	964	964	964	963	0	964	963	962	962	962	962	963	964	964	965	966	966	967	967	967	967	967	967	968	968	968	969	970	970	971	972	973	973	974	975	975	975	976	976	976	976	976	976	975	975	0	0	0	0	0	0	0	0	0	0	0	0	0	0	0	0	0	1552	1551	1552	1552	1553	1553	1553	1553	1554	1556	1557	1557	1558	1558	1559	1559	1559	1559	1558	1558	1558	1557	1557	1557	1557	1557	1559	1559	1560	1562	1562	1562	1562	1560	1560	1560	1559	1558	1559	1559	1559	1559	1559	1560	1560	1560	1560	1560	1560	1560	1560	1562	1559	1559	1559	1558	1557	1556	1554	1553	1553	1552	1552	1551	1549	1547	1545	1542	1539	1535	1531	1524	1522	1521	1520	1520	1518	1520	1520	1521	1523	1527	1530	1534	1535	1539	1541	1545	1547	1548	1549	1549	1551	1553	1556	0	1558	1559	1559	1560	1562	1563	1563	1563	1563	1563	1563	1563	1563	1563	1563	1563	1562	1562	1562	1560	1559	1559	1557	1557	1556	1556	1554	1554	1554	1554	1556	1556	1557	1557	1557	1558	1559	1560	1562	1562	1563	1563	1564	1564	1563	1563	1562	1559	1557	1554	1552	1551	1549	1548	1548	1548	1549	1551	1552	1553	1554	1557	1559	1562	1562	1563	1562	1562	1562	1562	1562	1560	1558	1557	1554	1554	1552	1551	1549	1548	1548	1548	1548	1547	1548	1548	1548	1548	1548	1549	1549	1549	1551	1552	1553	1553	1553	1553	1553	1553	1553	1553	1554	1553	1553	1553	1553	1553	1552	1549	1548	1547	1546	1543	1543	1542	1542	1543	1543	1546	1547	1547	1548	1549	1551	1551	1552	1552	1552	1553	1554	1554	1554	1556	1556	1558	1558	1558	1559	1559	1559	1559	1559	1558	1557	1554	1552	1548	1543	1541	1539	1537	1536	1536	1537	1539	1539	1540	1542	1543	1546	1547	1548	1551	1552	1553	1554	1556	1557	1557	1558	1559	1560	1560	1563	1564	1565	1567	1567	1568	1568	1569	1569	1569	1569	1569	1569	1569	1569	1569	1569	1570	1570	1568	1567	1567	1565	1564	1564	1563	1562	1562	1562	1562	1562	1560	1560	1559	1559	1559	1560	1560	1562	1564	1565	1568	1569	1572	1573	1574	1575	1575	1575	1574	1573	1572	1569	1567	1564	1563	1562	1562	1562	1563	1563	1564	1565	1567	1567	1568	1569	1570	1569	1570	1570	1569	1569	1569	1567	1565	1564	1563	1562	1560	1559	1560	1559	1557	1557	1557	1557	1557	1558	1559	1559	1562	1562	1563	1564	1564	1565	1565	1565	1565	1565	1564	1563	1562	1560	1558	1558	1557	1558	1560	1560	1562	1563	1563	1564	1565	1567	1568	1569	1570	1572	1572	1570	1570	1570	1568	1565	1563	1560	1558	1556	1554	1551	1547	1546	1545	1543	1541	1540	1540	1541	1542	1545	1548	1549	1553	1556	1558	1560	1562	1564	1565	1567	1568	1568	1569	1569	1570	1572	1573	1574	1575	1575	1577	1577	1578	1577	1577	1577	1575	1574	1574	1574	1573	1572	1572	1572	1572	1572	1570	1570	1569	1569	1569	1569	1570	1570	1570	1569	1569	1569	1568	1568	1568	1567	1567	1565	1565	1565	1564	1564	1564	1563	1563	1562	1562	1562	1563	1563	1563	1565	1565	1567	1567	1567	1565	1567	1567	1565	1565	1565	1564	1564	1564	1563	1563	1563	1563	1563	1563	1564	1564	1564	1564	1565	1565	1565	1565	1565	1564	1564	1564	1564	1564	1563	1563	1562	1562
934	934	934	935	935	937	938	939	940	941	0	0	0	0	0	0	0	0	0	936	937	937	937	937	937	938	938	938	938	938	938	938	938	937	937	936	936	936	0	0	0	0	0	0	0	0	0	0	0	0	0	0	0	0	0	0	0	0	0	0	0	0	0	0	0	0	0	0	0	0	0	0	0	0	0	0	0	0	0	0	0	0	0	0	0	0	0	0	0	0	0	0	0	0	0	0	0	0	0	0	0	0	0	0	0	0	0	943	943	943	943	943	942	941	0	0	0	0	0	0	941	0	0	0	951	0	957	0	959	960	962	962	963	964	964	964	964	963	963	963	962	961	962	961	961	963	964	964	0	966	967	967	968	968	968	967	968	969	969	969	969	970	971	972	973	973	974	974	975	975	976	976	976	975	976	976	975	975	975	0	0	0	0	0	0	0	0	0	0	0	0	0	0	0	0	0	1552	1551	1552	1552	1552	1552	1552	1553	1552	1553	1554	1556	1556	1557	1558	1558	1559	1558	1558	1558	1557	1558	1558	1558	1558	1558	1559	1560	1562	1563	1563	1563	1563	1563	1563	1562	1560	1560	1559	1559	1559	1559	1559	1559	1559	1559	1558	1559	1558	1558	1558	1557	1557	1554	1556	1554	1554	1553	1552	1551	1549	1548	1548	1547	1546	1545	1543	1541	1537	1535	1533	1527	1524	1523	1522	1522	1522	1522	1522	1524	1526	1528	1530	1534	1535	1537	1541	1545	1546	1547	1548	1548	1549	1552	1554	1556	1556	1557	1557	1558	1559	1560	1560	1560	1562	1562	1562	1562	1563	1563	1563	1562	1560	1560	1560	1559	1558	1558	1556	1556	1554	1553	1553	1553	1553	1553	1554	1554	1557	1557	1559	1559	1560	1560	1562	1562	1563	1563	1563	1562	1562	1560	1559	1557	1553	1552	1549	1548	1548	1546	1546	1546	1547	1548	1549	1551	1552	1556	1558	1559	1560	1560	1560	1560	1559	1560	1560	1559	1558	1557	1556	1554	1554	1553	1551	1549	1549	1548	1548	1547	1547	1547	1547	1547	1547	1547	1547	1548	1549	1549	1551	1551	1552	1552	1552	1553	1553	1553	1553	1553	1553	1552	1552	1552	1551	1549	1547	1546	1545	1542	1541	1541	1541	1541	1541	1542	1543	1543	1545	1546	1546	1546	1547	1548	1548	1549	1549	1551	1551	1552	1553	1554	1556	1556	1558	1558	1559	1558	1558	1557	1556	1554	1552	1549	1547	1542	1541	1540	1539	1539	1539	1540	1541	1542	1543	1545	1546	1547	1548	1549	1551	1552	1553	1554	1556	1556	1557	1558	1559	1559	1560	1563	1564	1565	1567	1567	1568	1568	1567	1567	1568	1568	1568	1567	1567	1568	1568	1567	1568	1567	1564	1563	1563	1562	1562	1562	1562	1560	1562	1562	1563	1562	1560	1560	1560	1560	1560	1560	1562	1564	1565	1567	1569	1572	1572	1574	1574	1574	1573	1573	1572	1569	1565	1564	1562	1560	1559	1559	1560	1562	1563	1563	1564	1565	1567	1568	1568	1568	1569	1569	1569	1569	1569	1568	1568	1567	1567	1564	1564	1563	1562	1560	1560	1559	1558	1559	1559	1559	1559	1559	1560	1562	1563	1563	1563	1564	1565	1565	1565	1565	1565	1563	1562	1560	1560	1557	1556	1556	1556	1557	1557	1558	1559	1560	1560	1560	1563	1564	1567	1568	1569	1568	1569	1568	1567	1565	1563	1560	1558	1556	1553	1552	1549	1546	1545	1542	1541	1540	1539	1540	1541	1542	1546	1547	1549	1553	1556	1558	1560	1563	1563	1565	1568	1568	1569	1570	1572	1572	1573	1574	1574	1575	1575	1577	1575	1577	1575	1574	1574	1573	1572	1572	1570	1570	1570	1570	1570	1570	1569	1570	1569	1569	1569	1569	1569	1569	1569	1569	1569	1568	1568	1568	1567	1567	1567	1565	1565	1564	1564	1564	1563	1563	1563	1562	1562	1562	1562	1562	1562	1562	1563	1564	1565	1565	1567	1565	1565	1565	1565	1565	1564	1564	1564	1564	1564	1563	1563	1563	1563	1563	1563	1564	1564	1564	1564	1564	1564	1564	1564	1564	1564	1563	1563	1563	1562	1562	1560	1559
934	934	934	935	935	936	937	937	937	0	0	0	0	0	0	0	0	0	0	0	0	935	935	936	935	936	936	936	937	937	937	938	938	937	937	936	0	0	0	0	0	0	0	0	0	0	0	0	0	0	0	0	0	0	0	0	0	0	0	0	0	0	0	0	0	0	0	0	0	0	0	0	0	0	0	0	0	0	0	0	0	0	0	0	0	0	0	0	0	0	0	0	0	0	0	0	0	0	0	0	0	0	0	0	0	0	0	0	944	944	943	943	943	0	0	0	0	0	0	0	942	0	0	0	0	0	957	958	960	961	963	963	964	964	965	964	964	963	963	962	961	961	960	961	961	962	963	964	0	966	967	968	968	968	968	968	969	969	969	970	970	971	972	973	974	974	975	975	975	976	975	975	975	975	976	974	974	974	974	974	0	0	0	0	0	0	0	0	0	0	0	0	0	0	0	0	1551	1549	1549	1549	1549	1551	1549	1549	1549	1551	1553	1553	1553	1556	1556	1557	1558	1558	1558	1558	1558	1558	1558	1558	1558	1559	1560	1562	1564	1564	1565	1565	1564	1565	1564	1563	1562	1560	1560	1560	1559	1559	1559	1559	1559	1559	1558	1558	1557	1557	1557	1556	1553	1552	1551	1551	1549	1548	1548	1546	1546	1545	1545	1543	1542	1542	1541	1540	1537	1535	1534	1531	1528	1527	1527	1526	1527	1527	1526	1527	1528	1530	1531	1534	1535	1536	1539	1542	1545	1546	1547	1548	1549	1552	1553	1556	1556	1557	1556	1557	1557	1559	1559	1559	1560	1560	1560	1560	1562	1562	1562	1562	1562	1562	1560	1560	1559	1557	1556	1554	1553	1552	1551	1551	1552	1552	1553	1554	1556	1558	1558	1559	1559	1560	1560	1562	1562	1562	1563	1562	1560	1559	1558	1556	1552	1549	1548	1547	1546	1545	1543	1543	1545	1546	1547	1548	1549	1553	1556	1557	1559	1559	1558	1558	1558	1558	1558	1557	1557	1557	1556	1556	1554	1553	1552	1551	1549	1549	1549	1548	1548	1547	1546	1546	1545	1545	1545	1546	1546	1547	1548	1549	1549	1552	1552	1552	1552	1552	1553	1553	1553	1553	1552	1551	1551	1549	1547	1546	1543	1541	1540	1540	1539	1539	1539	1539	1540	1540	1541	1541	1541	1542	1543	1543	1543	1545	1546	1547	1547	1548	1549	1552	1552	1554	1554	1557	1557	1557	1557	1557	1556	1554	1552	1549	1548	1546	1543	1541	1541	1541	1541	1542	1542	1543	1545	1546	1547	1548	1548	1549	1551	1552	1552	1553	1554	1554	1556	1556	1558	1558	1560	1562	1563	1564	1564	1565	1564	1565	1565	1564	1564	1564	1564	1564	1564	1563	1563	1564	1563	1562	1560	1559	1559	1558	1559	1559	1560	1559	1560	1562	1562	1562	1562	1560	1560	1560	1560	1560	1562	1563	1564	1565	1568	1569	1570	1572	1572	1573	1572	1570	1569	1567	1563	1562	1559	1558	1558	1558	1558	1559	1560	1562	1563	1564	1565	1567	1567	1568	1568	1568	1568	1568	1568	1568	1567	1567	1565	1565	1564	1563	1563	1562	1562	1560	1559	1559	1559	1559	1559	1559	1560	1562	1563	1563	1563	1563	1564	1564	1565	1565	1564	1563	1562	1560	1559	1556	1554	1553	1554	1554	1554	1554	1556	1556	1558	1558	1559	1560	1563	1564	1565	1565	1565	1565	1564	1563	1562	1559	1557	1554	1553	1551	1548	1546	1543	1543	1541	1540	1539	1540	1542	1542	1547	1548	1551	1554	1556	1558	1560	1562	1564	1565	1568	1568	1569	1570	1572	1572	1573	1573	1573	1574	1574	1574	1574	1573	1572	1570	1570	1569	1568	1568	1567	1567	1567	1568	1568	1568	1568	1568	1568	1569	1568	1569	1569	1569	1568	1568	1568	1568	1567	1567	1567	1567	1565	1565	1565	1565	1564	1564	1564	1563	1562	1562	1562	1560	1560	1560	1560	1563	1563	1563	1564	1564	1565	1565	1565	1565	1564	1564	1564	1564	1564	1564	1564	1564	1564	1564	1564	1564	1564	1563	1564	1564	1564	1564	1564	1564	1564	1564	1563	1563	1563	1562	1562	1560	1559	1558
934	934	934	934	935	935	935	935	934	0	0	0	0	0	0	0	0	0	0	0	0	0	0	934	935	935	936	936	937	937	938	0	0	0	0	0	0	0	0	0	0	0	0	0	0	0	0	0	0	0	0	0	0	0	0	0	0	0	0	0	0	0	0	0	0	0	0	0	0	0	0	0	0	0	0	0	0	0	0	0	0	0	0	0	0	0	0	0	0	0	0	0	0	0	0	0	0	0	0	0	0	0	0	0	0	0	0	944	944	944	944	944	944	944	943	943	0	0	0	0	0	0	0	0	955	0	0	960	961	962	964	964	964	965	965	965	964	962	962	962	961	960	960	960	960	961	963	963	964	965	967	968	968	968	968	968	969	970	970	970	970	971	972	973	974	974	975	975	975	976	975	975	975	975	975	975	974	974	973	973	973	0	0	0	0	0	0	0	0	0	0	0	0	0	0	0	0	1548	1548	1548	1548	1547	1547	1547	1547	1548	1549	1551	1552	1553	1554	1556	1557	1557	1557	1558	1558	1559	1559	1559	1559	1560	1562	1564	1564	1565	1567	1567	1567	1567	1565	1564	1563	1562	1560	1559	1559	1559	1559	1559	1560	1560	1558	1558	1557	1556	1556	1553	1551	1549	1549	1548	1547	1545	1545	1543	1542	1542	1541	1541	1541	1540	1540	1540	1537	1536	1535	1534	1533	1533	1531	1531	1531	1531	1530	1530	1531	1531	1533	1534	1535	1536	1539	1542	1545	1546	1547	1549	1551	1553	1554	1556	1557	1556	1557	1556	1557	1557	1557	1557	1558	1558	1558	1560	1562	1563	1563	1563	1562	1562	1560	1560	1559	1557	1556	1553	1552	1552	1551	1549	1551	1552	1553	1554	1556	1557	1558	1558	1559	1560	1560	1560	1562	1562	1562	1560	1559	1558	1556	1551	1548	1547	1546	1545	1543	1543	1543	1543	1543	1545	1547	1548	1548	1552	1553	1556	1557	1557	1556	1554	1554	1556	1556	1556	1556	1556	1556	1554	1554	1554	1553	1552	1551	1551	1549	1548	1548	1546	1546	1545	1543	1542	1541	1542	1543	1543	1546	1546	1548	1549	1551	1551	1551	1552	1552	1552	1552	1552	1552	1551	1549	1548	1547	1545	1543	1541	1540	1537	1537	1536	1536	1536	1536	1536	1536	1536	1537	1537	1539	1539	1539	1540	1541	1542	1542	1545	1546	1548	1548	1551	1553	1554	1554	1556	1556	1556	1554	1554	1552	1551	1549	1548	1545	1543	1543	1543	1543	1545	1545	1545	1546	1547	1548	1549	1549	1551	1552	1552	1552	1553	1553	1553	1554	1554	1556	1557	1558	1559	1560	1560	1562	1562	1562	1562	1562	1562	1562	1562	1562	1560	1559	1559	1559	1558	1559	1557	1557	1556	1556	1557	1558	1558	1559	1559	1560	1562	1562	1560	1560	1560	1560	1559	1560	1560	1562	1562	1564	1565	1567	1568	1568	1569	1569	1569	1568	1567	1565	1562	1559	1558	1556	1556	1554	1554	1556	1557	1558	1560	1562	1562	1563	1564	1564	1565	1565	1567	1567	1567	1565	1565	1565	1565	1565	1564	1563	1563	1563	1563	1562	1562	1560	1560	1560	1559	1560	1559	1559	1560	1562	1562	1562	1562	1563	1564	1564	1563	1563	1562	1560	1559	1558	1556	1553	1552	1553	1552	1552	1553	1553	1554	1556	1557	1557	1558	1559	1562	1562	1563	1562	1562	1560	1560	1559	1557	1556	1554	1552	1551	1548	1545	1545	1545	1543	1542	1541	1542	1543	1545	1547	1551	1552	1554	1557	1558	1560	1563	1564	1567	1568	1569	1569	1570	1572	1572	1573	1573	1572	1572	1572	1572	1570	1569	1568	1567	1567	1565	1564	1564	1563	1564	1564	1565	1565	1565	1565	1565	1567	1567	1567	1567	1568	1568	1568	1569	1569	1568	1568	1568	1567	1567	1565	1567	1564	1565	1565	1564	1563	1563	1563	1562	1562	1560	1562	1562	1562	1562	1562	1562	1563	1563	1564	1564	1564	1564	1564	1564	1564	1564	1564	1564	1564	1564	1564	1563	1563	1563	1564	1563	1564	1563	1564	1564	1564	1564	1564	1564	1563	1563	1562	1562	1562	1560	1559	1558
934	933	933	934	934	933	933	933	0	0	0	0	0	0	0	0	0	0	0	0	0	0	0	0	0	0	0	0	0	0	0	0	0	0	0	0	0	0	0	0	0	0	0	0	0	0	0	0	0	0	0	0	0	0	0	0	0	0	0	0	0	0	0	0	0	0	0	0	0	0	0	0	0	0	0	0	0	0	0	0	0	0	0	0	0	0	0	0	0	0	0	0	0	0	0	0	0	0	0	0	0	0	0	0	0	0	0	0	0	0	944	944	944	0	0	0	0	0	0	0	0	0	0	0	0	0	0	962	962	962	964	964	964	964	964	964	964	961	961	960	960	959	959	958	959	959	960	0	0	964	966	967	967	967	967	968	969	969	970	970	970	971	972	973	973	974	974	974	975	975	975	974	974	974	974	973	974	973	973	973	972	0	0	0	0	0	0	0	0	0	0	0	0	0	0	0	0	0	1546	1546	1546	1545	1545	1545	1543	1545	1547	1547	1549	1549	1552	1553	1556	1556	1557	1557	1557	1558	1559	1559	1560	1560	1563	1564	1565	1565	1567	1567	1567	1565	1565	1565	1564	1563	1562	1562	1560	1560	1560	1560	1560	1560	1560	1558	1557	1557	1554	1553	1549	1548	1547	1546	1545	1542	1541	1541	1540	1540	1540	1540	1539	1539	1540	1539	1539	1537	1536	1536	1535	1536	1535	1535	1535	1535	1534	1534	1534	1534	1534	1534	1534	1536	1539	1542	1545	1547	1548	1549	1552	1553	0	1556	1556	1557	1556	1557	1556	1556	1557	1556	1556	1557	1557	1559	1562	1563	1563	1564	1564	1563	1563	1560	1559	1558	1554	1553	1552	1551	1549	1549	1549	1551	1552	1553	1554	1557	1557	1558	1559	1559	1559	1560	1560	1560	1559	1559	1558	1556	1553	1549	1547	1546	1545	1545	1543	1542	1542	1543	1543	1546	1547	1548	1551	1551	1552	1553	1553	1553	1552	1552	1551	1552	1553	1553	1554	1554	1554	1554	1554	1554	1553	1553	1551	1551	1549	1548	1547	1547	1545	1543	1542	1541	1540	1541	1541	1542	0	1545	1546	1547	1549	1549	1551	1551	1551	1551	1552	1551	1551	1549	1549	1548	1546	1545	1542	1540	1539	1536	1535	1535	1534	1534	1533	1533	1533	1533	1533	1533	1534	1534	1535	1536	1537	1537	1540	1541	1543	1545	1546	1548	1551	1553	1553	1554	1554	1556	1556	1554	1553	1551	1551	1549	1548	1546	1545	1545	1546	1546	1546	1547	1547	1548	1549	1549	1551	1551	1552	1553	1553	1553	1553	1553	1554	1553	1554	1554	1556	1556	1557	1558	1558	1559	1559	1559	1559	1559	1559	1558	1558	1557	1557	1556	1556	1556	1554	1554	1554	1554	1554	1556	1557	1557	1559	1559	1559	1560	1562	1560	1559	1559	1559	1559	1559	1559	1560	1562	1562	1563	1564	1565	1565	1567	1567	1567	1565	1564	1560	1558	1557	1554	1553	1552	1552	1552	1553	1553	1554	1557	1559	1560	1563	1563	1564	1564	1564	1565	1565	1565	1564	1564	1564	1564	1564	1563	1563	1563	1563	1563	1562	1562	1560	1560	1559	1559	1559	1559	1559	1559	1560	1560	1559	1560	1562	1562	1563	1563	1562	1562	1562	1560	1559	1554	1553	1552	1552	1552	1552	1552	1552	1553	1554	1556	1556	1557	1557	1558	1559	1559	1559	1559	1559	1558	1557	1556	1554	1553	1552	1552	1549	1547	1546	1546	1546	1545	1545	1546	1546	1547	1549	1552	1553	1556	1557	1560	1562	1563	1565	1567	1569	1570	1570	1570	1572	1572	1570	1570	1570	1569	1569	1567	1565	1564	1563	1562	1562	1560	1559	1559	1560	1560	1562	1562	1563	1564	1564	1565	1567	1567	1567	1568	1568	1569	1569	1569	1570	1569	1568	1568	1568	1567	1567	1567	1567	1565	1565	1565	1565	1564	1564	1563	1563	1562	1562	1562	1562	1563	1563	1563	1563	1564	1564	1564	1564	1564	1564	1564	1563	1563	1563	1563	1563	1563	1563	1562	1563	1563	1563	1563	1563	1563	1563	1563	1563	1563	1563	1563	1563	1563	1562	1560	1560	1560	1558	1558
934	933	933	933	933	932	932	931	0	0	0	0	0	0	0	0	0	0	0	0	0	0	0	0	0	0	0	0	0	0	0	0	0	0	0	0	0	0	0	0	0	0	0	0	0	0	0	0	0	0	0	0	0	0	0	0	0	0	0	0	0	0	0	0	0	0	0	0	0	0	0	0	0	0	0	0	0	0	0	0	0	0	0	0	0	0	0	0	0	0	0	0	0	0	0	0	0	0	0	0	0	0	0	0	0	0	0	0	0	0	0	0	0	0	0	0	0	0	0	0	0	0	0	0	0	0	0	969	968	967	968	967	967	967	966	966	964	961	961	959	959	958	958	957	957	958	0	0	0	0	964	966	967	967	967	967	968	969	970	970	970	971	972	973	973	973	973	973	973	973	974	974	974	974	974	973	973	972	972	971	971	0	0	0	0	0	0	0	0	0	0	0	0	0	0	0	0	0	1543	1542	1543	1542	1542	1542	1541	1542	1543	1545	1546	1547	1548	1551	1552	1553	1556	1556	1557	1558	1558	1558	1559	1560	1562	1563	1564	1565	1565	1565	1565	1565	1565	1564	1563	1563	1563	1562	1562	1560	1560	1560	1562	1562	1560	1559	1557	1557	1554	1553	1549	1547	1546	1545	1543	1541	1540	1539	1537	1537	1537	1537	1537	1537	1540	1540	1540	1541	1540	1540	1540	1541	1541	1541	1541	1541	1540	1539	1536	1536	1535	1535	1535	1536	1539	1542	1546	1548	1549	0	1552	1554	1557	1557	1558	1558	1557	1557	1557	1557	1557	1557	1557	1557	1558	1559	1562	1564	1565	1565	1565	1564	1564	1563	1560	1558	1556	1553	1552	1549	1549	1549	1549	1549	1551	1552	1554	1556	1557	1558	1558	1559	1559	1559	1559	1559	1558	1557	1556	1554	1549	1548	1546	1545	1543	1543	1543	1543	1543	1545	1546	1546	1547	1549	1549	1552	1552	1552	1551	1551	1549	1548	1549	1549	1549	1551	1551	1552	1552	1553	1554	1554	1553	1553	1552	1551	1549	1548	1547	1546	1545	1543	1541	1541	1540	1540	1540	1541	1542	1543	1546	1547	1547	1548	1548	1549	1551	1551	1551	1551	1549	1549	1548	1547	1545	1543	1541	1539	1537	1535	1534	1533	1531	1530	1530	1529	1529	1529	1529	1529	1530	1531	1530	1531	1533	1535	1536	1537	1539	1541	1543	1546	1548	1549	1551	1552	1553	1554	1554	1554	1553	1552	1551	1551	1548	1547	1546	1546	1546	1547	1547	1547	1548	1549	1549	1551	1551	1552	1552	1552	1553	1553	1553	1553	1553	1553	1552	1553	1553	1554	1554	1554	1554	1556	1557	1557	1557	1556	1554	1554	1554	1554	1553	1552	1553	1552	1553	1553	1552	1554	1554	1556	1556	1557	1558	1559	1559	1560	1560	1560	1559	1559	1558	1558	1558	1558	1558	1559	1560	1560	1562	1563	1563	1563	1564	1564	1560	1559	1557	1556	1553	1551	1547	1546	1546	1547	1549	1551	1553	1554	1558	1559	1560	1562	1563	1563	1563	1563	1563	1563	1563	1563	1563	1563	1563	1563	1563	1563	1564	1563	1563	1562	1562	1562	1560	1559	1559	1558	1559	1558	1559	1559	1559	1559	1560	1560	1562	1563	1562	1560	1560	1559	1558	1554	1553	1552	1552	1552	1552	1553	1553	1553	1554	1554	1556	1556	1557	1557	1558	1558	1558	1557	1557	1557	1556	1556	1554	1553	1552	1553	1551	1548	1548	1547	1547	1547	1547	1547	1548	1549	1552	1553	1554	1557	1559	1560	1562	1564	1565	1568	1569	1570	1570	1570	1570	1570	1569	1569	1568	1565	1564	1563	1562	1560	1558	1557	1557	1556	1556	1556	1557	1557	1558	1559	1560	1562	1563	1564	1565	1565	1567	1568	1569	1569	1570	1570	1570	1570	1570	1569	1569	1568	1568	1569	1568	1568	1568	1567	1567	1565	1565	1564	1564	1563	1563	1563	1563	1563	1563	1563	1563	1563	1563	1564	1564	1563	1563	1563	1563	1562	1562	1560	1560	1560	1560	1560	1560	1560	1562	1562	1563	1562	1563	1563	1563	1563	1563	1563	1563	1562	1562	1562	1562	1560	1559	1558
933	932	932	932	932	931	930	929	0	0	0	924	921	0	0	0	0	0	0	0	0	0	0	0	0	0	0	0	0	0	0	0	0	0	0	0	0	0	0	0	0	0	0	0	0	0	0	0	0	0	0	0	0	0	0	0	0	0	0	0	0	0	0	0	0	0	0	0	0	0	0	0	0	0	0	0	0	0	0	0	0	0	0	0	0	0	0	0	0	0	0	0	0	0	0	0	0	0	0	0	0	0	0	0	0	0	0	0	0	0	0	0	0	0	0	0	0	0	0	0	0	0	0	0	0	0	0	0	974	973	973	972	971	970	969	969	967	965	962	960	960	959	959	959	959	961	0	0	0	0	0	968	968	968	968	968	968	969	970	970	970	970	972	972	972	973	973	973	973	973	973	973	973	972	973	972	972	972	971	970	971	970	0	0	0	0	0	0	0	0	0	0	0	0	0	0	0	0	1541	1541	1541	1540	1540	1540	1539	1540	1540	1541	1542	1545	1546	1547	1549	1551	1552	1553	1554	1556	1557	1558	1559	1559	1562	1563	1564	1564	1564	1564	1564	1564	1564	1564	1563	1563	1563	1563	1563	1562	1562	1562	1563	1563	1562	1560	1558	1557	1556	1553	1551	1548	1546	1545	1543	1542	1540	1539	1537	1537	1537	1537	1537	1537	1540	1541	1541	1542	1543	1543	1545	1546	1546	1546	1545	1545	1543	1542	1540	1537	1537	1536	1536	1537	1540	1543	1546	1549	1551	1553	1557	1559	1562	1560	1560	1560	1558	1558	1557	1557	1557	1557	1557	1558	1559	1560	1564	1565	1568	1568	1568	1567	1567	1565	1563	1559	1557	1554	1552	1549	1549	1548	1548	1548	1551	1551	1553	1556	1557	1558	1558	1558	1559	1559	1559	1558	1557	1556	1553	1552	1548	1547	1546	1545	1543	1545	1543	1543	1545	1546	1546	1547	1548	1549	1551	1551	1552	1551	1549	1548	1548	1547	1546	1547	1547	1547	1548	1549	1551	1551	1551	1552	1552	1552	1551	1549	1549	1548	1547	1546	1545	1542	1540	1540	1537	1537	1537	1540	1540	1541	1542	1543	1546	1546	1546	1548	1548	1549	1549	1549	1549	1548	1547	1546	1545	1542	1540	1539	1536	1534	1533	1531	1530	1529	1528	1527	1527	1527	1527	1527	1528	1528	1527	1529	1529	1531	1533	1535	1536	1539	1541	1542	1545	1547	1548	1549	1551	1552	1552	1552	1552	1551	1549	1549	1548	1547	1546	1545	1545	1546	1546	1546	1547	1548	1549	1549	1549	1551	1551	1551	1552	1552	1552	1552	1551	1551	1551	1549	1549	1549	1551	1551	1552	1552	1552	1552	1552	1552	1551	1552	1551	1551	1549	1551	1551	1552	1552	1552	1552	1554	1554	1556	1556	1558	1558	1559	1559	1560	1559	1559	1559	1558	1558	1558	1557	1557	1557	1558	1558	1559	1559	1560	1560	1560	1560	1560	1558	1554	1552	1551	1549	1547	1546	1545	1546	1547	1547	1549	1552	1554	1556	1558	1559	1560	1562	1562	1562	1562	1562	1562	1562	1562	1563	1563	1564	1564	1564	1564	1565	1565	1564	1563	1563	1563	1562	1560	1559	1558	1558	1558	1557	1557	1557	1558	1559	1559	1560	1560	1560	1560	1559	1559	1558	1554	1553	1552	1553	1552	1552	1552	1552	1553	1554	1554	1554	1554	1554	1556	1556	1556	1556	1557	1557	1557	1556	1556	1554	1554	1553	1553	1552	1551	1549	1549	1549	1549	1549	1549	1551	1551	1553	1554	1557	1558	1559	1560	1563	1564	1565	1568	1569	1569	1569	1569	1569	1568	1567	1565	1564	1563	1560	1559	1557	1556	1553	1553	1552	1552	1552	1553	1553	1553	1556	1557	1558	1560	1560	1562	1563	1565	1567	1568	1569	1569	1570	1572	1572	1572	1570	1572	1570	1570	1570	1570	1569	1569	1569	1569	1568	1568	1567	1567	1565	1564	1564	1563	1564	1564	1563	1563	1563	1563	1563	1563	1563	1562	1562	1562	1560	1559	1559	1558	1558	1557	1557	1558	1558	1558	1559	1558	1559	1559	1560	1560	1562	1562	1562	1562	1563	1563	1563	1563	1562	1562	1560	1559
931	931	931	931	930	929	929	928	927	926	925	924	921	921	920	0	0	0	0	0	0	0	0	0	0	0	0	0	0	0	0	0	0	0	0	0	0	0	0	0	0	0	0	0	0	0	0	0	0	0	0	0	0	0	0	0	0	0	0	0	0	0	0	0	0	0	0	0	0	0	0	0	0	0	0	0	0	0	0	0	0	0	0	0	0	0	0	0	0	0	0	0	0	0	0	0	0	0	0	0	0	0	0	0	0	0	0	0	0	0	0	0	0	0	0	0	0	0	0	0	0	0	0	0	0	0	0	0	0	978	978	976	976	975	974	973	971	969	967	967	966	964	0	965	966	0	967	0	0	0	0	0	970	969	968	969	969	970	970	970	969	970	971	972	972	972	972	972	972	972	972	971	971	971	971	971	971	971	970	970	969	970	0	0	0	0	0	0	0	0	0	0	0	0	0	0	0	0	1539	1537	1537	1537	1536	1536	1535	1535	1536	1537	1539	1540	1541	1543	1546	1547	1549	1551	1552	1553	1554	1556	1557	1558	1559	1562	1562	1562	1563	1563	1563	1563	1563	1562	1562	1562	1562	1562	1563	1562	1562	1562	1563	1563	1563	1562	1558	1558	1557	1554	1552	1549	1548	1546	1543	1541	1540	1539	1537	1536	1536	1537	1536	1537	1540	1542	1542	1543	1545	1546	1547	1548	1549	1549	1549	1548	1547	1545	1543	1541	1539	1537	1537	1539	1543	0	1548	1551	1554	1558	1560	1563	1564	1563	1563	1562	1559	1559	1558	1558	1557	1558	1558	1558	1559	1562	1564	1567	1568	1568	1569	1568	1568	1565	1564	1560	1558	1556	1552	1549	1548	1548	1547	1548	1549	1549	1553	1553	1556	1557	1557	1557	1558	1557	1557	1556	1554	1553	1552	1548	1547	1546	1545	1545	1545	1545	1546	1546	1547	1546	1547	1548	1548	1549	1549	1549	1549	1549	1548	1546	1546	1545	1545	1545	1545	1545	1547	1547	1548	1548	1549	1549	1551	1551	1551	1549	1548	1548	1547	1545	1543	1541	1540	1537	1536	1536	1536	1536	1536	1539	1540	1541	1541	1543	1545	1546	1547	1547	1547	1548	1548	1547	1546	1545	1543	1541	1539	1537	1535	1533	1531	1530	1528	1527	1526	1524	1524	1524	1523	1523	1526	1524	1524	1526	1527	1528	1529	1530	1533	1535	1536	1539	1541	1542	1543	1546	1547	1547	1548	1548	1548	1547	1548	1547	1546	1545	1543	1543	1543	1543	1543	1543	1545	1545	1546	1546	1547	1547	1548	1549	1548	1549	1548	1548	1548	1547	1546	1546	1546	1546	1546	1547	1547	1548	1548	1549	1548	1548	1548	1548	1548	1549	1549	1548	1549	1551	1551	1552	1552	1553	1554	1557	1557	1558	1559	1559	1559	1559	1559	1559	1558	1558	1557	1557	1556	1556	1556	1556	1556	1557	1557	1558	1559	1558	1557	1556	1554	1553	1552	1549	1548	1546	1545	1545	1545	1546	1547	1549	1552	1553	1556	1557	1559	1559	1560	1560	1562	1562	1562	1562	1562	1563	1563	1564	1565	1565	1565	1567	1567	1567	1567	1565	1564	1564	1563	1560	1559	1558	1557	1556	1556	1554	1554	1556	1557	1558	1559	1559	1559	1558	1559	1558	1557	1553	1553	1553	1552	1553	1552	1552	1552	1552	1553	1553	1553	1553	1554	1554	1556	1556	1556	1556	1556	1556	1556	1556	1554	1554	1554	1554	1553	1553	1552	1552	1552	1552	1552	1552	1553	1554	1556	1557	1559	1560	1562	1563	1564	1565	1567	1568	1569	1569	1568	1568	1567	1565	1564	1563	1560	1558	1557	1554	1553	1549	1548	1548	1547	1547	1548	1549	1549	1551	1552	1553	1556	1557	1558	1559	1562	1563	1565	1567	1569	1570	1572	1572	1573	1573	1573	1573	1573	1573	1573	1572	1572	1572	1572	1570	1570	1569	1568	1567	1567	1565	1565	1564	1564	1564	1564	1563	1563	1563	1563	1562	1562	1562	1559	1559	1558	1558	1557	1556	1556	1554	1554	1554	1554	1556	1556	1556	1557	1557	1558	1558	1560	1560	1560	1562	1563	1564	1564	1564	1564	1564	1563	1562
930	930	929	929	929	928	928	927	926	925	924	924	921	920	920	920	919	0	0	0	0	0	0	0	0	0	0	0	0	0	0	0	0	0	0	0	0	0	0	0	0	0	0	0	0	0	0	0	0	1927	1922	1918	0	0	0	0	0	0	0	0	0	0	0	0	0	0	0	0	0	0	0	0	0	0	0	0	0	0	0	0	0	0	0	0	0	0	0	0	0	0	0	0	0	0	0	0	0	0	0	0	0	0	0	0	0	0	0	0	0	0	0	0	0	0	0	0	0	0	0	0	0	0	0	0	0	0	0	0	0	985	0	0	0	0	0	0	0	0	0	0	0	0	0	0	0	970	971	0	0	0	0	0	973	972	970	970	971	971	971	970	970	970	971	971	971	971	971	971	970	971	970	970	970	970	970	970	970	969	969	969	969	969	0	0	0	0	0	0	0	0	0	0	0	0	0	0	0	0	1535	1534	1534	1533	1534	1531	1531	1531	1533	1534	1535	1536	1539	1540	1543	1545	1547	1548	1548	1551	1553	1554	1556	1557	1559	1559	1562	1562	1562	1560	1560	1560	1560	1560	1560	1560	1560	1560	1562	1560	1562	1563	1563	1564	1563	1562	1559	1559	1558	1556	1553	1551	1548	1546	1543	1541	1540	1537	1536	1535	1537	1536	1536	1539	1541	1543	1543	1546	1548	1548	1551	1553	1553	1553	1553	1552	1549	1547	1545	1542	1539	1537	1537	1541	0	1545	1549	1554	1557	1562	1564	1567	1568	1567	1565	1564	1562	1560	1560	1559	1559	1559	1559	1559	1559	1563	1564	1567	1568	1569	1569	1569	1568	1568	1564	1562	1558	1554	1552	1549	1547	1547	1546	1546	1547	1549	1551	1552	1554	1554	1554	1556	1556	1554	1554	1553	1552	1552	1551	1548	1546	1545	1543	1545	1545	1545	1545	1546	1547	1547	1548	1548	1549	1549	1549	1548	1548	1547	1546	1545	1543	1542	1542	1541	1541	1542	1542	1543	1545	1546	1547	1548	1548	1549	1549	1549	1548	1548	1547	1546	1543	1542	1540	1536	1536	1535	1535	1535	1534	1535	1536	1537	1539	1540	1541	1543	1543	1546	1546	1547	1547	1546	1545	1543	1541	1540	1537	1535	1534	1531	1530	1528	1527	1526	1523	1523	1522	1522	1522	1522	1522	1523	1522	1523	1524	1526	1527	1528	1529	1530	1533	1535	1536	1537	1540	1541	1542	1543	1543	1545	1545	1543	1543	1541	1541	1540	1540	1539	1540	1540	1540	1541	1541	1542	1542	1543	1545	1545	1546	1546	1545	1546	1545	1545	1545	1543	1542	1542	1541	1541	1542	1542	1543	1545	1545	1546	1547	1546	1547	1547	1548	1547	1548	1548	1549	1549	1552	1553	1553	1553	1556	1556	1557	1558	1558	1559	1559	1559	1558	1558	1557	1557	1556	1556	1554	1554	1554	1554	1554	1552	1553	1553	1554	1554	1554	1554	1553	1552	1551	1549	1547	1546	1545	1545	1545	1546	1547	1549	1551	1553	1554	1557	1559	1559	1559	1560	1560	1562	1562	1562	1562	1563	1564	1565	1567	1568	1568	1569	1569	1569	1569	1567	1567	1565	1564	1562	1559	1557	1556	1556	1554	1553	1553	1554	1554	1556	1558	1558	1557	1557	1557	1557	1556	1553	1553	1552	1553	1553	1553	1552	1552	1552	1553	1553	1553	1553	1553	1554	1554	1554	1554	1556	1556	1556	1556	1554	1554	1554	1554	1554	1554	1553	1553	1553	1554	1553	1554	1554	1556	1557	1558	1560	1562	1563	1563	1564	1565	1567	1567	1568	1568	1568	1567	1567	1565	1563	1562	1559	1557	1554	1553	1548	1547	1546	1545	1545	1545	1545	1545	1546	1546	1547	1548	1549	1552	1553	1556	1558	1559	1562	1564	1568	1569	1570	0	1572	1573	1574	1574	1574	1574	1574	1574	1574	1573	1573	1573	1573	1572	1570	1570	1569	1568	1567	1565	1565	1565	1564	1564	1563	1563	1563	1562	1560	1559	1558	1558	1557	1556	1554	1553	1552	1552	1551	1551	1551	1551	1552	1553	1553	1554	1554	1556	1557	1557	1558	1559	1562	1563	1564	1565	1567	1567	1567	1567	1564
928	928	928	928	927	927	927	926	925	925	924	923	921	921	920	919	919	0	0	0	0	0	0	0	0	0	0	0	0	0	0	0	0	0	0	0	0	0	0	0	0	0	0	0	0	0	0	1927	1925	1924	1920	1918	1914	1912	1911	1909	1907	1905	0	0	0	0	0	0	0	0	0	0	0	0	0	0	0	0	0	0	0	0	0	0	0	0	0	0	0	0	0	0	0	0	0	0	0	0	0	0	0	0	0	0	0	0	0	0	0	0	0	0	0	0	0	0	0	0	0	0	957	958	959	0	0	0	0	0	0	984	0	989	990	989	989	987	986	985	984	982	981	980	0	0	0	0	0	0	0	973	976	0	0	0	976	976	976	975	973	972	972	972	971	970	969	969	969	970	970	970	970	969	969	969	969	969	969	969	969	969	969	969	968	968	968	968	0	0	0	0	0	0	0	0	0	0	0	0	0	0	0	0	0	1531	1530	1530	1529	1528	1528	1528	1529	1530	1531	1533	1535	1537	1539	1541	1543	1546	1547	1548	1551	1553	1554	1556	1558	1559	1560	1560	1560	1559	1559	1560	1560	1559	1560	1559	1560	1560	1560	1560	1560	1562	1563	1563	1562	1563	1562	1560	1558	1556	1553	1551	1548	1546	1543	1541	1539	1537	1536	1536	1536	1536	1537	1539	1542	1543	1545	1547	1549	1551	1553	1556	1556	1554	1554	1553	1549	1546	1543	1541	1537	1536	1537	1541	0	1546	1551	1557	1560	1564	1567	1570	1572	1570	1569	1568	1565	1563	1563	1560	1560	1560	1559	1559	1560	1563	1564	1567	1568	1569	1569	1569	1568	1567	1564	1562	1558	1556	1552	1549	1547	1546	1546	1546	1546	1547	1549	1551	1552	1552	1552	1553	1553	1552	1551	1551	1549	1548	1547	1546	1545	1545	1543	1543	1545	1546	1546	1547	1547	1547	1547	1548	1548	1548	1548	1547	1546	1546	1543	1542	1541	1540	1540	1539	1540	1539	1540	1541	1542	1543	1545	1546	1548	1548	1549	1549	1549	1548	1547	1546	1545	1541	1539	1535	1535	1533	1533	1531	1531	1531	1533	1533	1535	1536	1537	1540	1541	1542	1543	1545	1545	1543	1542	1541	1540	1537	1536	1534	1533	1530	1529	1527	1526	1524	1522	1521	1521	1521	1521	1521	1521	1520	1520	1521	1521	1522	1523	1524	1526	1527	1528	1530	1531	1533	1535	1536	1536	1539	1539	1540	1540	1539	1539	1537	1536	1536	1535	1534	1535	1535	1536	1537	1539	1539	1540	1541	1541	1541	1542	1542	1541	1542	1542	1541	1541	1541	1540	1539	1539	1539	1539	1540	1541	1541	1543	1543	1545	1545	1546	1546	1546	1548	1548	1549	1549	1551	1551	1552	1553	1553	1556	1556	1557	1557	1558	1558	1558	1558	1558	1557	1556	1556	1554	1554	1553	1551	1551	1551	1551	1551	1551	1552	1552	1552	1553	1553	1552	1551	1549	1548	1546	1546	1545	1545	1545	1546	1547	1549	1551	1553	1554	1557	1558	1559	1559	1560	1560	1560	1562	1562	1563	1564	1565	1567	1568	1569	1570	1572	1573	1573	1572	1570	1569	1567	1565	1562	1559	1557	1554	1553	1553	1552	1552	1552	1553	1554	1556	1556	1556	1556	1556	1556	1553	1553	1552	1553	1553	1553	1553	1553	1552	1552	1552	1553	1553	1552	1553	1553	1553	1553	1553	1554	1554	1554	1554	1553	1553	1553	1553	1554	1554	1553	1553	1553	1554	1554	1554	1556	1557	1558	1560	1562	1563	1564	1564	1565	1565	1567	1567	1567	1567	1567	1565	1564	1563	1560	1558	1556	1553	1551	1547	1545	1543	1542	1541	1541	1541	1541	1541	1542	1543	1543	1546	1547	1549	1552	1554	1557	1558	1562	1564	1567	1568	1570	0	1572	1573	1574	1574	1575	1575	1575	1575	1575	1574	1574	1574	1573	1573	1572	1570	1570	1569	1568	1567	1565	1565	1564	1564	1564	1563	1562	1560	1559	1558	1557	1556	1554	1552	1552	1549	1548	1548	1547	1547	1546	1547	0	1548	0	1551	0	1553	1554	0	1557	1558	1560	1562	1564	1567	1567	1568	1568	1569	1568
927	927	927	927	927	926	927	926	925	924	924	923	921	921	920	919	919	0	0	0	0	0	0	0	0	0	0	0	0	0	0	0	0	0	0	0	0	0	0	0	0	0	0	0	0	0	0	1925	1924	1922	1918	1914	1912	1911	1909	1907	1907	1905	1903	0	0	0	0	0	0	0	0	0	0	0	0	0	0	0	0	0	0	0	0	0	0	0	0	0	0	0	0	0	0	0	0	0	0	0	0	0	0	0	0	0	0	0	0	0	0	0	0	0	0	0	0	0	0	0	0	0	961	961	961	961	964	967	0	0	0	984	988	992	994	993	993	992	992	991	990	990	988	986	985	984	982	0	0	976	977	977	978	0	979	978	0	979	978	976	975	973	971	971	971	969	968	967	967	967	967	967	968	967	967	967	967	967	967	967	967	967	967	968	967	968	967	968	0	0	0	0	0	0	0	0	0	0	0	0	0	0	0	0	1530	1529	1528	1527	1526	1524	1524	1524	1524	1527	1528	1529	1531	1534	1536	1539	1541	1543	1545	1547	1548	1552	1553	1556	1558	1558	1559	1559	1559	1559	1558	1559	1559	1558	1558	1558	1558	1558	1559	1559	1560	1560	1560	1560	1562	1562	1562	1560	1558	1557	1554	1552	1549	1547	1543	1541	1539	1537	1536	1535	1536	1536	1536	1539	1541	1543	1545	1548	1551	1552	1554	1557	1557	1554	1553	1551	1548	1545	1542	1537	1536	1536	1537	1542	0	1547	1552	1558	1563	1567	1572	1574	1577	1575	1573	1572	1569	1567	1565	1564	1562	1562	1560	1560	1562	1563	1564	1567	1567	1568	1568	1568	1568	1567	1564	1562	1558	1554	1552	1548	1547	1546	1545	1543	1543	1545	1547	1548	1549	1549	1549	1549	1551	1549	1548	1547	1546	1545	1545	1543	1543	1542	1543	1543	1543	1545	1546	1546	1547	1547	1547	1547	1548	1547	1547	1546	1543	1542	1541	1539	1539	1537	1536	1536	1536	1536	1539	1539	1540	1541	1543	1545	1546	1547	1548	1549	1548	1549	1548	1546	1545	1542	1540	1536	1534	1531	1531	1530	1529	1529	1529	1529	1530	1533	1535	1537	1539	1541	1541	1542	1542	1541	1541	1539	1537	1536	1534	1533	1531	1529	1528	1527	1524	1523	1522	1521	1520	1520	1520	1520	1520	1520	1520	1520	1520	1521	1521	1522	1523	1524	1526	1527	1529	1530	1531	1531	1533	1534	1534	1535	1535	1535	1534	1533	1533	1531	1530	1530	1530	1530	1531	1533	1534	1534	1535	1536	1536	1536	1537	1537	1537	1536	1537	1537	1537	1537	1536	1536	1536	1536	1537	1537	1539	1540	1541	1542	1543	1545	1546	1547	1547	1547	1548	1548	1549	1549	1551	1552	1553	1553	1554	1554	1556	1557	1557	1558	1558	1558	1557	1557	1554	1553	1552	1552	1551	1549	1549	1549	1549	1548	1549	1549	1551	1551	1551	1551	1549	1549	1548	1547	1545	1545	1543	1543	1545	1546	1546	1548	1549	1552	1553	1556	1557	1557	1558	1559	1560	1560	1562	1563	1564	1565	1567	1569	1570	1572	1574	1575	1575	1575	1574	1573	1570	1569	1565	1562	1559	1556	1553	1552	1551	1549	1548	1548	1549	1551	1552	1552	1552	1552	1553	1553	1552	1552	1552	1552	1552	1552	1553	1552	1552	1552	1552	1552	1552	1551	1552	1552	1552	1553	1552	1553	1553	1553	1553	1552	1552	1552	1552	1553	1553	1553	1553	1553	1554	1554	1556	1557	1558	1559	1560	1562	1563	1564	1564	1565	1565	1567	1567	1567	1565	1565	1564	1562	1560	1558	1556	1553	1549	1545	1543	1542	1541	1541	1540	1540	1539	1540	1540	1541	1542	1543	1545	1547	1547	1549	1551	1553	1556	1559	1563	1567	1568	0	1570	0	1572	1574	1574	1575	1575	1575	1575	1575	1575	1575	1575	1574	1573	1572	1572	1570	1569	1568	1567	1565	1565	1564	1564	1563	1562	1559	1559	1558	1556	1554	1553	1551	1549	1547	1546	1545	1542	1542	1542	1543	1543	1545	1546	1547	1548	1548	1551	1552	1553	0	1556	1558	1562	1563	1565	1567	1568	1569	1570	1569
926	926	926	927	927	926	927	926	925	925	924	923	921	921	920	919	919	0	0	0	0	0	0	0	0	0	0	0	0	0	0	0	0	0	0	0	0	0	0	0	0	0	0	0	0	0	1922	1924	1924	1922	1918	1916	1912	1911	1909	1907	1907	1905	1905	0	0	0	0	0	0	0	0	0	0	0	0	0	0	0	0	0	0	0	0	0	0	0	0	0	0	0	0	0	0	0	0	0	0	0	0	0	0	0	0	0	0	0	0	0	0	0	0	0	0	0	993	990	987	0	968	0	964	964	964	964	966	968	972	0	0	984	989	993	995	996	996	995	996	995	994	994	993	992	992	990	991	985	981	980	980	979	979	981	978	978	979	980	979	976	973	970	969	969	967	966	965	963	964	963	964	964	964	964	964	964	965	965	965	966	966	967	967	967	967	967	967	967	0	0	0	0	0	0	0	0	0	0	0	0	0	0	0	0	0	1527	1524	1523	1523	1522	1521	1521	1522	1522	1524	1526	1528	1530	1533	1534	1537	1540	1542	1545	1547	1549	1552	1553	1554	1556	1556	1557	1557	1556	1556	1556	1556	1556	1556	1556	1556	1556	1556	1556	1556	1557	1558	1558	1558	1558	1558	1559	1558	1556	1553	1551	1549	1547	1543	1542	1539	1537	1536	1536	1536	1536	1536	1539	1540	1543	1545	1547	1549	1551	1552	1554	1554	1552	1551	1548	1546	1542	1540	1536	1534	1535	1537	1542	0	1547	1553	1558	1564	1569	1573	1575	1578	1577	1574	1573	1570	1568	1565	1564	1559	1559	1558	1557	1558	1559	1562	1563	1564	1565	1567	1567	1565	1564	1562	1559	1557	1553	1551	1547	1546	1545	1543	1542	1542	1543	1543	1545	1546	1546	1546	1547	1547	1546	1546	1545	1543	1542	1542	1542	1541	1541	1542	1543	1543	1545	1545	1546	1546	1547	1546	1546	1546	1545	1545	1542	1541	1540	1537	1536	1535	1534	1534	1534	1535	1535	1536	1536	1537	1540	1541	1543	1545	1546	1547	1548	1548	1548	1547	1546	1545	1541	1539	1534	1531	1529	1529	1526	1526	1526	1524	1524	1528	1529	1531	1534	1536	1537	1539	1540	1540	1539	1537	1537	1535	1534	1533	1530	1529	1528	1526	1526	1523	1522	1521	1520	1520	1520	1520	1520	1520	1520	1518	1518	1518	1518	1518	1520	1520	1521	1522	1523	1524	1526	1527	1527	1528	1529	1529	1530	1530	1530	1530	1529	1529	1528	1527	1526	1527	1527	1527	1528	1530	1530	1531	1531	1533	1533	1534	1534	1534	1534	1534	1534	1535	1534	1534	1534	1534	1534	1534	1535	1536	1537	1539	1541	1542	1543	1545	1546	1547	1548	1548	1548	1549	1551	1551	1552	1552	1553	1553	1554	1554	1556	1556	1554	1554	1553	1552	1552	1551	1551	1551	1549	1548	1547	1547	1547	1547	1547	1546	1547	1547	1547	1548	1548	1547	1547	1546	1545	1543	1542	1542	1542	1542	1543	1546	1546	1548	1549	1551	1552	1553	1554	1556	1557	1558	1559	1560	1562	1564	1567	1569	1570	1573	1574	1577	1578	1578	1578	1575	1574	1573	1569	1567	1563	1559	1554	1552	1549	1547	1546	1545	1545	1545	1546	1548	1548	1548	1549	0	1551	1551	1551	1551	1551	1552	1552	1551	1552	1552	1552	1551	1551	1551	1549	1551	1551	1551	1551	1551	1551	1551	1551	1551	1549	1549	1549	1549	1551	1552	1551	1552	1552	1552	1554	1554	1556	1557	1559	1560	1562	1563	1563	1564	1564	1565	1565	1565	1567	1565	1564	1563	1562	1559	1557	1553	1551	1545	1542	1541	1539	1539	1539	1537	1537	1537	1537	1539	1540	1540	1541	1543	1545	1547	1548	1551	1553	1556	1558	1562	1565	1568	1569	1570	0	1572	1573	1574	1575	1575	1575	1575	1575	1575	1575	1574	1574	1573	1570	1569	1569	1568	1567	1565	1565	1564	1564	1562	1562	1559	1558	1557	1556	1553	1552	1549	1548	1546	1545	1542	1541	1540	1540	1540	1540	1541	1541	1542	1545	1546	1547	1548	1549	1552	1554	0	1558	1560	1562	1564	1567	1568	1570	1570	1570
925	924	926	926	926	926	926	926	925	925	924	923	922	921	920	919	919	0	0	0	0	0	0	0	0	0	0	0	0	0	0	0	0	0	0	0	0	0	0	0	0	0	0	0	0	1916	1920	1924	1924	0	1920	1914	1912	1909	1909	1907	1907	1905	1905	0	0	0	0	0	0	0	0	0	0	0	0	0	0	0	0	0	0	0	0	0	0	0	0	0	0	0	0	0	0	0	0	0	0	0	0	0	0	0	0	0	0	0	0	0	0	0	0	0	0	995	991	988	0	0	969	967	0	966	965	965	967	969	973	0	0	0	988	993	997	998	998	998	999	999	998	998	997	996	996	996	995	995	991	0	0	0	0	0	0	0	973	975	974	968	966	965	964	964	963	962	960	959	960	960	961	961	961	961	962	962	963	963	964	964	965	965	966	966	966	966	966	966	967	0	0	0	0	0	0	0	0	0	0	0	0	0	0	0	0	1522	1521	1520	1518	1520	1518	1517	1517	1520	1521	1522	1526	1527	1529	1531	1534	1536	1539	1542	1545	1546	1549	1551	1552	1553	1554	1554	1553	1553	1553	1554	1554	1554	1554	1554	1554	1553	1553	1553	1553	1553	1554	1554	1556	1556	1557	1558	1557	1556	1553	1551	1548	1546	1543	1542	1540	1537	1536	1536	1536	1536	1536	1537	1540	1542	1543	1546	1548	1548	1551	1552	1551	1549	1547	1545	1542	1540	1535	1533	1533	1533	1536	1540	0	1546	1551	1557	1562	1565	1570	1573	1575	1574	1572	1570	1568	1564	1563	1559	1557	1556	1556	1554	1554	1556	1558	1559	1560	1562	1562	1562	1562	1560	1558	1557	1553	1551	1548	1546	1543	1542	1542	1540	1540	1540	1541	1541	1541	1541	1541	1542	1542	1542	1540	1540	1540	1540	1540	1540	1540	1540	1541	1542	1542	1543	1543	1545	1545	1545	1545	1543	1543	1542	1541	1540	1539	1536	1534	1533	1533	1533	1531	1531	1531	1533	1533	1534	1535	1537	1539	1541	1543	1545	1546	1547	1548	1548	1547	1546	1543	1540	1534	1530	1528	1527	1526	1523	1522	1521	1522	1523	1524	1527	1529	1531	1533	1535	1536	1536	1537	1536	1535	1534	1533	1531	1530	1529	1528	1526	1524	1523	1522	1521	1520	1520	1520	1520	1520	1520	1520	1520	1518	1518	1517	1517	1518	1517	1518	1518	1520	1521	1522	1522	1523	1523	1524	1526	1526	1527	1527	1527	1527	1526	1526	1523	1523	1523	1523	1523	1523	1526	1526	1527	1528	1529	1530	1530	1531	1530	1531	1531	1530	1530	1531	1531	1531	1531	1533	1533	1534	1534	1535	1536	1539	1540	1542	1543	1545	1546	1547	1548	1548	1548	1549	1549	1549	1551	1551	1552	1552	1549	1549	1551	1551	1549	1549	1549	1548	1548	1548	1548	1547	1546	1545	1545	1543	1543	1543	1542	1542	1543	1543	1543	1545	1545	1543	1543	1543	1542	1541	1541	1541	1541	1541	1542	1543	1545	1546	1547	1548	1549	1551	1552	1553	1554	1556	1557	1559	1560	1563	1565	1568	1572	1573	1575	1578	1579	1579	1579	1578	1575	1573	1570	1567	1560	1557	1552	1549	1547	1546	1541	1540	1541	1541	1542	1543	1545	1546	1546	1548	1548	1548	1548	1549	1549	1549	1551	1551	1549	1549	1549	1549	1549	1548	1548	1548	1548	1548	1548	1548	1549	1548	1548	1548	1547	1547	1547	1547	1548	1548	1548	1549	1549	1551	1552	1553	1554	1556	1557	1559	1560	1563	1563	1564	1564	1565	1565	1565	1565	1564	1563	1562	1560	1557	1553	1551	1548	1543	1542	1539	1537	1539	1537	1537	1536	1537	1537	1537	1539	1539	1541	1542	1543	1546	1548	1549	1552	1554	1559	1562	1565	1567	1569	1570	1570	0	1572	1573	1574	1575	1575	1575	1575	1574	1574	1573	1572	1572	1570	1569	1568	1567	1565	1564	1564	1563	1562	1560	1559	1557	1557	1554	1553	1551	1549	1548	1546	1545	1542	1539	1539	1537	1537	1537	1537	1539	1540	1541	1542	1543	1545	1546	1548	1549	1553	0	1556	1558	1562	1564	1565	1568	1569	1570	1569
