3537	3537	3537	3537	3547	3547	3547	3547	3547	3547	3547	3537	3537	3518	3518	3499	3481	3481	3453	3426	3399	3399	3391	3365	3365	3347	3339	3339	3339	0	0	0	0	0	0	0	0	0	0	0	0	0	0	4794	4777	4641	4641	4641	0	0	0	4305	4208	4168	4168	4129	4103	4040	4040	4040	4040	4040	4040	4065	4103	4103	4168	4208	4305	4437	4437	4725	4725	4865	4865	5073	5235	5235	5342	5342	5408	5431	5431	5431	5431	5431	5431	5431	5408	5386	5364	5364	5342	5320	5320	5277	5235	5235	5214	5133	5073	5073	4976	4920	4865	4865	4830	4812	4812	4777	4759	4759	4725	4708	4691	4691	4691	4691	4691	4691	4674	4674	4641	4625	4560	4560	4467	4377	4305	4305	4263	4155	4027	3942	3942	3907	3872	3872	3872	3849	3849	3849	3849	3849	3849	3838	3838	3838	3827	3827	3827	3827	3827	3827	3827	3827	3827	3827	3827	3827	3827	3827	3827	3827	3827	3838	3838	3849	3861	3861	3872	3872	3884	3884	3884	3895	3895	3895	3895	3895	3907	3919	3919	3919	3919	3919	3930	3930	3930	3930	3942	3942	3942	3942	3942	3930	3930	3930	3930	3930	3919	3919	3919	3919	3919	3919	3919	3919	3930	3930	3930	3942	3954	3954	3978	4002	4002	4040	4065	4065	4103	4103	4129	4168	4168	4208	4236	4236	4277	4305	4305	4348	4392	4392	4482	4482	4576	4674	4674	4742	4794	4794	4812	4812	4812	4812	4812	4812	4812	4812	4812	4812	4812	4812	4812	4812	4812	4812	4812	4812	4794	4794	4794	4794	4777	4777	4777	4759	4759	4742	4725	4725	4725	4708	4708	4708	4708	4708	4708	4725	4742	4742	4742	4759	4759	4777	4777	4777	4794	4794	4794	4812	4812	4830	4830	4847	4865	4884	4939	4939	4976	5015	5015	5073	5133	5133	5173	5235	5235	5320	5364	5364	5408	5431	5431	5453	5476	5476	5499	5546	5546	5617	5617	5666	5791	5791	5869	5976	5976	6059	6145	6145	6174	6232	6232	6232	6262	6262	6262	6292	6292	6292	6292	6292	6323	6353	6353	6353	6384	6384	6416	6447	6447	6511	6544	6544	6644	6781	6781	6925	6925	7037	7191	7191	7312	7394	7394	7436	7522	7522	7565	7654	7654	7744	7837	7837	7932	7980	7980	8129	8129	8231	8231	8231	8284	8336	8336	8336	8336	8336	8284	8231	8231	8231	8079	8079	8079	7980	7980	7932	7837	7837	7837	7790	7790	7837	7837	7837	7837	7837	7932	8079	8079	8129	8231	8336	8611	8611	8725	8903	8903	9026	9089	9089	9217	9349	9349	9484	9624	9624	9841	10068	10068	10306	10306	10470	10641	10641	10907	10998	10998	11186	11283	11283	11481	11481	11481	11582	11582	11582	11686	11686	11686	11791	11791	11791	11898	11898	11898	11898	11898	11898	11898	11898	11898	11791	11791	11791	11791	11791	11791	11791	11791	11791	11791	11791	11898	11898	11898	11898	11898	12007	12119	12119	12347	12465	12465	12707	12958	12958	13088	13355	13355	13355	13355	13355	13355	13355	13355	13088	13088	13088	12958	12958	12958	12958	12958	12707	12707	12707	12707	12707	12707	12707	12707	12958	12958	12958	12958	12958	12958	12958	13088	13088	13088	13088	13088	12958	12958	12707	12585	12585	12465	12347	12232	12232	12007	12007	12007	12007	12007	12007	12007	12007	12007	12007	11898	11898	11898	11898	11898	11898	11898	11898	11791	11686	11686	11686	11582	11582	11582	11582	11481	11481	11481	11481	11481	11481	11481	11481	11481	11481	11481	11481	11582	11582	11582	11686	11686	11686	11898	11898	11898	12007	12007	12007	12007	12007	12007	12007	12119	12119	12119	12007	12007	12007	12119	12119	12007	12007	12007	12007	12007	12007	12007	12007	12007	12007	12007	12007	12007	12007	12007	12007	12007	12119	12007	12007	12007	12007	12007	11898	11898	11686	11686	11686	11686	11686	11686	11686	11686	11686	11686	11686	11791	11791	11898	11898	11898	11686	11686	11481	11186	10470	9695	9695	9217	8903	8284	7790	7790	7609	7436	7436	7353	7152	6925	6746	6746	6479	6416	6416	6353	6262	5740	5740	0	4777	4348	4222	4129	4129	4077	4040	3978	3978	3942	3930	3930	3919	3895	3884	3884	3884	3861	3861	3838	3816	3816	3783	3739	3697	3697
3528	3537	3537	3537	3547	3547	3547	3547	3547	3537	3537	3537	3528	3518	3518	3499	3462	3462	3435	3426	3373	3373	3365	3347	3347	3330	3322	3322	3322	0	0	0	0	0	0	0	0	0	0	0	0	0	0	4794	4777	4641	4641	4641	0	0	0	4305	4277	4236	4236	4222	4168	4168	4129	4116	4116	4116	4116	4129	4155	4155	4208	4208	4305	4437	4437	4725	4725	4865	4865	5073	5235	5235	5342	5342	5408	5431	5431	5431	5431	5431	5431	5431	5408	5386	5364	5364	5342	5320	5320	5277	5235	5235	5214	5133	5073	5073	4976	4920	4865	4865	4830	4812	4812	4777	4759	4759	4725	4708	4674	4674	4674	4674	4674	4674	4674	4674	4641	4641	4641	4576	4482	4377	4305	4305	4263	4155	4027	3942	3942	3907	3872	3872	3872	3849	3849	3849	3849	3849	3838	3838	3827	3827	3827	3816	3816	3816	3816	3816	3816	3816	3816	3805	3805	3805	3805	3805	3805	3805	3816	3816	3827	3827	3849	3849	3849	3872	3872	3872	3884	3895	3895	3895	3895	3895	3907	3919	3919	3919	3919	3919	3919	3930	3930	3930	3930	3930	3930	3930	3930	3919	3919	3919	3919	3919	3907	3907	3895	3895	3895	3895	3907	3907	3919	3919	3919	3930	3930	3930	3954	3978	3978	4027	4040	4040	4077	4103	4116	4155	4155	4195	4222	4222	4263	4291	4291	4334	4377	4377	4437	4482	4560	4625	4625	4725	4777	4777	4794	4812	4812	4812	4812	4812	4812	4812	4812	4812	4812	4812	4812	4812	4812	4812	4812	4794	4794	4794	4794	4794	4777	4777	4777	4759	4759	4742	4725	4725	4725	4725	4742	4742	4742	4742	4742	4759	4777	4777	4777	4794	4794	4794	4812	4812	4812	4812	4812	4830	4847	4847	4847	4865	4865	4884	4939	4939	4976	5015	5015	5073	5133	5133	5173	5235	5235	5320	5364	5364	5408	5431	5431	5453	5476	5476	5499	5546	5546	5617	5617	5666	5791	5791	5869	5976	5976	6059	6145	6145	6174	6232	6232	6232	6262	6262	6262	6292	6292	6292	6292	6292	6323	6353	6353	6353	6384	6384	6384	6416	6416	6479	6511	6511	6644	6746	6746	6888	6888	7037	7191	7191	7312	7394	7394	7436	7522	7522	7609	7699	7699	7790	7837	7837	7980	7980	8129	8231	8231	8336	8336	8336	8444	8499	8499	8499	8499	8499	8444	8336	8336	8284	8231	8231	8129	8079	8079	8079	7980	7980	7932	7932	7932	7932	7932	7932	7980	7980	8079	8129	8129	8231	8231	8444	8611	8611	8784	8903	8903	9026	9089	9089	9217	9282	9282	9416	9553	9553	9695	9915	9915	10146	10146	10387	10470	10470	10728	10907	10907	11092	11186	11186	11381	11481	11481	11481	11582	11582	11686	11686	11686	11686	11791	11791	11791	11898	11898	11898	11898	11898	11898	11898	11898	11791	11791	11791	11791	11791	11791	11686	11686	11791	11791	11791	11791	11791	11898	11898	11898	12007	12007	12007	12119	12232	12232	12465	12585	12585	12707	12958	12958	12958	12958	12958	12958	12958	12958	12958	12958	12958	12707	12707	12707	12707	12707	12707	12707	12707	12707	12707	12958	12958	12958	12958	12958	12958	12958	13088	13088	13355	13355	13355	13355	13493	13355	13088	13088	12958	12707	12707	12585	12465	12232	12232	12119	12007	12007	12007	12007	12007	12007	12007	12007	12007	12007	12007	12007	11898	11898	11898	11898	11898	11791	11686	11686	11686	11686	11686	11686	11582	11582	11582	11582	11481	11481	11481	11481	11481	11481	11582	11582	11582	11582	11686	11686	11791	11898	11898	11898	12007	12007	12007	12119	12119	12232	12232	12232	12232	12232	12232	12232	12232	12232	12119	12119	12119	12119	12119	12119	12119	12119	12119	12119	12007	12007	12007	12007	12119	12007	12007	12007	12007	12119	12119	12119	12007	12007	12007	12007	11898	11898	11686	11686	11686	11686	11686	11686	11686	11686	11686	11686	11686	11686	11686	11686	11791	11686	11582	11186	11186	10728	10470	9484	9484	9152	8784	8129	7699	7699	7565	7436	7312	7312	7152	6888	6746	6746	6447	6416	6416	6384	6384	5817	5817	5922	4777	4407	4222	4129	4129	4077	4040	3978	3978	3942	3930	3930	3919	3895	3884	3884	3872	3861	3861	3838	3816	3816	3783	3739	3697	3697
3528	3537	3537	3537	3547	3547	3547	3547	3547	3537	3537	3537	3528	3518	3518	3499	3462	3462	3435	3417	3373	3373	3365	3339	3339	3330	3322	3313	3313	3313	0	0	0	0	0	0	0	0	0	0	0	0	4560	4560	4560	4641	4641	4641	0	4392	4392	4305	4277	4236	4236	4222	4168	4168	4129	4116	4116	4116	4116	4129	4155	4155	4208	4208	4305	4392	4392	4592	4592	4794	4865	4865	4958	4958	5093	5214	5214	5277	5277	5299	5320	5299	5299	5299	5299	5277	5235	5235	5214	5214	5214	5153	5093	5073	5073	4976	4920	4920	4884	4847	4830	4830	4794	4777	4777	4742	4708	4691	4691	4674	4674	4674	4674	4674	4674	4674	4674	4674	4641	4641	4641	4592	4482	4377	4319	4319	4263	4168	4040	4040	3954	3919	3884	3884	3872	3861	3861	3849	3849	3849	3838	3838	3827	3827	3827	3816	3816	3816	3816	3816	3816	3816	3816	3805	3805	3805	3805	3805	3805	3805	3816	3816	3827	3827	3849	3849	3849	3872	3872	3872	3884	3895	3895	3895	3895	3895	3907	3919	3919	3919	3919	3919	3919	3930	3930	3919	3919	3919	3919	3919	3919	3907	3907	3895	3895	3895	3895	3895	3884	3884	3884	3895	3895	3895	3895	3919	3919	3919	3930	3930	3942	3966	3966	3990	4027	4027	4065	4103	4103	4129	4129	4155	4208	4208	4236	4277	4277	4305	4348	4348	4407	4513	4513	4592	4592	4691	4759	4759	4777	4794	4794	4794	4812	4812	4812	4812	4812	4812	4812	4812	4812	4812	4812	4812	4812	4794	4794	4794	4794	4794	4794	4794	4777	4777	4777	4759	4742	4742	4742	4742	4742	4742	4742	4742	4742	4759	4777	4777	4777	4794	4794	4794	4812	4812	4812	4812	4812	4830	4847	4847	4847	4865	4865	4884	4920	4920	4939	4976	4976	5034	5073	5073	5133	5173	5173	5235	5299	5299	5342	5386	5386	5408	5431	5431	5453	5499	5499	5522	5593	5593	5666	5666	5740	5869	5869	5976	6087	6087	6145	6203	6203	6232	6232	6232	6262	6262	6262	6262	6292	6292	6292	6323	6323	6353	6353	6353	6384	6416	6416	6479	6511	6511	6644	6746	6746	6888	6888	7037	7191	7191	7312	7394	7394	7436	7565	7565	7654	7744	7744	7837	7837	7932	8079	8079	8284	8336	8336	8444	8499	8499	8611	8668	8668	8668	8668	8668	8611	8611	8499	8444	8336	8336	8284	8231	8231	8231	8129	8129	8129	8079	8079	8079	8079	8129	8129	8129	8231	8231	8284	8336	8336	8499	8668	8668	8843	8964	8964	9026	9152	9152	9217	9282	9282	9416	9553	9553	9695	9915	9915	10146	10146	10387	10470	10470	10728	10907	10907	11092	11186	11186	11283	11481	11481	11481	11582	11582	11582	11686	11686	11686	11791	11791	11791	11898	11898	11898	11898	11898	11898	11898	11791	11791	11791	11791	11791	11686	11686	11686	11686	11686	11686	11686	11686	11686	11791	11898	11898	11898	12007	12007	12007	12119	12119	12232	12347	12347	12465	12585	12585	12585	12585	12585	12585	12585	12585	12585	12585	12585	12585	12585	12585	12585	12707	12707	12707	12707	12707	12707	12958	12958	12958	12958	12958	12958	12958	13088	13088	13355	13355	13355	13355	13493	13355	13088	13088	12958	12707	12707	12585	12465	12232	12232	12119	12007	12007	12007	11898	11898	11898	12007	12007	12007	12007	12007	11898	11898	11898	11898	11898	11898	11791	11686	11686	11686	11686	11686	11686	11582	11582	11582	11582	11481	11481	11481	11481	11481	11481	11582	11582	11582	11582	11686	11686	11791	11898	11898	11898	12007	12007	12119	12119	12119	12232	12232	12232	12232	12232	12232	12232	12232	12232	12119	12119	12119	12119	12119	12119	12119	12119	12119	12119	12119	12119	12119	12119	12119	12119	12119	12119	12119	12119	12119	12119	12007	12007	12007	12007	11898	11898	11686	11686	11686	11686	11686	11686	11686	11686	11686	11686	11686	11686	11686	11686	11791	11686	11582	11186	11186	10728	10728	9484	9484	9152	8784	8129	7699	7699	7565	7436	7312	7312	7152	6888	6746	6746	6447	6384	6384	6384	6292	5922	5922	5922	4830	4529	4277	4195	4195	4077	4027	3978	3978	3942	3919	3919	3907	3895	3884	3884	3872	3861	3861	3838	3816	3816	3783	3739	3697	3697
3528	3537	3537	3537	3547	3547	3547	3547	3547	3547	3547	3547	3537	3537	3528	3509	3481	3481	3453	3417	3399	3399	3365	3339	3339	3330	3322	3313	3313	3313	0	0	0	0	0	0	0	0	0	0	0	0	4560	4560	4513	4513	4592	4592	4592	4392	4392	4334	4305	4277	4277	4277	4236	4236	4208	4195	4195	4195	4195	4208	4208	4222	4249	4249	4305	4363	4363	4513	4513	4674	4777	4777	4830	4865	4865	4958	4958	5034	5093	5093	5133	5133	5133	5133	5133	5093	5073	5034	5034	5015	4976	4976	4939	4902	4902	4865	4847	4812	4812	4794	4777	4777	4759	4725	4725	4691	4641	4625	4625	4625	4625	4625	4625	4625	4625	4625	4625	4641	4625	4625	4625	4576	4482	4377	4319	4319	4263	4168	4040	4040	3954	3919	3884	3884	3872	3861	3861	3849	3849	3849	3838	3827	3827	3827	3816	3816	3816	3805	3805	3805	3805	3783	3783	3783	3783	3783	3783	3783	3783	3783	3783	3805	3816	3816	3827	3838	3838	3849	3872	3872	3872	3884	3884	3895	3895	3895	3895	3895	3895	3907	3907	3907	3919	3919	3919	3919	3919	3919	3919	3919	3919	3907	3907	3895	3895	3895	3895	3895	3884	3884	3884	3895	3895	3895	3895	3919	3919	3919	3930	3930	3942	3966	3966	3990	4027	4027	4065	4103	4103	4129	4129	4155	4208	4208	4236	4277	4277	4305	4348	4348	4407	4513	4513	4592	4592	4691	4759	4759	4777	4794	4794	4794	4812	4812	4812	4812	4812	4812	4812	4812	4812	4812	4812	4812	4812	4812	4794	4794	4794	4794	4794	4794	4777	4777	4777	4777	4777	4777	4777	4777	4777	4777	4777	4777	4777	4777	4794	4794	4794	4812	4812	4812	4830	4830	4830	4847	4847	4847	4847	4847	4865	4865	4865	4884	4902	4902	4939	4958	4958	4976	5015	5015	5073	5133	5133	5173	5214	5214	5277	5320	5320	5364	5408	5408	5431	5453	5453	5499	5522	5522	5593	5666	5666	5740	5740	5895	6004	6004	6087	6145	6145	6174	6232	6232	6232	6262	6262	6262	6262	6262	6292	6292	6292	6323	6353	6353	6384	6384	6384	6447	6511	6511	6577	6746	6746	6888	6888	7037	7191	7191	7312	7394	7394	7436	7565	7565	7654	7744	7744	7837	7837	7932	8079	8079	8284	8336	8336	8444	8499	8499	8611	8668	8668	8668	8668	8668	8611	8611	8499	8444	8336	8336	8284	8231	8231	8231	8129	8129	8129	8079	8079	8079	8079	8129	8129	8129	8231	8231	8284	8336	8336	8499	8668	8668	8843	8964	8964	9026	9152	9152	9282	9349	9349	9484	9624	9624	9841	9915	9915	10146	10146	10387	10470	10470	10728	10907	10907	11092	11186	11186	11283	11481	11481	11481	11582	11582	11582	11686	11686	11686	11791	11791	11791	11898	11898	11898	11898	11898	11898	11898	11791	11791	11791	11791	11791	11686	11686	11686	11686	11686	11686	11686	11686	11686	11791	11898	11898	11898	12007	12007	12007	12119	12119	12232	12347	12347	12465	12585	12585	12585	12585	12585	12585	12585	12347	12347	12465	12465	12465	12585	12585	12585	12707	12707	12707	12707	12958	12958	13088	13088	13088	13355	13355	13355	13355	13355	13355	13493	13777	13777	13777	13777	13493	13493	13493	13355	12958	12958	12707	12585	12347	12347	12119	12007	12007	12007	11898	11898	11898	12007	12007	12007	11898	11898	11898	11898	11898	11898	11898	11898	11898	11791	11686	11686	11686	11686	11686	11686	11582	11582	11582	11582	11582	11582	11582	11582	11582	11582	11582	11582	11686	11686	11686	11791	11898	11898	11898	12007	12007	12119	12119	12119	12232	12232	12232	12232	12232	12232	12232	12232	12232	12119	12119	12119	12119	12119	12119	12119	12119	12119	12119	12119	12119	12119	12119	12119	12119	12119	12119	12119	12007	12007	12007	12007	12007	12007	11898	11898	11898	11686	11582	11582	11582	11582	11582	11582	11582	11582	11481	11481	11582	11582	11582	11582	11481	11186	10728	10728	10146	9624	9282	9282	8964	8611	7932	7609	7609	7522	7394	7231	7231	7037	6888	6678	6678	6447	6384	6384	6384	6292	6004	6004	6004	0	4691	4319	4222	4222	4077	4027	3978	3978	3954	3919	3919	3907	3895	3884	3884	3872	3861	3861	3838	3816	3816	3783	3739	3697	3697
3528	3537	3537	3537	3547	3547	3547	3547	3547	3547	3547	3547	3537	3537	3528	3509	3481	3481	3453	3417	3399	3399	3365	3339	3339	3330	3322	3313	3313	3313	0	0	0	0	0	0	0	0	0	0	0	0	0	0	4513	4513	4592	4592	4592	4437	4437	4377	4334	4334	4319	4291	4277	4277	4249	4236	4236	4236	4236	4236	4236	4249	4277	4277	4305	4363	4363	4513	4513	4674	4777	4777	4830	4865	4865	4958	4958	5034	5093	5093	5133	5133	5133	5133	5133	5093	5073	5034	5034	5015	4976	4976	4939	4902	4902	4865	4847	4812	4812	4794	4691	4691	4674	4625	4592	4592	4576	4576	4576	4560	4560	4576	4576	4576	4576	4576	4576	4576	4576	4592	4560	4560	4482	4392	4334	4334	4277	4195	4077	4077	3978	3919	3884	3884	3872	3861	3861	3849	3838	3838	3838	3827	3816	3816	3805	3805	3805	3783	3783	3783	3783	3772	3772	3772	3750	3750	3750	3750	3750	3750	3750	3772	3783	3783	3816	3816	3816	3838	3861	3861	3872	3872	3872	3884	3884	3884	3895	3895	3895	3895	3895	3895	3895	3907	3907	3907	3907	3907	3907	3907	3895	3895	3895	3884	3884	3884	3884	3884	3884	3884	3884	3884	3884	3884	3895	3895	3895	3919	3919	3919	3930	3954	3954	3978	3990	3990	4027	4065	4065	4103	4129	4129	4168	4168	4222	4263	4263	4305	4334	4334	4377	4467	4467	4560	4560	4641	4708	4708	4759	4777	4777	4794	4794	4794	4794	4812	4812	4812	4812	4812	4812	4812	4812	4812	4812	4794	4794	4794	4794	4794	4794	4794	4794	4777	4777	4777	4777	4777	4777	4777	4777	4777	4777	4794	4794	4794	4812	4812	4830	4830	4830	4847	4847	4847	4865	4865	4865	4865	4865	4865	4865	4884	4884	4884	4902	4902	4939	4958	4958	4976	5015	5015	5073	5133	5133	5173	5214	5214	5277	5320	5320	5364	5408	5408	5431	5453	5453	5499	5522	5522	5593	5666	5666	5740	5740	5895	6004	6004	6087	6145	6145	6174	6232	6232	6232	6232	6232	6232	6262	6262	6262	6292	6292	6292	6323	6323	6353	6384	6384	6447	6511	6511	6577	6746	6746	6888	6888	7037	7191	7191	7312	7394	7394	7479	7565	7565	7699	7744	7790	7932	7932	8129	8231	8231	8336	8444	8444	8611	8668	8668	8725	8784	8784	8784	8784	8784	8784	8784	8668	8668	8668	8611	8499	8444	8444	8336	8336	8336	8284	8284	8284	8284	8284	8284	8284	8336	8336	8336	8444	8611	8611	8668	8843	8843	8964	9026	9026	9089	9152	9152	9282	9349	9349	9484	9624	9624	9841	9915	9915	10146	10146	10387	10470	10470	10641	10907	10907	11092	11186	11186	11283	11381	11381	11481	11582	11582	11582	11686	11686	11686	11686	11686	11791	11791	11791	11898	11898	11898	11791	11791	11791	11791	11791	11791	11791	11686	11686	11686	11686	11686	11686	11686	11686	11686	11791	11791	11791	11898	11898	11898	11898	12007	12007	12007	12119	12119	12119	12232	12232	12232	12232	12232	12232	12347	12347	12347	12465	12465	12465	12585	12585	12707	12707	12707	12958	12958	12958	13088	13088	13088	13355	13493	13493	13493	13777	13777	13777	13923	13923	13923	13923	13923	13923	13493	13493	13355	13088	13088	12707	12585	12347	12347	12119	12007	12007	12007	12007	12007	12007	12007	12007	12007	11898	11898	11898	11898	11898	11898	11898	11898	11898	11791	11791	11791	11686	11686	11686	11686	11686	11686	11686	11582	11582	11582	11582	11582	11582	11582	11686	11686	11686	11686	11686	11791	11898	11898	12007	12007	12007	12007	12232	12232	12232	12232	12232	12232	12232	12232	12232	12232	12232	12232	12232	12232	12232	12232	12232	12232	12232	12232	12232	12119	12119	12119	12119	12119	12119	12119	12119	12007	12007	12007	12007	12007	12007	11898	11898	11791	11791	11582	11582	11582	11481	11481	11481	11481	11283	11283	11283	11283	11283	11283	11283	11283	11092	10728	10306	10306	9841	9416	9089	9089	8843	8336	7744	7565	7565	7436	7353	7191	7191	6999	6852	6644	6644	6447	6384	6384	6353	6292	6004	6004	6004	5453	4691	4319	4222	4222	4077	4027	3978	3978	3954	3919	3919	3907	3895	3884	3884	3872	3861	3861	3838	3816	3816	3783	3739	3697	3697
3528	3537	3537	3537	3547	3547	3547	3547	3547	3547	3547	3547	3547	3547	3537	3528	3509	3509	3490	3453	3453	3426	3399	3373	3373	3365	3347	3347	3347	3365	3462	3462	0	0	0	0	0	0	0	0	0	0	0	4377	4377	4377	4482	4482	4529	4437	4437	4377	4334	4334	4319	4291	4277	4277	4249	4236	4236	4236	4236	4236	4236	4249	4277	4277	4291	4334	4334	4392	4513	4513	4625	4625	4725	4777	4777	4830	4847	4847	4884	4920	4920	4920	4920	4920	4939	4939	4920	4902	4902	4884	4865	4865	4847	4812	4794	4794	4777	4759	4759	4725	4691	4691	4674	4625	4592	4592	4576	4576	4576	4560	4560	4576	4576	4576	4576	4576	4576	4576	4576	4592	4560	4560	4482	4392	4334	4334	4277	4208	4103	4103	3990	3930	3895	3895	3872	3861	3861	3849	3838	3838	3838	3827	3816	3816	3805	3805	3805	3783	3783	3783	3783	3772	3772	3772	3750	3750	3750	3750	3750	3750	3750	3772	3783	3783	3816	3816	3816	3838	3861	3861	3872	3872	3872	3884	3884	3884	3884	3884	3884	3884	3884	3884	3895	3895	3895	3895	3895	3895	3884	3884	3884	3884	3884	3884	3884	3884	3884	3872	3872	3872	3872	3884	3884	3884	3884	3895	3895	3907	3919	3919	3930	3930	3930	3954	3978	3978	4002	4027	4027	4065	4116	4116	4155	4155	4195	4249	4249	4291	4319	4319	4348	4422	4422	4513	4513	4592	4691	4691	4742	4777	4777	4777	4794	4794	4794	4794	4794	4812	4812	4812	4812	4812	4812	4794	4794	4794	4794	4794	4794	4794	4794	4794	4794	4777	4777	4777	4777	4777	4777	4777	4777	4777	4777	4794	4794	4794	4812	4812	4830	4830	4830	4847	4847	4847	4865	4865	4865	4865	4865	4865	4865	4884	4884	4884	4902	4902	4920	4939	4939	4958	4976	4976	5034	5093	5093	5153	5173	5173	5235	5299	5299	5320	5364	5364	5408	5431	5431	5453	5499	5499	5522	5593	5593	5666	5666	5791	5922	5922	6059	6116	6116	6145	6203	6203	6232	6232	6232	6232	6262	6262	6262	6292	6292	6292	6323	6323	6353	6384	6384	6447	6511	6511	6577	6746	6746	6888	6888	7113	7231	7231	7353	7436	7436	7522	7609	7609	7744	7744	7932	8079	8079	8231	8444	8444	8499	8611	8611	8725	8725	8725	8843	8903	8903	8903	8903	8903	8903	8903	8843	8784	8784	8784	8668	8668	8668	8611	8611	8611	8499	8499	8499	8499	8499	8611	8611	8611	8611	8611	8725	8784	8784	8843	8964	8964	9026	9089	9089	9152	9282	9282	9349	9484	9484	9624	9695	9695	9915	9915	10068	10306	10306	10387	10470	10470	10641	10907	10907	11092	11186	11186	11283	11381	11381	11481	11582	11582	11582	11686	11686	11686	11686	11686	11686	11791	11791	11791	11791	11791	11791	11791	11791	11686	11686	11686	11686	11686	11686	11686	11686	11686	11686	11686	11686	11686	11686	11686	11686	11791	11898	11898	11898	11898	11898	11898	12007	12007	12007	12007	12007	12007	12007	12007	12007	12119	12119	12119	12347	12347	12465	12585	12585	12707	12707	12707	12958	12958	12958	13088	13088	13088	13355	13493	13493	13493	13777	13777	13777	13923	13923	13923	13923	13923	13923	13493	13493	13355	13088	13088	12707	12585	12347	12347	12119	12007	12007	12007	12007	12007	12007	12007	12007	12007	11898	11898	11898	11898	11898	11898	11898	11898	11898	11791	11791	11791	11686	11686	11686	11686	11686	11686	11686	11582	11582	11582	11582	11582	11582	11582	11686	11686	11686	11791	11791	11791	11898	11898	12007	12007	12007	12007	12232	12232	12232	12232	12232	12347	12347	12347	12347	12347	12347	12347	12347	12347	12347	12347	12347	12347	12347	12347	12232	12232	12232	12232	12119	12119	12119	12119	12119	12007	12007	12007	12007	12007	12007	11898	11898	11791	11791	11582	11582	11582	11481	11481	11481	11481	11283	11283	11283	11283	11283	11283	11283	11283	11092	10728	10306	10306	9841	9416	9089	9089	8843	8336	7744	7565	7565	7394	7312	7113	7113	6925	6781	6644	6644	6447	6384	6384	6353	6262	6087	6087	5869	5453	5453	4407	4407	4277	4103	4002	3966	3966	3942	3919	3919	3907	3895	3884	3884	3872	3861	3861	3838	3816	3816	3783	3739	3697	3697
3528	3537	3537	3537	3547	3547	3547	3557	3557	3557	3557	3557	3547	3547	3547	3537	3537	3537	3509	3490	3490	3481	3453	3435	3435	3426	3426	3426	3426	3453	3462	3462	0	0	0	0	0	0	0	0	0	0	0	4305	4305	4305	4377	4422	4422	4437	4437	4407	4363	4363	4334	4319	4305	4305	4277	4277	4277	4263	4263	4263	4263	4277	4277	4277	4291	4305	4305	4348	4392	4392	4467	4529	4529	4641	4641	4708	4777	4777	4794	4812	4812	4830	4847	4847	4847	4847	4830	4812	4812	4812	4794	4777	4777	4759	4725	4725	4691	4641	4641	4592	4576	4560	4560	4529	4529	4529	4513	4482	4482	4482	4513	4513	4513	4513	4529	4529	4529	4560	4560	4560	4529	4529	4467	4377	4334	4334	4277	4208	4103	4103	3990	3930	3895	3895	3872	3861	3861	3849	3838	3838	3838	3827	3816	3816	3805	3783	3783	3783	3783	3783	3772	3750	3750	3750	3739	3739	3739	3739	3739	3739	3739	3750	3772	3772	3783	3805	3805	3816	3838	3838	3861	3872	3872	3872	3872	3872	3884	3884	3884	3884	3884	3884	3895	3895	3895	3895	3895	3895	3884	3884	3884	3884	3884	3884	3884	3884	3884	3872	3872	3872	3872	3884	3884	3884	3884	3895	3895	3907	3919	3919	3930	3930	3930	3954	3978	3978	4002	4027	4027	4065	4116	4116	4155	4155	4195	4249	4249	4291	4319	4319	4348	4422	4422	4513	4513	4592	4691	4691	4742	4777	4777	4777	4794	4794	4794	4794	4794	4812	4812	4812	4794	4794	4794	4794	4794	4794	4794	4794	4794	4794	4794	4794	4794	4794	4794	4777	4777	4777	4777	4794	4794	4794	4794	4794	4794	4812	4812	4812	4830	4847	4847	4847	4865	4865	4865	4865	4865	4865	4865	4865	4865	4865	4865	4884	4884	4902	4902	4920	4939	4939	4976	4976	5015	5073	5073	5093	5153	5153	5173	5235	5235	5277	5320	5320	5364	5408	5408	5431	5453	5453	5499	5546	5546	5617	5666	5740	5869	5869	5976	6059	6059	6116	6145	6145	6174	6203	6203	6232	6232	6232	6262	6262	6262	6292	6292	6292	6353	6384	6384	6416	6511	6511	6577	6746	6746	6888	6888	7113	7231	7231	7353	7436	7436	7522	7609	7609	7744	7744	7932	8079	8079	8231	8444	8444	8499	8611	8611	8725	8725	8725	8843	8903	8903	8903	8903	8903	8903	8903	8843	8784	8784	8784	8668	8668	8668	8611	8611	8611	8499	8499	8499	8499	8499	8611	8611	8611	8611	8611	8725	8964	8964	9026	9089	9089	9152	9217	9217	9282	9349	9349	9484	9624	9624	9841	9841	9915	10068	10068	10146	10306	10306	10470	10641	10641	10728	10907	10907	11092	11186	11186	11283	11381	11381	11481	11582	11582	11582	11686	11686	11686	11686	11686	11686	11791	11791	11791	11791	11791	11791	11791	11791	11686	11686	11686	11686	11686	11686	11686	11686	11686	11686	11686	11686	11686	11686	11686	11686	11791	11898	11898	11898	11898	11898	11898	12007	11791	11791	11791	11791	11898	11898	11898	11898	12007	12007	12007	12232	12232	12465	12585	12585	12707	12958	12958	12958	13088	13088	13355	13493	13493	13777	13777	13777	13923	14073	14073	14073	14073	14073	14073	14073	14073	13923	13777	13777	13493	13088	13088	12707	12585	12347	12347	12119	12007	12007	12007	12007	12007	12007	12007	12007	11898	11898	11898	11898	11898	11898	11898	11898	11898	11898	11898	11791	11791	11791	11791	11791	11686	11686	11686	11686	11686	11686	11686	11686	11686	11686	11686	11686	11686	11686	11791	11791	11791	11898	11898	11898	12007	12007	12007	12119	12119	12232	12232	12232	12347	12347	12347	12347	12347	12347	12347	12347	12347	12347	12347	12347	12347	12347	12347	12232	12232	12232	12232	12119	12119	12119	12119	12119	12007	12007	12007	12007	12007	12007	11898	11898	11686	11686	11582	11481	11481	11381	11283	11283	11186	10998	10998	10907	10907	10998	10907	10907	10470	10470	10306	9841	9484	9484	9217	8964	8668	8668	8129	7654	7522	7522	7394	7312	7113	7113	6925	6781	6644	6644	6479	6416	6416	6353	6262	6145	6145	5869	5869	0	0	0	4319	4319	4002	3966	3966	3942	3919	3919	3907	3895	3884	3884	3872	3861	3861	3838	3816	3816	3783	3739	3708	3708
3528	3537	3537	3537	3547	3547	3547	3557	3557	3557	3557	3557	3547	3547	3547	3537	3537	3537	3537	3537	3537	3518	3499	3499	3499	3499	3499	3499	3509	3518	3518	3537	0	0	0	0	0	0	0	0	0	0	0	4305	4305	4305	4377	4422	4422	4437	4437	4407	4377	4377	4348	4334	4319	4319	4305	4291	4291	4277	4277	4277	4277	4277	4277	4277	4291	4305	4305	4348	4392	4392	4467	4529	4529	4641	4641	4708	4777	4777	4794	4812	4812	4830	4847	4847	4847	4847	4830	4812	4742	4742	4725	4691	4691	4641	4592	4592	4560	4513	4482	4482	4467	4437	4437	4437	4437	4437	4422	4422	4422	4422	4422	4437	4437	4437	4467	4482	4482	4482	4482	4482	4467	4467	4422	4363	4319	4319	4277	4208	4103	4103	4002	3930	3895	3895	3884	3872	3872	3861	3849	3849	3838	3827	3816	3816	3805	3783	3783	3783	3772	3772	3750	3739	3739	3739	3729	3729	3729	3729	3729	3729	3729	3729	3739	3739	3750	3772	3772	3783	3816	3816	3827	3838	3838	3861	3872	3872	3872	3872	3872	3872	3884	3884	3884	3884	3884	3884	3884	3884	3884	3884	3872	3872	3872	3872	3872	3872	3872	3872	3872	3872	3872	3872	3884	3884	3884	3895	3895	3895	3907	3907	3919	3930	3930	3942	3966	3966	3978	4002	4002	4040	4077	4077	4116	4155	4168	4222	4222	4277	4305	4305	4334	4377	4377	4467	4513	4560	4641	4641	4708	4742	4742	4777	4777	4777	4794	4794	4794	4794	4794	4794	4794	4794	4794	4794	4794	4794	4794	4794	4794	4794	4794	4794	4794	4794	4794	4794	4794	4794	4794	4794	4794	4794	4794	4812	4812	4812	4812	4812	4830	4847	4847	4847	4865	4865	4865	4865	4865	4865	4865	4865	4865	4865	4865	4884	4884	4902	4902	4920	4939	4939	4976	4976	5015	5073	5073	5093	5153	5153	5173	5235	5235	5277	5320	5320	5364	5408	5408	5431	5453	5453	5499	5546	5546	5617	5740	5740	5869	5869	5922	6059	6059	6116	6145	6145	6174	6203	6203	6232	6232	6232	6232	6262	6262	6292	6292	6292	6353	6384	6384	6416	6511	6511	6577	6746	6746	6925	6925	7113	7271	7271	7353	7436	7436	7565	7654	7654	7790	7790	7980	8231	8231	8336	8499	8499	8668	8725	8725	8843	8903	8903	8964	8964	8964	9026	9026	9026	8964	8964	8964	8964	8964	8903	8843	8843	8784	8784	8784	8725	8725	8725	8725	8725	8725	8784	8784	8784	8843	8843	8903	8964	8964	9026	9089	9089	9152	9217	9217	9282	9349	9349	9484	9624	9624	9841	9841	9915	10068	10068	10146	10306	10306	10470	10641	10641	10728	10907	10907	11092	11186	11186	11283	11381	11381	11481	11481	11481	11582	11582	11582	11686	11686	11686	11686	11686	11686	11686	11686	11686	11686	11686	11686	11686	11686	11686	11686	11686	11686	11686	11686	11686	11686	11686	11686	11686	11686	11686	11686	11686	11686	11686	11686	11791	11791	11791	11791	11791	11791	11791	11791	11898	11898	11898	11898	12007	12007	12007	12232	12232	12465	12585	12585	12707	12958	12958	13355	13355	13355	13493	13923	13923	14073	14073	14073	14073	14382	14382	14542	14542	14542	14542	14542	14382	14073	13923	13923	13493	13088	13088	12958	12585	12347	12347	12232	12007	12007	12007	12007	12007	12007	12007	12007	11898	11898	11898	11898	11898	11898	11898	11898	11898	11898	11898	11791	11791	11791	11791	11791	11791	11686	11686	11686	11686	11686	11686	11686	11686	11686	11686	11686	11686	11686	11791	11791	11898	11898	11898	11898	12007	12007	12007	12119	12119	12232	12347	12347	12347	12347	12347	12465	12465	12465	12465	12585	12585	12585	12585	12585	12585	12465	12465	12465	12347	12347	12232	12232	12232	12232	12119	12119	12007	12007	12007	12007	11898	11898	11898	11791	11582	11582	11481	11381	11381	11186	11092	11092	10907	10641	10470	10470	10387	10387	10387	10387	10068	10068	9841	9484	9282	9282	9089	8903	8499	8499	8079	7609	7479	7479	7394	7271	7037	7037	6888	6678	6544	6544	6447	6384	6384	6353	6262	6145	6145	5869	5593	5593	0	0	4319	4319	4002	3966	3966	3942	3919	3919	3907	3895	3884	3884	3872	3861	3861	3838	3816	3816	3783	3739	3708	3708
3537	3537	3537	3547	3547	3547	3557	3557	3557	3557	3566	3566	3557	3557	3557	3557	3547	3547	3537	3537	3537	3518	3499	3499	3499	3499	3499	3499	3509	3518	3518	3537	3586	3586	3615	3729	3729	3872	3872	0	0	0	0	4305	4305	4305	4305	4348	4348	4363	4363	4363	4348	4348	4334	4334	4305	4305	4291	4291	4291	4277	4277	4277	4277	4277	4277	4277	4277	4291	4291	4305	4334	4334	4363	4392	4392	4467	4560	4560	4625	4625	4691	4725	4725	4759	4777	4777	4777	4777	4777	4759	4742	4742	4725	4691	4691	4641	4592	4592	4560	4513	4482	4482	4467	4437	4437	4437	4437	4437	4422	4422	4422	4422	4422	4437	4437	4437	4467	4482	4482	4482	4482	4482	4467	4467	4422	4363	4319	4319	4277	4208	4116	4116	4002	3942	3907	3907	3884	3872	3872	3861	3849	3849	3838	3827	3816	3816	3805	3783	3783	3783	3772	3772	3750	3739	3739	3739	3729	3729	3729	3729	3729	3729	3729	3729	3739	3739	3750	3772	3750	3750	3783	3783	3805	3827	3827	3827	3849	3849	3849	3861	3861	3861	3872	3872	3872	3872	3872	3872	3872	3872	3872	3872	3872	3872	3872	3872	3872	3872	3872	3872	3872	3872	3872	3872	3884	3884	3884	3884	3884	3895	3895	3895	3919	3919	3919	3930	3954	3954	3978	3990	3990	4027	4065	4065	4103	4155	4155	4208	4208	4263	4291	4291	4319	4348	4348	4407	4513	4513	4576	4576	4674	4708	4708	4742	4777	4777	4777	4794	4794	4794	4794	4794	4794	4794	4794	4794	4794	4794	4794	4794	4794	4794	4794	4794	4794	4794	4794	4794	4794	4794	4794	4794	4794	4794	4794	4812	4812	4812	4812	4812	4830	4830	4830	4847	4847	4847	4847	4847	4847	4847	4847	4847	4865	4865	4865	4865	4884	4902	4902	4920	4939	4939	4976	4976	5015	5073	5073	5093	5153	5153	5173	5214	5214	5235	5277	5277	5320	5364	5364	5408	5431	5431	5476	5522	5522	5593	5715	5715	5869	5869	5922	6059	6059	6116	6145	6145	6203	6203	6203	6232	6232	6232	6232	6262	6262	6292	6292	6292	6353	6384	6384	6416	6511	6511	6644	6781	6781	6925	6925	7113	7312	7312	7394	7479	7479	7565	7744	7744	7932	7932	8129	8336	8336	8611	8725	8725	8843	8903	8903	8964	9026	9026	9026	9089	9089	9089	9089	9089	9089	9089	9026	9026	9026	9026	8964	8964	8964	8903	8903	8903	8843	8843	8843	8903	8903	8903	8964	8964	8964	8964	9026	9026	9026	9089	9217	9217	9282	9349	9349	9416	9553	9553	9695	9695	9915	10068	10068	10146	10306	10306	10387	10470	10470	10641	10728	10728	10907	10998	10998	11092	11186	11186	11283	11381	11381	11481	11481	11481	11582	11582	11582	11686	11686	11686	11686	11686	11686	11686	11686	11686	11686	11686	11686	11686	11686	11686	11686	11686	11686	11686	11582	11582	11582	11582	11582	11582	11582	11582	11582	11582	11686	11582	11582	11582	11582	11686	11686	11582	11582	11582	11582	11686	11686	11686	11686	11898	11898	12007	12119	12119	12465	12585	12585	12707	12958	12958	13355	13355	13355	13493	13923	13923	14073	14073	14073	14073	14382	14382	14542	14542	14542	14542	14542	14382	14073	13923	13923	13493	13088	13088	12958	12585	12347	12347	12232	12007	12007	12007	12007	12007	12007	12007	12007	11898	11898	11898	11898	11898	11898	11898	11898	11898	11898	11898	11791	11791	11791	11791	11791	11791	11686	11686	11686	11686	11686	11686	11686	11686	11686	11686	11686	11686	11791	11791	11791	11898	11898	11898	12007	12007	12007	12007	12119	12119	12232	12347	12347	12465	12465	12465	12585	12585	12585	12585	12707	12707	12707	12707	12707	12707	12707	12707	12585	12465	12465	12347	12347	12347	12232	12119	12119	12007	12007	12007	12007	11898	11898	11898	11791	11582	11582	11481	11381	11381	11186	11092	11092	10907	10641	10470	10470	10387	10387	10387	10387	10068	10068	9841	9484	9152	9152	9026	8784	8444	8444	7932	7565	7436	7436	7312	7113	6888	6888	6678	6544	6447	6447	6384	6353	6353	6292	6232	6116	6116	5895	5593	5593	0	0	4363	4363	0	3990	3990	3954	3930	3930	3919	3895	3895	3884	3872	3861	3861	3838	3816	3816	3783	3750	3708	3708
3537	3547	3547	3547	3557	3557	3557	3566	3566	3566	3576	3576	3576	3576	3576	3576	3576	3566	3557	3557	3557	3547	3537	3537	3537	3537	3537	3537	3547	3557	3557	3576	3586	3586	3615	3729	3729	3849	3849	3907	3954	3954	4040	4040	0	4236	4236	4277	4277	4305	4319	4319	4305	4305	4305	4291	4291	4291	4277	4277	4277	4263	4249	4249	4249	4249	4249	4249	4249	4263	4263	4277	4291	4291	4305	4334	4334	4363	4407	4407	4467	4529	4529	4592	4625	4625	4674	4674	4691	4691	4691	4674	4641	4641	4625	4576	4576	4529	4482	4437	4437	4422	4407	4407	4392	4377	4377	4377	4377	4377	4377	4377	4377	4377	4377	4407	4407	4407	4422	4422	4422	4422	4437	4437	4422	4422	4392	4348	4305	4305	4277	4208	4116	4116	4002	3942	3907	3907	3884	3872	3872	3861	3849	3849	3838	3827	3816	3816	3805	3783	3783	3772	3772	3772	3750	3739	3729	3729	3708	3708	3708	3708	3697	3697	3697	3708	3708	3708	3729	3739	3739	3750	3783	3783	3805	3827	3827	3827	3849	3849	3849	3861	3861	3861	3872	3872	3872	3872	3872	3872	3872	3872	3872	3872	3872	3872	3872	3872	3872	3872	3872	3872	3872	3872	3872	3872	3884	3884	3884	3884	3884	3895	3895	3895	3919	3919	3919	3930	3954	3954	3978	3990	3990	4027	4065	4065	4103	4155	4155	4208	4208	4263	4291	4291	4319	4348	4348	4407	4513	4513	4576	4576	4674	4708	4691	4691	4725	4725	4759	4777	4777	4777	4794	4794	4794	4794	4794	4794	4794	4794	4794	4794	4794	4794	4794	4794	4794	4794	4794	4794	4794	4794	4794	4794	4794	4794	4794	4812	4812	4812	4812	4812	4812	4812	4812	4812	4830	4830	4830	4830	4830	4847	4847	4847	4847	4847	4865	4865	4884	4902	4902	4920	4958	4958	4976	4976	5034	5073	5073	5133	5153	5153	5173	5214	5214	5235	5277	5277	5320	5364	5364	5408	5431	5431	5476	5522	5522	5593	5715	5715	5817	5817	5922	6059	6059	6116	6145	6145	6174	6203	6203	6232	6232	6232	6232	6262	6262	6292	6292	6292	6353	6384	6384	6416	6511	6511	6644	6781	6781	6925	6925	7113	7312	7312	7394	7479	7479	7565	7654	7744	7932	7932	8129	8336	8336	8611	8725	8725	8843	8903	8903	8964	9026	9026	9026	9089	9089	9089	9089	9089	9089	9089	9026	9026	9026	9026	8964	8964	8964	8903	8903	8903	8903	8964	8964	8964	9026	9026	9026	9026	9026	9089	9089	9152	9152	9217	9282	9282	9349	9553	9553	9624	9624	9841	10068	10068	10146	10306	10306	10387	10470	10470	10641	10728	10728	10728	10907	10907	10998	11092	11092	11186	11283	11283	11381	11481	11481	11481	11481	11481	11582	11582	11582	11686	11686	11686	11686	11686	11686	11686	11686	11686	11686	11686	11686	11686	11686	11686	11686	11686	11686	11686	11582	11582	11582	11582	11582	11582	11582	11582	11582	11582	11582	11582	11582	11582	11481	11481	11481	11481	11481	11481	11481	11481	11481	11686	11686	11898	11898	12007	12119	12119	12465	12707	12707	13088	13355	13355	13777	13923	13923	14073	14382	14382	14542	14542	14542	14873	15044	15044	15044	15219	15044	14873	14873	14542	14382	13923	13923	13777	13088	13088	12958	12585	12347	12347	12232	12007	12007	12007	12007	12007	12007	12007	12007	11898	11898	11898	11898	11898	11898	11898	11898	11898	11898	11898	11898	11898	11791	11791	11791	11791	11686	11686	11686	11686	11686	11686	11686	11686	11686	11686	11686	11686	11686	11791	11791	11898	11898	11898	11898	12007	12007	12007	12119	12119	12232	12347	12347	12465	12465	12465	12585	12585	12585	12585	12707	12707	12707	12707	12707	12707	12707	12707	12585	12465	12465	12347	12347	12347	12232	12119	12119	12007	12007	12007	11898	11898	11898	11898	11686	11582	11582	11381	11186	11186	10998	10728	10387	10387	10146	9915	9915	9915	9841	9841	9841	9624	9484	9484	9282	9152	9152	9026	8784	8444	8444	7932	7565	7436	7436	7312	7113	6888	6888	6678	6544	6447	6447	6384	6353	6353	6292	6232	6116	6116	5922	5641	5641	0	0	4437	4437	0	4027	4027	3978	3930	3930	3919	3895	3895	3884	3884	3872	3872	3849	3827	3827	3805	3772	3729	3729
3537	3547	3547	3547	3557	3557	3557	3566	3566	3576	3586	3586	3586	3586	3586	3586	3586	3586	3586	3586	3576	3576	3566	3566	3566	3576	3576	3576	3576	3586	3586	3606	3636	3636	3676	3750	3750	3849	3849	3907	3954	3954	4040	4040	0	4236	4236	4277	4277	4305	4319	4319	4305	4305	4305	4291	4291	4291	4277	4277	4277	4263	4249	4249	4249	4249	4249	4249	4249	4263	4263	4277	4291	4291	4305	4334	4334	4363	4407	4407	4467	4529	4529	4529	4529	4529	4560	4576	4576	4576	4592	4576	4560	4560	4513	4467	4422	4422	4392	4377	4377	4348	4348	4334	4334	4334	4334	4334	4334	4348	4348	4348	4348	4348	4348	4363	4363	4363	4377	4392	4392	4392	4392	4392	4392	4392	4363	4334	4305	4305	4263	4195	4116	4116	4002	3942	3907	3907	3884	3872	3872	3861	3849	3849	3838	3827	3816	3816	3805	3783	3783	3772	3772	3772	3750	3739	3729	3729	3708	3697	3697	3697	3676	3676	3676	3697	3697	3697	3708	3708	3708	3739	3750	3750	3772	3783	3783	3816	3816	3816	3827	3838	3838	3838	3849	3849	3849	3861	3861	3861	3861	3861	3861	3861	3861	3861	3861	3861	3861	3872	3872	3872	3872	3872	3872	3872	3872	3872	3884	3884	3884	3895	3895	3895	3907	3919	3919	3930	3942	3942	3966	3990	3990	4027	4065	4065	4103	4129	4129	4195	4195	4249	4277	4277	4305	4334	4334	4377	4422	4422	4513	4576	4592	4641	4641	4691	4725	4725	4759	4777	4777	4777	4794	4794	4794	4794	4794	4794	4794	4794	4794	4794	4794	4794	4794	4794	4794	4794	4794	4794	4794	4794	4794	4794	4794	4794	4794	4812	4812	4812	4812	4812	4812	4812	4812	4812	4830	4830	4830	4830	4830	4847	4847	4847	4847	4847	4865	4865	4884	4920	4920	4958	4958	4976	5034	5034	5093	5153	5153	5173	5214	5214	5235	5235	5235	5299	5299	5299	5342	5386	5386	5408	5431	5431	5499	5522	5522	5593	5666	5666	5817	5817	5922	6059	6059	6116	6145	6145	6174	6203	6203	6232	6232	6232	6232	6262	6262	6292	6292	6292	6323	6384	6384	6447	6511	6511	6644	6781	6781	6999	6999	7152	7353	7353	7394	7522	7522	7654	7654	7790	8079	8079	8336	8611	8611	8784	8784	8903	8964	8964	9026	9089	9089	9089	9152	9152	9152	9217	9217	9217	9217	9217	9152	9089	9089	9089	9089	9089	9026	9026	9026	8964	8964	8964	8964	8964	9026	9026	9026	9026	9026	9089	9089	9152	9152	9217	9282	9282	9349	9553	9553	9624	9624	9841	10068	10068	10146	10306	10306	10387	10470	10470	10641	10728	10728	10728	10907	10907	10998	11092	11092	11186	11283	11283	11381	11481	11481	11481	11481	11481	11582	11582	11582	11582	11686	11686	11686	11686	11686	11686	11686	11686	11686	11686	11686	11686	11686	11686	11686	11686	11686	11686	11582	11582	11582	11582	11582	11582	11582	11582	11582	11582	11582	11582	11582	11582	11481	11481	11481	11481	11481	11481	11481	11481	11481	11686	11686	11898	11898	12007	12232	12232	12585	12958	12958	13355	13777	13777	14073	14382	14382	14542	14873	14873	15044	15044	15044	15219	15219	15219	15398	15398	15219	15044	15044	14873	14542	14073	14073	13777	13355	13355	12958	12585	12585	12347	12232	12007	12007	12007	12007	12007	12007	12007	12007	11898	11898	11898	11898	11898	11898	11898	11898	11898	11898	11898	11898	11791	11791	11791	11791	11791	11791	11791	11791	11686	11686	11686	11686	11686	11686	11686	11686	11686	11686	11791	11791	11791	11898	11898	11898	12007	12007	12007	12007	12007	12232	12347	12347	12347	12465	12465	12585	12707	12707	12707	12958	12958	12958	12958	12958	12958	12958	12707	12707	12585	12585	12465	12347	12347	12232	12119	12119	12007	12007	12007	11898	11898	11898	11898	11686	11582	11582	11283	11092	11092	10907	10470	10146	10146	9841	9624	9624	9553	9484	9484	9553	9349	9282	9282	9217	9026	9026	8964	8725	8444	8444	7932	7522	7394	7191	7191	6925	6678	6511	6511	6416	6353	6353	6292	6292	6292	6232	6145	6004	5791	5791	5569	5453	5453	5453	4437	4291	4291	4027	4027	3978	3930	3930	3919	3895	3895	3884	3884	3872	3872	3849	3827	3827	3805	3772	3729	3729
3547	3547	3547	3557	3566	3566	3576	3576	3576	3576	3586	3586	3586	3586	3586	3586	3586	3586	3586	3586	3576	3576	3566	3566	3566	3576	3576	3576	3576	3586	3586	3606	3636	3636	3676	3739	3750	3849	3849	3884	3919	3919	3966	3966	4040	4236	4208	4208	4236	4236	4263	4263	4277	4277	4277	4277	4263	4263	4249	4236	4236	4222	4222	4222	4208	4208	4222	4222	4222	4236	4236	4249	4277	4277	4291	4305	4305	4319	4348	4348	4377	4422	4422	4467	4529	4529	4560	4576	4576	4576	4592	4576	4560	4560	4513	4467	4422	4422	4392	4377	4377	4348	4348	4334	4334	4334	4334	4334	4334	4348	4348	4348	4348	4348	4348	4363	4363	4363	4377	4392	4392	4392	4392	4392	4392	4392	4363	4334	4305	4305	4263	4195	4116	4116	4002	3942	3919	3919	3895	3872	3872	3872	3849	3849	3849	3838	3816	3816	3805	3783	3783	3772	3772	3772	3750	3739	3729	3729	3708	3697	3697	3697	3676	3676	3676	3676	3676	3676	3697	3697	3697	3708	3729	3729	3739	3750	3750	3772	3783	3783	3805	3816	3816	3827	3827	3827	3838	3838	3838	3849	3849	3849	3849	3849	3861	3849	3849	3861	3861	3861	3861	3861	3872	3872	3872	3872	3872	3872	3884	3884	3884	3895	3895	3895	3907	3919	3919	3930	3930	3930	3954	3978	3978	4002	4040	4040	4077	4116	4116	4168	4168	4222	4263	4263	4291	4319	4319	4348	4392	4392	4437	4513	4513	4560	4560	4625	4674	4674	4708	4742	4742	4759	4777	4777	4777	4777	4777	4777	4777	4777	4777	4777	4777	4777	4794	4794	4794	4794	4794	4794	4794	4794	4794	4794	4794	4794	4794	4812	4812	4812	4812	4812	4812	4812	4812	4812	4812	4812	4812	4812	4812	4812	4812	4830	4830	4847	4865	4865	4884	4902	4920	4958	4958	4976	5034	5034	5093	5153	5153	5173	5214	5214	5235	5235	5235	5299	5299	5299	5342	5408	5408	5431	5453	5453	5499	5522	5522	5593	5666	5666	5817	5817	5922	6059	6059	6116	6145	6145	6203	6203	6203	6232	6232	6232	6232	6262	6262	6292	6292	6292	6323	6384	6384	6447	6544	6544	6644	6781	6781	6999	6999	7152	7353	7353	7436	7565	7565	7699	7699	7932	8231	8231	8499	8725	8725	8903	8903	8964	9026	9026	9089	9152	9152	9217	9217	9217	9282	9282	9282	9282	9282	9282	9282	9217	9217	9217	9152	9152	9089	9089	9089	9089	9026	9026	9026	9026	9089	9089	9089	9089	9089	9152	9217	9217	9217	9282	9282	9416	9553	9553	9695	9915	9915	10146	10387	10387	10470	10641	10641	10728	10907	10907	10907	10998	10998	10998	11092	11092	11186	11186	11186	11283	11381	11381	11381	11481	11481	11481	11582	11582	11582	11582	11582	11582	11582	11582	11582	11582	11582	11582	11582	11582	11582	11582	11582	11582	11582	11582	11582	11582	11582	11582	11582	11582	11582	11582	11582	11582	11582	11582	11481	11481	11481	11381	11381	11381	11381	11283	11283	11283	11283	11283	11283	11283	11381	11582	11582	11686	11898	11898	12232	12232	12585	12958	12958	13355	13777	13777	14073	14382	14382	14542	14873	14873	15044	15044	15044	15219	15219	15219	15398	15398	15219	15044	15044	14873	14542	14073	14073	13777	13355	13355	12707	12585	12585	12347	12232	12007	12007	12007	12007	12007	12007	12007	12007	11898	11898	11898	11898	11898	11898	11898	11898	11898	11898	11898	11898	11791	11791	11791	11791	11791	11791	11791	11791	11791	11791	11791	11791	11791	11791	11791	11791	11791	11791	11791	11791	11791	11898	11898	11898	12007	12007	12007	12007	12007	12232	12347	12347	12347	12465	12465	12585	12707	12707	12958	13088	13088	13088	13088	13088	13088	13088	12958	12707	12585	12585	12585	12347	12347	12232	12119	12119	12007	12007	12007	12007	11898	11898	11898	11686	11582	11582	11283	11092	11092	10907	10470	10146	10146	9841	9484	9349	9349	9282	9282	9282	9282	9217	9217	9089	9026	9026	8964	8725	8444	7837	7837	7522	7353	6999	6999	6746	6479	6384	6384	6353	6292	6292	6262	6232	6145	6145	6004	5869	5666	5666	5522	5431	5431	5431	0	4291	4291	4291	4077	3990	3942	3942	3930	3907	3907	3895	3884	3872	3872	3849	3827	3827	3805	3772	3739	3739
3557	3566	3566	3566	3576	3576	3576	3576	3576	3586	3586	3586	3586	3596	3596	3606	3615	3615	3615	3615	3615	3606	3606	3606	3606	3606	3615	3615	3625	3646	3646	3666	3697	3697	3739	3739	3805	3849	3849	3884	3919	3919	3954	3954	3990	4065	4065	4129	4195	4195	4208	4222	4222	4236	4236	4222	4222	4222	4222	4222	4222	4208	4195	4195	4195	4195	4208	4208	4208	4222	4222	4236	4263	4263	4277	4291	4291	4305	4334	4334	4348	4377	4377	4407	4437	4437	4482	4513	4513	4513	4513	4513	4482	4437	4437	4407	4377	4377	4348	4334	4334	4334	4319	4305	4305	4305	4305	4305	4305	4319	4319	4319	4334	4334	4334	4334	4348	4348	4348	4348	4348	4348	4348	4348	4348	4348	4348	4319	4291	4291	4249	4195	4103	4103	4002	3942	3919	3919	3895	3872	3872	3872	3849	3849	3849	3838	3816	3816	3805	3783	3783	3772	3772	3772	3750	3739	3729	3729	3708	3697	3697	3697	3676	3676	3676	3676	3676	3676	3697	3697	3697	3708	3729	3729	3739	3750	3750	3772	3783	3783	3805	3816	3816	3827	3827	3827	3838	3838	3838	3849	3849	3849	3849	3849	3861	3849	3849	3861	3861	3861	3861	3861	3872	3872	3872	3872	3884	3884	3884	3884	3884	3895	3895	3895	3919	3919	3919	3930	3930	3930	3954	3978	3978	4002	4040	4040	4077	4116	4116	4168	4168	4222	4263	4263	4291	4291	4291	4334	4348	4348	4392	4437	4437	4482	4560	4560	4592	4592	4641	4691	4691	4708	4725	4725	4742	4759	4759	4777	4777	4777	4777	4777	4777	4777	4794	4794	4794	4794	4794	4794	4794	4812	4812	4812	4812	4812	4812	4812	4812	4812	4812	4794	4794	4794	4794	4794	4794	4794	4794	4794	4794	4794	4812	4812	4812	4830	4865	4865	4884	4884	4920	4958	4958	5034	5093	5093	5133	5173	5173	5235	5277	5277	5277	5299	5299	5320	5364	5364	5386	5408	5408	5431	5453	5453	5499	5522	5522	5593	5666	5666	5817	5817	5922	6059	6059	6116	6145	6145	6203	6203	6203	6232	6232	6232	6232	6262	6262	6292	6292	6292	6323	6384	6384	6447	6544	6544	6644	6781	6781	6999	6999	7152	7353	7353	7436	7565	7565	7699	7699	7932	8231	8231	8499	8668	8725	8903	8903	8964	9026	9026	9089	9152	9152	9217	9217	9217	9282	9282	9282	9282	9282	9282	9282	9282	9282	9282	9217	9217	9217	9152	9152	9089	9089	9089	9089	9089	9089	9089	9089	9152	9152	9152	9217	9217	9282	9349	9349	9484	9624	9624	9841	10068	10068	10306	10641	10641	10728	10907	10907	10998	11092	11092	11092	11186	11186	11186	11283	11283	11283	11381	11381	11381	11481	11481	11481	11481	11481	11481	11582	11582	11582	11582	11582	11582	11582	11582	11582	11582	11582	11582	11582	11582	11582	11582	11582	11582	11582	11582	11582	11582	11582	11582	11582	11582	11481	11481	11481	11481	11481	11481	11381	11381	11381	11186	11186	11092	11092	10998	10998	10998	10998	10998	11092	11092	11186	11381	11381	11686	11898	11898	12119	12119	12707	13088	13088	13493	14073	14073	14873	15044	15044	15044	15398	15398	15398	15398	15398	15581	15581	15581	15769	15769	15581	15398	15398	15044	14542	14542	14073	13777	13355	13355	12707	12585	12585	12347	12232	12007	12007	12007	12007	12007	12007	12007	12007	11898	11898	11898	11898	11898	11898	11898	11898	11898	11898	11791	11791	11791	11791	11791	11791	11791	11791	11791	11791	11791	11791	11791	11791	11791	11791	11791	11791	11791	11791	11791	11791	11791	11898	11898	11898	11898	11898	12007	12007	12007	12119	12232	12232	12347	12465	12465	12585	12707	12707	12958	13088	13088	13088	13088	13088	13088	13088	12958	12707	12585	12585	12585	12347	12347	12232	12119	12119	12007	12007	12007	12007	11898	11898	11898	11686	11582	11582	11283	10998	10998	10641	10306	9915	9915	9624	9484	9349	9349	9282	9282	9282	9282	9217	9217	9089	9026	9026	8964	8725	8444	7837	7837	7522	7353	6999	6999	6746	6479	6384	6384	6353	6292	6292	6262	6232	6145	6145	6004	5869	5666	5666	5522	5431	5431	5431	0	0	0	0	4129	4040	3966	3966	3930	3919	3919	3895	3884	3872	3872	3861	3838	3838	3816	3783	3783	3750
3576	3576	3576	3576	3576	3576	3586	3586	3586	3586	3596	3596	3606	3615	3615	3625	3636	3636	3646	3646	3646	3666	3666	3666	3666	3676	3676	3697	3697	3697	3729	3739	3739	3772	3805	3805	3838	3872	3872	3884	3919	3919	3954	3954	3990	4065	4065	4129	4195	4195	4208	4222	4222	4236	4236	4222	4222	4222	4222	4222	4222	4208	4195	4195	4195	4195	4208	4208	4208	4222	4222	4236	4263	4263	4277	4277	4291	4291	4305	4334	4334	4348	4348	4377	4407	4407	4422	4437	4437	4467	4467	4467	4437	4407	4407	4377	4348	4348	4348	4334	4334	4319	4305	4305	4305	4305	4305	4305	4305	4305	4319	4319	4319	4319	4319	4334	4334	4334	4334	4334	4334	4334	4334	4334	4334	4319	4319	4305	4277	4277	4236	4168	4077	4077	4002	3954	3919	3919	3895	3884	3884	3872	3861	3861	3849	3838	3827	3827	3816	3805	3805	3783	3772	3772	3750	3739	3729	3729	3708	3697	3697	3697	3676	3676	3676	3676	3676	3676	3676	3676	3676	3697	3708	3708	3708	3739	3739	3739	3772	3772	3772	3783	3783	3805	3805	3805	3816	3827	3827	3827	3838	3838	3838	3838	3838	3838	3849	3861	3861	3861	3861	3861	3872	3872	3872	3872	3884	3884	3884	3884	3884	3895	3895	3895	3907	3919	3919	3930	3930	3930	3942	3966	3966	3990	4027	4027	4065	4103	4103	4155	4168	4195	4236	4236	4277	4291	4291	4334	4348	4348	4392	4437	4437	4482	4560	4560	4592	4592	4641	4691	4691	4708	4725	4725	4742	4759	4759	4777	4777	4777	4777	4777	4777	4794	4794	4794	4794	4794	4794	4794	4812	4812	4812	4812	4812	4812	4812	4812	4812	4812	4812	4794	4794	4794	4794	4794	4794	4794	4794	4794	4794	4794	4812	4812	4812	4830	4865	4865	4884	4884	4920	4976	4976	5034	5093	5093	5153	5235	5235	5277	5320	5320	5320	5342	5342	5364	5408	5408	5408	5431	5431	5453	5453	5453	5499	5546	5546	5593	5715	5715	5817	5817	5976	6059	6059	6145	6174	6174	6203	6232	6232	6232	6232	6232	6262	6262	6262	6292	6292	6292	6353	6384	6384	6447	6544	6544	6678	6678	6852	6999	6999	7191	7353	7353	7436	7565	7565	7790	7790	8079	8336	8336	8668	8668	8843	8964	8964	9089	9152	9152	9217	9282	9282	9282	9349	9349	9416	9416	9416	9484	9484	9416	9349	9282	9282	9282	9217	9217	9217	9152	9152	9089	9089	9089	9089	9089	9089	9089	9089	9152	9152	9152	9217	9217	9282	9349	9349	9484	9624	9624	9841	10068	10068	10306	10641	10641	10728	10907	10907	10998	11092	11092	11092	11186	11186	11186	11283	11283	11283	11381	11381	11381	11481	11481	11481	11481	11481	11481	11582	11582	11582	11582	11582	11582	11582	11582	11582	11582	11582	11582	11582	11582	11582	11582	11582	11582	11582	11582	11582	11582	11582	11582	11582	11582	11481	11481	11481	11481	11481	11481	11381	11381	11381	11186	11186	11092	11092	10998	10998	10998	10998	10998	11092	11092	11186	11381	11381	11686	11898	11898	12119	12119	12707	13355	13355	13923	14542	14542	15219	15219	15398	15581	15581	15769	15961	15769	15769	15961	15961	15961	15961	15961	15581	15398	15398	15044	14542	14542	14073	13777	13355	13355	12958	12585	12585	12465	12232	12119	12119	12007	12007	12007	12007	12007	12007	11898	11898	11898	11898	11898	11898	11898	11898	11898	11898	11791	11791	11791	11791	11791	11791	11791	11791	11791	11791	11791	11791	11791	11791	11791	11791	11791	11791	11791	11791	11791	11791	11898	11898	11898	11898	11898	11898	11898	12007	12007	12007	12119	12119	12232	12347	12347	12585	12707	12707	12958	13088	13088	13088	13088	13088	13088	13088	13088	12958	12707	12707	12585	12347	12347	12347	12119	12119	12119	12007	12007	12007	11898	11898	11898	11686	11582	11582	11283	10907	10907	10387	10068	9695	9695	9484	9282	9282	9282	9217	9217	9217	9217	9152	9152	9089	9026	9026	8903	8725	8444	7837	7837	7479	7353	6999	6999	6746	6384	6292	6292	6262	6232	6232	6174	6116	6059	6059	5895	5715	5569	5569	5453	5386	5153	4865	4674	4363	4363	4277	4129	4040	3966	3966	3930	3919	3919	3895	3884	3872	3872	3861	3838	3838	3816	3783	3783	3750
3576	3576	3576	3576	3576	3576	3586	3586	3586	3586	3596	3596	3606	3615	3615	3625	3636	3636	3646	3646	3646	3666	3666	3666	3666	3676	3676	3697	3697	3697	3729	3739	3739	3772	3805	3805	3838	3872	3872	3884	3907	3907	3930	3954	3966	4002	4002	4077	4116	4116	4129	4168	4168	4168	4195	4195	4195	4195	4195	4195	4195	4195	4195	4195	4195	4195	4195	4195	4208	4222	4222	4236	4249	4249	4277	4277	4291	4291	4305	4334	4334	4348	4348	4377	4407	4407	4422	4437	4437	4467	4467	4467	4437	4407	4407	4377	4348	4348	4348	4334	4334	4319	4305	4305	4305	4305	4305	4305	4305	4305	4319	4319	4319	4319	4319	4334	4334	4334	4334	4334	4334	4334	4334	4334	4334	4319	4319	4305	4277	4277	4236	4168	4077	4077	4002	3954	3919	3919	3895	3884	3884	3872	3861	3861	3849	3838	3827	3827	3816	3805	3805	3783	3772	3772	3750	3750	3729	3729	3729	3708	3708	3697	3676	3676	3676	3676	3676	3676	3676	3676	3676	3697	3708	3708	3708	3729	3729	3739	3750	3750	3750	3772	3772	3783	3783	3783	3805	3805	3805	3816	3816	3827	3827	3827	3838	3838	3838	3849	3849	3861	3861	3861	3872	3872	3872	3872	3884	3884	3884	3884	3884	3895	3895	3895	3907	3919	3919	3919	3930	3930	3942	3954	3954	3978	4002	4002	4027	4077	4077	4116	4168	4168	4208	4208	4249	4277	4277	4305	4334	4334	4348	4377	4377	4407	4467	4467	4513	4560	4560	4592	4641	4641	4674	4674	4708	4725	4725	4742	4759	4759	4777	4777	4777	4777	4794	4794	4794	4794	4794	4794	4812	4812	4812	4812	4812	4812	4812	4812	4794	4794	4794	4794	4794	4794	4794	4794	4794	4794	4794	4794	4794	4794	4794	4794	4794	4812	4847	4847	4865	4884	4920	4976	4976	5034	5093	5093	5153	5235	5235	5342	5342	5342	5386	5386	5386	5408	5431	5431	5431	5453	5453	5453	5499	5499	5522	5569	5569	5641	5715	5715	5817	5817	5976	6087	6087	6145	6203	6203	6232	6232	6232	6262	6262	6262	6262	6292	6292	6292	6323	6323	6353	6384	6384	6447	6544	6544	6678	6678	6852	6999	6999	7191	7353	7353	7479	7609	7609	7837	7837	8129	8444	8444	8725	8725	8964	9089	9089	9152	9217	9217	9282	9349	9349	9484	9553	9553	9624	9624	9624	9624	9624	9553	9484	9416	9416	9349	9282	9282	9217	9217	9217	9152	9089	9089	9089	9089	9089	9089	9152	9152	9152	9152	9217	9217	9282	9349	9349	9484	9624	9624	9915	10306	10306	10470	10728	10728	10998	11092	11186	11283	11283	11283	11381	11381	11381	11381	11381	11381	11481	11481	11481	11481	11481	11481	11481	11481	11481	11481	11481	11481	11481	11481	11481	11481	11481	11481	11481	11481	11481	11481	11481	11481	11481	11481	11481	11481	11481	11481	11481	11481	11481	11481	11481	11481	11481	11381	11381	11381	11283	11283	11186	11092	11092	10998	10907	10907	10907	10728	10728	10907	10728	10728	10907	10907	10907	11186	11186	11582	11791	11791	12119	12119	12707	13355	13355	13923	14542	14542	15219	15219	15398	15581	15581	15769	15961	15769	15769	15961	15961	15961	15961	15961	15581	15398	15398	15044	14542	14542	14073	13777	13355	13355	12707	12465	12465	12347	12232	12119	12119	12007	12007	12007	12007	12007	12007	12007	11898	11898	11898	11898	11898	11898	11898	11898	11898	11791	11791	11791	11791	11791	11791	11791	11791	11898	11898	11898	11898	11898	11898	11898	11898	11898	11898	11898	11898	11898	11898	11898	11898	11898	11898	11898	11898	11898	12007	12007	12007	12119	12119	12232	12347	12347	12585	12707	12707	12958	13088	13088	13088	13088	13088	13088	13088	13088	12958	12707	12707	12585	12347	12347	12347	12232	12232	12232	12119	12119	12007	12007	12007	11898	11686	11582	11582	11283	10907	10907	10387	9915	9553	9553	9349	9282	9217	9217	9217	9217	9217	9217	9152	9152	9089	9026	9026	8903	8725	8499	7837	7837	7479	7479	0	6384	6384	6292	6232	6232	6203	6145	6116	6116	6059	5922	5922	5817	5641	5522	5522	5431	5342	5133	4865	4674	4363	4363	4277	4195	4077	3990	3990	3954	3930	3930	3907	3895	3884	3884	3872	3861	3861	3838	3816	3816	3783
3586	3586	3586	3586	3586	3586	3586	3596	3596	3596	3615	3615	3615	3636	3636	3646	3676	3676	3697	3708	3708	3729	3729	3729	3750	3750	3750	3772	3783	3783	3805	3805	3805	3816	3838	3838	3861	3872	3872	3884	3907	3907	3930	3954	3954	3990	3990	4040	4077	4077	4103	4116	4116	4129	4155	4155	4155	4155	4155	4168	4168	4168	4168	4195	4195	4195	4195	4195	4208	4222	4222	4236	4249	4249	4277	4277	4291	4291	4305	4334	4334	4348	4348	4348	4377	4392	4392	4407	4422	4422	4437	4437	4422	4392	4392	4377	4348	4348	4348	4334	4334	4319	4305	4305	4305	4305	4305	4305	4305	4305	4319	4319	4319	4319	4319	4319	4319	4319	4319	4334	4319	4319	4319	4319	4319	4305	4305	4291	4263	4263	4208	4129	4065	4065	3990	3942	3919	3919	3895	3884	3884	3872	3861	3861	3849	3838	3827	3827	3816	3805	3805	3783	3783	3783	3772	3750	3750	3750	3739	3729	3729	3708	3708	3708	3697	3697	3697	3697	3697	3697	3697	3697	3708	3708	3729	3729	3729	3739	3750	3750	3750	3772	3772	3783	3783	3783	3805	3805	3805	3816	3816	3827	3827	3827	3838	3838	3838	3849	3849	3861	3861	3861	3872	3872	3872	3872	3884	3884	3884	3884	3884	3895	3895	3895	3907	3919	3919	3919	3930	3930	3942	3954	3954	3978	4002	4002	4002	4040	4040	4077	4116	4116	4168	4208	4208	4249	4249	4277	4291	4291	4319	4334	4334	4348	4392	4392	4422	4467	4467	4513	4560	4560	4592	4641	4641	4691	4691	4708	4742	4742	4759	4777	4777	4777	4794	4794	4794	4794	4794	4794	4812	4812	4812	4812	4812	4812	4812	4812	4794	4794	4794	4794	4777	4777	4777	4777	4777	4777	4777	4777	4777	4777	4794	4794	4794	4812	4847	4847	4865	4920	4920	4958	4958	5034	5133	5133	5214	5299	5299	5342	5342	5342	5386	5386	5386	5408	5431	5431	5431	5453	5453	5453	5499	5499	5522	5569	5569	5641	5666	5715	5817	5817	5976	6087	6087	6145	6203	6203	6232	6232	6232	6262	6262	6262	6262	6292	6292	6292	6323	6323	6353	6384	6384	6447	6544	6544	6678	6678	6852	6999	6999	7191	7353	7353	7479	7609	7609	7837	7837	8129	8444	8444	8725	8725	8964	9089	9089	9152	9217	9217	9282	9349	9349	9695	9695	9695	9841	9841	9841	9841	9841	9695	9553	9553	9484	9349	9282	9282	9282	9217	9217	9152	9152	9152	9152	9152	9152	9152	9152	9152	9152	9152	9217	9217	9282	9349	9349	9484	9695	9695	9915	10306	10306	10641	10907	10907	11092	11092	11283	11381	11381	11481	11481	11481	11481	11481	11481	11481	11481	11481	11481	11481	11481	11481	11481	11481	11481	11481	11481	11481	11481	11481	11481	11481	11481	11481	11481	11481	11481	11381	11381	11381	11481	11481	11481	11481	11481	11481	11481	11481	11481	11481	11381	11381	11381	11283	11283	11186	11092	11092	10998	10907	10907	10907	10728	10728	10728	10641	10641	10641	10641	10641	10728	10728	10907	11186	11186	11582	11791	11791	12119	12119	12707	13355	13355	14073	14873	14873	15398	15398	15769	15769	15769	15961	15961	15961	15961	15961	15961	16158	15961	15961	15769	15581	15581	15044	14542	14542	14073	13493	13088	13088	12707	12465	12465	12347	12232	12119	12119	12007	12007	12007	12007	12007	12007	12007	11898	11898	11898	11898	11898	11898	11898	11898	11791	11791	11791	11791	11791	11791	11791	11791	11791	11898	11898	11898	11898	11898	11898	11898	11898	11898	11898	11898	11898	11898	11898	11898	11898	11898	11898	11898	11898	11898	12007	12007	12007	12119	12119	12232	12347	12347	12585	12707	12707	12958	13088	13088	13088	13088	13088	13088	13088	13088	12958	12707	12707	12585	12347	12347	12347	12232	12232	12232	12119	12119	12007	12007	12007	11898	11791	11582	11582	11283	10907	10907	10387	9915	9553	9553	9349	9282	9217	9217	9217	9217	9217	9217	9152	9152	9089	9026	9026	8964	8784	8499	8499	7837	7837	0	0	6384	6384	6292	6232	6232	6203	6145	6116	6116	6059	5922	5922	5817	5641	5522	5522	5431	5342	5133	4865	4708	4437	4437	4305	4236	4129	4040	4040	3978	3942	3942	3919	3907	3907	3895	3884	3872	3872	3849	3838	3838	3816
3586	3596	3586	3586	3596	3596	3596	3606	3606	3615	3615	3615	3636	3646	3646	3666	3697	3697	3729	3739	3739	3772	3772	3783	3816	3816	3827	3838	3838	3849	3861	3861	3872	3872	3884	3884	3884	3895	3895	3907	3919	3919	3930	3954	3954	3990	3990	4040	4077	4077	4103	4116	4116	4129	4155	4155	4155	4155	4155	4168	4168	4168	4168	4195	4195	4195	4195	4195	4208	4222	4222	4236	4249	4249	4277	4277	4291	4291	4305	4334	4334	4334	4348	4348	4363	4377	4377	4392	4407	4407	4422	4422	4407	4392	4392	4377	4348	4348	4348	4334	4334	4334	4319	4305	4305	4305	4305	4305	4305	4305	4305	4305	4305	4305	4305	4305	4305	4305	4305	4305	4305	4305	4305	4305	4291	4291	4291	4263	4236	4236	4168	4103	4027	4027	3978	3930	3919	3919	3895	3884	3884	3872	3872	3872	3849	3838	3827	3827	3816	3805	3805	3783	3783	3783	3772	3750	3750	3750	3739	3729	3729	3708	3708	3708	3697	3697	3697	3697	3697	3697	3697	3697	3708	3708	3729	3729	3729	3739	3739	3739	3750	3772	3772	3772	3772	3783	3783	3783	3805	3805	3805	3816	3816	3816	3827	3827	3827	3838	3838	3849	3849	3849	3861	3861	3861	3872	3872	3872	3884	3884	3884	3884	3895	3895	3895	3919	3919	3919	3930	3930	3930	3942	3942	3966	3978	3978	4002	4040	4040	4077	4116	4116	4168	4208	4208	4249	4249	4277	4291	4291	4319	4334	4334	4348	4392	4392	4422	4467	4467	4513	4560	4560	4592	4641	4641	4691	4691	4708	4742	4742	4759	4777	4777	4777	4794	4794	4794	4794	4794	4794	4812	4812	4812	4812	4812	4812	4812	4812	4794	4794	4794	4794	4777	4777	4777	4777	4777	4777	4777	4777	4777	4777	4794	4794	4794	4812	4847	4847	4865	4920	4920	4958	4958	5073	5133	5133	5235	5320	5320	5386	5386	5408	5408	5431	5431	5453	5453	5453	5476	5476	5476	5499	5499	5499	5546	5593	5593	5666	5666	5740	5869	5869	5976	6087	6087	6174	6232	6232	6232	6232	6232	6262	6262	6262	6292	6292	6292	6292	6323	6323	6353	6384	6384	6447	6544	6544	6678	6678	6852	6999	6999	7191	7353	7353	7479	7654	7654	7837	7837	8231	8499	8499	8843	8843	9026	9089	9089	9217	9282	9282	9416	9484	9484	9695	9695	9695	9841	9841	9841	9841	9841	9695	9553	9553	9484	9349	9282	9282	9217	9217	9217	9089	9089	9089	9089	9089	9089	9089	9089	9089	9089	9089	9152	9152	9217	9282	9282	9416	9553	9553	9841	10146	10146	10470	10728	10728	11092	11092	11186	11283	11283	11381	11481	11481	11481	11481	11481	11481	11481	11481	11481	11481	11481	11481	11481	11481	11481	11481	11481	11481	11481	11481	11481	11481	11481	11481	11481	11481	11381	11381	11381	11381	11481	11481	11481	11481	11481	11481	11481	11481	11481	11481	11381	11381	11381	11283	11283	11186	11092	11092	10998	10907	10907	10907	10728	10728	10728	10641	10641	10641	10641	10641	10728	10728	10998	11283	11283	11582	11898	11898	12232	12232	12958	13493	13493	14382	15044	15044	15581	15581	15961	15961	15961	16158	16158	16158	16158	16158	16158	16158	16158	16158	15961	15581	15581	15044	14542	14542	14073	13493	13088	13088	12707	12465	12465	12347	12232	12119	12119	12007	12007	12007	12007	12007	12007	12007	11898	11898	11898	11898	11898	11898	11898	11898	11791	11791	11791	11791	11791	11791	11791	11791	11791	11898	11898	11898	11898	11898	11898	11898	11898	12007	12007	12007	12007	12007	12007	12007	12007	12007	12007	12007	12007	12007	12007	12007	12119	12232	12232	12347	12465	12465	12585	12707	12707	12958	13088	13088	13355	13355	13088	13088	13088	13088	13088	12707	12707	12585	12465	12465	12347	12232	12232	12232	12232	12232	12119	12007	12007	11898	11791	11582	11582	11283	10907	10907	10387	9915	9553	9553	9349	9217	9217	9217	9217	9217	9217	9217	9152	9152	9089	9026	9026	8964	8784	8499	8499	7837	7837	0	0	6292	6292	6262	6203	6203	6145	6116	6059	6059	6004	5895	5740	5740	5617	5522	5522	5431	5320	5133	4865	4708	4437	4437	4305	4236	4129	4040	4040	3978	3942	3942	3919	3907	3907	3895	3884	3872	3872	3849	3838	3838	3816
3586	3596	3586	3586	3596	3596	3596	3606	3606	3615	3615	3615	3636	3646	3646	3666	3697	3697	3729	3739	3739	3772	3772	3783	3816	3816	3827	3838	3838	3849	3861	3861	3872	3872	3884	3884	3884	3895	3895	3907	3919	3919	3930	3954	3954	3966	3990	3990	4027	4027	4040	4065	4065	4077	4116	4116	4116	4129	4129	4155	4168	4168	4168	4195	4195	4195	4208	4208	4222	4236	4236	4249	4263	4263	4277	4291	4291	4291	4305	4334	4334	4334	4348	4348	4363	4377	4377	4392	4407	4407	4422	4422	4407	4392	4392	4377	4363	4363	4348	4348	4348	4334	4334	4319	4319	4305	4305	4305	4305	4305	4305	4305	4305	4305	4305	4305	4305	4305	4305	4305	4305	4305	4305	4305	4291	4291	4291	4263	4236	4236	4168	4103	4027	4027	3978	3930	3919	3919	3895	3884	3884	3872	3872	3872	3861	3849	3838	3838	3827	3816	3816	3805	3805	3805	3783	3772	3772	3772	3750	3739	3739	3739	3739	3739	3729	3729	3729	3729	3729	3729	3729	3729	3729	3729	3729	3739	3739	3739	3739	3739	3750	3750	3772	3772	3772	3783	3783	3783	3783	3783	3805	3805	3805	3805	3805	3805	3816	3816	3816	3827	3838	3838	3838	3849	3849	3861	3861	3861	3872	3872	3872	3884	3884	3884	3895	3895	3895	3919	3919	3919	3930	3930	3930	3954	3966	3966	3990	4002	4002	4040	4077	4077	4129	4168	4168	4208	4249	4249	4277	4277	4291	4305	4305	4319	4334	4334	4348	4392	4392	4422	4467	4467	4529	4576	4576	4625	4674	4674	4708	4742	4742	4759	4759	4777	4777	4794	4794	4794	4794	4794	4812	4812	4812	4812	4812	4794	4794	4794	4794	4794	4794	4777	4777	4777	4777	4777	4777	4777	4777	4777	4777	4777	4777	4794	4794	4812	4847	4847	4865	4902	4902	4976	4976	5073	5173	5173	5299	5364	5364	5408	5408	5431	5453	5453	5453	5499	5499	5499	5522	5522	5522	5522	5522	5522	5569	5617	5617	5666	5666	5740	5869	5869	5976	6087	6087	6174	6232	6232	6232	6262	6262	6262	6292	6292	6292	6323	6323	6323	6353	6353	6353	6384	6384	6447	6544	6544	6678	6678	6852	6999	6999	7191	7353	7353	7479	7654	7654	7837	7837	8231	8499	8499	8843	8843	9026	9152	9152	9282	9416	9416	9484	9553	9553	9695	9841	9841	9841	9841	9841	9695	9695	9624	9553	9416	9416	9282	9282	9282	9217	9152	9152	9089	9089	9089	9089	9089	9089	9089	9089	9089	9089	9089	9089	9089	9152	9217	9217	9282	9416	9416	9624	9915	9915	10306	10641	10641	10907	11092	11092	11283	11283	11381	11481	11481	11481	11481	11481	11481	11481	11481	11481	11481	11481	11381	11381	11381	11381	11381	11381	11381	11381	11381	11381	11381	11381	11283	11283	11283	11283	11283	11283	11283	11283	11283	11381	11381	11481	11481	11481	11381	11381	11381	11381	11381	11381	11283	11283	11186	11092	11092	10998	10907	10907	10907	10728	10728	10728	10641	10641	10641	10641	10641	10728	10728	10998	11283	11283	11582	11898	11898	12232	12232	12958	13493	13493	14382	15044	15044	15581	15581	15961	15961	15961	16158	16158	16158	16158	16158	16158	16158	16158	16158	15769	15398	15398	15044	14542	14542	14073	13493	13088	13088	12707	12465	12465	12347	12232	12119	12119	12007	12007	12007	12007	12007	12007	12007	11898	11898	11898	11898	11898	11898	11898	11898	11898	11898	11898	11791	11791	11791	11898	11898	11898	11898	11898	11898	12007	12007	12007	12007	12007	12007	12007	12007	12007	12007	12007	12007	12119	12119	12119	12119	12007	12007	12119	12119	12232	12347	12347	12347	12465	12465	12585	12707	12707	12958	13088	13088	13355	13355	13088	13088	13088	13088	13088	12707	12707	12585	12585	12585	12585	12465	12465	12347	12347	12347	12347	12119	12119	12007	11791	11582	11582	11283	10907	10306	10306	9915	9553	9553	9349	9217	9217	9217	9217	9217	9217	9217	9217	9217	9089	9089	9089	8964	8903	8611	8611	8611	0	0	0	6262	6262	6203	6145	6145	6116	6087	6004	6004	5976	5869	5740	5740	5617	5522	5522	5431	5320	5133	4865	4742	4742	4513	4334	4277	4208	4208	4103	4002	3966	3966	3942	3919	3919	3907	3895	3884	3884	3872	3861	3861	3849
3606	3606	3606	3606	3615	3615	3625	3625	3625	3636	3636	3636	3646	3666	3666	3697	3708	3708	3739	3750	3750	3783	3783	3816	3827	3827	3838	3861	3861	3872	3872	3872	3884	3884	3884	3895	3895	3907	3907	3919	3930	3930	3930	3954	3954	3966	3978	3978	4002	4002	4002	4040	4040	4065	4077	4077	4116	4129	4129	4155	4168	4168	4168	4195	4195	4195	4208	4208	4222	4236	4236	4249	4263	4263	4277	4291	4291	4291	4305	4319	4319	4334	4348	4348	4363	4377	4377	4392	4407	4407	4407	4422	4407	4392	4392	4377	4363	4363	4348	4348	4348	4334	4334	4319	4319	4305	4305	4305	4305	4305	4305	4291	4291	4291	4291	4291	4291	4291	4291	4291	4291	4277	4277	4277	4277	4263	4263	4236	4195	4195	4129	4077	4027	4027	3966	3930	3919	3919	3895	3884	3884	3884	3872	3872	3861	3849	3838	3838	3827	3816	3816	3805	3805	3805	3805	3783	3783	3783	3772	3772	3772	3750	3750	3750	3750	3739	3739	3739	3739	3739	3739	3739	3739	3739	3750	3750	3750	3750	3750	3750	3750	3750	3772	3772	3772	3783	3783	3783	3783	3783	3805	3805	3805	3805	3805	3805	3816	3816	3816	3827	3838	3838	3838	3849	3849	3861	3861	3861	3872	3872	3872	3884	3884	3884	3895	3895	3895	3895	3919	3919	3919	3930	3930	3930	3954	3954	3966	3978	3978	4002	4040	4040	4065	4116	4116	4155	4195	4195	4222	4249	4249	4277	4277	4291	4305	4305	4319	4334	4334	4363	4392	4392	4437	4482	4482	4529	4592	4592	4641	4691	4691	4725	4742	4742	4759	4777	4777	4777	4794	4794	4794	4794	4794	4794	4794	4794	4794	4794	4794	4777	4777	4777	4777	4777	4777	4777	4777	4777	4777	4777	4777	4777	4777	4794	4794	4812	4847	4847	4865	4902	4902	4958	4958	5073	5153	5153	5277	5364	5364	5408	5408	5431	5453	5453	5453	5499	5499	5499	5522	5522	5522	5522	5522	5522	5569	5593	5617	5666	5666	5740	5869	5869	5976	6087	6087	6174	6232	6232	6232	6262	6262	6262	6292	6292	6292	6323	6323	6323	6353	6353	6353	6384	6384	6447	6544	6544	6644	6678	6781	6999	6999	7191	7353	7353	7479	7609	7609	7837	7837	8129	8499	8499	8843	8843	9026	9152	9152	9282	9416	9416	9484	9553	9553	9695	9841	9841	9841	9841	9841	9695	9695	9624	9553	9416	9416	9282	9282	9282	9217	9152	9152	9089	9089	9089	9089	9089	9089	9089	9089	9089	9089	9089	9089	9089	9152	9217	9217	9282	9416	9416	9624	9915	9915	10306	10641	10641	10907	11092	11092	11283	11283	11381	11481	11481	11481	11481	11481	11481	11481	11481	11481	11481	11481	11381	11381	11381	11381	11381	11381	11381	11186	11186	11186	11186	11186	11186	11186	11186	11186	11186	11186	11186	11186	11283	11283	11283	11381	11381	11381	11381	11381	11381	11381	11381	11381	11283	11283	11283	11186	11186	11092	10998	10907	10907	10907	10728	10728	10641	10641	10728	10728	10728	10907	10907	11092	11481	11481	11686	11791	12007	12465	12465	13088	13923	13923	14542	15398	15398	15961	15961	15961	15961	15961	16158	16360	16158	16158	16158	16158	16158	15961	15961	15581	15219	15219	14873	14382	14382	13923	13355	13088	13088	12707	12465	12465	12347	12232	12119	12119	12007	12007	12007	12007	12007	12007	12007	11898	11898	11898	11898	11898	11898	11898	11898	11898	11791	11791	11791	11791	11791	11791	11791	11898	11898	11898	11898	11898	11898	12007	12007	12007	12007	12007	12007	12007	12007	12007	12007	12119	12119	12119	12119	12007	12007	12119	12119	12119	12232	12232	12232	12347	12347	12347	12465	12465	12585	12707	12707	12958	12958	12958	12958	12958	12958	12707	12707	12707	12585	12585	12585	12585	12465	12465	12347	12347	12347	12347	12232	12232	12007	11791	11582	11582	11283	10907	10306	10306	9915	9553	9553	9349	9217	9217	9217	9217	9217	9217	9217	9217	9217	9152	9089	9089	9026	8964	8964	8964	0	0	0	0	6262	6262	6203	6145	6145	6116	6087	6004	6004	5976	5869	5869	5791	5617	5522	5522	5431	5342	5153	4920	4920	4794	4592	4377	4305	4249	4249	4129	4040	3990	3990	3954	3930	3930	3919	3907	3895	3895	3884	3872	3872	3861
3615	3615	3625	3625	3625	3636	3636	3646	3646	3646	3666	3666	3666	3676	3676	3708	3729	3729	3750	3750	3772	3805	3805	3827	3838	3838	3861	3872	3872	3872	3884	3884	3884	3895	3895	3895	3907	3907	3919	3919	3930	3930	3930	3954	3954	3966	3978	3978	4002	4002	4002	4040	4040	4040	4077	4077	4116	4129	4129	4155	4168	4168	4168	4195	4195	4208	4222	4222	4236	4236	4236	4249	4277	4277	4277	4291	4291	4291	4305	4319	4319	4334	4348	4348	4348	4363	4363	4377	4392	4392	4407	4407	4392	4392	4392	4377	4363	4363	4348	4348	4348	4348	4334	4334	4334	4319	4305	4305	4305	4305	4305	4291	4291	4291	4277	4277	4277	4277	4263	4263	4263	4263	4249	4249	4249	4222	4222	4195	4155	4103	4103	4040	3990	3990	3966	3930	3919	3919	3895	3884	3884	3884	3872	3872	3861	3849	3838	3838	3827	3816	3816	3805	3805	3805	3805	3783	3783	3783	3772	3772	3772	3750	3750	3750	3750	3739	3739	3739	3739	3739	3739	3739	3739	3739	3750	3750	3750	3750	3750	3750	3750	3750	3772	3772	3772	3772	3772	3772	3783	3783	3783	3783	3783	3783	3783	3783	3805	3805	3805	3816	3816	3816	3816	3827	3827	3827	3838	3838	3849	3861	3861	3872	3872	3872	3884	3895	3895	3895	3919	3919	3919	3930	3930	3930	3954	3954	3966	3978	3978	4002	4040	4040	4065	4116	4116	4155	4195	4195	4222	4249	4249	4277	4277	4291	4305	4305	4319	4334	4334	4363	4392	4392	4437	4482	4482	4529	4592	4592	4641	4691	4691	4725	4742	4742	4759	4777	4777	4777	4794	4794	4794	4794	4794	4794	4794	4794	4794	4794	4794	4777	4777	4777	4777	4777	4777	4777	4777	4777	4777	4777	4777	4777	4777	4794	4794	4812	4847	4847	4865	4902	4902	4958	4958	5073	5153	5153	5277	5364	5364	5431	5431	5431	5453	5453	5476	5522	5522	5522	5522	5522	5522	5546	5546	5546	5593	5593	5641	5715	5715	5740	5869	5869	5976	6087	6087	6174	6232	6232	6262	6262	6262	6292	6292	6292	6292	6323	6323	6353	6353	6353	6384	6384	6384	6447	6544	6544	6644	6781	6781	6925	6925	7152	7312	7312	7436	7565	7565	7790	7790	8079	8444	8444	8784	8784	8964	9089	9089	9217	9282	9282	9416	9484	9484	9624	9695	9695	9695	9695	9695	9624	9624	9553	9416	9282	9282	9282	9217	9217	9089	9089	9089	9026	9026	9026	9026	9026	9026	9026	9026	9026	9026	9026	9026	9089	9089	9089	9217	9217	9282	9416	9416	9624	9624	10068	10387	10387	10641	10907	10907	11092	11283	11283	11283	11381	11381	11381	11381	11381	11283	11283	11283	11283	11283	11283	11283	11283	11283	11283	11283	11186	11186	11186	11186	11186	11186	11186	11186	11186	11186	11186	11186	11186	11186	11283	11283	11283	11381	11381	11381	11381	11381	11381	11381	11381	11381	11381	11381	11283	11283	11283	11186	11092	11092	10998	10998	10998	10998	10907	10907	10998	10998	10998	11092	11092	11283	11582	11582	11791	11791	12007	12585	12585	13493	13923	13923	14542	15398	15398	15961	15961	15961	16158	16158	16158	16360	16158	16158	16158	16158	16158	15961	15961	15581	15219	15219	14873	13923	13493	13493	13088	12958	12958	12585	12465	12465	12347	12232	12119	12119	12119	12007	12007	12007	12007	12007	12007	12007	12007	12007	11898	11898	11898	11898	11898	11898	11791	11791	11791	11791	11791	11791	11791	11791	11898	11898	11898	11898	11898	11898	11898	11898	12007	12007	12007	12007	12007	12007	12007	12007	12007	12119	12119	12007	12007	12119	12007	12007	12119	12119	12119	12119	12119	12119	12119	12119	12232	12347	12347	12347	12347	12347	12465	12465	12465	12465	12465	12465	12465	12465	12465	12347	12347	12347	12347	12347	12347	12232	12119	12119	12007	11791	11582	11582	11186	10728	10306	10306	9841	9553	9553	9349	9217	9217	9217	9217	9217	9217	9217	9217	9217	9152	9089	9089	9026	8964	8964	8964	0	7394	7394	0	6232	6232	6174	6116	6116	6116	6059	6004	6004	5976	5869	5869	5791	5617	5522	5522	5431	5342	5153	4920	4920	4794	4592	4377	4305	4249	4249	4129	4040	3990	3990	3954	3930	3930	3919	3907	3895	3895	3884	3872	3872	3872
3615	3615	3625	3625	3625	3636	3636	3646	3646	3646	3666	3666	3666	3676	3676	3708	3729	3729	3750	3750	3772	3805	3805	3827	3838	3838	3861	3872	3872	3872	3884	3884	3884	3895	3895	3895	3907	3907	3919	3919	3930	3930	3930	3954	3954	3966	3978	3978	3990	4002	4002	4027	4040	4040	4077	4077	4116	4129	4129	4168	4195	4195	4195	4222	4222	4222	4236	4236	4249	4263	4263	4263	4277	4277	4277	4291	4291	4305	4305	4319	4319	4334	4348	4348	4348	4363	4363	4377	4392	4392	4407	4407	4392	4392	4392	4377	4377	4377	4363	4348	4348	4348	4334	4334	4334	4319	4305	4305	4305	4305	4305	4291	4291	4291	4277	4277	4277	4277	4263	4263	4263	4263	4249	4249	4249	4222	4222	4129	4103	4065	4065	4027	3978	3942	3942	3930	3919	3919	3895	3884	3884	3884	3872	3872	3861	3849	3838	3838	3827	3827	3827	3816	3816	3816	3805	3805	3805	3805	3783	3783	3783	3783	3783	3783	3772	3772	3772	3772	3772	3772	3772	3772	3772	3772	3772	3772	3772	3772	3772	3772	3772	3772	3772	3772	3772	3772	3772	3772	3772	3772	3772	3772	3772	3772	3772	3772	3772	3772	3772	3783	3783	3783	3805	3805	3805	3816	3827	3827	3838	3849	3849	3861	3872	3872	3872	3884	3884	3895	3895	3895	3907	3919	3919	3919	3930	3930	3930	3954	3954	3978	3990	3990	4027	4065	4065	4077	4116	4116	4155	4195	4195	4222	4236	4236	4263	4277	4277	4291	4305	4305	4334	4363	4363	4407	4407	4467	4513	4513	4576	4625	4625	4674	4708	4708	4708	4742	4742	4742	4777	4777	4777	4777	4777	4777	4777	4777	4777	4777	4777	4777	4777	4777	4777	4777	4777	4777	4777	4777	4777	4777	4777	4777	4794	4794	4794	4812	4847	4847	4865	4902	4902	4958	4958	5073	5153	5153	5277	5364	5364	5431	5431	5453	5453	5453	5499	5522	5522	5569	5569	5569	5546	5546	5546	5569	5617	5617	5666	5715	5715	5740	5869	5869	5976	6087	6087	6174	6232	6232	6262	6292	6292	6292	6323	6323	6353	6353	6353	6353	6384	6384	6384	6384	6384	6447	6544	6544	6644	6781	6781	6925	6925	7152	7312	7312	7436	7565	7565	7744	7744	7980	8336	8336	8668	8668	8903	9026	9026	9217	9282	9282	9282	9349	9349	9484	9553	9553	9553	9553	9484	9416	9282	9282	9282	9217	9217	9152	9089	9089	9026	9026	9026	9026	8964	8964	8964	8964	8964	8964	8964	8964	8964	8964	8964	9026	9026	9089	9089	9089	9217	9282	9282	9484	9484	9695	10068	10068	10387	10641	10641	10907	10998	10998	11092	11186	11186	11283	11283	11283	11186	11186	11186	11186	11186	11092	11092	11092	11092	11092	11092	11092	11092	11092	11092	11092	11092	11092	11092	11092	11092	11092	11092	11092	11092	11186	11186	11186	11283	11283	11283	11283	11283	11283	11381	11381	11381	11381	11381	11283	11283	11283	11186	11092	11092	10998	10998	10998	10998	10907	10907	10998	10998	10998	11092	11092	11283	11582	11582	11791	11791	12007	12585	12585	13355	13923	13923	14542	15398	15398	15769	15769	15961	15961	15961	16158	16158	16158	16158	16158	15961	15961	15581	15581	15044	14873	14873	14073	13923	13493	13493	13088	12958	12958	12585	12465	12465	12347	12232	12119	12119	12119	12007	12007	12007	12007	12007	12007	12007	12007	12007	12007	12007	11898	11898	11898	11898	11791	11791	11791	11791	11791	11791	11791	11791	11898	11898	11898	11898	11898	11898	11898	11898	12007	12007	12007	12007	12007	12007	12007	12007	12007	12119	12119	12007	12007	12119	12007	12007	12119	12119	12119	12119	12119	12119	12119	12119	12232	12347	12347	12347	12347	12347	12465	12465	12465	12232	12119	12119	12119	12119	12119	12119	12119	12232	12232	12232	12232	12119	12007	12007	12007	11686	11481	11481	11092	10641	10146	10146	9841	9484	9484	9349	9217	9217	9217	9217	9217	9217	9217	9217	9217	9217	9152	9152	9089	9089	9089	9089	0	7394	7394	6262	6232	6232	6174	6116	6116	6116	6059	6059	6059	5976	5895	5895	5791	5666	5546	5546	5476	5408	5235	5015	5015	4847	4725	4513	4348	4348	4291	4195	4103	4027	4027	3978	3954	3954	3930	3919	3919	3895	3895	3884	3884	3872
3636	3636	3646	3646	3646	3666	3666	3666	3666	3676	3676	3676	3697	3697	3697	3729	3729	3739	3772	3772	3783	3816	3816	3838	3849	3849	3861	3872	3872	3872	3884	3884	3884	3895	3895	3895	3907	3907	3919	3919	3930	3930	3930	3942	3942	3954	3966	3966	3978	3990	3990	4002	4027	4027	4065	4077	4077	4116	4116	4155	4168	4168	4195	4222	4222	4222	4236	4236	4249	4263	4263	4263	4277	4277	4277	4291	4291	4291	4305	4319	4319	4334	4334	4334	4348	4348	4348	4363	4377	4377	4392	4392	4392	4392	4392	4377	4363	4363	4363	4348	4348	4348	4334	4334	4334	4319	4305	4305	4305	4291	4291	4277	4277	4277	4263	4249	4249	4236	4236	4222	4222	4208	4208	4208	4195	4168	4168	4129	4103	4065	4065	4027	3978	3942	3942	3930	3919	3919	3895	3895	3895	3884	3872	3872	3872	3861	3849	3849	3838	3827	3827	3827	3816	3816	3816	3816	3816	3805	3805	3805	3805	3805	3805	3805	3805	3805	3805	3783	3783	3783	3783	3783	3783	3783	3783	3783	3783	3783	3783	3772	3772	3772	3772	3772	3772	3772	3772	3772	3772	3772	3772	3772	3772	3772	3772	3772	3772	3772	3772	3783	3783	3783	3805	3805	3783	3783	3805	3805	3816	3827	3827	3838	3849	3849	3861	3872	3872	3884	3884	3884	3895	3907	3907	3907	3919	3919	3919	3930	3930	3942	3954	3954	3978	3990	3990	4027	4065	4065	4077	4116	4116	4155	4168	4168	4208	4236	4236	4263	4277	4277	4305	4334	4334	4348	4392	4392	4437	4437	4482	4560	4560	4592	4625	4625	4641	4691	4691	4691	4725	4725	4725	4742	4742	4759	4759	4759	4759	4777	4777	4777	4777	4777	4777	4777	4777	4777	4777	4777	4777	4777	4777	4777	4794	4794	4794	4812	4847	4847	4847	4884	4884	4939	4939	5015	5133	5133	5235	5342	5342	5408	5408	5431	5453	5453	5476	5522	5522	5569	5569	5569	5546	5546	5546	5569	5617	5617	5641	5666	5666	5715	5791	5791	5895	6059	6059	6145	6232	6232	6232	6262	6262	6292	6323	6323	6353	6353	6353	6353	6384	6384	6384	6384	6384	6447	6511	6511	6577	6746	6746	6925	6925	7113	7271	7271	7394	7565	7565	7744	7744	7980	8336	8336	8668	8668	8903	9026	9026	9217	9282	9282	9282	9349	9349	9484	9553	9553	9553	9553	9484	9416	9282	9282	9282	9217	9217	9152	9089	9089	9026	9026	9026	9026	8964	8964	8964	8964	8964	8964	8964	8964	8964	8964	8964	9026	9026	9089	9089	9089	9217	9282	9282	9484	9484	9695	10068	10068	10387	10641	10641	10907	10998	10998	11092	11186	11186	11283	11283	11283	11186	11186	11092	10998	10998	10998	10998	10998	10998	10998	11092	10998	10998	10998	10998	10998	10998	10998	10998	10998	10998	10998	10998	10998	10998	10998	11092	11092	11186	11186	11186	11186	11186	11186	11381	11381	11381	11381	11381	11381	11381	11381	11381	11283	11283	11283	11283	11283	11186	11186	11186	11283	11283	11283	11481	11481	11481	11686	11686	11898	11898	12232	12707	12707	13355	13923	13923	14382	15219	15219	15398	15398	15769	15961	15961	15961	15961	15961	15769	15581	15581	15219	14873	14873	14542	13923	13923	13777	13355	13088	13088	12958	12707	12707	12585	12347	12347	12232	12232	12119	12119	12119	12007	12007	12007	12007	12007	12007	12007	12007	12007	11898	11898	11898	11898	11898	11791	11791	11791	11686	11686	11686	11686	11686	11791	11791	11791	11791	11791	11791	11898	11898	11898	11898	12007	12007	12007	12007	12007	12007	12007	12007	12007	12007	12007	12007	12007	12007	12007	12007	12007	12007	12007	12007	12007	12007	12007	12007	12007	12007	12007	12007	12007	12007	12007	12119	12119	12119	12119	12119	12119	12119	12119	12119	12232	12232	12232	12232	12119	12007	12007	12007	11686	11481	11481	11092	10641	10146	10146	9841	9484	9484	9349	9282	9217	9217	9217	9282	9282	9282	9282	9282	9282	9217	9217	9217	9152	9152	9152	0	0	0	6262	6232	6232	6203	6174	6174	6145	6116	6087	6087	6059	6004	6004	5922	5817	5715	5715	5593	5499	5499	5431	5320	5093	4902	4902	4794	4641	4422	4319	4249	4249	4168	4002	3966	3966	3942	3930	3930	3919	3895	3895	3895	3884
3666	3666	3666	3676	3676	3697	3697	3697	3697	3708	3708	3708	3708	3708	3729	3739	3739	3772	3783	3783	3805	3827	3827	3838	3849	3849	3872	3872	3872	3884	3884	3884	3895	3895	3895	3895	3907	3907	3919	3919	3930	3930	3930	3942	3942	3942	3954	3954	3966	3978	3978	3990	4002	4002	4027	4065	4065	4103	4103	4129	4168	4168	4195	4208	4208	4236	4249	4249	4263	4263	4263	4263	4277	4277	4277	4277	4291	4291	4291	4305	4305	4305	4334	4334	4334	4334	4334	4348	4348	4348	4363	4363	4363	4363	4363	4363	4348	4348	4348	4348	4348	4334	4334	4319	4319	4305	4291	4291	4291	4277	4277	4263	4236	4236	4222	4208	4195	4195	4168	4168	4168	4155	4129	4129	4129	4116	4116	4103	4065	4027	4027	3978	3966	3930	3930	3919	3919	3919	3895	3895	3895	3884	3872	3872	3872	3861	3849	3849	3838	3827	3827	3827	3816	3816	3816	3816	3816	3805	3805	3805	3805	3805	3805	3805	3805	3805	3805	3783	3783	3783	3783	3783	3783	3783	3783	3783	3783	3783	3783	3772	3772	3772	3772	3772	3772	3772	3772	3772	3772	3772	3750	3750	3750	3750	3750	3750	3750	3750	3750	3750	3750	3750	3772	3772	3772	3783	3805	3805	3816	3827	3827	3838	3849	3849	3861	3872	3872	3884	3884	3884	3895	3907	3907	3907	3919	3919	3919	3930	3930	3942	3954	3954	3978	3990	3990	4027	4065	4065	4077	4116	4116	4155	4168	4168	4208	4236	4236	4263	4277	4277	4305	4334	4334	4348	4392	4392	4437	4437	4482	4560	4560	4592	4625	4625	4641	4691	4691	4691	4725	4725	4725	4742	4742	4759	4759	4759	4759	4777	4777	4777	4777	4777	4777	4777	4777	4777	4777	4777	4794	4794	4794	4794	4794	4794	4794	4812	4847	4847	4847	4865	4865	4920	4920	4976	5073	5073	5153	5277	5277	5364	5364	5408	5431	5431	5453	5522	5522	5569	5593	5569	5569	5569	5569	5593	5593	5593	5641	5666	5666	5715	5740	5740	5869	5976	5976	6116	6174	6174	6232	6262	6262	6262	6292	6292	6323	6353	6353	6353	6384	6384	6384	6384	6384	6447	6511	6511	6577	6746	6746	6888	6888	7037	7231	7231	7394	7522	7522	7699	7699	7837	8231	8231	8499	8668	8784	8964	8964	9089	9152	9152	9217	9282	9282	9282	9282	9282	9282	9282	9282	9217	9217	9217	9089	9089	9089	9026	9026	9026	8964	8964	8964	8903	8903	8903	8903	8903	8903	8903	8903	8903	8964	8964	8964	8964	8964	9026	9089	9089	9152	9217	9217	9349	9484	9553	9841	9841	10146	10387	10387	10641	10907	10907	10998	11092	11092	11092	11092	11092	11092	11092	11092	10998	10998	10998	10998	10998	10998	10998	11092	10998	10998	10998	10998	10998	10998	10998	10998	10998	10998	10998	10998	10998	10998	10998	11092	11092	11186	11186	11186	11186	11186	11186	11381	11381	11381	11381	11481	11481	11481	11481	11481	11481	11481	11481	11481	11481	11481	11481	11481	11481	11481	11481	11481	11582	11686	11686	11898	12119	12119	12347	12958	12958	13493	13923	13923	14382	15219	15219	15398	15398	15769	15961	15961	15961	15961	15961	15769	15044	15044	14873	14382	14382	13923	13493	13355	13355	13088	12707	12707	12585	12465	12465	12347	12232	12119	12119	12119	12007	12007	12007	12007	12007	12007	12007	12007	12007	12007	12007	12007	11898	11898	11898	11898	11898	11791	11686	11686	11686	11686	11686	11686	11686	11686	11686	11686	11791	11791	11791	11791	11791	11791	11898	11898	11898	11898	11898	11898	12007	12007	12007	12007	12007	12007	12007	12007	11898	11898	11898	11898	11898	11898	11791	11791	11791	11791	11791	11791	11791	11791	11791	11898	11898	11898	11898	11898	12007	12007	12007	12007	12007	12007	12007	12007	12007	12007	12007	12007	11898	11898	11791	11582	11381	11381	10907	10470	10068	10068	9695	9484	9484	9349	9282	9217	9217	9217	9282	9282	9282	9282	9282	9282	9217	9217	9217	9152	9152	9152	0	7353	7353	6262	6232	6232	6203	6174	6174	6145	6116	6087	6087	6059	6004	6004	5922	5817	5715	5715	5593	5499	5499	5431	5320	5093	4902	4902	4794	4641	4422	4319	4249	4249	4168	4002	4002	4002	3978	3942	3942	3930	3919	3895	3895	3895
3666	3666	3666	3676	3676	3697	3697	3697	3697	3708	3708	3708	3708	3708	3729	3739	3739	3772	3783	3783	3805	3827	3827	3838	3849	3849	3872	3872	3872	3884	3884	3884	3884	3895	3895	3895	3907	3907	3919	3919	3930	3930	3930	3942	3942	3942	3954	3954	3966	3978	3978	3990	4002	4002	4027	4065	4065	4103	4103	4129	4168	4168	4195	4208	4208	4236	4249	4249	4263	4263	4263	4263	4277	4277	4277	4277	4291	4291	4291	4305	4305	4305	4334	4334	4334	4334	4334	4348	4348	4348	4363	4363	4363	4363	4363	4363	4348	4348	4348	4348	4348	4334	4334	4319	4319	4305	4291	4291	4291	4277	4277	4263	4236	4236	4222	4208	4129	4129	4116	4103	4103	4077	4077	4065	4065	4065	4027	4027	4002	3978	3978	3954	3942	3930	3930	3919	3907	3907	3895	3884	3884	3884	3872	3872	3872	3861	3849	3849	3838	3827	3827	3827	3816	3816	3816	3816	3816	3816	3816	3816	3816	3816	3816	3816	3816	3816	3816	3816	3816	3816	3816	3816	3816	3816	3805	3805	3805	3783	3783	3783	3783	3783	3772	3772	3772	3772	3772	3750	3750	3750	3750	3750	3750	3739	3739	3739	3739	3739	3739	3739	3739	3739	3739	3750	3750	3750	3772	3772	3783	3805	3805	3827	3838	3838	3849	3861	3861	3872	3872	3872	3884	3895	3895	3895	3895	3907	3907	3919	3919	3919	3930	3942	3942	3954	3978	3978	3990	4027	4027	4065	4065	4077	4116	4116	4155	4168	4168	4222	4249	4249	4277	4305	4305	4334	4348	4348	4377	4422	4422	4467	4467	4513	4529	4529	4576	4576	4576	4625	4625	4625	4641	4691	4691	4708	4708	4708	4742	4759	4759	4759	4777	4777	4777	4777	4777	4794	4794	4794	4794	4794	4794	4812	4812	4812	4812	4830	4847	4847	4847	4865	4865	4920	4920	4976	5073	5073	5153	5277	5277	5364	5364	5408	5431	5431	5453	5522	5522	5569	5593	5569	5569	5569	5569	5593	5593	5593	5641	5666	5666	5715	5740	5740	5869	5976	5976	6116	6174	6174	6232	6262	6262	6262	6292	6292	6323	6353	6353	6353	6384	6384	6384	6384	6384	6447	6511	6511	6544	6678	6678	6852	6852	7037	7191	7191	7353	7479	7479	7609	7609	7790	8079	8079	8336	8668	8668	8843	8843	8964	9026	9026	9089	9089	9089	9152	9152	9152	9152	9089	9089	9089	9026	9026	9026	8964	8964	8964	8843	8843	8843	8843	8843	8843	8843	8843	8784	8784	8843	8843	8843	8843	8903	8903	8903	8964	8964	8964	9026	9026	9089	9152	9152	9282	9416	9416	9624	9624	9841	10146	10146	10387	10641	10641	10728	10907	10907	10998	10998	10998	10998	10998	10998	10907	10907	10907	10907	10998	10998	10998	10998	10998	10998	10998	10998	10998	10998	10998	10998	10998	10998	10907	10907	10998	10998	10998	11092	11092	11092	11186	11186	11186	11186	11186	11283	11381	11381	11381	11481	11481	11481	11481	11481	11481	11481	11481	11481	11481	11481	11481	11481	11481	11481	11481	11481	11582	11686	11686	11898	12119	12119	12347	12958	12958	13493	13923	13923	14382	14873	14873	15219	15219	15398	15581	15581	15769	15769	15581	15398	15044	15044	14873	14382	14382	13923	13493	13355	13355	13088	12707	12707	12585	12465	12465	12347	12232	12119	12119	12119	12007	12007	12007	12007	12007	12007	12007	12007	12007	12007	12007	12007	11898	11898	11898	11898	11898	11791	11686	11686	11686	11686	11686	11686	11686	11686	11686	11686	11791	11791	11791	11791	11791	11791	11898	11898	11898	11898	11898	11898	12007	12007	12007	12007	12007	12007	12007	12007	11898	11898	11898	11898	11898	11898	11791	11791	11791	11791	11481	11481	11481	11481	11582	11582	11582	11582	11582	11582	11686	11686	11686	11686	11898	11898	11898	11898	11898	11898	11898	11898	11791	11791	11686	11481	11092	11092	10641	10306	9915	9915	9624	9484	9484	9349	9282	9282	9282	9282	9282	9282	9282	9349	9349	9349	9282	9282	9282	9217	9217	9217	0	7353	7353	6262	6262	6262	6232	6232	6232	6232	6203	6203	6174	6145	6145	6145	6116	6059	6059	5922	5817	5715	5715	5593	5499	5499	5431	5299	5299	4865	4777	4777	4592	4407	4291	4129	4002	4002	3978	3942	3942	3930	3919	3895	3895	3895
3676	3676	3697	3697	3697	3708	3729	3729	3729	3739	3739	3739	3739	3739	3750	3772	3772	3783	3805	3805	3816	3827	3827	3849	3861	3861	3872	3872	3872	3884	3884	3884	3884	3895	3895	3895	3907	3907	3919	3919	3930	3930	3930	3930	3930	3930	3942	3942	3954	3966	3966	3966	3978	3978	4002	4040	4040	4077	4103	4116	4129	4129	4168	4195	4195	4208	4222	4222	4236	4236	4236	4249	4249	4249	4249	4263	4277	4277	4277	4277	4277	4291	4305	4305	4305	4319	4319	4334	4334	4334	4334	4348	4348	4348	4348	4348	4348	4348	4348	4334	4334	4334	4319	4305	4305	4291	4277	4277	4277	4249	4249	4222	4208	4168	4168	4155	4129	4129	4116	4103	4103	4077	4077	4065	4065	4065	4027	4027	4002	3978	3978	3954	3942	3930	3930	3919	3907	3907	3895	3884	3884	3884	3872	3872	3872	3861	3849	3849	3838	3838	3838	3827	3827	3827	3827	3816	3816	3816	3827	3827	3827	3827	3827	3827	3827	3827	3827	3827	3827	3827	3827	3827	3827	3827	3827	3827	3816	3805	3805	3805	3805	3805	3783	3772	3772	3772	3772	3750	3750	3750	3750	3750	3750	3729	3729	3729	3729	3729	3729	3729	3729	3729	3729	3729	3739	3739	3739	3750	3750	3783	3783	3805	3816	3816	3827	3849	3849	3861	3872	3872	3872	3884	3884	3884	3884	3895	3895	3895	3895	3895	3907	3919	3919	3930	3942	3942	3954	3978	3978	4002	4040	4040	4077	4077	4116	4129	4129	4195	4208	4208	4249	4277	4277	4291	4319	4319	4334	4363	4363	4392	4422	4422	4437	4467	4467	4482	4513	4513	4529	4560	4560	4576	4576	4625	4641	4641	4691	4725	4725	4742	4759	4759	4777	4777	4777	4794	4794	4794	4794	4794	4794	4812	4812	4812	4812	4830	4847	4847	4847	4865	4865	4920	4920	4976	5073	5073	5153	5277	5277	5364	5364	5408	5431	5431	5453	5522	5522	5569	5593	5569	5569	5569	5569	5593	5593	5593	5617	5641	5641	5666	5715	5715	5817	5922	5922	6059	6145	6145	6203	6232	6232	6262	6292	6292	6292	6323	6323	6353	6384	6384	6384	6384	6384	6416	6479	6479	6544	6678	6678	6852	6852	7037	7191	7191	7353	7479	7479	7609	7609	7790	8079	8079	8336	8668	8668	8843	8843	8964	9026	9026	9089	9089	9089	9152	9152	9152	9152	9089	9089	9089	9026	9026	9026	8964	8964	8964	8843	8843	8843	8843	8843	8843	8843	8843	8784	8784	8843	8843	8843	8843	8903	8903	8903	8964	8964	8964	9026	9026	9089	9152	9152	9282	9416	9416	9624	9624	9841	10146	10146	10387	10641	10641	10641	10728	10728	10907	10907	10907	10907	10998	10907	10907	10907	10907	10907	10907	10907	10907	10998	10998	10998	10998	10998	10998	10998	10998	10998	10998	10998	10907	10907	10998	10998	10998	10998	10998	11092	11092	11092	11186	11186	11186	11283	11381	11381	11481	11481	11481	11582	11582	11582	11582	11582	11582	11582	11686	11582	11582	11686	11686	11686	11686	11686	11898	11898	11898	12119	12347	12347	12585	13088	13088	13777	13923	13923	14073	14542	14542	14873	14873	15044	15219	15219	15219	15044	15044	14873	14542	14542	14073	13777	13777	13493	12958	12707	12707	12585	12465	12465	12347	12232	12232	12119	12007	12007	12007	12007	12007	12007	12007	12007	12007	12007	12007	12007	12007	12007	12007	12007	11898	11898	11898	11898	11898	11791	11686	11686	11686	11686	11686	11686	11686	11686	11686	11686	11686	11686	11686	11686	11686	11686	11791	11898	11898	11898	11898	11898	11898	11898	11898	11898	11898	11898	11791	11791	11686	11686	11686	11582	11582	11481	11481	11481	11481	11481	11481	11481	11481	11481	11582	11582	11582	11582	11582	11582	11686	11686	11686	11686	11898	11898	11898	11898	11898	11898	11898	11898	11791	11791	11686	11481	11092	11092	10641	10306	9915	9915	9624	9484	9484	9349	9282	9282	9282	9282	9349	9349	9416	9416	9416	9416	9416	9416	9349	9282	9282	9282	0	0	0	6323	6292	6292	6292	6292	6292	6262	6262	6262	6262	6232	6232	6232	6232	6203	6203	6174	6087	6087	6004	5895	5791	5791	5641	5522	5522	5522	5277	5277	0	4708	4482	4482	4305	4195	4002	3966	3966	3930	3919	3919	3919	3895
3697	3697	3708	3729	3729	3739	3739	3739	3750	3750	3750	3772	3772	3772	3772	3783	3783	3805	3816	3816	3827	3838	3838	3849	3861	3861	3872	3872	3872	3884	3884	3884	3884	3895	3895	3895	3895	3907	3907	3919	3919	3919	3919	3919	3919	3930	3930	3930	3930	3942	3942	3954	3966	3966	3978	3990	3990	4027	4065	4065	4103	4116	4116	4155	4155	4155	4168	4195	4195	4195	4195	4195	4208	4208	4208	4222	4222	4222	4236	4249	4249	4263	4277	4277	4291	4291	4291	4305	4305	4305	4319	4319	4319	4334	4334	4334	4334	4334	4319	4319	4319	4305	4305	4291	4291	4277	4263	4263	4236	4222	4222	4168	4155	4116	4116	4103	4077	4077	4065	4040	4027	4027	4002	4002	4002	3990	3978	3978	3966	3942	3942	3930	3919	3919	3919	3907	3895	3895	3895	3884	3884	3884	3872	3872	3872	3861	3849	3849	3838	3838	3838	3827	3827	3827	3827	3816	3816	3816	3827	3827	3827	3827	3827	3827	3827	3827	3827	3827	3827	3827	3827	3827	3827	3827	3827	3827	3816	3805	3805	3805	3805	3805	3783	3772	3772	3772	3772	3750	3750	3750	3739	3739	3739	3729	3729	3729	3729	3729	3729	3729	3729	3729	3729	3729	3739	3739	3739	3750	3750	3783	3783	3805	3816	3816	3827	3849	3849	3861	3872	3872	3872	3884	3884	3884	3884	3895	3895	3895	3895	3895	3907	3919	3919	3930	3942	3942	3954	3978	3978	4002	4040	4040	4077	4077	4116	4129	4129	4195	4208	4208	4249	4277	4277	4291	4319	4319	4334	4363	4363	4392	4422	4422	4437	4467	4467	4482	4513	4513	4529	4560	4482	4482	4529	4529	4576	4641	4641	4691	4691	4725	4759	4759	4777	4794	4794	4794	4812	4812	4812	4812	4812	4812	4812	4812	4830	4847	4847	4847	4865	4865	4865	4920	4920	4976	5073	5073	5153	5277	5277	5364	5364	5408	5431	5431	5453	5522	5522	5569	5593	5593	5569	5569	5569	5569	5593	5593	5617	5617	5641	5641	5715	5715	5791	5895	5895	6059	6116	6116	6174	6232	6232	6262	6292	6292	6292	6323	6323	6353	6384	6384	6384	6384	6384	6416	6479	6479	6544	6678	6678	6852	6852	6999	7191	7191	7353	7436	7436	7565	7609	7699	7932	7932	8231	8444	8444	8668	8843	8843	8903	8903	8964	8964	8964	9026	8964	8964	8964	8964	8964	8903	8903	8903	8784	8784	8784	8725	8668	8668	8668	8668	8668	8668	8668	8725	8725	8725	8725	8784	8784	8784	8843	8843	8843	8903	8903	8964	9026	9026	9026	9152	9152	9217	9282	9282	9484	9624	9695	9915	9915	10146	10387	10387	10641	10728	10728	10907	10907	10907	10907	10998	10907	10907	10907	10907	10907	10907	10907	10907	10998	10998	10998	10998	10998	10998	10998	10998	10998	10998	10998	10907	10907	10998	10998	10998	10998	10998	11092	11092	11092	11186	11283	11283	11381	11481	11481	11481	11481	11481	11582	11686	11686	11686	11686	11686	11791	11898	11898	11898	11898	11898	12007	12007	12007	12007	12232	12232	12585	12707	12707	12958	13355	13355	13777	13923	13923	14073	14542	14542	14542	14542	14542	15044	15044	15044	14542	14542	14382	14073	14073	13493	13088	12707	12707	12585	12465	12465	12347	12119	12119	12007	12007	12007	12007	11898	11898	11898	11898	11898	11898	11898	11898	11898	11898	11898	11898	11898	11898	11898	11898	11898	11898	11898	11791	11791	11686	11686	11686	11686	11686	11686	11686	11582	11582	11582	11582	11582	11582	11582	11582	11582	11582	11686	11686	11686	11686	11686	11686	11686	11686	11686	11686	11686	11686	11582	11582	11582	11481	11381	11381	11283	11092	11092	11092	11092	11092	11092	10998	10998	10998	11092	11092	11092	11186	11283	11283	11481	11481	11481	11582	11686	11686	11686	11686	11686	11686	11686	11686	11582	11582	11481	11283	10907	10907	10470	10146	9841	9841	9624	9484	9484	9349	9282	9282	9282	9282	9349	9349	9416	9416	9416	9416	9416	9416	9349	9282	9282	9282	0	0	0	6323	6292	6292	6292	6292	6292	6262	6262	6262	6262	6232	6232	6232	6232	6203	6203	6174	6087	6087	6004	5895	5791	5791	5791	6087	5922	5922	0	0	0	5214	4920	4777	4529	4529	4208	4027	4027	3954	3930	3930	3919	3907
