0	0	0	0	0	0	902	1138	1138	1147	1153	1165	1173	1180	1193	1215	1228	1247	1270	1283	1299	1319	1330	1341	1351	1357	1364	1369	1370	1364	1354	1347	1334	1312	1297	1279	1268	1259	1253	1253	1252	1241	1241	1241	1247	1247	1247	1253	1257	1260	1260	1256	1253	1247	1244	1241	1229	1223	1217	1200	1196	1193	1187	1185	1182	1182	1180	1176	1176	1178	1182	1182	1184	1187	1197	1201	1205	1210	1213	1217	1222	1225	1229	1229	1231	1235	1235	1235	1235	1235	1235	1235	1240	1242	1247	1251	1256	1266	1275	1283	1299	1309	1314	1320	1330	1335	1341	1351	1356	1356	1356	1355	1349	1349	1349	1349	1349	1348	1341	1337	1334	1334	1330	1326	1306	1267	1232	1154	1154	1151	1021	1007	993	940	921	902	880	876	871	845	844	844	48	307	707	684	675	665	656	654	653	651	651	650	648	648	648	646	646	645	643	642	641	639	637	636	635	634	633	631	631	631	630	630	630	630	630	630	630	630	630	630	630	630	631	631	633	635	636	636	637	638	641	642	643	643	645	646	646	646	646	646	646	646	646	646	646	646	647	648	648	647	646	646	646	646	646	646	646	645	645	645	645	645	645	645	645	645	645	644	643	643	643	643	643	642	641	641	641	641	641	641	641	641	641	641	641	642	643	643	643	643	643	643	643	643	643	643	642	641	641	641	641	641	640	640	638	637	636	636	635	635	635	634	633	633	632	631	631	631	631	630	629	628	628	627	627	627	625	624	620	618	617	614	612	610	605	603	601	597	596	594	591	590	588	587	586	585	584	584	583	583	583	583	584	584	584	585	586	587	589	590	592	596	598	601	604	607	611	615	617	620	622	623	627	630	632	635	636	637	640	640	640	641	642	643	645	646	646	648	648	648	650	650	650	650	651	651	653	653	653	655	655	655	655	655	655	653	652	651	650	650	650	648	647	646	645	644	643	643	643	643	641	641	641	640	640	640	640	640	640	641	642	643	645	646	648	648	648	648	650	652	653	653	654	655	657	657	657	658	658	658	658	658	658	658	658	657	656	654	651	649	647	645	642	640	638	635	632	628	626	624	620	614	609	594	584	577	577	557	542	525	519	514	508	505	503	500	499	498	496	495	495	493	492	490	490	490	489	489	489	489	488	488	488	487	487	487	485	485	485	485	485	486	487	487	488	489	489	489	491	492	493	495	496	497	498	498	499	498	498	498	499	499	500	500	500	500	500	500	498	498	498	498	497	497	497	496	496	496	496	496	496	496	496	494	494	494	493	492	492	492	491	491	491	492	492	493	495	496	499	501	503	505	506	508	510	510	511	511	511	511	510	510	510	513	513	513	513	513	513	514	514	515	517	517	517	518	518	517	517	517	516	514	514	513	511	510	509	506	504	502	500	498	496	495	494	492	491	491	491	491	491	493	494	496	500	506	511	519	528	535	545	551	555	560	562	564	565	566	567	569	572	575	583	588	592	604	610	616	630	638	645	658	662	667	673	673	674	676	676	676	678	679	680	680	681	682	684	685	686	687	688	689	691	691	691	693	694	697	699	700	701	701	702	703	703	702	701	701	700	699	697	697	695	695	695	693	693	693	693	692	691	691	691
0	0	0	0	341	1128	1128	1129	1133	1142	1148	1160	1168	1175	1187	1205	1216	1235	1253	1264	1279	1298	1310	1327	1337	1342	1349	1359	1364	1364	1354	1347	1334	1312	1297	1279	1268	1259	1253	1253	1252	1241	1241	1241	1247	1247	1247	1253	1257	1260	1260	1256	1253	1247	1244	1241	1229	1223	1217	1205	1200	1193	1187	1187	1187	1182	1180	1176	1176	1176	1176	1181	1184	1187	1192	1195	1199	1204	1207	1211	1216	1219	1223	1223	1225	1229	1229	1229	1229	1229	1229	1229	1234	1235	1235	1244	1248	1253	1262	1270	1286	1295	1302	1313	1318	1322	1334	1339	1341	1341	1346	1348	1341	1341	1342	1349	1344	1340	1334	1334	1333	1327	1323	1319	1306	1270	1238	1171	1143	1118	1118	1054	993	951	935	919	902	887	871	845	844	844	48	0	0	0	279	671	659	656	653	650	649	648	648	648	648	646	646	645	643	642	641	640	639	638	636	634	633	631	631	631	630	630	630	629	628	628	628	628	628	628	628	630	631	631	631	634	635	636	637	638	640	641	641	643	644	645	645	646	646	646	646	646	645	645	645	646	646	646	646	646	646	646	646	645	645	645	645	645	645	645	645	645	645	645	645	645	645	644	643	643	643	643	643	642	641	641	641	640	640	640	641	641	641	641	641	642	643	643	643	643	643	643	641	641	641	641	641	641	640	640	640	640	639	638	636	635	635	635	634	633	633	632	631	631	630	630	630	630	630	628	627	627	627	627	627	625	624	624	620	618	617	614	612	610	605	603	601	597	596	594	591	590	588	587	586	584	583	582	581	580	580	580	580	580	580	580	580	580	581	582	584	585	586	589	593	595	597	600	603	607	610	612	616	620	623	627	630	632	635	637	639	641	642	643	643	644	645	646	646	646	646	647	648	650	650	650	651	652	653	653	654	655	655	655	655	653	652	651	650	650	650	648	647	646	645	645	645	643	643	643	643	642	641	641	641	641	641	641	641	641	642	643	645	645	646	648	648	648	650	650	651	653	653	653	655	655	655	657	657	657	657	657	657	657	657	655	652	651	650	647	645	643	641	639	635	632	631	628	626	624	620	614	609	594	582	574	574	552	536	525	518	511	503	502	501	498	497	497	495	494	494	492	491	490	489	489	489	489	489	489	488	488	488	487	487	487	486	486	486	486	486	486	487	488	489	489	489	490	492	493	494	496	497	498	499	499	499	499	499	499	500	500	500	500	500	500	499	499	498	498	498	497	496	496	496	495	495	495	494	494	494	494	494	493	492	492	490	490	490	489	489	489	489	490	490	490	491	492	496	498	499	501	502	504	505	505	506	506	508	511	510	510	509	509	509	509	509	509	510	511	511	512	514	514	515	515	515	515	515	515	514	513	512	511	509	508	506	504	503	501	499	498	496	495	494	492	491	491	491	491	491	493	494	496	500	506	511	519	528	535	545	551	555	561	563	565	567	567	567	571	574	578	587	592	597	608	615	622	636	643	650	662	666	671	673	674	676	676	677	678	678	679	680	682	682	682	684	685	686	687	688	689	691	692	693	696	698	699	701	702	703	703	704	705	705	705	705	703	702	701	699	699	697	697	697	695	695	695	693	692	691	691	691
0	0	0	456	732	1126	1127	1129	1133	1142	1148	1160	1168	1175	1187	1205	1216	1235	1253	1264	1279	1298	1309	1324	1333	1339	1349	1359	1365	1368	1358	1350	1334	1317	1304	1286	1274	1266	1256	1256	1256	1250	1250	1250	1250	1250	1250	1256	1260	1263	1263	1260	1256	1250	1246	1241	1229	1223	1217	1205	1200	1193	1187	1187	1187	1182	1181	1179	1176	1176	1176	1181	1184	1187	1192	1195	1199	1204	1207	1211	1213	1216	1220	1220	1222	1226	1226	1227	1229	1229	1229	1229	1234	1235	1235	1242	1246	1253	1262	1269	1280	1286	1292	1303	1307	1312	1327	1329	1331	1334	1337	1338	1338	1338	1338	1342	1339	1337	1330	1330	1330	1324	1316	1309	1296	1268	1242	1179	1147	1118	1118	1063	1010	970	950	930	914	900	885	860	858	856	458	246	0	0	280	674	660	657	653	650	649	648	648	648	648	647	646	646	644	643	641	640	639	638	636	635	633	631	631	631	630	630	629	628	628	628	628	628	628	628	628	629	630	630	630	633	634	636	637	638	640	640	641	642	643	644	644	644	644	644	644	644	644	644	644	644	644	644	644	644	644	644	644	644	644	644	644	644	644	644	644	644	645	645	645	645	645	644	643	643	643	643	642	642	641	641	640	640	640	640	640	640	640	640	641	641	642	642	642	642	642	642	640	640	640	640	640	639	639	639	639	638	637	636	636	635	634	634	633	632	632	631	630	630	630	629	629	629	629	628	627	627	627	627	627	625	624	624	620	618	617	614	612	610	605	603	601	598	596	594	591	590	588	587	586	584	583	582	581	579	579	579	578	578	578	578	578	578	578	579	580	581	583	589	589	590	591	594	596	600	603	605	608	613	616	620	623	625	630	632	634	637	639	641	642	643	644	646	646	646	646	647	648	649	650	650	651	652	653	653	654	655	655	655	655	653	652	652	650	650	650	648	648	647	647	646	646	645	644	644	644	643	642	642	642	641	641	641	642	642	642	643	645	645	646	647	647	647	649	649	650	652	652	653	654	654	654	656	656	656	656	656	656	655	655	654	651	650	648	646	645	642	640	638	635	632	630	628	626	624	621	616	610	594	582	574	574	552	536	521	514	509	502	501	499	497	496	496	494	494	494	492	491	490	489	489	489	489	489	489	488	488	488	487	487	487	487	486	486	486	486	486	488	489	490	490	490	491	492	493	495	496	497	498	499	499	499	499	499	499	500	500	500	500	500	500	499	499	498	498	498	497	496	496	496	495	495	494	493	493	493	493	493	492	492	491	490	490	489	489	489	489	489	490	490	490	491	492	496	498	499	501	502	504	505	505	506	506	507	508	508	508	507	507	507	507	507	507	508	509	510	510	512	513	514	514	514	514	514	514	513	512	512	510	509	508	506	504	503	500	499	497	496	494	493	492	491	491	491	491	491	493	495	496	501	507	512	520	529	536	547	552	556	562	564	566	568	568	568	572	576	580	589	595	600	614	620	625	638	646	652	664	668	672	673	675	676	677	677	678	679	680	681	682	682	683	685	686	686	688	688	689	692	693	694	697	699	700	702	703	704	705	706	707	707	707	706	705	704	703	701	701	699	698	698	696	695	695	694	693	692	692	692
0	0	0	911	1123	1123	1127	1129	1133	1142	1148	1160	1168	1175	1187	1205	1216	1235	1253	1264	1279	1298	1309	1320	1330	1337	1349	1359	1365	1371	1361	1353	1334	1321	1311	1293	1281	1272	1260	1260	1260	1260	1260	1260	1253	1253	1253	1260	1263	1266	1266	1263	1260	1253	1247	1241	1229	1223	1217	1205	1200	1193	1187	1187	1187	1182	1182	1182	1177	1176	1176	1181	1184	1187	1192	1195	1199	1204	1207	1211	1211	1213	1217	1217	1219	1223	1223	1225	1229	1229	1229	1229	1234	1235	1235	1239	1244	1253	1262	1267	1273	1277	1282	1293	1297	1303	1320	1320	1321	1327	1327	1328	1334	1334	1334	1334	1334	1333	1327	1327	1326	1320	1308	1298	1286	1265	1245	1187	1151	1118	1118	1071	1026	989	965	940	926	913	899	875	871	868	868	491	0	0	281	678	662	657	653	650	649	648	648	648	648	648	647	646	645	644	641	640	639	638	636	635	633	631	631	631	630	630	628	628	628	628	628	628	628	628	628	628	629	630	630	632	633	635	637	638	640	640	640	641	642	643	643	643	643	643	643	643	643	643	643	643	643	643	643	643	643	643	643	643	643	643	643	643	643	643	643	644	645	645	645	645	645	644	643	643	643	643	641	641	641	640	640	640	640	640	640	640	640	640	641	641	641	641	641	641	641	641	640	640	640	640	639	638	638	638	638	636	635	635	635	634	633	633	632	631	631	630	630	630	629	628	628	628	628	628	627	627	627	627	627	625	624	624	620	618	617	614	612	610	605	603	601	598	597	595	591	590	588	587	586	584	583	582	581	578	578	578	576	576	576	576	576	576	576	576	577	577	581	589	586	585	585	588	590	592	596	598	601	606	609	613	616	619	625	627	629	633	636	638	640	642	643	645	645	645	646	647	648	648	649	650	651	652	653	653	654	655	655	655	655	653	653	653	651	650	650	648	648	648	648	647	646	646	646	646	645	644	643	643	642	641	641	642	643	643	643	643	645	645	646	646	646	646	648	649	650	651	652	653	653	653	653	655	655	655	655	655	655	654	653	653	651	649	646	645	644	641	639	637	635	632	630	627	626	625	622	617	612	595	582	574	574	552	535	517	511	506	501	499	498	496	495	495	494	493	493	491	491	490	489	489	489	489	489	489	488	488	488	487	487	487	487	487	487	487	487	487	489	489	490	491	491	492	493	494	496	497	498	499	499	499	499	499	499	499	500	500	500	500	500	500	499	499	498	498	498	497	496	496	496	495	495	493	492	492	492	493	493	492	491	491	490	489	489	489	489	489	489	490	490	490	491	492	496	498	499	501	502	503	505	505	506	506	506	506	506	506	505	505	505	505	505	505	506	508	508	509	511	511	512	513	513	513	513	513	512	511	511	510	508	507	505	503	502	500	498	497	495	494	493	492	491	491	491	491	491	493	495	497	502	509	514	522	531	538	549	553	557	563	565	567	568	569	569	573	578	582	591	597	603	620	624	628	641	648	655	665	669	673	674	675	676	678	678	678	680	681	682	682	683	684	686	686	687	689	689	689	692	694	695	698	700	701	703	704	705	707	708	709	709	708	707	707	706	705	703	703	701	700	699	697	696	695	695	694	693	693	693
1125	1123	1123	1123	1123	1123	1127	1131	1138	1147	1152	1160	1172	1180	1193	1211	1221	1235	1253	1264	1279	1298	1309	1320	1330	1338	1356	1361	1366	1379	1374	1368	1349	1335	1325	1313	1305	1298	1286	1286	1285	1279	1279	1279	1273	1273	1273	1279	1283	1286	1279	1276	1273	1260	1257	1253	1235	1229	1223	1211	1206	1199	1193	1190	1187	1187	1185	1182	1182	1182	1182	1186	1187	1187	1192	1195	1199	1204	1205	1205	1210	1211	1211	1216	1219	1223	1223	1223	1223	1223	1225	1229	1234	1235	1235	1239	1242	1247	1251	1256	1266	1271	1273	1273	1282	1288	1299	1299	1300	1306	1306	1307	1313	1317	1320	1320	1320	1319	1313	1309	1305	1299	1296	1292	1273	1255	1239	1193	1156	1122	1084	1054	1026	989	974	958	944	932	919	900	885	868	868	491	0	0	0	0	601	660	653	650	649	648	648	648	648	648	647	646	646	645	643	641	641	640	637	636	635	633	633	633	631	630	628	628	628	627	627	627	627	627	627	628	629	630	630	632	633	635	636	636	638	639	640	640	641	641	641	642	643	641	641	641	641	641	641	641	641	641	641	641	641	641	642	643	643	643	643	643	643	643	643	643	643	645	645	645	645	644	643	643	642	641	641	641	640	640	639	638	638	638	638	638	639	640	640	640	640	640	640	640	638	638	638	637	636	636	636	636	635	635	635	635	634	633	633	632	631	631	630	630	630	629	628	628	628	628	628	627	627	627	626	625	625	625	625	624	623	622	620	618	617	614	613	611	607	606	604	599	597	595	592	591	589	587	586	584	583	582	580	578	578	577	576	575	573	573	573	572	572	572	571	571	571	572	573	573	574	576	580	592	588	587	587	590	592	597	600	602	608	611	614	619	623	626	630	634	637	640	641	642	645	645	645	648	649	650	650	652	653	653	654	655	655	655	655	655	654	653	651	651	651	651	651	650	650	649	648	648	648	648	648	647	646	645	645	645	643	643	643	643	644	645	645	645	645	646	646	646	646	647	648	648	649	650	650	650	651	651	651	651	651	651	651	651	651	650	647	646	645	642	641	640	637	635	633	631	630	627	626	625	624	619	616	616	244	0	0	0	39	513	506	501	499	498	497	495	494	494	493	492	492	491	491	490	489	489	489	489	489	489	488	488	488	488	488	488	488	488	488	489	489	489	490	491	492	493	493	494	495	496	497	498	498	499	500	500	500	500	500	500	500	500	500	501	501	501	500	499	498	498	498	497	496	496	496	495	495	493	492	492	492	493	493	492	491	491	490	489	489	489	489	489	489	490	491	491	492	493	496	498	499	501	502	503	504	504	504	505	505	504	503	503	502	502	502	502	503	503	504	505	505	506	508	509	510	511	511	511	511	511	510	509	509	508	506	504	503	501	500	498	496	496	494	493	493	492	492	492	492	492	492	493	496	498	504	511	517	527	535	542	553	557	560	564	566	568	571	572	572	577	582	586	597	603	608	620	627	633	648	654	660	669	671	673	676	677	678	680	680	680	682	682	682	684	685	686	687	688	689	689	690	691	693	694	697	699	700	703	705	706	707	709	709	709	711	710	709	709	708	707	704	703	701	700	699	697	696	695	695	694	693	691	691
1125	1123	1123	1123	1124	1126	1131	1135	1141	1151	1157	1166	1178	1186	1199	1214	1225	1241	1257	1267	1282	1299	1309	1320	1330	1337	1352	1362	1369	1379	1376	1373	1360	1348	1339	1324	1315	1308	1296	1294	1292	1289	1289	1289	1286	1286	1286	1289	1291	1292	1289	1284	1280	1266	1262	1256	1241	1235	1229	1217	1212	1205	1199	1196	1193	1190	1189	1188	1188	1188	1188	1190	1191	1193	1196	1197	1199	1204	1205	1205	1207	1209	1211	1216	1218	1220	1222	1223	1223	1223	1225	1229	1234	1235	1235	1239	1242	1247	1251	1255	1263	1265	1266	1266	1273	1277	1282	1285	1287	1292	1295	1296	1300	1304	1307	1310	1310	1309	1303	1299	1295	1289	1286	1282	1263	1246	1230	1188	1155	1125	1084	1058	1032	997	982	966	948	937	926	910	895	879	873	673	414	414	242	0	605	663	655	651	650	650	650	649	649	649	648	647	646	645	644	642	642	640	638	636	635	633	633	632	630	630	628	628	627	627	627	627	627	627	627	628	629	629	629	631	632	634	635	636	636	638	639	639	640	640	640	641	641	640	640	640	640	640	640	640	640	640	640	640	640	640	641	642	642	642	642	642	642	642	642	642	642	645	645	645	644	644	643	642	641	640	640	640	639	639	638	637	637	637	637	637	637	638	638	638	638	638	638	638	637	637	636	636	635	634	634	634	634	633	633	633	632	632	632	631	630	630	629	629	628	628	628	628	628	628	628	627	626	626	625	625	624	624	624	624	623	622	620	618	617	615	613	611	608	606	604	600	598	596	593	592	590	587	586	584	583	582	580	578	577	576	575	574	572	572	571	570	570	570	570	569	569	568	569	569	570	571	574	580	579	581	587	590	591	590	591	593	598	602	605	610	615	618	623	628	631	635	637	639	643	644	644	646	647	648	649	651	652	653	654	655	656	656	656	655	654	654	653	652	652	652	652	652	651	650	650	649	649	649	649	649	648	646	646	646	644	644	644	644	644	645	645	645	645	645	644	644	645	646	646	647	648	649	649	649	650	650	650	650	650	650	650	650	649	649	646	645	644	642	640	639	637	635	632	630	629	626	625	624	623	618	614	614	243	0	0	0	39	511	505	500	498	497	496	494	494	493	492	492	492	490	490	490	489	489	489	489	489	489	489	488	488	488	488	488	488	488	488	489	490	490	491	492	493	494	495	496	496	497	498	499	499	500	500	500	500	500	500	500	500	500	500	501	501	501	500	499	498	498	498	498	497	496	496	496	495	494	493	492	492	493	493	492	491	491	490	490	490	490	490	490	490	491	492	492	494	495	496	498	499	501	502	503	504	504	504	505	505	504	503	503	502	502	502	502	502	502	503	504	504	505	506	507	509	510	510	510	510	510	510	509	508	507	505	504	502	501	500	498	496	495	494	493	492	492	492	492	492	492	493	493	496	500	511	515	518	529	537	544	554	558	561	566	567	569	572	572	573	579	584	588	599	605	611	622	630	637	650	656	662	670	672	674	676	677	678	680	680	681	682	682	683	684	685	686	687	688	689	690	690	691	694	695	697	699	700	702	704	706	707	708	708	709	710	710	709	709	708	706	704	703	701	700	699	697	696	695	694	693	692	691	690
1125	1123	1123	1123	1125	1128	1136	1140	1144	1156	1163	1171	1183	1191	1205	1218	1228	1247	1261	1270	1286	1300	1309	1320	1330	1337	1349	1364	1372	1379	1379	1378	1371	1362	1354	1334	1326	1319	1306	1302	1299	1299	1299	1299	1299	1299	1299	1299	1299	1299	1299	1292	1286	1273	1267	1260	1247	1241	1235	1223	1218	1211	1205	1202	1199	1193	1193	1193	1193	1193	1193	1193	1195	1199	1199	1199	1199	1204	1205	1205	1205	1207	1211	1216	1217	1217	1222	1223	1223	1223	1225	1229	1234	1235	1235	1239	1242	1247	1251	1254	1260	1260	1260	1260	1264	1266	1266	1271	1274	1279	1283	1286	1286	1290	1294	1299	1299	1298	1293	1289	1285	1279	1276	1272	1253	1237	1221	1182	1153	1127	1084	1061	1038	1005	989	973	951	943	933	920	906	890	878	855	827	827	484	0	610	667	657	652	651	651	651	651	650	650	649	648	646	646	645	643	642	641	639	637	635	633	632	630	630	630	628	627	627	627	627	627	627	627	627	627	628	628	628	630	631	633	634	635	635	637	638	638	639	640	640	640	640	640	640	640	640	640	640	640	640	640	640	640	640	640	640	640	640	640	641	641	641	641	641	641	641	645	645	645	643	643	643	641	641	640	640	639	638	638	637	636	636	636	636	636	636	636	636	636	636	636	636	636	636	636	635	635	635	633	633	633	633	632	631	631	631	631	630	630	630	628	628	628	627	627	627	627	627	627	627	626	625	625	625	625	624	624	624	624	623	622	620	618	617	616	614	611	608	606	604	601	599	597	594	593	591	587	586	584	583	582	580	578	577	576	574	573	572	571	570	568	568	568	568	567	566	565	565	566	567	567	568	569	571	575	587	590	589	583	583	584	589	593	596	602	606	609	616	621	625	630	634	637	641	642	643	645	646	646	648	650	651	653	654	655	657	657	657	655	655	655	655	654	653	653	653	653	651	651	651	650	650	650	650	650	650	646	646	646	645	645	645	645	645	645	645	645	645	643	643	643	645	645	645	646	647	648	648	648	648	648	649	650	650	650	650	649	648	648	646	645	643	641	640	638	636	634	631	629	628	625	624	624	622	616	613	613	243	0	0	0	38	509	503	499	497	496	495	494	493	493	492	491	491	490	490	489	489	489	489	489	489	489	489	489	489	489	489	489	489	489	489	490	490	491	493	493	494	496	496	497	498	498	499	500	500	500	500	500	500	500	500	500	501	501	501	501	501	501	500	500	499	498	498	498	497	497	496	496	496	494	493	493	493	494	494	492	491	491	491	490	490	490	491	491	492	493	493	494	495	496	496	498	499	501	502	503	504	504	504	505	505	504	503	503	502	501	501	501	501	501	502	503	503	504	505	506	508	509	509	509	509	509	509	508	507	506	504	503	502	500	499	497	495	495	493	492	492	491	491	491	492	493	493	493	496	501	518	518	520	531	539	545	554	558	562	567	568	569	572	573	575	581	586	590	601	608	613	625	633	640	653	659	664	671	672	674	676	677	678	680	681	682	682	683	684	684	685	686	687	688	689	691	691	691	694	696	697	699	700	701	704	706	707	707	708	709	709	709	709	709	708	705	703	703	701	700	699	697	696	695	693	692	691	691	690
1129	1128	1128	1128	1130	1133	1142	1147	1154	1163	1169	1182	1190	1196	1205	1223	1233	1247	1261	1270	1286	1300	1309	1320	1330	1337	1349	1364	1372	1379	1379	1378	1371	1362	1355	1349	1340	1332	1313	1309	1306	1306	1302	1299	1299	1299	1299	1306	1302	1299	1299	1292	1286	1279	1273	1266	1247	1244	1241	1224	1220	1217	1211	1208	1205	1205	1203	1199	1199	1199	1199	1199	1199	1199	1199	1199	1199	1199	1199	1199	1204	1205	1205	1210	1211	1211	1216	1217	1217	1226	1229	1229	1234	1236	1241	1241	1242	1247	1243	1240	1235	1231	1229	1229	1233	1235	1235	1239	1241	1241	1245	1248	1253	1261	1266	1266	1266	1265	1260	1260	1259	1253	1250	1246	1223	1213	1204	1176	1151	1127	1084	1063	1043	1005	995	985	956	950	944	937	927	916	879	855	827	827	484	0	0	263	665	654	652	651	651	651	650	650	649	648	646	645	643	641	641	640	638	637	635	633	632	630	630	630	628	627	627	627	626	625	625	625	625	625	626	627	628	628	628	630	631	631	633	634	635	636	636	636	638	638	638	638	637	636	636	636	636	636	636	636	636	637	638	638	638	638	638	638	638	638	639	641	641	641	641	643	643	643	641	641	641	640	639	638	638	637	636	635	635	635	635	635	635	635	634	633	633	633	633	633	633	633	633	633	631	631	631	631	630	630	630	630	630	628	628	628	628	627	627	627	627	627	625	625	625	625	625	625	625	625	625	625	624	624	624	624	624	624	623	622	620	618	617	616	615	613	610	608	605	602	600	598	595	593	591	588	587	585	583	582	581	578	577	576	573	573	572	571	570	568	566	565	564	563	562	561	560	560	560	560	560	561	561	561	563	564	568	583	583	584	589	593	596	602	602	602	602	608	612	620	625	629	635	637	638	641	643	645	648	650	651	651	653	655	657	657	657	657	657	657	657	657	657	655	655	655	655	655	655	653	653	653	653	652	651	648	648	648	646	646	646	645	645	645	645	644	643	643	643	643	643	644	645	645	645	646	646	647	648	648	648	648	648	648	648	647	646	646	644	643	641	640	639	636	634	633	631	629	627	624	623	622	620	614	610	610	242	0	0	0	38	508	502	498	496	495	494	493	492	492	491	490	490	489	489	489	489	489	489	489	489	489	489	489	489	489	489	489	490	490	491	492	493	494	496	496	497	498	498	499	500	500	501	502	502	501	501	501	501	501	501	501	501	501	501	501	501	501	500	500	500	499	499	499	498	498	497	496	496	495	494	494	494	494	494	493	493	493	492	492	492	492	493	493	494	494	494	494	495	496	498	500	501	503	504	505	505	505	506	505	505	504	503	503	502	501	501	501	501	501	501	502	502	503	504	504	505	506	507	508	508	507	506	505	505	504	502	501	500	498	497	495	494	494	492	491	491	491	491	491	492	493	494	494	497	501	512	518	523	535	541	546	556	560	564	568	570	571	573	575	578	584	590	596	610	617	622	630	637	643	657	661	665	673	674	676	678	679	680	680	681	682	682	683	684	686	686	686	687	688	689	691	691	691	693	694	695	698	700	701	703	704	705	705	706	707	709	708	707	707	706	705	702	701	701	698	697	695	694	693	691	691	691	689	688
1129	1128	1128	1130	1132	1136	1142	1148	1157	1166	1172	1184	1193	1200	1211	1226	1236	1250	1261	1270	1286	1300	1309	1320	1332	1340	1352	1365	1372	1379	1379	1378	1371	1362	1355	1349	1340	1332	1316	1314	1313	1313	1309	1306	1306	1306	1306	1310	1308	1306	1306	1299	1292	1286	1278	1270	1254	1249	1244	1230	1225	1220	1214	1211	1208	1205	1203	1199	1199	1199	1199	1199	1199	1199	1199	1199	1199	1199	1199	1199	1201	1203	1205	1207	1208	1208	1213	1214	1214	1221	1225	1229	1234	1236	1238	1238	1239	1241	1237	1234	1229	1223	1220	1220	1222	1222	1220	1222	1223	1226	1228	1230	1235	1243	1248	1250	1250	1250	1248	1246	1244	1241	1238	1234	1214	1201	1189	1162	1142	1122	1079	1059	1040	1005	994	983	959	953	948	939	931	921	888	876	862	447	242	0	0	267	674	661	657	654	653	652	650	650	649	648	646	645	643	641	641	640	638	637	635	633	632	630	630	630	628	627	627	626	625	625	625	625	625	625	626	626	628	628	628	629	630	631	632	633	634	634	635	636	636	636	636	636	636	635	634	634	634	634	634	635	636	636	636	636	636	636	637	637	638	638	639	640	640	640	640	641	642	642	641	640	640	639	638	637	637	636	634	634	634	634	633	633	633	633	633	632	632	632	632	632	632	632	632	631	630	630	630	630	629	629	628	628	628	628	627	626	626	626	626	626	626	626	624	624	624	624	624	624	624	624	624	624	624	624	624	623	623	623	622	622	620	619	618	616	615	614	611	609	606	603	601	600	596	594	592	590	588	586	584	583	581	578	577	576	573	573	572	571	570	568	565	565	564	562	561	560	559	559	558	558	558	558	558	559	560	560	562	570	571	572	576	382	298	301	505	602	602	608	612	616	621	625	632	634	636	638	641	643	646	649	651	651	653	654	657	657	658	658	658	658	658	658	658	656	656	656	656	656	656	655	655	655	654	653	652	650	649	648	647	647	646	646	645	645	645	644	643	643	643	643	643	643	644	645	645	646	646	646	647	647	647	647	647	647	647	646	646	646	644	642	640	639	638	636	634	633	630	629	627	624	623	622	618	613	609	598	413	265	0	0	38	506	501	497	496	494	493	492	492	491	490	490	490	489	489	489	489	489	489	489	489	489	489	489	489	489	489	490	491	491	492	493	494	495	497	498	498	499	500	500	501	502	502	502	502	502	502	501	501	501	501	502	502	502	502	502	502	502	501	500	500	500	499	499	499	498	498	497	496	496	495	494	494	494	494	494	494	494	493	493	493	492	493	493	494	495	495	495	496	498	500	501	502	506	506	508	508	508	508	507	506	505	504	503	502	501	501	501	501	501	501	501	502	502	503	504	504	505	506	507	507	507	506	505	504	504	502	501	500	498	497	495	494	493	492	491	491	491	491	491	492	493	494	494	498	502	512	521	527	536	543	548	558	561	564	568	571	572	574	577	579	586	592	597	610	617	622	632	639	646	658	663	667	673	674	675	678	678	679	680	681	682	682	683	684	686	686	686	687	688	689	691	691	691	693	694	695	698	699	700	702	703	704	704	705	706	707	707	706	705	704	703	701	700	699	697	696	694	693	692	690	690	690	688	687
1129	1128	1128	1132	1135	1138	1143	1149	1160	1169	1175	1187	1196	1203	1217	1230	1239	1253	1262	1270	1286	1300	1309	1320	1334	1344	1356	1366	1372	1379	1379	1378	1371	1362	1355	1349	1340	1333	1320	1320	1320	1320	1316	1313	1313	1313	1313	1313	1313	1313	1313	1306	1299	1293	1283	1273	1260	1254	1247	1235	1230	1223	1217	1214	1211	1205	1203	1199	1199	1199	1199	1199	1199	1199	1199	1199	1199	1199	1199	1199	1199	1201	1205	1205	1205	1205	1210	1211	1211	1216	1220	1229	1234	1235	1235	1235	1235	1235	1231	1228	1223	1215	1211	1211	1211	1210	1205	1205	1206	1211	1211	1212	1217	1224	1230	1235	1235	1235	1235	1231	1229	1229	1226	1222	1205	1189	1175	1149	1133	1117	1074	1056	1038	1005	993	981	962	957	951	940	934	926	898	896	896	68	0	0	0	270	682	667	662	658	655	653	650	650	649	648	646	645	643	641	641	640	638	637	635	633	632	630	630	630	628	627	627	625	625	625	625	625	625	625	625	625	627	627	627	628	629	630	631	632	633	633	634	635	635	635	635	635	635	635	633	633	633	633	633	633	635	635	635	635	635	635	636	637	638	638	639	640	640	640	640	640	640	641	640	639	638	638	637	636	635	634	633	633	633	633	631	631	631	631	631	631	631	631	630	630	630	630	630	630	628	628	628	628	628	628	627	627	627	627	626	625	625	625	625	625	625	625	624	624	624	624	624	624	624	624	624	624	624	624	624	623	622	622	622	622	620	619	619	616	615	614	611	610	608	604	603	601	597	596	594	591	589	587	584	583	581	578	577	576	573	573	572	571	570	567	565	564	563	561	560	559	558	557	556	556	556	556	556	556	556	556	556	556	558	560	563	170	0	0	409	602	602	608	611	611	617	621	628	631	633	636	639	641	645	648	650	651	652	653	657	658	658	658	658	658	658	658	658	658	658	658	658	658	657	657	657	657	655	654	653	651	650	648	648	647	646	646	646	645	645	644	643	643	643	643	643	643	643	645	645	645	645	645	646	646	646	646	646	646	646	646	646	645	644	642	640	639	638	636	634	632	630	629	627	624	623	621	617	613	607	585	585	530	0	0	38	504	499	496	495	494	493	491	491	491	490	489	489	489	489	489	489	489	489	489	489	489	489	489	489	489	489	490	492	492	493	495	495	496	499	499	500	501	501	502	503	503	503	503	503	502	502	502	501	501	501	502	502	502	502	502	502	502	501	501	500	500	500	499	499	499	498	497	497	496	495	495	495	495	495	495	495	495	494	494	494	493	493	493	494	495	496	496	498	499	501	503	504	508	509	510	510	510	509	509	508	506	504	503	502	501	501	501	501	501	501	501	501	502	503	503	504	505	505	506	506	506	506	504	504	504	502	501	500	498	497	495	493	493	492	491	491	491	491	491	492	493	494	494	499	503	512	524	531	538	545	550	559	562	565	569	571	573	576	578	581	588	594	599	610	617	622	635	642	648	660	665	669	673	673	674	678	678	678	680	681	682	682	683	684	686	686	686	687	688	689	691	691	691	693	694	695	697	698	699	701	702	703	703	704	705	705	705	705	703	702	701	699	699	697	696	695	693	693	692	689	689	689	687	686
1133	1133	1133	1133	1136	1144	1152	1156	1160	1172	1180	1193	1207	1215	1229	1238	1245	1260	1274	1282	1293	1307	1316	1327	1342	1350	1356	1366	1372	1379	1383	1385	1379	1374	1370	1364	1355	1348	1341	1337	1334	1334	1334	1334	1327	1327	1327	1327	1327	1327	1327	1320	1313	1306	1300	1293	1273	1267	1260	1247	1242	1235	1224	1220	1217	1211	1209	1205	1200	1199	1199	1199	1199	1199	1199	1199	1199	1199	1199	1199	1199	1201	1205	1200	1199	1199	1204	1207	1211	1216	1219	1223	1232	1235	1235	1235	1235	1235	1226	1222	1217	1209	1205	1205	1201	1198	1193	1193	1193	1193	1197	1199	1199	1203	1206	1211	1211	1211	1211	1211	1211	1211	1204	1198	1182	1167	1153	1133	1120	1107	1070	1052	1034	1005	993	981	966	959	951	940	937	933	910	898	883	883	516	0	692	739	701	679	671	664	658	655	651	650	649	648	646	644	643	641	641	640	637	636	635	632	631	630	628	627	627	626	625	624	624	624	624	623	622	622	623	624	625	625	625	627	628	628	628	629	630	630	631	631	631	631	631	631	631	631	630	630	630	630	630	630	630	631	631	631	633	635	636	636	636	636	636	636	638	638	638	638	638	638	638	637	636	636	636	635	633	632	631	631	631	630	630	630	630	628	628	628	628	628	627	627	627	627	627	627	625	625	625	625	625	625	625	624	624	624	624	624	624	624	624	624	624	624	622	622	622	622	622	622	622	622	622	622	622	622	622	622	622	622	621	620	620	619	619	617	616	614	611	611	610	607	605	602	599	597	595	592	591	589	587	585	583	580	579	577	574	573	572	571	570	567	565	564	563	561	560	559	558	557	556	555	555	554	553	553	553	553	553	553	554	555	558	559	561	565	570	475	0	403	611	611	614	617	624	628	630	633	636	638	641	644	646	650	652	653	657	657	657	658	659	660	660	660	660	660	660	660	662	661	660	660	659	658	657	656	655	653	652	650	648	647	646	646	646	645	643	643	643	641	641	641	641	641	641	643	643	643	643	644	645	645	645	645	645	645	645	645	645	643	642	641	640	639	637	635	634	632	630	629	628	625	624	623	617	611	605	585	585	530	0	305	520	504	499	495	494	493	492	490	489	489	489	489	489	489	489	489	489	489	489	489	489	489	489	489	489	490	490	491	493	494	495	497	498	499	501	502	503	503	503	504	504	504	504	504	504	503	502	502	502	502	502	502	502	502	502	502	502	502	501	501	500	500	500	500	499	499	498	497	497	497	496	495	495	496	496	496	495	495	494	494	494	494	495	496	497	498	499	500	502	503	506	508	510	512	513	514	514	514	514	512	511	510	508	506	504	502	502	501	501	501	501	501	501	502	503	503	503	504	504	505	505	505	504	504	503	502	501	501	500	498	497	495	493	493	493	492	492	492	493	493	494	496	497	497	502	506	517	526	532	543	549	554	560	563	566	571	574	576	578	582	585	592	598	603	613	620	625	638	644	650	660	664	667	671	672	674	674	676	678	680	680	680	682	682	682	684	685	686	687	688	689	689	690	691	693	693	693	695	696	697	699	700	701	701	701	701	703	702	701	701	700	699	697	697	695	694	693	691	691	690	687	687	687	686	685
1136	1136	1136	1138	1141	1146	1155	1159	1166	1178	1186	1199	1213	1221	1235	1246	1255	1270	1281	1290	1303	1315	1323	1334	1347	1354	1364	1373	1380	1386	1389	1389	1382	1378	1374	1368	1361	1356	1348	1344	1342	1342	1342	1341	1338	1338	1338	1338	1338	1338	1338	1331	1324	1316	1308	1300	1280	1273	1266	1254	1248	1241	1227	1223	1220	1214	1212	1208	1203	1202	1202	1202	1202	1202	1202	1202	1202	1202	1201	1199	1199	1200	1202	1200	1199	1199	1204	1206	1208	1215	1219	1223	1230	1232	1232	1234	1235	1235	1226	1222	1217	1209	1205	1205	1201	1198	1193	1193	1193	1193	1197	1199	1199	1203	1206	1211	1211	1211	1211	1211	1211	1211	1204	1198	1179	1164	1151	1126	1112	1100	1066	1048	1032	1005	994	983	966	958	949	940	937	933	914	900	883	875	691	432	733	752	732	691	680	670	662	658	653	650	649	646	644	643	642	641	640	639	637	635	634	632	630	629	627	627	627	626	625	624	623	623	623	622	622	622	623	623	624	624	625	626	626	627	628	628	629	629	629	630	630	630	629	629	629	629	628	628	628	628	628	629	630	631	631	631	632	634	634	634	634	635	636	636	637	637	637	637	637	637	637	636	636	636	635	634	632	631	630	630	630	629	629	629	628	628	627	626	626	626	626	626	626	626	626	625	624	624	624	624	624	624	624	623	623	623	623	623	623	623	623	623	622	622	621	621	621	621	621	621	621	621	621	621	622	622	622	621	621	621	620	620	620	619	619	617	616	615	612	611	610	608	606	604	600	598	596	594	592	590	588	586	584	582	580	578	576	575	573	572	570	568	566	565	564	561	560	559	558	557	556	555	555	554	553	553	552	552	552	552	552	553	556	557	559	562	567	521	286	299	352	614	615	617	620	624	627	630	634	636	640	643	645	649	651	652	656	657	657	658	659	660	661	661	661	662	662	662	662	662	661	661	660	659	659	657	656	654	653	650	649	648	646	646	646	645	643	643	643	641	641	641	641	641	641	642	642	642	643	643	644	644	644	644	645	645	644	644	644	643	642	641	640	638	637	635	634	632	630	629	627	624	624	623	617	611	605	585	585	555	270	417	520	504	498	494	494	492	491	490	489	489	489	489	489	489	489	488	488	489	489	489	489	489	489	489	490	490	491	492	494	495	496	498	499	500	502	503	504	504	504	504	504	504	504	504	504	504	503	503	502	502	502	502	502	502	502	502	502	502	502	501	500	500	500	500	500	499	498	498	498	498	497	496	496	496	496	496	496	495	495	495	495	495	496	497	498	500	501	502	503	505	508	510	512	514	515	516	516	516	516	514	513	512	509	507	505	503	502	502	502	502	502	502	502	502	503	503	503	504	504	504	504	504	504	504	503	502	501	501	500	498	497	496	495	494	494	494	494	494	495	496	497	499	500	500	506	510	521	529	535	546	552	556	562	565	567	572	575	577	580	583	586	594	600	604	614	621	626	639	645	650	660	663	666	670	671	672	673	675	676	678	678	679	681	681	682	683	684	685	686	687	688	689	689	690	692	692	693	694	695	696	698	698	699	699	699	699	700	700	699	699	698	697	695	695	694	693	692	690	689	688	686	686	686	685	684
1138	1138	1138	1143	1146	1149	1158	1163	1171	1183	1192	1205	1219	1227	1241	1255	1264	1279	1289	1297	1313	1323	1330	1341	1351	1359	1371	1381	1387	1394	1394	1393	1386	1382	1378	1371	1367	1363	1356	1352	1349	1349	1349	1349	1349	1349	1349	1349	1349	1349	1349	1341	1334	1327	1317	1306	1286	1280	1273	1260	1254	1247	1230	1226	1223	1217	1215	1211	1206	1205	1205	1205	1205	1205	1205	1205	1205	1205	1203	1199	1199	1199	1199	1199	1199	1199	1204	1205	1205	1214	1219	1223	1228	1229	1229	1233	1235	1235	1226	1222	1217	1209	1205	1205	1201	1198	1193	1193	1193	1193	1197	1199	1199	1203	1206	1211	1211	1211	1211	1211	1211	1211	1204	1198	1176	1161	1148	1118	1105	1092	1061	1045	1030	1005	995	985	966	957	947	940	937	933	917	902	883	866	865	865	774	764	764	703	688	676	666	661	655	651	648	645	643	642	641	640	639	638	636	635	633	631	630	628	627	627	627	626	625	624	623	622	622	622	622	622	622	622	622	623	624	625	625	625	627	627	627	628	628	628	628	628	628	627	627	627	627	627	627	627	627	627	630	631	631	631	632	633	633	633	633	635	635	635	636	636	636	636	636	636	635	635	635	635	634	633	631	631	630	630	629	628	628	628	627	627	626	625	625	625	624	624	624	624	624	624	622	622	622	622	622	622	622	622	622	622	622	622	622	622	622	622	621	620	620	620	620	620	620	620	620	620	620	620	621	622	622	621	620	620	620	620	620	619	619	617	617	616	613	612	611	608	607	605	601	600	598	595	593	591	588	587	585	583	582	580	577	576	574	572	571	569	567	566	564	562	560	559	558	557	556	555	555	554	553	553	551	551	551	551	551	551	553	555	557	560	565	568	573	195	93	616	616	616	617	620	623	628	631	634	640	642	643	648	650	651	655	656	657	658	659	660	662	662	662	664	664	664	662	662	662	662	661	660	660	659	657	655	653	651	650	648	646	646	646	645	643	643	643	641	641	641	641	641	641	641	641	641	643	643	643	643	643	643	645	645	643	643	643	643	642	641	640	637	636	635	634	632	630	629	627	624	624	623	617	611	605	585	585	581	541	529	520	503	497	493	493	492	491	489	489	489	489	489	489	489	489	488	488	488	489	489	489	489	489	489	490	491	492	493	495	496	497	499	500	501	504	504	505	505	505	505	505	505	505	504	504	504	503	503	503	502	502	502	502	502	503	503	503	503	502	502	501	501	501	501	500	500	499	498	498	498	497	497	496	496	496	496	496	496	496	496	496	496	497	498	500	501	502	504	505	506	510	512	514	516	517	518	518	518	517	515	514	513	510	508	506	504	503	502	502	502	502	502	502	502	503	503	503	504	504	504	504	504	504	503	503	502	501	501	500	498	497	496	496	496	496	496	496	497	498	498	500	503	504	504	509	514	525	533	539	549	555	559	564	566	569	573	575	577	581	585	588	597	602	606	616	622	627	640	645	650	660	663	665	669	670	671	673	673	674	676	677	678	680	681	682	682	683	684	686	686	687	689	689	689	691	692	693	693	694	695	697	697	697	697	697	697	697	697	697	697	696	695	693	693	693	692	691	689	688	687	686	686	686	684	684
1144	1144	1144	1148	1152	1160	1169	1174	1182	1195	1204	1217	1235	1244	1253	1268	1278	1293	1307	1316	1327	1337	1344	1356	1366	1372	1379	1384	1387	1394	1394	1393	1386	1382	1379	1379	1374	1371	1371	1371	1370	1364	1364	1364	1364	1364	1364	1364	1364	1364	1364	1360	1356	1341	1331	1320	1299	1290	1279	1266	1260	1253	1242	1236	1229	1223	1221	1217	1212	1211	1211	1211	1211	1211	1211	1209	1205	1205	1205	1205	1200	1197	1193	1193	1193	1193	1193	1193	1193	1198	1201	1205	1214	1218	1223	1227	1229	1229	1225	1222	1217	1209	1205	1205	1201	1198	1193	1193	1193	1193	1197	1199	1199	1199	1199	1199	1195	1193	1193	1193	1193	1193	1187	1180	1149	1135	1122	1098	1085	1074	1052	1036	1021	1001	991	981	962	955	947	940	935	929	920	909	896	867	859	850	815	811	811	92	259	687	673	666	657	651	648	645	642	641	640	638	637	636	634	632	631	630	629	627	625	625	625	624	624	624	623	622	620	620	620	620	620	620	620	621	622	622	622	622	624	624	624	624	624	624	624	624	624	624	624	624	624	624	624	627	627	627	628	628	628	628	629	630	631	631	631	631	632	633	633	634	635	635	635	635	633	633	633	633	632	631	630	629	628	627	627	627	625	625	625	624	624	624	622	622	622	620	620	620	620	620	620	619	619	619	619	619	619	619	619	620	620	620	620	619	619	619	619	619	620	620	620	619	619	619	619	620	620	620	620	620	620	620	620	620	620	620	620	619	619	617	617	616	614	614	613	610	609	607	604	603	601	597	596	594	591	590	588	584	583	581	578	577	576	574	573	572	570	568	567	565	563	561	559	558	556	555	555	554	553	553	551	550	550	550	550	550	550	551	552	556	559	562	569	575	580	591	605	613	613	617	621	627	631	633	638	640	641	646	648	650	653	655	657	658	660	662	662	663	664	664	664	664	664	664	664	664	663	662	660	659	657	655	654	653	650	649	648	645	645	645	645	644	641	641	641	641	640	640	640	641	641	641	641	642	643	643	643	643	643	643	643	643	643	643	642	641	640	637	636	635	634	632	630	629	627	624	624	623	617	611	605	585	585	581	541	529	520	503	497	493	492	491	490	489	489	489	488	488	488	488	488	488	488	488	488	489	489	489	489	489	490	492	493	494	496	497	499	501	502	503	506	507	508	508	508	508	508	507	506	505	505	504	504	504	504	503	503	503	503	503	504	504	504	504	503	503	503	502	502	502	501	501	500	500	500	498	497	497	497	498	498	497	497	497	498	498	498	498	500	501	502	503	504	506	508	510	513	515	516	519	520	521	521	521	520	518	517	516	513	512	510	506	505	504	504	504	503	503	503	502	502	502	503	503	503	503	503	503	503	502	502	501	501	501	500	500	500	499	499	499	499	499	499	501	502	504	506	509	511	511	516	521	530	538	543	551	556	560	565	569	572	576	578	580	585	589	593	599	604	609	619	625	630	640	645	650	657	659	660	664	665	667	669	671	673	674	675	676	678	679	680	680	681	682	684	685	686	687	688	689	689	690	691	693	693	693	693	694	695	695	695	695	695	694	693	693	692	691	691	691	689	688	687	687	686	686	686	685	684	682	682
1149	1150	1152	1154	1158	1166	1174	1180	1188	1201	1210	1223	1239	1249	1263	1275	1284	1300	1312	1320	1334	1342	1348	1360	1367	1373	1382	1385	1387	1390	1390	1389	1386	1382	1379	1375	1373	1371	1371	1371	1371	1368	1368	1368	1368	1368	1368	1368	1370	1371	1368	1365	1364	1345	1336	1327	1306	1298	1289	1273	1267	1260	1245	1239	1232	1226	1225	1223	1218	1216	1214	1214	1215	1217	1214	1212	1208	1205	1205	1205	1200	1197	1193	1193	1193	1193	1193	1193	1193	1198	1201	1205	1212	1215	1220	1222	1224	1226	1222	1219	1217	1209	1205	1205	1201	1198	1193	1193	1193	1193	1195	1196	1199	1199	1199	1199	1194	1190	1190	1190	1190	1190	1184	1177	1149	1135	1122	1098	1085	1073	1045	1032	1019	997	988	979	962	955	947	939	934	929	920	910	899	873	862	850	815	811	811	92	130	344	633	671	660	652	649	645	641	640	639	637	637	636	634	632	631	629	628	627	625	625	624	624	624	623	622	621	620	620	620	620	620	620	620	620	620	620	620	621	622	622	622	622	622	622	622	622	622	622	623	624	624	624	624	626	626	626	626	626	626	628	628	628	629	630	630	630	631	632	632	633	634	634	634	634	632	632	632	632	631	630	629	629	628	627	627	626	625	624	624	623	623	622	621	621	620	620	620	620	619	618	618	618	618	618	618	618	618	619	619	620	619	618	618	619	619	619	619	619	620	619	618	618	619	619	619	619	620	620	620	620	620	620	620	620	620	620	620	619	619	618	617	616	615	614	614	612	610	608	606	604	602	598	597	596	592	590	588	586	584	582	580	579	577	575	574	572	571	570	568	566	565	562	561	559	558	556	555	554	554	553	551	550	550	550	550	550	550	551	552	555	558	561	568	574	579	589	600	606	610	615	619	626	629	632	637	639	641	646	648	650	653	655	656	658	660	662	662	663	664	664	664	664	664	664	664	663	662	661	659	658	657	654	653	652	649	649	648	645	645	645	644	643	641	641	641	640	640	640	640	640	641	641	641	642	643	643	643	643	643	643	643	643	643	643	642	641	640	637	636	635	634	632	630	629	627	624	624	623	617	610	604	586	586	582	542	530	520	503	497	492	492	491	490	488	488	488	488	488	488	488	488	488	488	488	488	489	489	489	489	490	490	492	493	494	497	498	500	502	503	504	507	508	508	509	509	508	508	508	507	506	505	505	505	504	504	504	504	504	504	504	504	504	504	504	504	503	503	503	502	502	501	501	500	500	500	498	498	498	498	498	498	498	498	498	498	498	499	500	501	502	503	504	505	508	510	511	514	516	518	520	521	522	522	522	522	520	518	517	514	513	511	508	506	504	504	504	503	503	503	502	502	502	502	503	503	503	503	502	502	502	502	501	501	501	500	500	500	500	500	500	500	501	501	503	505	507	510	513	515	519	522	525	534	541	546	554	559	562	566	570	573	577	580	582	586	591	594	602	606	610	620	625	630	640	644	648	655	657	659	663	664	666	668	669	671	673	674	675	677	677	678	680	680	681	684	685	686	686	687	688	689	689	690	692	692	692	692	692	693	693	693	693	693	692	691	691	691	690	689	689	688	687	686	686	685	685	685	684	683	682	681
1154	1156	1160	1160	1163	1171	1180	1185	1193	1207	1216	1229	1243	1253	1273	1283	1291	1306	1316	1324	1341	1347	1352	1364	1369	1374	1386	1386	1386	1386	1386	1386	1386	1382	1378	1371	1371	1371	1371	1371	1371	1371	1371	1371	1371	1371	1371	1371	1375	1379	1371	1371	1371	1349	1342	1334	1313	1306	1299	1280	1273	1266	1248	1242	1235	1229	1229	1229	1224	1221	1217	1217	1219	1223	1218	1215	1211	1206	1205	1205	1200	1197	1193	1193	1193	1193	1193	1193	1193	1198	1201	1205	1210	1212	1217	1217	1218	1223	1219	1217	1217	1209	1205	1205	1201	1198	1193	1193	1193	1193	1193	1194	1199	1199	1199	1199	1192	1187	1187	1187	1187	1187	1181	1174	1149	1135	1122	1098	1085	1073	1038	1027	1017	993	985	977	962	955	947	937	933	929	920	912	902	879	866	850	815	811	811	92	0	0	592	676	664	653	649	645	641	639	638	636	636	635	633	632	631	629	628	627	625	625	624	624	624	622	621	620	620	619	619	619	619	619	619	619	619	619	619	619	620	620	620	620	620	620	620	620	620	620	622	624	624	624	624	624	624	624	625	625	625	627	627	627	628	629	630	630	630	631	631	632	633	633	633	633	631	631	631	630	630	630	628	628	628	627	626	625	624	623	622	622	621	620	620	620	619	619	619	619	617	617	617	617	617	617	617	617	617	618	619	619	618	617	617	618	619	619	619	619	619	618	617	617	618	619	619	619	619	620	620	620	620	620	620	620	620	620	619	619	619	619	618	617	616	615	614	613	612	610	607	605	602	599	598	597	592	591	589	587	586	584	581	580	578	576	575	573	572	571	569	567	566	564	562	560	559	557	556	555	554	553	551	550	550	550	550	550	550	551	552	554	557	560	567	573	578	587	594	599	608	613	617	624	628	631	636	639	641	645	648	650	653	654	655	658	660	662	662	663	664	664	664	664	664	664	664	662	661	660	658	658	657	653	652	650	648	648	648	645	645	645	643	642	641	641	641	640	640	640	640	640	640	641	641	642	643	643	643	643	643	643	643	643	643	643	642	641	640	637	636	635	634	632	630	629	628	625	624	623	617	610	603	587	587	583	542	530	521	503	497	492	491	490	490	488	487	487	487	488	488	488	488	488	488	488	488	489	489	489	489	490	491	493	494	495	498	499	501	503	504	505	508	508	509	510	510	509	509	509	508	506	506	506	505	505	504	504	504	504	504	504	504	504	504	504	504	504	503	503	503	502	501	501	500	500	500	499	499	499	499	499	499	499	499	499	499	499	499	501	502	502	504	505	506	510	511	512	516	518	519	521	521	522	524	524	524	521	520	518	515	514	512	509	507	505	504	504	503	503	503	502	502	502	502	503	503	503	502	502	502	502	502	501	501	501	501	501	501	501	501	501	501	502	503	505	508	510	513	516	520	527	527	529	537	544	548	556	561	565	568	571	574	578	581	583	588	592	596	604	608	612	620	625	630	640	643	646	653	656	658	662	663	664	667	668	669	673	673	674	676	676	676	680	680	680	684	685	686	686	686	687	689	689	689	691	691	691	691	691	691	691	691	691	691	690	689	689	689	689	687	687	687	686	686	686	685	684	684	683	682	682	681
1165	1165	1165	1170	1173	1176	1185	1192	1205	1214	1222	1235	1254	1265	1279	1294	1304	1320	1330	1337	1349	1359	1365	1371	1376	1379	1379	1384	1386	1386	1382	1379	1379	1374	1371	1371	1371	1371	1371	1371	1371	1371	1371	1371	1371	1371	1371	1379	1379	1379	1379	1375	1371	1364	1353	1341	1327	1317	1306	1293	1284	1273	1261	1254	1247	1236	1233	1229	1229	1229	1229	1229	1229	1229	1224	1221	1217	1212	1209	1205	1205	1203	1199	1194	1191	1187	1187	1187	1187	1192	1195	1199	1204	1205	1205	1209	1212	1217	1213	1211	1211	1207	1205	1205	1201	1199	1199	1195	1193	1193	1193	1193	1193	1193	1193	1193	1189	1187	1187	1187	1187	1187	1181	1176	1176	533	0	0	561	1061	1038	1027	1017	993	985	977	962	955	947	937	933	929	920	913	906	891	880	865	836	827	819	776	771	771	702	683	669	655	650	643	641	639	636	635	635	635	633	632	631	629	628	627	625	625	624	624	624	622	621	620	619	618	617	617	617	617	617	617	617	617	618	619	619	619	619	619	619	619	619	620	620	620	620	620	620	620	620	620	621	622	622	623	624	625	625	625	627	627	627	628	629	630	630	630	631	631	631	631	631	631	630	630	629	628	628	628	627	625	625	625	624	623	622	622	621	620	619	619	619	617	617	617	617	617	617	616	616	616	616	616	616	616	616	617	617	617	617	617	617	617	617	617	617	617	617	617	617	617	619	619	619	619	619	619	619	619	619	619	619	619	619	619	619	619	618	617	616	615	614	613	612	611	608	607	605	602	601	599	597	595	592	589	588	587	584	583	581	578	577	576	574	573	572	570	568	567	565	563	561	559	558	556	554	554	553	552	551	551	551	551	551	551	552	554	557	560	564	571	576	584	591	596	605	611	615	622	627	631	636	639	641	645	647	648	653	654	655	657	659	660	662	662	662	662	662	662	662	661	660	660	659	658	655	654	653	651	651	650	648	647	646	645	645	645	643	642	641	641	641	640	640	640	640	640	640	641	641	642	643	643	643	643	643	643	643	643	643	643	642	641	640	639	638	636	634	633	631	629	628	625	624	623	617	610	603	587	587	583	543	531	521	503	497	492	490	489	489	487	487	487	487	487	487	487	487	487	487	487	488	489	489	489	490	490	491	494	495	496	499	500	502	504	505	506	509	509	510	510	510	510	509	509	509	508	507	506	506	506	505	505	505	505	505	505	505	505	505	505	504	504	503	503	503	502	502	502	502	501	501	500	500	500	500	500	500	500	500	500	501	502	502	503	504	504	506	508	509	512	513	514	517	518	519	522	523	524	524	524	524	522	521	519	517	515	513	510	509	508	505	505	504	503	503	502	502	502	502	502	502	502	501	501	501	501	501	501	501	501	501	502	502	502	503	503	505	508	510	512	514	516	518	523	527	533	533	535	542	547	551	558	562	565	569	572	575	580	583	586	591	595	599	605	610	614	622	626	630	638	642	645	651	653	655	658	659	660	664	664	665	669	670	671	674	674	674	678	679	680	682	683	684	684	685	686	687	687	687	689	689	689	689	688	687	687	687	687	687	687	687	687	687	686	686	686	684	684	684	684	683	682	682	682	682	680	679
1168	1168	1168	1172	1175	1179	1185	1193	1208	1217	1226	1241	1258	1267	1279	1296	1307	1324	1334	1341	1352	1361	1366	1375	1378	1379	1379	1384	1385	1382	1380	1378	1375	1373	1371	1368	1368	1368	1371	1371	1371	1371	1371	1371	1375	1375	1375	1382	1382	1383	1382	1380	1378	1368	1358	1348	1331	1321	1310	1297	1289	1280	1267	1261	1254	1242	1240	1238	1235	1235	1235	1235	1235	1235	1230	1227	1223	1215	1213	1211	1206	1203	1199	1194	1191	1187	1187	1187	1187	1192	1194	1196	1201	1203	1205	1207	1209	1214	1212	1210	1208	1206	1204	1202	1200	1199	1199	1195	1193	1193	1195	1196	1193	1193	1193	1193	1188	1184	1184	1186	1142	594	590	588	588	266	0	0	561	1061	1040	1030	1019	999	991	983	968	960	952	942	938	933	923	918	912	899	889	876	847	834	819	776	771	771	402	463	672	657	650	643	640	638	636	635	635	635	633	632	631	629	628	627	626	626	624	624	624	623	621	620	619	618	617	617	617	616	616	616	616	616	617	618	618	618	618	618	618	619	619	619	620	620	620	620	620	620	620	620	620	621	621	622	623	624	624	624	626	626	626	627	628	629	629	630	630	630	630	630	630	630	629	629	628	628	628	627	626	625	625	624	623	623	622	621	621	620	619	619	618	617	617	616	616	616	616	615	615	615	615	615	615	616	616	616	616	616	616	616	616	616	617	617	617	617	617	617	617	617	618	618	618	618	619	619	619	619	619	619	619	619	619	619	619	619	618	617	616	616	615	614	613	612	609	608	606	604	602	600	598	596	594	591	590	588	585	584	582	580	579	577	575	574	573	571	570	568	566	565	562	561	559	558	556	555	554	553	552	552	552	552	552	552	552	554	558	560	564	571	576	584	591	596	604	610	615	622	627	631	636	639	641	645	647	648	653	654	655	657	658	659	661	661	661	661	661	661	660	660	659	659	658	656	654	653	652	650	649	649	647	646	646	644	644	644	642	642	641	641	641	640	640	640	640	640	640	641	641	642	643	643	643	643	644	644	644	644	644	643	642	641	640	639	638	636	635	633	631	630	628	625	624	623	618	611	604	588	588	584	544	532	521	503	497	492	490	489	488	486	486	486	486	486	486	486	486	486	487	487	488	489	489	489	490	490	491	494	495	496	499	500	502	504	505	506	509	509	510	510	510	510	509	509	509	508	508	507	506	506	506	505	505	505	505	505	505	505	505	505	504	504	504	503	503	502	502	502	502	502	501	500	500	500	500	500	500	500	500	501	502	502	503	504	504	505	507	508	510	512	513	514	517	518	518	521	522	522	523	523	523	522	520	519	517	515	514	510	509	507	505	505	504	503	502	502	502	502	502	502	502	502	501	501	501	501	501	501	501	502	502	503	503	504	504	505	508	510	512	514	517	518	522	525	528	534	534	536	543	549	553	558	562	565	569	573	576	582	584	587	592	596	599	606	611	615	622	627	631	638	641	644	650	651	653	656	657	658	662	663	664	667	668	670	673	674	674	677	678	679	681	682	683	684	685	686	686	686	686	688	688	688	688	688	686	686	686	686	686	686	686	686	686	685	685	685	684	683	683	683	682	682	681	681	681	680	679
1171	1171	1171	1175	1178	1182	1186	1194	1211	1220	1229	1247	1261	1269	1279	1299	1311	1327	1337	1344	1356	1362	1367	1379	1379	1379	1379	1384	1385	1379	1379	1378	1371	1371	1370	1364	1364	1365	1371	1371	1371	1371	1371	1371	1379	1379	1379	1386	1386	1386	1386	1386	1386	1371	1364	1356	1334	1324	1313	1300	1293	1286	1274	1267	1260	1248	1247	1247	1242	1241	1241	1241	1241	1241	1236	1233	1229	1219	1217	1217	1207	1203	1199	1194	1191	1187	1187	1187	1187	1192	1193	1193	1198	1200	1205	1205	1206	1211	1211	1210	1205	1205	1204	1199	1199	1199	1199	1195	1193	1193	1197	1198	1193	1193	1193	1193	1186	1182	1182	1185	1097	0	0	0	0	0	0	0	561	1061	1043	1032	1021	1005	997	989	973	966	958	947	942	937	927	923	919	907	898	886	859	841	819	776	771	771	102	242	676	658	651	643	639	637	635	635	635	635	633	632	631	630	629	627	627	626	624	624	624	624	621	620	619	618	617	617	616	616	616	616	616	616	616	616	616	616	616	616	618	619	619	619	619	619	619	619	619	619	619	619	620	620	620	621	622	624	624	624	625	625	625	627	627	628	628	629	630	630	630	630	630	629	628	628	628	627	627	626	625	625	625	624	622	622	622	620	620	619	619	618	617	617	617	616	616	616	614	614	614	614	614	614	614	615	616	616	616	616	616	616	616	616	617	617	617	617	617	617	617	617	617	617	617	617	618	619	619	619	619	619	619	619	619	619	619	619	618	617	616	616	616	614	614	613	610	609	608	605	604	602	599	597	595	592	591	589	586	584	583	581	580	578	576	575	574	572	571	569	567	566	564	562	560	559	557	556	554	554	554	553	553	553	553	553	553	555	558	560	564	571	576	584	590	595	604	610	615	622	627	631	636	639	641	645	647	648	653	654	655	657	658	658	660	660	660	660	660	660	658	658	658	657	656	655	653	652	650	648	648	648	646	646	645	643	643	643	641	641	641	641	641	640	640	640	640	640	640	641	641	642	643	643	643	643	645	645	645	645	645	643	642	641	640	639	638	636	635	634	631	630	629	625	624	623	619	612	605	589	589	585	544	532	522	503	497	492	489	488	488	486	486	486	486	486	486	486	486	486	487	487	487	489	489	489	490	490	491	494	495	497	499	500	502	504	505	506	509	509	510	510	510	510	509	509	509	508	508	508	506	506	506	505	505	505	505	505	505	505	505	505	504	504	504	503	503	503	502	502	502	502	502	501	501	501	501	501	501	501	501	501	502	503	503	504	505	505	508	509	510	512	513	514	517	518	518	520	520	521	522	522	522	521	520	519	517	516	514	510	508	506	505	505	504	503	502	501	501	501	501	501	501	501	501	501	501	501	501	501	502	502	503	504	504	505	506	507	510	513	515	517	519	521	525	528	530	536	536	537	544	550	554	559	563	566	569	573	577	583	585	588	594	597	600	607	612	616	622	627	631	638	641	643	648	650	651	653	655	657	660	662	664	665	667	669	673	673	673	676	677	678	680	681	682	684	685	686	686	686	686	687	687	687	687	687	686	686	686	686	686	686	686	686	685	684	684	684	684	683	682	682	682	682	680	680	680	680	679
1183	1182	1182	1186	1189	1193	1198	1204	1217	1226	1235	1253	1268	1276	1286	1296	1304	1320	1330	1337	1349	1359	1364	1364	1364	1365	1371	1371	1370	1364	1364	1363	1356	1356	1356	1356	1356	1356	1356	1361	1364	1364	1368	1371	1371	1371	1371	1371	1375	1379	1386	1382	1379	1371	1364	1356	1334	1327	1320	1307	1300	1293	1280	1273	1266	1260	1257	1253	1253	1253	1253	1259	1257	1253	1248	1243	1235	1230	1227	1223	1213	1209	1205	1200	1197	1193	1188	1187	1187	1192	1193	1193	1193	1193	1193	1193	1194	1199	1203	1204	1199	1199	1199	1199	1199	1198	1193	1193	1193	1193	1197	1198	1193	1193	1193	1193	1186	1182	1182	1182	1182	1176	1170	1165	1165	528	0	0	0	20	1052	1045	1038	1026	1022	1017	997	989	981	967	961	955	945	939	933	920	912	902	874	858	838	818	800	773	773	742	686	664	654	643	639	637	635	635	635	635	633	632	631	630	629	628	627	627	625	625	625	624	621	620	619	618	617	616	616	616	614	614	614	614	614	614	616	616	616	616	616	616	616	616	616	617	617	617	617	617	617	619	619	619	620	620	620	622	622	622	624	624	624	625	626	627	627	627	627	628	628	628	628	628	628	627	627	627	625	625	625	624	624	624	622	621	620	620	620	619	617	617	616	616	616	616	614	614	614	614	614	614	614	614	614	614	614	614	615	616	616	616	616	616	616	616	616	616	616	616	616	616	617	617	617	617	617	617	617	618	619	619	619	619	617	617	617	617	617	617	617	617	616	616	615	614	613	612	610	607	606	605	602	601	599	595	594	592	589	588	587	584	582	580	578	577	576	574	573	572	570	568	567	565	564	563	560	559	558	557	556	555	555	555	555	555	556	558	560	562	567	572	576	585	591	595	604	610	615	624	628	632	638	640	641	646	647	648	653	654	655	657	658	658	660	660	660	658	658	657	657	656	655	653	652	651	650	649	648	646	646	645	645	644	643	641	641	641	641	641	641	641	641	640	640	640	640	640	640	640	641	641	641	643	643	643	643	643	643	643	643	643	642	641	640	639	638	636	635	634	631	630	630	627	625	623	617	611	605	591	591	535	0	307	523	504	497	492	489	488	488	486	485	485	485	485	485	485	485	485	486	486	487	488	488	489	490	490	491	494	495	496	499	500	501	503	504	505	508	508	509	510	510	510	510	510	509	508	508	508	508	507	506	506	506	505	505	505	505	505	505	505	505	505	504	504	504	503	503	503	503	502	502	502	502	502	502	502	502	502	502	502	503	503	503	505	505	505	508	509	509	511	512	513	515	516	517	518	519	520	521	521	520	520	519	518	516	515	513	510	508	506	505	504	503	502	502	501	500	500	500	500	500	500	500	500	500	500	500	501	502	503	504	505	506	508	510	511	514	517	519	522	525	527	530	533	536	541	541	542	549	553	556	560	563	566	572	575	578	584	587	590	597	600	603	610	614	617	624	628	631	636	639	641	645	647	648	651	652	653	657	658	660	664	664	665	669	670	671	674	675	676	678	679	680	682	683	684	684	685	686	686	686	686	684	684	684	684	684	684	684	684	684	684	683	682	682	682	682	682	682	682	682	682	680	680	680	678	677
1188	1188	1188	1190	1191	1193	1200	1207	1220	1229	1238	1253	1263	1270	1282	1292	1301	1316	1327	1334	1345	1353	1356	1356	1356	1357	1360	1360	1360	1360	1358	1355	1348	1348	1348	1348	1348	1349	1352	1355	1356	1356	1360	1364	1368	1368	1368	1368	1371	1375	1378	1377	1375	1368	1360	1352	1334	1329	1324	1310	1303	1296	1283	1278	1272	1267	1265	1263	1263	1263	1263	1269	1267	1263	1257	1252	1244	1239	1235	1229	1219	1214	1208	1201	1198	1196	1189	1187	1187	1192	1192	1190	1190	1190	1190	1192	1194	1196	1200	1201	1199	1199	1199	1199	1199	1198	1193	1193	1193	1193	1197	1198	1193	1193	1193	1193	830	647	1182	1182	1182	1176	1170	1165	1165	528	0	0	0	20	1061	1054	1047	1039	1035	1030	1012	1003	993	980	977	974	951	944	936	924	916	907	880	866	848	820	800	773	773	619	343	616	658	644	639	637	636	635	635	635	634	634	633	631	630	629	628	627	625	625	624	624	621	620	619	618	617	616	616	616	614	614	614	614	614	614	615	615	615	615	615	615	615	616	616	616	616	616	616	616	617	618	618	618	620	620	620	621	621	621	623	623	624	624	625	626	626	626	626	627	628	628	628	628	628	627	627	626	625	625	625	624	624	624	622	621	620	620	620	619	617	617	616	616	616	616	614	614	614	614	614	614	614	614	614	614	614	614	615	615	615	615	615	616	616	616	616	616	616	616	616	616	617	617	617	617	617	617	617	618	618	618	618	618	617	617	617	617	617	617	617	617	616	616	616	615	614	613	612	609	608	606	604	602	600	597	596	594	591	589	588	585	583	582	580	578	577	575	574	573	571	570	568	566	565	564	561	560	559	558	557	556	556	556	556	556	557	559	561	563	568	573	578	586	592	597	604	611	616	624	629	633	638	640	642	646	648	649	652	653	654	656	657	658	658	658	658	656	656	656	655	654	653	652	651	650	649	648	646	646	645	644	643	643	642	641	641	641	641	641	640	640	640	640	640	640	640	640	640	640	640	641	641	642	642	642	642	642	642	642	642	642	641	641	640	639	638	636	635	633	631	630	629	626	624	622	616	610	604	590	590	534	0	307	524	504	497	492	489	488	487	486	485	485	485	485	484	484	485	485	485	486	486	488	488	489	490	490	491	494	495	496	499	500	501	502	503	504	507	508	508	509	510	510	510	509	509	509	508	508	508	507	506	506	506	506	506	505	505	505	505	505	505	505	504	504	504	503	503	503	502	502	502	502	502	502	502	502	502	502	502	502	503	503	503	504	505	505	507	508	509	510	511	512	514	515	516	517	518	518	519	520	520	519	518	517	515	514	512	510	508	506	505	504	502	501	501	500	500	499	499	499	499	500	500	500	500	500	500	501	502	503	504	506	508	510	511	513	516	520	522	525	528	529	532	536	539	543	543	544	550	554	557	562	565	567	572	576	579	586	589	591	598	601	604	612	615	618	624	628	631	636	638	640	644	645	646	650	650	652	656	657	659	663	664	664	668	669	670	672	674	675	677	678	679	681	682	683	683	683	684	684	684	685	683	683	683	683	683	683	683	683	683	683	682	681	681	681	681	681	681	681	681	681	680	679	679	678	677
1194	1193	1193	1193	1193	1193	1203	1210	1223	1232	1240	1253	1258	1265	1279	1289	1298	1313	1323	1330	1341	1347	1349	1349	1349	1349	1349	1349	1350	1356	1352	1348	1341	1341	1341	1341	1341	1342	1349	1349	1349	1349	1353	1356	1364	1364	1364	1364	1368	1371	1371	1371	1371	1364	1357	1349	1334	1331	1327	1314	1307	1299	1287	1283	1279	1273	1273	1273	1273	1273	1273	1278	1277	1273	1267	1261	1253	1248	1243	1235	1225	1219	1211	1201	1199	1199	1189	1187	1187	1192	1191	1187	1187	1187	1187	1191	1193	1193	1197	1199	1199	1199	1199	1199	1199	1198	1193	1193	1193	1193	1197	1198	1193	1193	1193	1193	473	112	1182	1182	1182	1176	1170	1165	1165	528	0	0	0	20	1070	1063	1056	1052	1048	1043	1026	1016	1005	993	993	993	957	948	940	927	920	912	886	873	859	821	800	773	773	496	0	568	661	646	639	637	636	635	635	635	635	635	635	632	631	630	628	627	625	624	624	624	621	620	619	618	617	616	616	616	614	614	614	614	614	614	614	614	614	614	614	614	614	615	616	616	616	616	616	616	616	617	617	617	619	619	619	620	620	620	622	623	624	624	624	625	625	625	625	627	627	627	627	627	627	627	626	625	625	625	625	624	624	624	622	621	620	620	620	619	617	617	616	616	616	616	614	614	614	613	613	613	613	613	613	614	614	614	614	614	614	614	614	616	616	616	616	616	616	616	616	616	617	617	617	617	617	617	617	617	617	617	617	617	617	617	617	617	617	617	617	617	617	617	617	616	614	614	613	610	609	608	605	604	602	599	597	595	592	591	588	585	585	584	581	579	578	576	575	574	572	571	569	567	566	565	562	561	560	559	559	558	558	558	558	558	558	560	563	565	569	575	579	587	593	598	605	612	617	625	630	633	638	641	643	646	648	650	651	652	653	655	656	657	657	657	657	655	655	655	653	652	651	650	649	648	648	647	645	645	644	643	641	641	641	641	641	641	641	641	640	640	640	640	640	640	640	640	640	640	640	640	641	641	641	641	641	641	641	641	641	641	641	641	640	639	638	636	634	633	631	629	628	625	623	621	616	609	602	589	589	533	0	308	524	504	498	493	489	488	487	485	485	485	485	484	484	484	484	485	485	485	486	488	488	489	490	490	491	494	495	496	499	500	501	502	503	504	506	507	508	509	509	510	509	509	509	509	509	509	508	507	506	506	506	506	506	506	505	505	505	505	505	505	504	504	504	503	503	503	502	502	502	502	502	502	502	502	502	502	502	502	503	503	503	504	505	505	506	507	508	510	511	511	513	514	515	516	516	517	518	518	519	518	517	516	514	513	512	509	508	506	504	503	502	500	500	499	499	499	498	498	498	499	499	499	499	500	500	501	503	504	505	508	510	511	513	515	518	522	525	528	530	532	535	538	541	545	545	546	551	556	559	563	566	569	573	577	581	587	590	593	599	603	606	613	616	619	625	628	631	635	637	638	643	644	645	648	649	650	655	656	658	662	663	664	667	668	669	671	672	674	676	677	678	680	681	682	682	682	682	682	683	684	682	682	682	682	682	682	682	682	682	682	681	680	680	680	680	680	680	680	680	680	680	679	678	678	677
1206	1203	1199	1199	1201	1205	1215	1220	1229	1234	1238	1247	1257	1261	1266	1276	1284	1299	1304	1307	1313	1323	1327	1327	1327	1328	1334	1334	1335	1341	1337	1334	1334	1330	1327	1327	1327	1328	1334	1338	1341	1341	1341	1341	1349	1353	1356	1356	1356	1356	1364	1364	1364	1356	1349	1341	1334	1331	1327	1320	1314	1306	1299	1296	1293	1287	1286	1286	1286	1289	1293	1298	1297	1293	1287	1281	1273	1262	1258	1253	1243	1235	1223	1213	1209	1205	1195	1193	1193	1193	1191	1187	1187	1187	1187	1191	1193	1193	1197	1199	1199	1199	1199	1199	1199	1198	1193	1193	1193	1193	1197	1198	1193	1193	1193	1193	1193	1192	1182	1182	1093	0	0	65	1154	1145	1138	1128	1123	1118	1108	1103	1098	1098	1098	1098	1053	1044	1034	1034	1024	1013	990	976	958	941	931	919	895	884	871	835	830	830	776	768	768	697	675	658	647	644	641	640	640	640	638	638	638	636	634	631	630	629	627	625	624	624	623	621	619	618	617	616	616	616	614	614	614	614	613	613	613	613	613	613	613	613	613	614	614	614	615	616	616	616	616	617	617	617	619	619	619	619	619	620	620	621	622	622	623	624	624	624	625	625	625	625	627	626	625	625	625	625	625	625	625	624	623	622	622	621	620	619	619	619	617	617	616	616	615	614	614	614	614	613	613	613	613	613	613	613	613	614	614	614	614	614	614	614	614	614	616	616	616	616	616	616	617	617	617	617	617	617	617	617	617	617	617	617	617	617	617	617	617	617	617	617	617	617	617	617	616	615	614	613	612	611	608	607	605	602	600	598	595	594	592	589	588	587	585	583	581	579	577	576	574	573	572	570	568	567	565	563	561	561	561	560	559	559	559	559	559	561	565	568	572	577	581	589	594	598	607	613	617	627	632	635	640	642	643	646	648	650	651	652	653	655	655	655	655	655	655	653	652	651	650	650	650	648	647	646	645	644	643	641	641	641	641	641	640	640	639	638	638	638	638	638	638	638	638	638	638	638	638	638	638	638	638	640	640	640	640	640	641	640	640	640	640	640	638	637	636	635	634	632	630	629	628	625	623	621	616	607	601	589	578	571	571	545	524	504	498	493	489	487	486	484	484	484	483	483	483	483	483	484	485	485	486	488	488	489	490	491	492	494	495	496	498	499	500	502	503	504	505	506	508	509	509	509	509	509	509	509	509	509	508	508	508	506	506	506	506	506	506	505	505	505	504	504	504	504	504	503	503	503	502	502	502	501	501	501	501	502	502	502	502	502	502	503	503	503	504	504	505	506	506	508	509	510	511	512	512	513	513	514	515	515	515	515	514	513	511	510	509	506	505	504	502	501	500	499	499	498	497	497	497	497	497	498	498	498	498	500	500	501	503	504	508	510	512	515	518	520	524	528	530	534	536	538	541	544	546	550	550	551	555	558	561	565	569	572	576	581	585	589	593	596	602	606	609	616	619	622	627	629	631	635	637	638	640	642	643	646	647	648	651	653	655	658	660	662	664	665	667	669	671	673	674	675	676	678	678	678	680	680	680	680	680	680	680	680	680	680	680	680	680	680	680	680	680	680	680	680	680	680	680	680	679	678	678	678	678	676	676
1212	1209	1205	1205	1206	1208	1218	1223	1229	1234	1237	1244	1251	1256	1263	1270	1276	1286	1296	1301	1306	1313	1317	1320	1320	1321	1327	1327	1328	1330	1328	1327	1327	1325	1324	1324	1324	1324	1330	1333	1334	1338	1338	1338	1342	1345	1349	1352	1352	1353	1356	1358	1360	1352	1347	1341	1334	1331	1327	1320	1315	1310	1303	1301	1300	1296	1296	1296	1296	1299	1303	1309	1308	1306	1297	1291	1283	1272	1266	1260	1249	1241	1229	1219	1214	1208	1198	1195	1193	1193	1192	1190	1190	1190	1190	1192	1194	1196	1198	1199	1199	1199	1199	1199	1199	1198	1196	1196	1196	1193	1195	1196	1193	1193	1193	1193	1193	1192	1182	1182	1138	594	592	623	1154	1145	1138	1128	1123	1118	1108	1103	1098	1098	1098	1098	1066	1057	1048	1036	1026	1013	990	978	964	944	933	921	898	888	877	842	833	826	776	768	768	701	680	662	650	646	642	642	641	640	640	639	639	637	636	633	631	630	628	626	626	626	624	622	620	619	618	616	615	615	614	614	614	614	613	612	612	612	612	612	613	613	613	614	614	614	615	616	616	616	616	616	617	617	618	618	618	618	619	620	620	620	621	622	622	623	624	624	624	624	625	625	626	626	625	625	625	625	625	625	624	624	623	622	622	621	620	619	619	619	617	617	616	616	615	614	614	614	614	613	613	613	613	613	613	613	613	614	614	614	614	614	614	614	614	614	616	616	616	616	616	616	617	617	617	617	617	617	617	617	617	617	617	617	617	617	617	617	617	617	617	617	617	617	617	617	617	616	615	614	613	612	610	609	608	604	602	600	597	596	594	591	590	588	586	585	582	580	579	577	576	575	573	571	570	568	566	565	563	562	562	562	560	560	560	561	561	562	566	569	573	579	583	590	595	599	607	613	618	628	632	636	640	643	644	646	648	650	651	652	652	654	654	654	653	653	653	652	651	650	649	649	648	647	646	646	643	643	642	641	640	640	640	639	639	639	639	638	638	638	637	637	637	637	637	637	637	637	637	637	638	638	638	639	639	640	639	639	640	639	639	639	639	639	637	636	635	634	633	632	630	628	627	624	622	620	615	607	600	588	578	571	571	391	262	252	388	493	489	487	486	484	484	483	483	483	482	482	483	484	484	485	486	487	488	489	489	490	492	494	495	496	498	499	500	502	503	504	505	506	507	509	509	509	509	509	509	509	509	509	509	508	508	507	507	506	506	506	506	506	505	505	504	504	504	504	503	503	503	502	502	502	501	501	501	500	500	501	501	501	501	501	502	502	502	502	503	503	504	505	505	506	507	508	510	510	510	512	512	512	513	514	514	513	512	512	510	509	508	505	504	503	502	501	500	498	498	498	497	496	496	496	497	498	498	498	498	499	500	500	502	504	508	510	512	516	519	521	525	529	531	536	538	540	542	545	547	552	553	554	556	559	561	566	570	573	578	582	585	590	594	598	604	607	610	618	621	623	628	629	631	635	636	637	640	642	643	646	647	648	650	652	654	657	659	661	663	664	666	668	670	672	672	673	675	676	676	677	678	678	679	679	679	679	678	678	678	679	679	679	679	679	679	679	679	679	679	679	679	679	679	679	678	678	678	678	678	676	676
1218	1215	1211	1211	1211	1211	1221	1225	1229	1234	1237	1241	1246	1250	1260	1264	1268	1273	1287	1294	1299	1304	1307	1313	1313	1314	1320	1320	1320	1320	1320	1320	1320	1320	1320	1320	1320	1321	1327	1327	1328	1334	1334	1334	1334	1338	1341	1349	1349	1349	1349	1353	1356	1349	1345	1341	1334	1331	1327	1320	1317	1313	1306	1306	1306	1306	1306	1306	1306	1309	1313	1319	1320	1320	1308	1301	1293	1281	1275	1266	1255	1247	1235	1225	1219	1211	1201	1197	1193	1193	1193	1193	1193	1193	1193	1193	1194	1199	1199	1199	1199	1199	1199	1199	1199	1199	1199	1199	1198	1193	1193	1193	1193	1193	1193	1193	1193	1192	1182	1182	1182	1187	1184	1180	1154	1145	1138	1128	1123	1118	1108	1103	1098	1098	1098	1098	1079	1071	1061	1039	1027	1013	990	980	969	946	935	923	901	893	883	848	836	822	775	768	768	706	685	665	653	648	643	643	642	641	641	641	640	638	637	635	632	631	630	628	627	627	625	624	622	620	618	616	615	614	614	613	613	613	612	611	611	611	611	611	612	613	613	614	614	614	615	616	616	616	616	616	617	617	617	617	617	617	618	619	619	619	620	622	622	622	624	624	624	624	624	625	625	625	625	625	625	625	625	625	624	624	623	622	622	621	620	619	619	619	617	617	616	616	615	614	614	614	614	613	613	613	613	613	613	613	613	614	614	614	614	614	614	614	614	614	616	616	616	616	616	616	617	617	617	617	617	617	617	617	617	617	617	617	617	617	617	617	617	617	617	617	617	617	617	617	617	617	616	614	614	613	611	611	610	606	604	602	599	598	595	592	591	589	587	586	584	582	580	578	577	576	574	572	571	569	567	567	565	564	563	563	562	561	561	562	563	564	567	570	574	580	584	591	595	599	607	613	618	628	633	636	641	643	645	646	648	650	651	651	651	653	653	653	651	651	651	650	649	648	648	647	646	645	645	645	641	641	641	640	640	640	638	638	638	638	638	638	638	637	636	636	636	636	636	636	636	636	636	636	638	638	638	638	639	640	638	638	638	638	638	638	638	638	636	635	635	633	633	632	630	628	627	624	621	619	614	607	600	588	578	571	571	237	0	0	279	493	489	487	486	483	483	483	483	482	482	482	482	483	483	484	485	487	488	489	489	490	491	494	495	496	498	499	500	502	502	503	505	505	506	509	509	509	509	509	509	509	509	509	509	509	508	508	507	506	506	506	506	506	506	505	504	504	504	503	503	503	502	502	501	501	501	501	500	500	500	500	500	500	500	500	501	502	502	502	502	502	503	504	504	505	506	506	509	509	509	510	510	511	512	512	512	511	511	510	509	508	506	504	503	502	501	500	499	497	497	497	496	496	496	496	496	497	497	497	498	499	499	500	502	504	508	510	512	516	519	521	526	530	532	537	540	542	544	547	549	553	556	558	558	560	562	567	571	574	580	583	586	592	596	600	605	609	612	619	622	624	628	630	631	635	636	636	640	642	643	645	646	648	650	651	653	657	658	660	662	663	665	667	669	671	671	672	674	674	675	676	676	677	678	678	678	678	676	676	676	678	678	678	678	678	678	678	678	678	678	678	678	678	678	678	678	678	678	678	678	676	676
1230	1225	1217	1217	1219	1223	1223	1225	1229	1234	1237	1241	1246	1248	1253	1263	1268	1273	1277	1280	1286	1295	1300	1306	1306	1306	1306	1311	1313	1313	1313	1313	1313	1313	1313	1313	1313	1313	1313	1317	1320	1320	1320	1320	1327	1331	1334	1341	1341	1341	1349	1349	1349	1349	1345	1341	1327	1327	1327	1320	1320	1320	1313	1313	1313	1313	1313	1313	1319	1323	1327	1333	1334	1334	1322	1315	1306	1295	1288	1279	1268	1260	1247	1232	1225	1217	1207	1203	1199	1199	1199	1199	1194	1193	1193	1193	1194	1199	1199	1199	1199	1199	1199	1199	1199	1198	1193	1193	1193	1193	1193	1193	1193	1193	1193	1193	1193	1193	1193	1193	1193	1187	1184	1181	1165	1159	1154	1149	1143	1138	1128	1120	1113	1113	1115	1118	1103	1092	1079	1062	1047	1030	1030	1010	985	960	945	926	899	892	886	857	841	822	822	527	0	0	230	678	661	655	648	648	648	648	646	645	645	642	641	640	637	635	631	629	628	628	625	624	622	620	618	616	615	614	613	613	613	611	611	611	611	611	611	611	611	611	611	612	613	614	614	614	614	614	614	614	615	616	616	616	616	616	616	616	617	617	617	619	619	620	622	622	622	624	624	624	624	624	624	624	624	624	624	624	624	624	623	622	622	621	620	619	619	619	617	617	617	616	616	616	614	614	614	614	614	614	614	614	614	614	614	614	614	614	614	614	614	614	615	616	616	616	616	616	616	616	617	617	617	617	617	617	617	617	617	617	617	617	617	617	617	617	617	617	617	617	617	617	617	617	617	617	617	616	616	616	614	613	611	610	609	607	603	601	599	597	596	594	592	590	588	586	584	583	581	579	578	575	574	573	571	570	568	567	567	565	565	565	565	565	566	568	571	573	577	582	585	592	598	602	610	616	620	628	633	636	641	643	645	646	647	648	650	650	650	650	650	650	650	649	648	646	646	646	645	644	643	641	641	641	640	640	640	638	638	638	636	636	636	636	636	636	636	636	636	635	635	635	635	635	635	635	635	635	636	636	636	636	636	636	636	636	636	636	636	636	636	636	635	634	633	633	632	631	630	628	627	624	621	619	614	607	600	588	578	570	553	539	527	508	500	493	489	487	486	483	482	482	481	481	481	481	481	482	483	483	484	486	487	488	489	490	491	493	494	496	498	499	500	502	502	503	505	505	506	509	509	509	510	510	510	510	510	510	509	509	509	509	509	508	508	508	508	507	506	506	505	505	504	503	503	503	502	501	501	500	500	499	499	499	499	499	499	499	499	499	500	500	500	500	501	501	501	502	502	503	504	504	505	506	506	506	507	508	509	509	509	508	507	506	505	504	503	502	501	500	499	499	498	497	497	496	496	496	495	495	495	496	496	496	497	498	499	500	502	504	506	510	512	516	520	522	527	531	534	538	542	544	547	549	551	555	558	559	559	562	565	569	572	575	581	586	590	595	599	603	608	612	615	622	625	627	630	632	633	635	636	636	640	642	643	645	646	648	650	651	653	655	656	658	660	662	664	665	666	667	669	670	671	671	672	673	673	673	673	674	674	674	674	674	674	674	674	674	676	676	676	676	676	676	676	676	676	676	676	676	676	676	676	676	676	676	675
1237	1232	1226	1226	1227	1229	1229	1230	1232	1237	1240	1247	1249	1251	1253	1263	1268	1273	1277	1280	1286	1293	1297	1302	1302	1303	1306	1308	1310	1313	1313	1313	1313	1311	1310	1310	1310	1310	1313	1315	1316	1316	1316	1317	1324	1327	1331	1338	1339	1341	1345	1345	1345	1345	1343	1341	1327	1327	1327	1324	1324	1324	1320	1318	1316	1316	1318	1320	1326	1330	1334	1341	1342	1342	1329	1322	1313	1305	1297	1286	1275	1266	1254	1238	1230	1220	1210	1207	1205	1203	1201	1199	1197	1197	1199	1199	1199	1199	1199	1199	1199	1199	1199	1199	1199	1198	1193	1193	1193	1196	1196	1196	1196	1196	1196	1196	1194	1193	1193	1193	1193	1190	1187	1184	1170	1164	1159	1157	1151	1146	1136	1129	1123	1123	1125	1128	1116	1104	1091	1075	1059	1041	1033	1012	985	960	945	926	899	892	886	861	847	829	816	667	403	371	473	684	667	660	652	651	650	649	648	648	648	644	643	642	639	636	631	629	628	628	625	624	622	620	619	616	615	614	613	613	613	611	611	610	610	610	610	610	610	610	610	611	612	614	614	614	614	614	614	614	614	614	614	614	614	614	614	614	615	616	616	617	618	618	620	621	621	622	622	623	623	623	623	623	623	623	623	623	624	623	623	622	621	621	620	620	619	619	618	618	617	616	616	616	615	615	615	614	614	614	614	614	614	614	614	614	614	614	615	615	615	615	616	616	616	616	616	616	616	616	617	617	617	617	617	617	617	617	617	617	617	617	617	617	617	617	617	617	617	617	617	617	617	617	618	618	617	617	616	616	615	614	612	611	610	608	605	603	600	598	597	596	593	592	590	588	586	585	583	581	580	577	576	575	573	572	570	570	569	568	567	567	567	568	568	570	573	575	580	584	587	594	599	603	610	616	620	628	633	636	640	643	644	646	646	647	648	648	648	648	648	648	648	647	646	644	644	644	643	642	642	641	640	640	639	639	638	637	637	637	636	636	636	636	636	636	635	634	634	634	634	634	634	634	634	634	634	634	634	635	636	636	636	636	636	636	636	635	634	634	634	634	634	633	632	632	631	630	629	628	627	624	621	619	614	606	600	588	579	571	553	539	527	508	500	494	489	487	485	483	482	481	480	480	480	480	481	481	482	482	483	485	486	488	489	490	490	493	494	496	498	499	500	502	502	503	505	505	506	508	509	510	510	510	510	510	510	510	510	510	510	510	509	509	509	508	508	507	507	506	505	505	504	503	503	502	501	501	500	500	499	498	498	498	498	498	498	498	498	498	498	499	499	499	499	500	500	501	501	502	502	503	504	504	504	504	505	506	507	507	507	507	506	505	504	503	502	501	500	500	499	498	498	497	496	496	496	495	495	495	495	496	496	496	496	497	498	500	502	504	506	510	512	516	520	522	527	532	535	539	542	544	548	550	552	556	559	560	560	563	565	570	574	576	582	587	591	596	600	604	610	613	616	623	626	628	630	632	634	636	636	637	640	642	643	645	646	647	650	651	652	655	656	658	659	660	662	664	665	666	667	668	669	669	669	670	671	671	671	671	672	672	672	672	672	673	674	674	674	674	674	674	674	674	674	675	675	675	675	675	675	675	675	675	675	675	674
1243	1239	1235	1235	1235	1235	1235	1235	1235	1240	1244	1253	1253	1253	1253	1263	1268	1273	1277	1280	1286	1291	1294	1299	1299	1300	1306	1306	1307	1313	1313	1313	1313	1309	1306	1306	1306	1307	1313	1313	1313	1313	1313	1313	1320	1324	1327	1334	1338	1341	1341	1341	1341	1341	1341	1341	1327	1327	1327	1327	1327	1327	1327	1324	1320	1320	1323	1327	1333	1337	1341	1348	1349	1349	1336	1329	1320	1314	1306	1293	1281	1273	1260	1245	1236	1223	1213	1211	1211	1206	1203	1199	1199	1200	1205	1205	1204	1199	1199	1199	1199	1199	1199	1199	1199	1198	1193	1193	1194	1199	1199	1199	1199	1199	1199	1199	1195	1193	1193	1193	1193	1193	1190	1186	1176	1170	1165	1165	1159	1154	1144	1138	1133	1133	1135	1138	1128	1116	1103	1089	1072	1052	1035	1013	985	960	945	926	899	892	886	865	852	836	810	806	806	741	716	689	672	665	655	653	652	650	650	650	650	647	645	643	641	638	631	629	628	628	626	624	622	620	619	617	615	614	613	613	613	611	610	610	610	610	610	610	610	610	610	611	611	613	613	613	613	613	613	613	613	613	613	613	613	613	613	613	614	614	614	616	616	617	619	619	620	620	621	622	622	622	622	622	622	622	622	623	624	622	622	622	620	620	620	620	620	619	619	618	617	616	616	616	616	616	616	615	614	614	614	614	614	614	614	614	614	614	616	616	616	616	616	616	616	616	616	616	616	616	617	617	617	617	617	617	617	617	617	617	617	617	617	617	617	617	617	617	617	617	617	617	617	617	619	618	617	617	617	616	616	615	614	611	611	610	607	605	602	599	598	597	595	593	592	590	588	587	585	583	581	579	578	577	575	574	573	572	572	571	570	569	569	570	571	573	576	578	583	586	589	597	600	603	611	617	621	628	633	636	640	642	643	645	646	646	646	646	646	646	646	646	646	645	645	643	643	643	641	641	640	640	640	640	638	637	636	636	636	636	635	635	635	635	635	635	633	633	633	633	633	633	633	633	633	633	633	633	633	634	635	635	635	635	635	635	635	634	633	633	633	633	633	632	631	631	630	630	628	627	627	624	621	618	613	606	601	589	580	572	553	539	527	508	501	495	489	487	485	483	482	481	480	480	480	480	480	480	481	481	482	485	486	487	489	489	490	493	494	496	498	499	500	502	502	503	505	505	506	508	509	510	510	510	510	511	511	511	511	511	511	510	510	510	509	509	509	508	508	506	505	505	505	504	503	502	501	501	500	499	499	498	498	498	497	497	497	497	497	497	497	498	498	498	498	498	499	500	500	500	501	501	502	503	503	503	504	505	505	505	505	505	505	504	503	503	502	500	500	499	498	498	497	496	496	496	495	495	495	495	495	496	496	496	496	497	498	500	502	504	506	510	512	516	520	522	527	532	535	540	543	545	549	552	554	558	560	561	561	564	566	571	575	578	584	589	593	598	602	605	611	615	618	624	626	628	631	633	635	636	637	638	641	642	643	645	645	646	650	650	651	655	656	657	658	659	660	664	664	664	665	666	667	667	667	667	669	669	669	669	670	671	671	671	671	673	673	673	673	673	673	673	673	673	673	673	674	674	674	674	674	674	674	674	674	674	673
1262	1258	1253	1248	1247	1247	1247	1249	1253	1253	1255	1260	1260	1260	1260	1264	1268	1273	1277	1279	1279	1284	1287	1293	1297	1299	1299	1304	1306	1306	1306	1306	1306	1306	1305	1299	1299	1300	1306	1306	1307	1313	1313	1313	1320	1324	1327	1327	1331	1334	1334	1334	1334	1341	1341	1341	1327	1327	1327	1327	1327	1327	1334	1334	1334	1334	1334	1334	1340	1344	1349	1355	1356	1356	1343	1338	1334	1322	1315	1306	1289	1284	1279	1264	1254	1241	1231	1227	1223	1218	1217	1217	1212	1211	1211	1211	1211	1211	1207	1205	1205	1205	1205	1205	1201	1199	1199	1199	1199	1199	1199	1199	1199	1203	1205	1205	1209	1211	1211	1207	1205	1205	1205	1205	1199	1192	1187	1182	1179	1176	1165	1159	1154	1149	1149	1149	1154	1144	1133	1114	1095	1074	1036	1020	1001	969	952	933	897	889	883	867	856	841	811	806	806	741	730	730	685	671	660	658	656	653	653	653	653	651	648	643	641	639	635	632	630	628	628	627	624	621	619	617	616	615	613	612	611	610	609	608	608	608	608	608	608	608	608	609	610	611	610	610	610	610	610	610	610	610	610	610	610	610	610	611	611	612	613	614	614	614	616	616	616	617	618	619	620	620	620	620	620	620	622	622	622	622	622	622	620	620	620	620	620	620	619	618	617	617	617	617	616	616	616	616	616	616	616	616	616	616	616	616	616	616	616	616	616	616	616	616	617	617	617	616	616	616	617	617	617	617	616	616	616	616	616	616	616	616	616	617	617	616	616	616	616	616	616	617	617	617	617	618	619	619	618	617	617	617	616	614	614	613	610	609	607	604	603	601	599	597	595	594	593	591	589	587	585	584	583	581	580	580	578	577	577	576	576	576	576	576	576	578	581	584	587	592	595	599	603	606	613	617	621	628	632	635	638	640	641	643	643	643	643	643	643	643	643	643	641	641	641	641	641	640	640	639	638	638	637	636	636	636	635	635	635	635	633	633	633	633	632	631	631	631	631	631	631	631	631	631	631	631	631	631	631	631	631	631	631	631	631	631	631	631	631	630	630	630	630	630	630	628	628	628	627	626	625	622	620	618	613	606	601	592	592	589	555	543	532	512	504	497	490	487	485	482	481	481	480	479	479	479	479	480	481	481	482	484	485	486	489	489	490	493	494	496	498	499	500	502	502	503	505	505	506	508	509	510	510	510	511	511	511	512	512	512	512	512	512	511	510	510	510	509	509	508	507	506	505	504	504	502	501	501	500	499	498	497	496	496	496	496	496	496	496	496	496	496	496	496	497	497	497	498	498	498	499	499	500	501	501	502	502	502	503	503	503	503	503	502	502	502	501	500	500	499	497	497	496	495	495	495	495	495	495	495	495	495	495	495	496	497	498	500	502	503	505	509	512	516	520	523	528	533	537	542	546	548	551	554	556	560	563	564	564	567	569	573	577	581	587	591	595	601	605	608	614	618	620	625	628	630	631	633	635	636	637	638	641	642	643	645	645	646	650	650	651	653	655	657	658	658	658	660	661	662	662	662	662	664	664	664	664	664	665	665	665	665	667	667	667	667	668	669	669	669	669	671	671	671	671	671	671	671	671	673	673	673	673	673	673	673	672
1275	1270	1263	1258	1256	1256	1256	1257	1260	1260	1260	1263	1263	1263	1263	1268	1270	1273	1277	1279	1279	1284	1287	1293	1295	1297	1299	1304	1306	1306	1306	1306	1306	1306	1305	1299	1299	1299	1302	1305	1306	1310	1311	1313	1316	1320	1324	1327	1329	1330	1330	1332	1334	1341	1339	1338	1331	1330	1330	1330	1330	1330	1334	1336	1338	1338	1338	1338	1344	1350	1356	1360	1360	1360	1350	1345	1338	1326	1319	1310	1295	1290	1286	1270	1262	1250	1241	1236	1232	1227	1225	1223	1221	1220	1220	1220	1219	1217	1213	1211	1211	1211	1210	1208	1204	1202	1202	1202	1202	1202	1200	1199	1199	1203	1205	1205	1207	1208	1208	1204	1202	1202	1202	1202	1196	1190	1184	1182	1178	1173	1165	1159	1154	1146	1145	1144	1146	1140	1133	1116	1098	1076	1058	815	500	484	669	931	895	888	883	870	860	846	816	811	811	749	738	738	691	676	664	660	657	655	654	654	653	651	649	644	642	640	636	633	631	628	628	627	624	622	620	617	616	615	613	612	611	609	608	608	608	607	606	606	606	607	608	608	609	609	609	609	608	608	608	608	608	608	608	608	608	608	609	609	609	610	612	612	612	612	614	615	615	615	616	618	618	619	620	620	620	620	621	621	621	621	621	621	620	620	620	620	620	620	619	619	618	618	618	617	617	616	616	616	616	616	616	616	616	616	616	616	616	616	616	616	616	616	616	617	617	617	617	616	616	617	617	617	617	616	616	616	616	616	616	616	616	616	616	616	616	616	616	616	616	616	616	617	617	617	617	617	618	619	619	618	617	617	616	615	614	614	612	610	608	606	604	602	600	599	597	596	595	593	591	589	588	587	586	584	583	582	581	581	580	580	580	580	580	580	580	582	584	586	590	594	597	602	605	608	614	619	623	628	632	634	637	638	640	642	642	642	642	642	642	642	642	641	640	640	640	640	639	639	638	638	637	637	636	636	636	635	634	634	634	633	632	632	632	632	631	630	630	630	630	630	630	630	630	630	630	630	630	630	630	630	630	630	630	630	630	630	630	630	629	629	629	629	628	628	628	628	628	627	626	625	624	622	619	617	613	606	601	594	594	590	560	547	535	516	506	499	491	488	485	482	481	481	480	479	479	479	479	480	480	481	482	483	485	486	489	489	490	493	494	496	498	499	500	502	502	503	505	506	507	508	509	510	510	511	512	512	512	512	512	512	512	512	512	512	511	511	511	510	509	509	508	507	506	504	504	502	501	501	500	498	497	496	496	495	495	495	495	495	495	495	495	495	495	495	495	496	496	496	497	497	498	498	499	500	500	500	501	501	502	502	502	502	502	502	502	501	500	500	500	499	497	497	496	495	495	495	495	494	494	494	495	495	495	495	496	496	497	500	501	502	504	508	511	516	520	523	528	534	537	542	546	549	553	556	558	562	564	566	566	568	571	574	579	582	588	593	596	602	606	609	615	619	621	626	629	631	632	634	636	636	638	639	641	642	643	645	646	647	650	650	651	653	654	656	657	658	658	659	659	660	660	660	661	662	662	662	662	662	662	662	663	664	664	665	666	666	666	667	667	667	668	669	669	669	669	669	669	670	670	671	671	671	671	671	671	671	670
1287	1282	1273	1267	1266	1266	1266	1266	1266	1266	1266	1266	1266	1266	1266	1271	1273	1273	1277	1279	1279	1284	1287	1293	1293	1294	1299	1304	1306	1306	1306	1306	1306	1306	1305	1299	1299	1299	1299	1303	1306	1306	1310	1313	1313	1317	1320	1327	1327	1327	1327	1331	1334	1341	1338	1334	1334	1334	1334	1334	1334	1334	1334	1337	1341	1341	1341	1341	1348	1355	1364	1364	1364	1364	1357	1351	1341	1329	1322	1313	1301	1297	1293	1277	1269	1260	1250	1245	1241	1236	1233	1229	1229	1229	1229	1229	1228	1223	1219	1217	1217	1217	1216	1211	1207	1205	1205	1205	1205	1205	1201	1199	1199	1203	1205	1205	1205	1205	1205	1201	1199	1199	1199	1199	1193	1187	1182	1182	1176	1171	1165	1159	1154	1144	1141	1138	1138	1136	1133	1119	1100	1079	1079	611	0	0	386	929	894	887	883	872	863	850	820	816	816	756	745	745	697	681	669	662	659	657	655	654	653	651	649	646	644	642	638	634	632	628	628	627	625	623	621	617	616	615	613	612	611	608	607	607	607	606	605	605	605	605	607	607	607	607	608	608	607	607	607	607	607	607	607	607	607	607	607	607	608	609	610	610	610	611	613	613	614	614	615	616	617	618	619	619	619	619	620	620	620	620	620	620	620	620	620	620	620	620	619	619	619	619	618	617	617	617	616	616	616	616	616	616	616	616	616	616	616	616	616	616	616	616	617	617	617	617	617	617	617	617	617	617	617	616	616	616	616	616	616	616	616	616	616	616	616	616	616	616	616	616	616	617	617	617	617	617	617	619	619	619	617	617	617	616	615	614	613	612	610	607	606	604	602	601	599	597	596	595	593	592	591	589	588	587	585	585	584	584	584	583	583	583	583	583	583	585	587	589	592	596	599	604	608	611	616	621	624	628	631	633	636	637	638	640	640	640	640	640	640	640	640	640	640	639	638	638	638	638	636	636	636	636	636	635	635	634	633	633	632	631	631	631	631	630	630	630	630	630	630	630	630	630	630	630	630	630	630	630	628	628	628	630	630	630	628	628	628	628	628	628	628	628	627	627	627	627	627	627	625	624	624	622	619	616	613	606	601	595	595	592	565	550	538	519	509	501	492	489	486	482	481	481	480	479	479	479	479	479	480	480	481	483	484	486	489	489	490	493	494	495	498	499	500	502	502	503	505	506	508	509	509	510	511	511	512	512	512	513	513	513	513	513	513	512	512	512	512	511	510	510	509	508	506	505	504	503	502	501	499	498	497	496	495	495	494	494	494	494	494	494	494	494	494	494	494	494	495	495	495	496	497	497	498	499	499	499	499	500	501	501	502	502	502	502	501	501	500	500	500	499	497	497	496	495	495	495	494	494	494	494	494	495	495	495	495	496	497	499	501	502	504	508	511	515	520	523	529	534	538	543	547	550	555	558	560	563	566	567	567	570	573	576	580	584	589	594	598	604	608	611	616	620	622	628	630	631	633	635	636	636	638	640	641	642	643	645	646	648	650	650	651	653	654	655	657	657	657	658	658	658	658	659	660	660	660	660	660	660	660	660	661	662	662	663	664	664	664	665	665	666	667	667	667	667	667	667	667	668	669	669	669	669	669	669	669	669	668
1310	1302	1293	1287	1284	1279	1279	1279	1279	1279	1279	1279	1274	1273	1273	1277	1279	1279	1279	1280	1286	1286	1287	1293	1293	1294	1299	1299	1300	1306	1306	1306	1306	1306	1305	1299	1299	1299	1299	1303	1306	1306	1310	1313	1313	1317	1320	1327	1327	1327	1327	1331	1334	1334	1334	1334	1334	1334	1334	1334	1334	1334	1341	1341	1341	1348	1349	1349	1355	1359	1364	1370	1371	1371	1358	1351	1341	1335	1332	1327	1315	1309	1299	1294	1289	1279	1269	1264	1260	1260	1258	1253	1253	1252	1247	1243	1241	1241	1237	1234	1229	1225	1222	1217	1217	1216	1211	1207	1205	1205	1205	1205	1205	1205	1205	1205	1205	1204	1199	1195	1193	1193	1190	1187	1187	1181	1176	1171	1165	1160	1154	1146	1138	1128	1128	1128	1128	1126	1123	1109	1093	1074	1074	608	0	0	386	929	894	887	883	878	871	862	834	823	811	811	536	0	582	694	680	664	659	657	655	655	655	653	652	648	644	642	640	636	634	630	630	629	625	622	619	617	615	613	611	610	610	607	606	605	604	604	604	604	604	604	604	604	604	605	604	604	604	604	604	604	604	604	604	604	604	604	604	604	605	605	605	607	607	608	610	610	611	613	613	613	614	615	616	617	617	617	617	618	619	620	620	620	620	620	620	620	620	620	619	619	619	619	619	619	617	617	617	617	617	617	617	617	617	617	617	617	617	617	617	617	617	617	617	617	617	617	617	617	616	616	616	616	616	616	616	616	616	616	616	616	616	616	616	616	616	616	616	616	616	616	616	616	616	617	617	617	617	619	619	619	619	618	617	616	615	614	613	612	611	610	609	607	605	605	604	602	600	599	597	596	595	594	593	592	591	591	589	589	589	588	588	588	588	589	589	591	594	596	599	601	603	607	611	614	617	621	624	628	629	630	633	634	635	636	636	636	636	636	636	638	638	638	636	636	636	636	636	636	635	635	635	635	634	633	633	632	631	631	631	630	630	630	630	628	628	628	628	628	628	628	628	628	628	628	628	627	627	627	627	627	627	627	627	627	627	627	625	625	625	625	625	625	625	625	625	625	625	625	624	623	622	620	618	616	613	606	601	595	588	582	565	553	542	522	512	504	494	490	487	482	482	482	480	480	480	479	479	479	480	480	481	483	484	486	488	489	490	493	494	495	498	499	500	502	503	504	506	507	508	509	510	511	512	512	513	513	513	514	514	514	515	515	515	514	513	513	513	512	512	512	511	510	508	506	505	503	502	501	499	498	497	495	494	493	493	492	492	492	491	491	491	492	492	492	492	492	492	493	493	494	495	495	496	497	497	498	498	499	500	500	501	501	501	501	501	501	500	500	500	499	497	497	496	495	495	494	494	494	494	494	494	494	494	494	495	496	497	498	500	501	503	507	510	515	520	523	529	535	539	545	551	554	559	562	564	568	571	573	576	576	577	581	585	588	594	598	602	607	611	614	619	622	624	630	632	633	635	636	636	638	639	640	641	643	645	646	647	648	650	650	651	653	653	653	655	655	655	655	655	655	655	655	655	657	657	657	657	657	657	657	657	658	658	659	660	660	661	662	662	662	662	662	662	662	664	664	665	665	665	665	665	665	665	665	665	665	665
