46464	46464	46464	45952	45952	45440	44928	44416	44416	44416	44416	43968	43456	42432	41472	41024	40064	38720	37376	36480	35200	34752	33920	33536	33152	32704	32704	32320	31936	31552	31552	31104	31104	30720	30720	30720	30336	30336	30336	30336	29952	29632	29248	29248	28864	28864	29248	29248	29632	29952	31104	32320	33536	34368	35200	36032	36928	37824	38720	40064	41984	42432	42944	42944	42944	42432	42432	41984	41984	41984	42432	42432	42944	43968	44928	45440	46464	47040	47552	48064	48640	49152	49728	50304	50816	51392	51968	52544	53760	55552	56192	58048	59968	62016	62656	63360	61312	60672	59328	58688	58688	58688	58688	59968	60672	64064	2880	8320	14208	20672	24576	28736	27712	20672	13376	9152	9152	56768	50304	45952	45440	44928	44416	44416	44416	44416	44928	46464	47552	49152	51392	52544	54336	55552	55552	55552	53760	53120	51968	50816	49728	49728	48640	47040	45952	44416	43456	41984	41024	40064	39616	39168	39168	39168	39616	39616	40064	42944	43456	43968	44416	0	40576	39616	39168	39168	0	0	0	0	0	0	0	0	0	0	0	0	0	0	0	0	0	0	0	0	0	0	0	0	0	0	0	0	0	0	0	0	0	0	0	0	0	0	0	0	0	0	0	0	0	0	0	0	0	0	0	0	0	0	0	0	0	0	0	0	0	0	0	0	0	0	0	0	0	0	0	9280	9280	9280	9280	9280	9280	9216	9216	9216	9216	9216	9216	9216	9216	9216	9152	9152	9152	9152	9088	9088	9088	9088	9024	9024	9024	9024	9024	9024	9024	9024	9024	9024	9024	9024	9024	9024	9024	9024	9024	9024	9024	9024	9024	9024	9024	9024	9024	9024	9024	9024	9024	9024	9024	9024	9024	9024	9024	9024	9024	9024	9088	9088	9088	9088	9152	9152	9152	9152	9088	9088	9088	9088	9088	9088	9024	9024	9024	9024	9024	8960	8960	8960	8960	8960	8960	0	0	0	0	0	0	0	0	0	0	42432	41984	41984	41472	41472	41024	41024	41024	41472	41472	41984	42432	42432	42944	43456	42944	42944	42944	42944	42432	42432	41984	41472	41024	40576	40064	40064	40064	39168	38272	38272	37824	37824	37376	37376	37376	37376	37376	37376	37376	37824	38272	38272	38720	39168	39616	40064	40576	41024	41984	42432	43456	43968	44416	45440	45440	45952	47552	49152	50816	52544	54336	57408	63360	5120	21632	21632	27712	40192	50560	59200	63872	3200	6592	10048	10048	6592	65408	54784	38976	25600	13376	640	57408	50304	47040	44416	43456	41984	40576	39616	39616	38720	37824	37376	36928	36480	36032	35648	35648	36032	36032	36480	36480	36480	36928	37376	37376	37824	38272	38272	39168	39168	39168	39616	40064	40064	36928	33536	31552	31552	24960	22912	22912	22912	0	0	36032	35200	35200	37824	41984	41984	41472	40576	40064	40064	39616	39616	39616	39616	40064	40064	40064	40576	41472	41984	42944	43456	44416	44928	45440	45440	45952	45440	44928	44416	43456	42944	42432	41984	41024	41024	40576	40576	40576	40576	40576	40576	41024	41024	41024	41472	41472	41472	41472	41472	41472	41024	40576	40576	40064	39168	38272	37376	36480	36032	35200	34368	33920	33536	33536	33920	34368	34752	35200	36032	37376	37824	39168	39168	40064	40576	40576	41472	41472	41472	41472	41024	41024	0	0	0	0	0	0	0	0	0	0	0	0	0	0	0	0	0	0	8256	8256	8704	0	0	10816	10816	11584	12288	13056	14144	0	0	0	0	0	0	0	0	0	0	0	0	0	0	0	0	0	0	0	0	0	0	0	0	0	0	0	0	0	40064	39168	38720	37824	37376	36928	36928	36928	37376	37824	0	0	0	0	0	0	0	0	0	0	0	0	0	0	0	0	0	0	0	0	0	0	0	0	0	0	0	0	0	0	0	64768	64768	64768	64640	64640	64640	64640	64640	64448	64448	64448	64256	64256	0	0	0	0	0	36608	36608	37760	40192	41408	43904	46528	47872	50560	51968	51968	53376	51968	50560	47872	45184	43904	43904	40192	36608	32000	27712	24576
47040	47040	47040	47040	47040	47552	47040	47040	46464	46464	45952	45440	44416	43456	41472	40576	39616	38272	36480	35200	34368	33536	33152	32320	31936	31936	31552	31552	31104	31104	31104	31104	31104	31104	31104	31552	31552	31104	31104	31104	31104	30336	29952	29632	29248	29248	29632	29632	29952	30336	31552	32320	33536	35200	36032	36928	37824	39168	39616	41984	43456	44416	44928	45440	44928	44928	44928	44416	44416	44416	44416	44416	44928	45952	47040	47552	48064	48640	49728	49728	50304	50816	51392	51392	51968	52544	52544	53760	54912	56192	58048	58688	60672	62016	62656	62656	61312	59968	59328	58688	58688	58688	58688	58688	59968	62656	1408	6720	12480	16896	22592	27712	28736	23616	16896	9152	9152	59328	52544	48064	47040	46464	46464	46464	46464	47040	47552	48640	50304	51968	54336	56192	57408	58688	59328	58048	57408	56192	54336	53120	51968	50304	50304	48640	47552	45952	44416	43456	42432	41472	41024	40576	40576	40576	40576	41472	42432	42944	43456	43968	44416	0	0	0	0	0	0	0	0	0	0	0	0	0	0	0	0	0	0	0	0	0	0	0	0	0	0	0	0	0	0	0	0	0	0	0	0	0	0	0	0	0	0	0	0	0	0	0	0	0	0	0	0	0	0	0	0	0	0	0	0	0	0	0	0	0	0	0	0	0	0	0	0	0	0	0	0	9280	9280	9280	9280	9280	9280	9280	9216	9216	9216	9216	9216	9216	9216	9216	9152	9152	9152	9152	9088	9088	9088	9088	9088	9088	0	9024	9024	9024	9024	9024	8960	8960	8960	8960	8960	8960	8960	8960	8960	8960	8960	8960	8960	8960	8960	8960	8960	8960	9024	9024	9024	9024	9024	9024	9024	9024	9024	9024	9024	9024	9024	9024	9024	9088	9088	9088	9088	9088	9088	9088	9088	9088	9088	9024	9024	9024	9024	8960	8960	8960	8960	8960	8960	8960	8960	0	0	0	0	0	0	0	0	0	0	0	42432	42432	41984	41472	41472	41472	41472	41472	41472	0	0	0	0	0	42944	42944	0	0	42432	42432	41984	40576	40064	39616	39168	38720	38272	37824	36928	36480	36480	36032	36032	36032	36032	36032	36032	36480	36928	36928	37376	37824	38272	38720	39168	40064	40576	41472	42432	42944	43968	44416	44928	45440	45952	46464	47552	48640	50304	51968	53120	55552	62016	3584	22592	22592	29824	43904	57728	63872	4864	8320	11840	15552	13696	10048	1536	57728	40192	25600	25600	640	55552	49152	45952	43968	42944	41472	40064	39168	39168	38272	37376	36928	36480	35648	35648	35648	35648	35648	35648	36032	36032	36480	36928	36928	37376	37824	37824	38272	38720	38720	38720	39168	39616	39168	35648	33536	33536	25600	22272	20096	20096	20096	20416	20992	0	35200	35200	37824	40064	41472	40576	40064	40064	40064	40064	39616	39616	40064	40576	40576	41024	41984	42432	42944	43968	44416	44928	45440	45952	46464	45952	45440	44928	44416	43456	42944	41984	41984	41024	41024	40576	40576	40576	40576	40576	40576	40576	41024	40576	40576	41024	41024	41024	41024	41024	40576	40576	40064	39616	38720	38272	36928	36480	36032	35648	34752	34368	34368	34368	34752	34752	35648	36032	36928	37824	38720	39616	39616	40064	40576	40576	41472	41472	41472	41472	41024	41024	41472	42432	0	0	0	0	0	0	0	0	0	0	0	0	0	0	0	8256	8256	8256	8704	9152	9600	10112	10560	11328	12032	12800	14144	16000	18560	25600	25600	30720	35200	39616	43968	48064	49152	48640	48640	48064	47552	47552	47552	47552	47552	47552	47552	47040	47040	46464	46464	45952	45440	44416	43968	43456	40064	39168	38720	38272	37824	37824	37376	37376	37376	37824	0	0	0	0	0	0	0	0	0	0	0	0	0	0	0	0	0	0	0	0	0	0	0	0	0	0	0	0	0	0	64960	64768	64768	64768	64640	64640	64640	64448	64256	64256	64128	64128	63744	63744	63616	63232	63232	0	0	0	0	40192	40192	41408	42624	45184	47872	49216	50560	51968	53376	53376	53376	50560	49216	46528	46528	43904	41408	35392	32000	27712
45952	45952	45952	45952	45952	46464	47040	46464	46464	46464	45952	44928	43968	42432	41024	39616	38272	37376	35648	34368	33536	32320	31936	31552	31104	30720	30336	30336	30336	30720	30720	31104	31104	31552	31936	31936	31936	32320	32320	31936	31552	31104	30720	30336	29952	29952	29952	30336	30336	30720	31936	32704	33920	35200	36480	37824	38720	40064	41024	43456	44928	46464	47040	47552	47040	47040	47040	46464	46464	45952	45952	46464	47040	47552	48640	49152	49728	50304	50816	51392	51392	51968	52544	53120	53120	53760	54336	55552	57408	58688	59968	61312	62016	63360	62656	62016	59968	58688	58048	56768	56768	56768	56768	57408	58048	60672	64768	2880	9152	14208	18752	27712	29824	26624	19712	16000	6720	62656	55552	51392	49728	49152	48640	48640	48640	48640	49152	50816	52544	54912	57408	58688	59968	61312	62016	60672	59328	58048	56192	54912	53760	51968	50304	50304	48640	47040	45952	44416	43456	42432	41984	41472	41472	41472	41472	42432	42944	44416	44416	45440	47040	0	0	0	0	0	0	0	0	0	0	0	0	0	0	0	0	0	0	0	0	0	0	0	0	0	0	0	0	0	0	0	0	0	0	0	0	0	0	0	0	0	0	0	0	0	0	0	0	0	0	0	0	0	0	0	0	0	0	0	0	0	0	0	0	0	0	0	0	0	0	0	0	0	0	0	9280	9280	9280	9280	9280	9280	9280	9280	9280	9216	9216	9216	9216	9216	9216	9216	9152	9152	9152	9152	9152	9088	9088	9088	9088	9088	0	0	9024	9024	9024	8960	8960	8960	8960	8960	8960	8960	8960	8960	8960	8960	8960	8960	8960	8960	8960	8960	8960	8960	8960	8960	8960	8960	8960	8960	8960	8960	8960	8960	8960	8960	8960	8960	9024	9024	9024	9024	9024	9024	9024	9024	9024	9024	9024	9024	9024	8960	8960	8960	8960	8960	8960	8960	8960	8960	8960	0	0	0	0	0	0	0	0	0	0	0	0	0	41984	41984	41984	41984	0	0	0	0	0	0	0	0	0	0	0	0	0	0	0	40576	39168	38272	37824	37376	36928	36032	35648	35200	35200	35200	35200	35200	35200	35200	35648	36032	36480	36928	37376	37824	38272	38720	39168	40064	41024	41984	42432	42944	43968	44928	45440	45952	46464	46464	47040	48640	49728	51392	52544	54336	59968	2880	0	33152	33152	47872	62272	4864	8320	13696	17472	19392	17472	13696	6592	60736	41408	24576	9152	62656	53120	47552	45440	43456	42432	41024	39616	38720	37376	37376	36480	36032	35648	35648	35200	35200	35200	35200	35648	35648	36032	36480	36480	36928	37376	37376	37824	37824	38272	38272	38272	38720	39168	38272	34752	34752	0	23616	20672	18560	17984	17984	18560	19456	0	0	0	40064	40064	40064	40064	39616	39616	39616	40064	40064	40064	41024	41472	41984	42432	42944	43456	43968	44928	45440	45952	46464	46464	46464	46464	45952	44928	44416	43456	42944	41984	41472	41024	40576	40576	40576	40576	40576	40576	40064	40064	40576	40576	40576	40576	40576	41024	41024	40576	40576	40064	39616	39168	38720	37824	36928	36480	36032	36032	35648	35200	35200	35200	35648	36032	36928	36928	37824	38720	39616	40576	41024	41024	41024	41472	41984	41984	41984	41472	41472	41472	41472	42432	0	0	0	0	0	0	0	0	0	0	0	0	0	0	8256	8256	8256	8448	8704	9152	9600	10112	10560	11328	12032	12800	14144	16000	18560	21952	25600	29952	34752	39616	42944	47040	48064	48064	48064	48064	47552	47552	47552	47552	47552	47552	47552	47040	47040	46464	46464	45952	45440	44416	43968	43456	42432	41472	41024	39616	39168	38720	38272	38272	38272	38272	0	0	0	0	0	0	0	0	0	0	0	0	0	0	0	0	0	0	0	0	0	0	0	0	0	0	0	0	0	0	64768	64768	64640	64640	64448	64448	64256	64128	64128	63936	63744	63616	63616	63232	63104	62912	62912	0	0	0	0	0	41408	41408	42624	45184	47872	49216	50560	51968	53376	54784	54784	53376	51968	51968	49216	46528	42624	38976	34240	30912
44928	44416	44416	44928	44928	45440	45952	45440	45440	45440	44928	43968	42944	41472	39616	38272	37376	36032	34752	33536	32320	31552	31104	30336	29952	29632	29632	29632	29632	29952	30336	30720	31104	31552	31936	32320	32704	32704	32704	32704	32320	31936	31104	31104	30336	30336	30720	30720	30720	31104	32320	33152	34368	35648	36928	38272	39616	41472	42944	44928	47040	48064	49728	49728	49728	49152	49152	48064	48064	48064	48064	48064	48064	48640	49728	50304	50816	51392	51392	51968	52544	52544	53120	53760	54336	54912	56192	57408	58688	59968	61312	62016	63360	62656	61312	59968	58688	58048	56192	56192	55552	55552	55552	56192	56768	58048	62016	640	5120	9984	18752	24576	28736	28736	27712	16000	6720	640	59328	54336	52544	51392	51392	51392	51392	51392	51968	53760	54912	56768	58688	60672	62016	62656	63360	62016	60672	59328	57408	56192	54336	52544	50816	50304	49728	48064	46464	45440	44416	43456	42432	42432	42432	42432	42432	43456	43968	44928	45440	45952	46464	46464	0	0	0	0	0	0	0	0	0	0	0	0	0	0	0	0	0	0	0	0	0	0	0	0	0	0	0	0	0	0	0	0	0	0	0	0	0	0	0	0	0	0	0	0	0	0	0	0	0	0	0	0	0	0	0	0	0	0	0	0	0	0	0	0	0	0	0	0	0	0	0	0	0	0	9280	9280	9280	9280	9280	9280	9280	9280	9280	9216	9216	9216	9216	9216	9216	9216	9152	9152	9152	0	0	0	0	9088	9088	9088	9024	9024	9024	8960	8960	8960	8960	8960	8960	8960	8960	8960	8960	8960	8960	8960	8960	8960	8896	8896	8896	8896	8960	8960	8960	8960	8960	8960	8960	8896	8896	8896	8896	8896	8896	8896	8896	8896	8960	9024	9024	9024	9024	9024	9024	9024	9024	9024	8960	8960	8960	8960	8960	8896	8896	8896	8896	8896	8896	8896	0	0	0	0	0	0	0	0	0	0	0	0	0	0	0	0	0	0	0	0	0	0	1216	1088	1088	896	896	704	704	0	0	0	0	0	39168	38272	36480	35648	35200	34368	34368	33536	33536	33920	33920	34368	34368	34752	35200	35648	36032	36928	37376	37824	38272	38720	39616	40064	41024	41984	42432	43456	44416	44928	45440	45952	46464	46464	47040	48640	49728	50816	51968	53120	58688	1408	0	36608	36608	53376	3200	11840	17472	21312	25408	27456	21312	17472	11840	63872	41408	24576	9152	62656	51392	46464	44416	42944	41472	40064	39168	37824	36480	36480	36032	35648	35200	34752	34752	34752	34752	35200	35200	35648	35648	36032	36032	36480	36928	36928	37376	37376	37824	37824	37824	38272	38272	37376	33920	33920	0	23616	19776	17408	16256	16256	16832	18304	20096	0	0	0	40576	39168	39168	39168	39616	39616	40064	40064	41024	41472	42432	42944	43456	43968	44416	44928	45952	46464	46464	47040	47040	47040	46464	45952	45440	44416	43456	42944	41984	41472	41024	40576	40576	40576	40064	40064	40064	40064	40064	40064	40576	40064	40064	40576	40576	40576	40064	40064	39616	39168	39168	38272	37824	36928	36480	36480	36480	36032	36032	36032	36480	36928	37376	37824	38720	39616	40064	41024	41472	41984	41984	41984	42432	42432	42432	41984	41984	41472	41472	41472	42432	0	0	0	0	0	0	0	0	0	0	0	0	0	0	8256	8256	8448	8448	8896	9152	9600	10112	10560	11328	12032	12800	14144	16000	18560	21952	25600	29952	34752	39168	42432	45952	47040	47552	47552	47552	47552	47552	47552	47552	47552	47552	47040	47040	47040	46464	46464	46464	45952	45440	44928	44416	43968	43968	42944	42432	41472	41472	41984	41984	42432	42432	0	0	0	0	0	0	0	0	0	0	0	0	0	0	0	0	0	0	0	0	0	0	0	0	0	0	0	0	0	0	64768	64640	64448	64448	64256	64128	64128	63936	63744	63616	63424	63232	63104	63104	62912	62784	62784	0	0	0	0	0	0	0	0	0	0	0	0	54784	54784	56256	56256	56256	54784	54784	53376	49216	46528	42624	36608	34240
42944	42944	42944	42944	42944	43456	43968	43968	43968	43968	43456	42944	41472	40064	38720	37376	36480	35200	33920	32704	31552	30720	30336	29632	29248	28864	28864	28864	28864	29248	29632	30336	30720	31552	32320	32704	33152	33536	33536	33536	33152	32704	32320	31936	31552	31552	31552	31552	31552	31936	32704	33920	35200	36032	37824	39168	41024	42944	45440	47552	49728	50816	51968	51968	51392	51392	50816	49728	49728	49152	49152	49152	49728	49728	50304	50816	51392	51392	52544	52544	53120	53760	54336	54912	55552	56768	57408	58688	59968	60672	62016	62656	62656	61312	59328	58688	56768	56192	54912	54336	54336	54336	54336	54336	55552	57408	59968	63360	2112	9984	15104	20672	24576	28736	27712	21632	11648	4352	4352	56192	54336	53760	53120	53120	53760	53760	54336	56192	57408	59328	60672	62016	62656	63360	62656	62016	60672	58688	57408	56192	54336	53120	51392	50304	48640	48640	47040	45952	44928	43968	42944	42944	42944	42944	42944	43456	43968	44928	45440	45952	45952	46464	0	0	0	0	0	0	0	0	0	0	0	0	0	0	0	0	0	0	0	0	0	0	0	0	0	0	0	0	0	0	0	0	0	0	0	0	0	0	0	0	0	0	0	0	0	0	0	0	0	0	0	0	0	0	0	0	0	0	0	0	0	0	0	0	0	0	0	0	0	0	0	0	0	0	9344	9280	9280	9280	9280	9280	9280	9280	9280	9280	9216	9216	9216	9216	9216	9216	9152	9152	9152	0	0	0	0	9088	9088	9088	9024	9024	8960	8960	8960	8960	8960	8960	8960	8960	8960	8960	8960	8960	8960	8896	8896	8896	8896	8896	8896	8896	8896	8896	8896	8896	8896	8896	8896	8896	8896	8896	8896	8896	8896	8896	8896	8896	8896	8896	8896	8896	9024	9024	8960	8960	8960	8960	8960	8896	8896	8896	8896	8896	8896	8896	8896	8896	8896	8896	0	0	0	0	0	0	0	0	0	0	0	0	0	0	0	0	0	0	0	0	1984	1792	1216	1088	1088	896	896	704	704	896	896	0	0	0	0	0	36480	33536	33536	33152	33152	32704	32704	33152	33152	33536	33920	34752	34752	35648	36032	36928	37376	37824	38272	38720	39616	40064	41024	41984	42944	43456	44416	44928	45440	45952	45952	46464	47040	48064	49152	50304	51392	53120	57408	640	13376	43904	43904	60736	11840	19392	25408	29568	33920	31744	27456	21312	17472	3200	43904	43904	5952	5952	49728	45440	43968	42432	41024	40064	38720	37376	36480	36480	36032	35200	34752	34752	34752	34752	34752	34752	35200	35200	35648	35648	36032	36032	36480	36928	36928	37376	37376	37376	37376	37376	37824	36480	33536	33536	0	0	19776	17408	16256	16256	16832	18304	20096	0	0	0	0	38720	38720	39168	39168	39616	40064	40576	41024	41984	42944	43456	43968	44416	45440	45952	46464	47040	47552	47552	47552	47552	47040	46464	45440	44416	43456	42944	41984	41472	41024	40576	40576	40064	40064	40064	40064	40064	40064	40064	40064	40064	40064	40576	40576	40576	40064	39616	39616	39168	39168	38272	37824	36928	36928	36928	36928	36928	36928	37376	37824	38272	38720	39616	40064	41024	41984	42432	42944	42944	42432	42432	42944	42944	42944	42432	41984	41472	41472	41984	42432	0	0	0	0	0	0	0	0	0	0	0	0	0	0	8448	8448	8448	8448	8896	9152	9600	10112	10560	11072	11776	12800	14144	16256	18880	21952	25600	30336	34752	39168	42432	45952	46464	47040	47040	47040	47040	47040	47040	46464	46464	46464	46464	46464	45952	45952	45952	45952	45952	45952	45440	45440	45440	44928	44928	44928	44416	44416	45440	45440	0	0	0	0	0	0	0	0	0	0	0	0	0	0	0	0	0	0	0	0	0	0	0	0	0	0	0	0	0	0	0	0	64768	64640	64448	64256	64128	63936	63744	63616	63616	63424	63232	63104	63104	62912	62912	62784	62784	0	0	0	0	0	0	0	0	0	0	0	0	0	0	0	0	0	56256	56256	56256	0	0	0	0	0
40064	40064	40064	40576	40576	41024	41472	41472	41472	41984	41472	41024	40064	38720	37376	36480	35648	34368	33152	31936	30720	29952	29248	28864	28480	28096	28096	28096	28480	28864	29248	29952	30720	31552	32320	32704	33152	33920	33920	34368	33920	33536	33152	32704	32704	32320	32320	32320	32704	32704	33536	34368	35648	36480	37824	39168	41472	43968	46464	49152	50304	51968	52544	53120	53120	52544	51968	50816	50816	50304	50304	50304	50304	50816	50816	51392	51968	52544	52544	53760	54336	54912	55552	56768	58048	58688	59328	59968	61312	62016	62656	62016	61312	59968	58688	56768	54912	54336	53760	53120	53120	53120	53760	53760	54336	56192	58688	61312	2112	5952	10816	16000	20672	24576	27712	21632	14208	12480	2880	59328	57408	56192	55552	55552	55552	55552	56192	57408	59328	60672	62656	62656	62656	62656	62016	60672	59968	58688	56768	55552	54336	53120	51392	50304	48640	48640	47552	45952	44928	43968	43456	42944	42944	42944	43456	43968	43968	44416	44928	45440	45952	45440	45440	0	0	0	0	0	0	0	0	0	0	0	0	0	0	0	0	0	0	0	0	0	0	0	0	0	0	0	0	0	0	0	0	0	0	0	0	0	0	0	0	0	0	0	0	0	0	0	0	0	0	0	0	0	0	0	0	0	0	0	0	0	0	0	0	0	0	0	0	0	0	0	0	0	9344	9280	9280	9280	9280	9280	9280	9280	9280	9280	9280	9216	9216	0	0	0	0	0	0	0	0	0	0	0	0	0	9024	9024	8960	8960	8960	8960	8896	8896	8896	8896	8896	8896	8896	8896	8896	8896	8896	8896	8896	8896	8896	8896	8896	8832	8832	8832	8832	8832	8832	8832	8832	8832	8832	8832	8832	8832	8832	8832	8832	8832	8832	8896	8896	8896	8896	8896	8896	8896	8896	8896	8832	8832	8832	8832	8832	8832	8832	8832	8832	8832	0	0	0	0	0	0	0	0	0	0	0	0	0	0	0	0	0	0	0	2560	1984	1792	1792	1600	1408	1216	1216	1088	1088	896	896	1216	0	0	0	0	0	32320	32320	31936	31936	31936	31936	32320	32704	33152	33920	34368	34752	35648	36032	36928	37376	37824	38272	38720	39616	40576	41024	41984	42944	43456	44416	44928	45440	45952	45952	45952	47040	47552	48640	49728	50816	51392	57408	640	13376	51968	51968	4864	21312	31744	33920	40768	40768	38464	33920	27456	25408	8320	45184	45184	5952	56768	48640	44928	43968	42432	41024	39616	38272	36928	36032	35648	35648	35200	34752	34752	34368	34368	34368	34752	34752	35200	35200	35648	35648	36032	36032	36480	36928	37376	37376	37376	37376	37376	37376	36480	33536	31104	31104	0	0	17728	17408	17408	17728	18304	20672	0	0	36032	36032	38272	38720	39168	39168	39616	40064	41024	41472	42432	43456	43968	44416	45440	45440	45952	47040	47552	48064	48064	48064	47552	47040	46464	45440	44416	43968	42944	41984	41472	41024	40576	40064	40064	40064	40064	40064	40064	40064	40064	40064	40064	40064	40576	40576	40576	40064	39616	39616	39168	39168	38272	37824	36928	36928	37376	37376	37376	38272	38272	39168	40064	40576	41472	41984	42944	43968	44416	44416	44416	43968	43968	43456	43456	43456	42944	42432	42432	41984	41984	0	0	0	0	0	0	0	0	0	0	0	0	0	0	8256	8256	8448	8448	8704	8896	9152	9600	10112	10304	11072	11776	12800	14144	16576	19456	23232	27008	31552	36032	40064	42944	45952	46464	46464	46464	46464	46464	46464	46464	45952	45952	45952	45952	45440	45440	44928	44928	45440	45440	45440	45440	45440	45440	45440	45440	45440	45440	45440	47040	47552	0	0	0	0	0	0	0	0	0	0	0	0	0	0	0	0	0	0	0	0	0	0	0	0	0	0	0	0	0	0	0	0	64768	64640	64448	64256	63936	63744	63744	63616	63232	63232	63104	62912	62784	62592	62592	62464	62464	0	0	0	0	0	0	0	0	0	0	0	0	0	0	0	0	0	0	0	0	0	0	0	0	36608
37376	37376	37376	37376	37824	38272	38720	39168	39168	39168	39168	38720	38272	37376	36032	35200	34368	33536	32320	31104	29952	29248	28864	28480	28096	27776	27776	28096	28096	28864	29248	29952	30720	31552	32320	32704	33536	33920	33920	34368	34368	33920	33920	33536	33152	33152	32704	32704	32704	32704	33536	34368	35200	35648	36480	37824	39616	41984	44416	46464	47552	49152	49728	50304	50304	49728	49152	48640	48064	48064	48064	48640	49152	49728	50304	50816	50816	52544	53120	53760	54336	55552	56768	57408	58688	59328	59968	60672	61312	62016	62016	62016	59968	58048	56192	54912	54336	53120	52544	52544	52544	52544	53120	53760	54336	56192	58048	61312	65472	2880	6720	11648	16000	24576	24576	24576	17856	12480	2880	62656	59968	58688	58048	58048	58048	58048	58048	58688	59968	61312	62656	62656	62656	62016	61312	59968	58688	57408	56192	54912	53760	52544	51392	50304	49152	47552	47552	46464	45440	44416	43968	43456	42944	42944	43456	43456	43456	43968	43968	44416	44928	44928	44928	44928	0	0	0	0	0	0	0	0	0	0	0	0	0	0	0	0	0	0	0	0	0	0	0	0	0	0	0	0	0	0	0	0	0	0	0	0	0	0	0	0	0	0	0	0	0	0	0	0	0	0	0	0	0	0	0	0	0	0	0	0	0	0	0	0	0	0	0	0	0	0	0	0	0	9344	9344	9344	9344	9280	9280	9280	9280	9280	9280	9280	9280	0	0	0	0	0	0	0	0	0	0	0	0	0	0	9024	8960	8960	8960	8960	8896	8896	8896	8896	8896	8896	8896	8896	8896	8896	8896	8896	8832	8832	8832	8832	8832	8832	8832	8832	8832	8832	8832	8832	8832	8832	8832	8832	8832	8832	8832	8832	8832	8832	8832	8832	8832	8832	8896	8896	8896	8896	8832	8832	8832	8832	8832	8768	8768	8768	8768	8768	8768	8768	0	0	0	0	0	0	0	0	0	0	0	0	0	0	0	0	0	0	0	2560	2560	2368	2176	1984	1792	1792	1600	1408	1408	1216	1216	1216	1408	0	0	0	0	31104	31104	31552	31552	31552	31936	32320	32704	33152	33920	34368	34752	35648	36032	36928	37376	38272	38720	39168	40064	40576	41472	41984	42944	43456	43968	44416	44928	44928	45440	45952	46464	47040	47552	48640	49728	50816	57408	1408	16896	47872	59200	13696	33920	43136	45568	50560	48000	43136	36160	33920	29568	8320	8320	0	0	55552	48064	44928	43456	42432	41024	39168	38272	36928	36032	35648	35648	34752	34752	34368	34368	34368	34368	34752	34752	35200	35200	35200	35648	35648	36032	36480	36480	36928	36928	36928	36928	37376	37376	36480	33920	31104	29632	28096	25600	25600	0	0	24576	22272	22272	28096	31936	34368	36032	38272	38720	39168	39616	40064	40576	41024	41472	42432	43456	44416	44928	45440	45952	46464	47040	47552	48064	48064	48064	48064	47040	46464	45440	44416	43456	42944	41984	41472	41024	40576	40064	40064	39616	39616	40064	40064	40064	40064	40064	40064	40064	40576	40576	40576	40064	40064	39616	39616	39168	38720	38272	37824	37376	37376	37824	38272	39168	39616	40576	41024	41984	42944	43968	44928	45440	46464	46464	45440	45440	45440	44928	44416	43968	43456	42944	42432	42432	0	0	0	0	0	0	0	0	0	0	0	0	0	0	0	8256	8256	8448	8448	8704	8704	9152	9600	9856	10304	11072	11584	12800	14656	17984	21632	24576	28864	33152	36928	40576	42944	45440	45952	46464	46464	45952	45952	45952	45440	45440	45440	45440	45440	44928	44928	44928	44928	44928	44928	45440	45440	45440	45952	45952	46464	47040	47552	47552	49152	51968	53120	54912	56192	0	0	0	0	0	0	0	0	0	0	0	0	0	0	0	0	0	0	0	0	0	0	0	0	0	0	0	0	0	0	0	0	63936	63616	63616	63232	63232	63104	62912	62784	62592	62592	62464	62464	62272	62272	0	0	0	0	0	0	0	0	0	0	0	0	0	0	0	0	0	0	0	0	0	0	0	0	36608
34752	34752	35200	35200	35648	36032	36480	36928	36928	36928	37376	36928	36480	35648	34752	33920	33152	32320	31104	30336	29632	28864	28480	28096	28096	27776	27776	27776	28096	28864	29248	29952	30720	31552	32320	32704	33536	33920	34368	34752	34752	34368	34368	33920	33536	33536	33152	33152	33152	33536	33536	34368	34752	35200	35648	36480	37824	39616	41984	43968	44928	46464	47040	47552	48064	47040	46464	45440	44928	44928	45440	45952	46464	47040	48064	49152	49728	51392	52544	53120	54336	55552	56768	58048	59328	59968	60672	61312	62016	62016	62016	62016	59328	58048	55552	54912	53760	53120	52544	51968	51968	52544	53120	53760	54336	56192	58048	61312	64064	1408	5120	9984	16000	24576	24576	24576	24576	12480	3584	64768	62656	61312	59968	59328	59328	59328	59968	59968	61312	61312	62656	62656	62656	61312	60672	59328	58048	56768	55552	54336	53120	51968	50816	49728	49152	47552	47040	46464	45440	44928	43968	43456	42944	42432	42432	42432	42432	42944	42944	43456	43968	43968	44416	44416	0	0	0	0	0	0	0	0	0	0	0	0	0	0	0	0	0	0	0	0	0	0	0	0	0	0	0	0	0	0	0	0	0	0	0	0	0	0	0	0	0	0	0	0	0	0	0	0	0	0	0	0	0	0	0	0	0	0	0	0	0	0	0	0	0	0	0	0	0	0	0	0	0	0	9344	9344	9344	9280	9280	9280	9280	9280	9280	9280	0	0	0	0	0	0	0	0	0	0	0	0	0	0	0	0	0	0	0	0	0	0	0	0	8832	8832	8832	8896	8832	8832	8832	8832	8832	8832	8832	8832	8832	8832	8832	8832	8832	8832	8832	8768	8768	8768	8768	8768	8768	8768	8768	8768	8768	8768	8768	8768	8832	8832	8832	8832	8832	8832	8832	8832	8768	8768	8768	8768	8768	8768	8768	8768	8768	8768	8768	0	0	0	0	0	0	0	0	0	0	0	0	0	0	0	0	0	3776	3136	2944	2752	2560	2368	2176	1984	1792	1792	1600	1600	1600	1408	1408	0	0	0	0	30720	30720	31104	31104	31552	31936	32320	32704	33536	33920	34752	35200	35648	36480	36928	37824	38272	38720	39616	40064	40576	41472	41984	42432	42944	43456	43968	43968	44416	44928	44928	45440	46464	47040	48064	49152	50304	58048	4352	21632	47872	6592	25408	45568	55744	58432	61184	58432	50560	43136	40768	33920	8320	8320	0	0	55552	46464	44416	43456	42432	41024	39168	38272	36928	36032	35200	34752	34752	34752	34368	34368	34368	34368	34752	34752	35200	35200	35200	35648	35648	35648	36032	36480	36480	36928	36928	36928	37376	37376	36480	34752	32320	29632	28096	25600	25600	27392	27392	24576	24576	25600	28096	31936	34368	36032	38720	38720	39168	39616	40064	40576	41024	41984	42944	43456	44416	44928	45440	45952	46464	47040	47552	48064	48064	48064	47552	47040	46464	45440	44416	43456	42944	41984	41024	40576	40064	39616	39616	39616	39616	39616	39616	40064	40064	40064	40064	40064	40064	40576	40576	40064	40064	40064	40064	39616	39168	38720	38272	38272	38272	38720	39168	40064	40576	41024	41984	42944	43456	44416	45440	46464	47552	47040	46464	46464	45952	45440	44928	44416	43968	43456	42944	42944	42944	0	0	0	0	0	0	0	0	0	0	0	0	0	11072	8704	8704	8448	8448	8704	8704	9152	9152	9856	10304	11072	11584	12800	14656	17984	21632	25600	29632	33152	37376	40576	42944	44928	45440	45952	45952	45952	45440	45440	45440	44928	44928	44928	44416	43968	43968	44416	44416	44416	44928	45440	45440	45440	45952	46464	47040	48064	49152	49152	51392	51968	53120	54912	56192	0	0	0	0	0	0	0	0	0	0	0	0	0	0	0	0	0	0	0	0	0	0	0	0	0	0	0	0	0	0	0	0	63616	63424	63424	63232	63232	62912	62784	62592	62464	62464	62272	62080	62080	62272	0	0	0	0	0	0	0	0	0	0	0	0	0	0	0	0	0	0	0	0	0	0	0	0	0
32704	33152	33152	33536	33920	33920	34368	34752	34752	34752	35200	34752	34368	33920	33536	32704	32320	31552	30720	29952	29632	28864	28480	28096	28096	27776	27776	27776	28096	28864	29248	29952	30720	31936	32704	33152	33536	34368	34368	34752	34752	34752	34368	34368	33920	33920	33536	33152	33152	33536	33536	33920	34368	34368	34368	35200	36032	39616	41024	41024	41984	43456	43968	44416	43968	43456	42944	41984	41984	41984	41984	42944	43456	44928	45440	47040	48064	49728	51968	52544	54336	56192	57408	59328	60672	61312	62656	62656	63360	62656	62656	0	59328	58048	55552	54336	53760	52544	52544	51968	51968	52544	53120	53760	54336	56192	58048	60672	64064	1408	3584	6720	9984	0	24576	24576	0	0	0	0	0	0	0	0	2880	64064	64064	65472	1408	640	640	63360	62656	61312	59328	58048	56768	56192	54912	54336	52544	51968	50816	49728	49152	48064	47040	47040	45440	44416	43968	42944	42432	41984	41472	41024	40576	40576	41024	41024	41472	41472	42432	44416	0	0	0	0	0	0	0	0	0	0	0	0	0	0	0	0	0	0	0	0	0	0	0	0	0	0	0	0	0	0	0	0	0	0	0	0	0	0	0	0	0	0	0	0	0	0	0	0	0	0	0	0	0	0	0	0	0	0	0	0	0	0	0	0	0	0	0	0	0	0	0	0	0	0	9344	9344	9344	9344	9344	9280	9280	9280	9280	9280	0	0	0	0	0	0	0	0	0	8576	8576	0	0	0	0	0	0	0	0	8704	8704	8768	8768	8768	8768	8832	8832	8832	8832	8832	8832	8832	8832	8832	8768	8768	8768	8768	8768	8768	8768	8768	8768	8768	8768	8768	8768	8768	8768	8768	8768	8768	8768	8768	8768	8768	8768	8768	8832	8832	8832	8832	8832	8768	8768	8768	8768	8768	8768	8768	8768	8768	8768	8768	8768	8768	0	0	0	0	0	0	0	0	0	0	0	0	0	0	0	0	3776	3584	3328	3136	3136	2752	2560	2560	2176	2176	1984	1984	1792	1792	1792	0	0	0	0	30720	30720	30720	31104	31552	31936	32320	32704	33536	33920	34752	35200	36032	36480	37376	38272	38720	39168	39616	40064	40576	41024	41472	41984	42432	42944	43456	43968	43968	44416	44416	45440	45952	46464	47552	48640	50304	6720	6720	27712	17472	17472	36160	55744	1280	4224	7232	64000	55744	50560	45568	36160	36160	0	0	0	53760	46464	44416	43456	42432	41024	39168	38272	36928	36032	35200	34752	34752	34752	34368	34368	34368	34752	34752	34752	35200	35200	35200	35648	35648	35648	36032	36480	36480	36480	36480	36928	36928	36928	36928	36032	34752	33152	31104	29632	27392	27392	27392	27392	27776	29632	30720	33536	34752	36928	39168	39616	39616	40064	40576	41024	41472	42432	42944	43968	44416	44928	45440	45440	45952	47040	47040	47552	47552	47552	47040	46464	45440	44928	44416	43456	42432	41472	41024	40064	39616	39616	39616	39616	39168	39168	39616	39616	39616	39616	40064	40064	40064	40576	40576	40576	40576	40576	40576	40064	39616	39616	39168	39168	39616	39616	40064	40576	41024	41984	42944	43456	44416	45440	45952	47552	47552	47552	47552	47552	47040	46464	45440	44928	44416	43968	43456	42944	42944	0	0	0	0	0	0	0	0	0	0	0	0	0	11072	9856	9600	8896	8704	8704	8704	9152	9152	9856	10304	10816	11584	12800	15488	18560	22912	27008	30720	34368	37824	40576	42944	44416	44928	45440	45440	45440	44928	44928	44928	44416	43968	43968	43968	43968	43968	43968	43968	44416	44928	45440	45440	45952	46464	47040	48064	48640	50304	51392	53120	54336	55552	57408	58688	0	0	0	0	0	0	0	0	0	0	0	0	0	0	0	0	0	0	0	0	0	0	0	0	0	0	0	0	0	0	0	0	63616	63232	63104	63104	62912	62784	62592	62272	62080	62080	62272	62080	62080	0	0	0	0	0	0	0	0	0	0	0	0	0	0	0	0	0	0	0	0	0	0	0	0	0	0
31936	31936	31936	32320	32704	32704	32704	33152	33152	33152	33536	33536	33152	33152	32704	32320	31936	31104	30336	29952	29632	28864	28480	28480	28480	28096	28096	28480	28864	29248	29952	30720	31552	32320	32704	33536	33920	34368	34752	34752	35200	35200	34752	34752	34368	33920	33920	33536	33536	33536	33536	33920	33920	33920	33536	33536	34368	36032	37376	38720	39168	43456	43968	41472	41024	39616	39616	38720	38720	38720	38720	40064	40576	41984	42944	44416	45440	48064	50304	51968	54336	56192	58048	59968	62016	63360	64768	64768	65472	0	0	0	0	0	55552	54336	53760	52544	52544	52544	52544	52544	53120	53760	54336	56192	58688	60672	64064	640	2880	5952	8320	0	0	0	0	0	0	0	0	0	0	0	0	0	0	0	0	0	0	0	0	0	59328	58048	56768	56192	54912	54336	52544	51968	50304	49728	48640	48064	46464	45440	45440	44416	43456	42432	41472	40576	40064	39616	39168	38720	38720	38720	39616	39616	42432	0	0	0	0	0	0	0	0	0	0	0	0	0	0	0	0	0	0	0	0	0	0	0	0	0	0	0	0	0	0	0	0	0	0	0	0	0	0	0	0	0	0	0	0	0	0	0	0	0	0	0	0	0	0	0	0	0	0	0	0	0	0	0	0	0	0	0	0	0	0	0	0	0	0	0	0	0	9344	9344	9344	9344	9280	9280	9280	9280	0	0	0	0	0	0	0	0	8576	8576	8576	8576	8576	8576	8576	8576	0	0	0	8640	8640	8704	8704	8704	8768	8768	8768	8768	8768	8832	8832	8832	8768	8768	8768	8768	8768	8768	8768	8768	8768	8768	8768	8768	8768	8704	8704	8704	8704	8704	8704	8704	8704	8704	8704	8768	8768	8768	8768	8768	8768	8768	8768	8768	8768	8768	8768	8768	8768	8768	8768	8704	8704	8768	8768	8768	0	0	0	0	0	0	0	0	0	0	0	0	0	0	0	0	4352	4352	4160	3968	3968	3584	3328	2944	2944	2752	2560	2560	2176	2176	2176	0	0	0	0	30720	30720	30720	31104	31552	31936	32320	32704	33536	33920	34752	35648	36032	36480	37376	38272	38720	39168	39168	39616	40064	40576	41024	41472	41984	41984	42944	42944	43456	43968	43968	44416	44928	45952	47040	48640	0	18752	18752	34240	27456	27456	48000	61184	10304	13440	13440	4224	61184	53120	45568	29568	62272	34240	34240	0	53120	47552	44928	43968	42432	41024	39168	37824	36928	36032	35200	34752	34752	34752	34752	34368	34368	34752	34752	34752	35200	35200	35200	35648	35648	35648	36032	36032	36480	36480	36480	36480	36480	36480	36480	36480	36032	35648	35200	34368	34368	36032	36032	34368	34368	34368	35200	36032	37376	38272	39616	39616	40064	40576	41024	41472	41984	42432	43456	43968	44416	44928	44928	45440	45952	45952	46464	47040	47040	46464	45952	45440	44928	44928	43456	42432	41984	41024	40064	39616	39168	39168	39168	39168	39168	39168	39168	39168	39616	39616	39616	40064	40064	40576	40576	40576	41024	41024	41024	41024	41024	40576	40576	40576	40576	41024	41984	42432	42944	43456	43968	44416	45440	46464	47040	47552	48064	48064	48064	47552	47552	47040	46464	45952	45440	44928	44416	43456	43456	0	0	0	0	0	0	0	0	0	0	0	0	0	0	0	0	9152	8704	8704	8896	9152	9408	9856	10304	10816	0	0	0	0	0	32704	32704	36032	39168	41472	43456	44416	44928	44928	44928	44928	44416	44416	43968	43968	43456	43456	43456	42944	42944	43456	43968	43968	44416	44928	45440	45952	46464	47552	48640	49728	51392	52544	54336	55552	56768	58048	59328	0	0	0	0	0	0	0	0	0	0	0	0	0	0	0	0	0	0	0	0	0	0	0	0	0	0	0	0	0	0	0	0	0	63232	63104	63104	62912	62784	62592	62272	62080	62080	0	0	0	0	0	0	0	0	0	0	0	0	0	0	0	0	0	0	0	0	0	37568	37568	0	0	0	0	0	0
31552	31552	31552	31552	31552	31552	31552	31936	31936	31936	32320	32320	32320	32320	31936	31936	31552	31104	30336	29952	29632	29248	29248	28864	28864	28864	28864	29248	29632	30336	31104	31552	32320	33152	33536	33920	34752	35200	35200	35648	35200	35200	35200	35200	34368	34368	33920	33536	33536	33536	33536	33536	33152	32704	32704	32704	33152	34368	35200	35648	36032	36928	36928	37376	36928	36032	35648	35200	35200	35200	35200	36480	37376	38272	39616	41024	42432	44928	47552	49728	52544	55552	58688	0	0	0	0	0	0	0	0	0	0	0	0	55552	54336	53120	52544	52544	52544	52544	53120	53760	54336	56768	59328	61312	64064	640	2880	5952	5952	0	0	0	0	0	0	0	0	0	0	0	0	0	0	0	0	0	0	0	0	0	0	64064	58688	57408	56192	55552	53120	51968	50304	49728	48640	48064	46464	45440	44416	44416	42944	41984	40576	40064	39168	38720	38272	37824	37824	37376	37376	39616	0	0	0	0	0	0	0	0	0	0	0	0	0	0	0	0	0	0	0	0	0	0	0	0	0	0	0	0	0	0	0	0	0	0	0	0	0	0	0	0	0	0	0	0	0	0	0	0	0	0	0	0	0	0	0	0	0	0	0	0	0	0	0	0	0	0	0	0	0	0	0	0	0	0	0	0	0	0	0	0	0	0	0	0	0	0	0	0	0	0	0	0	8512	8512	8512	8512	8512	8512	8576	8576	8576	8576	8576	8576	8576	8576	8576	8640	8640	8640	8704	8704	8704	8768	8768	8768	8768	8768	8768	8768	8768	8704	8704	8704	8704	8704	8704	8704	8704	8704	8704	8704	8704	8704	8704	8704	8704	8704	8704	8704	8704	8704	8704	8704	8768	8768	8768	8768	8768	8768	8768	8768	8768	8768	8768	8704	8704	8704	8704	8704	8768	8768	0	0	0	0	0	0	0	0	0	0	0	0	0	0	0	0	5184	4992	4800	4544	4544	4160	3968	3776	3328	3136	3136	2944	2752	2752	2752	0	0	0	29632	29632	30720	30720	31104	31552	31936	32704	33152	33920	34368	35200	35648	36032	36928	37824	38272	38720	38720	39168	39616	40064	40576	41024	41024	41472	41984	41984	42432	42944	42944	43456	43968	44928	45440	46464	48640	0	18752	18752	0	40768	40768	55744	4224	16640	19904	19904	10304	64000	50560	38464	21312	54784	34240	34240	0	53120	48064	45952	43968	42432	40576	38720	37376	36480	35648	35200	34752	34368	34368	34368	34368	34368	34752	34752	34752	35200	35200	35200	35648	35648	35648	36032	36032	36480	36480	36480	36480	36480	36480	36032	36032	36032	36032	36032	36480	36480	36032	36032	36928	37376	37824	38272	38272	38720	39168	40064	40576	41024	41024	41472	41984	42432	42944	43456	43968	44416	44416	44928	44928	45440	45440	45952	45952	45952	45440	44928	44416	44416	43968	42944	41984	41024	40064	39616	39168	38720	38720	38720	38720	38720	38720	39168	39168	39168	39616	39616	39616	40064	40576	40576	41024	41472	41472	41472	41984	41984	41984	41984	41984	41984	42432	42432	42432	42944	43456	43968	44416	45440	46464	47040	47552	48064	48640	48064	48064	48064	47552	46464	46464	45952	45440	44416	43968	43968	0	0	0	0	0	0	0	0	0	0	0	36480	36480	0	0	0	0	0	9152	9152	0	0	0	0	0	0	0	0	0	0	36032	36032	39168	41024	42944	43968	44416	43968	43968	43968	43968	43968	43456	43456	43456	42944	42944	42944	42944	42944	42944	42944	43456	43456	44416	44928	45440	46464	47552	49152	50816	52544	54336	56192	57408	58688	60672	61312	0	0	0	0	0	0	0	0	0	0	0	0	0	0	0	0	0	0	0	0	0	0	0	0	0	0	0	0	0	0	0	0	0	0	0	0	0	0	0	0	0	0	0	0	0	0	0	0	0	0	0	0	0	0	0	0	0	0	0	0	0	0	0	37568	37568	41344	41344	45248	49216	53312	0
31552	31552	31552	31552	31104	31104	31104	31104	31104	31104	31104	31552	31552	31552	31552	31104	31104	30720	30336	29952	29632	29248	29248	29248	29632	29632	29632	29952	30720	31552	31936	32704	33536	33920	34368	34752	35200	35648	35648	35648	35648	35648	35200	35200	34752	34752	34368	33920	33536	33152	33152	32704	32320	31552	31552	31552	31936	32320	33152	33152	33152	33536	33536	33536	33152	32320	32320	32320	32320	32320	32320	33536	34368	35648	36480	38272	39616	41984	44928	47040	50304	53760	56768	60672	64064	0	5120	5120	0	0	0	0	0	0	0	0	55552	53760	53120	53120	53120	53120	53120	53760	54336	56768	59328	62016	64064	640	1408	2880	3584	4352	3584	3584	0	0	0	0	0	0	0	0	0	0	59008	59008	0	9984	9984	5312	5312	5312	0	0	8320	64768	61312	58688	56192	54336	51392	50304	49152	48064	46464	45440	43968	42432	42432	41472	40064	39168	38272	37824	36928	36480	36032	36032	37376	0	0	0	0	0	0	0	0	0	0	0	0	0	0	0	0	0	0	0	0	0	0	0	0	0	0	0	0	0	0	0	0	0	0	0	0	0	0	0	0	0	0	0	0	0	0	0	0	0	0	0	0	0	0	0	0	0	0	0	0	0	0	0	0	0	0	0	0	0	0	0	0	0	0	0	0	0	0	0	0	0	0	0	0	0	0	0	0	0	0	0	0	0	8512	8512	8512	8512	8512	8512	8512	8576	8576	8576	8576	8576	8576	8576	8576	8640	8640	8640	8640	8640	8704	8768	8768	8704	8704	8704	8704	8704	8704	8704	8704	8704	8704	8704	8704	8704	8704	8704	8704	8704	8704	8704	8704	8640	8640	8640	8640	8640	8640	8640	8704	8704	8704	8704	8704	8768	8768	8768	8768	8768	8768	8704	8704	8704	8704	8704	8704	8704	8768	0	0	0	0	0	0	0	0	0	0	0	0	0	0	0	0	0	5824	5632	5376	5184	4992	4800	4544	4352	3968	3776	3584	3328	3136	2944	2944	0	0	0	29632	29632	31104	31552	31552	31936	32320	32704	33536	33920	34752	35200	36032	36480	37376	37824	38272	38720	38720	39168	39616	39616	40064	40576	40576	41024	41024	41472	41984	42432	42944	43456	43968	44416	44928	45952	49728	0	0	0	0	55744	55744	64000	10304	19904	23296	19904	10304	64000	45568	29568	10048	47872	47872	0	0	53120	48640	45952	43968	42432	40576	38720	37376	36480	35648	35200	34752	34368	34368	34368	34368	34368	34752	34752	34752	35200	35200	35648	35648	35648	35648	36032	36032	36480	36480	36480	36480	36480	36480	36032	36032	36032	36032	36032	36480	36480	36480	36928	37376	38272	38720	39168	39168	39616	40064	40576	41024	41472	41472	41984	42432	42944	43456	43456	43968	44416	43968	43968	44416	44416	44928	44928	44928	44928	44416	44416	44416	43968	42944	41984	41024	40576	39616	39168	38720	38272	38272	38272	38272	38272	38272	38720	39168	39168	39168	39616	39616	40064	40576	40576	41024	41472	41984	41984	42432	42432	42944	42944	42432	42432	42944	43456	43456	43456	43968	44416	44928	45952	46464	47552	48064	48640	48640	49152	48640	48640	48064	48064	47552	46464	46464	45952	44928	44416	43968	43968	42432	42432	0	0	0	0	0	59328	59328	36480	36480	50304	0	0	0	0	0	0	0	0	0	0	0	0	0	0	0	0	37824	37824	40064	42432	43968	44416	44416	43968	43968	43456	43456	43456	42944	42944	42432	42432	42432	42432	42432	42432	42432	42432	42944	43456	43968	44416	44928	46464	47552	49728	51392	53760	55552	56768	58048	59328	60672	61312	0	0	0	0	0	0	0	0	0	0	0	0	0	0	0	0	0	0	0	0	0	0	0	0	0	0	0	0	0	0	0	0	0	0	0	0	0	0	0	0	0	0	0	0	0	0	0	0	0	0	0	0	0	0	0	0	0	0	0	0	0	0	0	0	37568	37568	41344	41344	49216	53312	768
31552	31552	31552	31552	31104	30720	30336	30336	30336	30336	30336	30336	30720	30720	30720	30720	30720	30336	30336	29632	29632	29632	29632	29632	29632	29952	30336	30720	31552	32320	33152	33536	33920	34752	35200	35648	36032	36032	36032	36032	36032	35648	35648	35200	34752	34368	34368	33536	33536	32704	32320	31936	31552	30720	30336	30336	30336	30336	30336	29952	29952	29952	29952	29952	29632	29632	29248	29248	29632	29952	29952	31104	31936	33152	33920	35200	36480	39168	41984	44416	47552	50816	54336	58688	62656	65472	2880	4352	5952	0	0	0	0	0	0	0	56192	54336	52544	52544	52544	53120	53120	53120	54336	56192	58688	61312	64064	640	640	2112	2880	2112	1408	64768	64768	0	0	0	0	0	64000	64000	61824	61824	5312	24896	24896	9984	9984	5312	5312	61824	61824	0	0	0	9984	2112	61312	57408	53760	51392	49728	48640	47040	44928	43968	42432	42432	41024	39616	38720	37824	36928	36032	36032	35200	34752	34368	34368	0	0	0	0	0	0	0	0	0	0	0	0	0	0	0	0	0	0	0	0	0	0	0	0	0	0	0	0	0	0	0	0	0	0	0	0	0	0	0	0	0	0	0	0	0	0	0	0	0	0	0	0	0	0	0	0	0	0	0	0	0	0	0	0	0	0	0	0	0	0	0	0	0	0	0	0	0	0	0	0	0	0	0	0	0	0	0	0	0	0	8512	8512	8512	8512	8512	8512	8512	8512	8512	8512	8512	8576	8576	8576	8576	8576	8576	8576	8576	8640	8640	8640	8640	8640	8640	8640	8640	8640	8640	8640	8640	8640	8704	8704	8704	8704	8704	8704	8704	8704	8704	8640	8640	8640	8640	8640	8640	8640	8640	8640	8640	8640	0	0	8704	8704	8704	8768	8768	8768	8768	8768	8768	8704	8704	8704	8704	8704	8704	8704	0	0	0	0	0	0	0	0	0	0	0	0	0	0	0	0	0	6656	6656	6016	5824	5632	5376	5376	4992	4800	4352	4160	3968	3776	3584	3328	3328	0	0	0	30336	30336	31936	31936	32320	32320	32704	33152	33920	34752	35200	35648	36480	36928	37376	37824	38272	38720	39168	39168	39616	39616	40064	40064	40576	40576	40576	41472	41472	41984	42432	42944	43968	44416	44928	45952	51392	0	0	0	4224	4224	7232	10304	16640	19904	19904	16640	7232	64000	43136	23360	10048	41408	19712	19712	59328	53120	49152	45952	44416	42944	41024	39168	37824	36480	35648	35200	34752	34752	34752	34752	34752	34752	34752	34752	35200	35200	35648	35648	35648	36032	36032	36480	36480	36480	36480	36480	36480	36480	36480	36480	36480	36480	36480	36480	36928	36928	36928	37824	37824	38720	39168	39616	40064	40576	41024	41472	41984	41984	42432	42432	42944	43456	43968	43968	43968	43968	43968	43968	43968	43968	43968	43968	43968	43456	43456	43968	43456	42432	41984	41024	40064	39616	38720	38272	38272	37824	37824	37824	37824	38272	38272	38272	38720	39168	39168	39616	39616	40064	40576	41024	41472	41984	41984	42432	42944	42944	43456	43456	43456	43456	43968	43968	43968	43968	44416	44928	45440	45952	47040	47552	48064	48640	49152	49728	49728	49728	49728	49152	48640	48064	47552	46464	45440	44416	43968	43968	42432	42432	44928	0	55552	55552	62656	59328	59328	54912	50304	50304	0	0	0	0	0	0	0	0	0	0	0	0	0	0	0	0	43968	43968	44928	45440	45440	45440	44928	44416	43968	43456	42944	42944	42944	42432	42432	41984	41984	41984	41984	41984	41984	41984	42432	42432	43456	43968	44928	46464	48064	49728	51392	53120	54912	56192	56768	58048	59328	59328	0	0	0	0	0	0	0	0	0	0	0	0	0	0	0	0	0	0	0	0	0	0	0	0	0	0	0	0	0	0	0	0	0	0	0	0	0	0	0	0	0	0	0	0	0	0	0	0	0	0	0	0	0	0	0	0	0	0	0	0	0	0	0	0	37568	37568	41344	41344	45248	49216	61824
32320	32320	31552	31104	31104	30720	30336	30336	29632	29632	29952	29952	29952	30336	30336	30336	30336	29952	29952	29632	29632	29632	29632	29952	29952	30336	30720	31104	31936	32704	33536	33920	34752	35648	36032	36480	36480	36480	36480	36480	36480	36032	35648	35200	35200	34368	33920	33536	32704	32320	31936	31552	30720	30336	29632	29248	28864	28480	27776	27392	27008	27008	27008	27008	27008	27008	27008	27776	27776	28096	28480	29632	30336	31104	32320	33536	34752	36928	39168	41472	43968	47040	49728	54336	58688	61312	64768	640	1408	640	64768	64064	62016	60672	58688	56768	54912	53120	51392	51392	51968	51968	52544	52544	53120	55552	57408	59968	63360	64768	65472	640	640	65472	64064	62016	62016	0	0	0	0	0	64000	64000	1280	1280	5312	768	768	9984	5312	5312	61824	57536	33856	50560	50560	62272	62272	12480	4352	62656	57408	53760	50816	48640	47040	44928	43456	41984	40576	40576	39168	37824	36928	36480	35648	35200	34752	34368	34368	34368	34368	33920	33920	0	0	0	0	0	0	0	0	0	0	0	0	0	0	0	0	0	0	0	0	0	0	0	0	0	0	0	0	0	0	0	0	0	0	0	0	0	0	0	0	0	0	0	0	0	0	0	0	0	0	0	0	0	0	0	0	0	0	0	0	0	0	0	0	0	0	0	0	0	0	0	0	0	0	0	0	0	0	0	0	0	0	0	0	0	0	0	8512	8512	8512	8512	8512	8512	8512	8512	8512	8512	8512	8512	8576	8576	8576	8576	8576	8576	8576	8640	8640	8640	8640	8640	8640	8640	8640	8576	8576	8576	8640	8640	8640	8640	8640	8640	8640	8640	8640	8640	8640	8640	8640	8640	8640	8640	8640	8576	8576	8576	8576	8576	8576	0	0	0	0	8768	8768	8768	8768	8768	8768	8704	8704	0	0	0	0	0	0	0	0	0	0	0	0	0	0	0	0	0	0	0	0	0	7104	6656	6656	6464	6272	6016	5824	5824	5376	5184	4800	4544	4160	3968	3968	3584	3584	0	0	0	31552	31552	33152	33152	33152	33536	33536	34368	34752	35648	36032	36480	36928	37376	37824	38272	38720	38720	39168	39168	39616	39616	40064	40064	40064	40064	40576	41024	41472	41984	42432	42944	43968	44416	44928	47552	55552	0	0	48000	48000	4224	7232	10304	16640	16640	16640	13440	7232	61184	40768	19392	59200	35392	16000	2112	58048	53120	49728	47040	45440	43456	41024	39616	38272	36928	36032	35648	35200	34752	34752	35200	35200	35200	35200	35200	35200	35648	35648	36032	36032	36032	36480	36480	36480	36928	36480	36480	36928	36928	36928	36928	36928	36928	36928	36928	37376	37376	37376	37824	38720	39168	40064	40064	40576	41024	41984	42432	42944	42944	43456	43456	43456	43968	44416	43968	43968	43968	43968	43456	43456	43456	43456	42944	42944	42944	43456	42432	41984	41472	40576	40064	39168	38720	38272	38272	37824	37824	37824	37824	37824	38272	38272	38272	38720	39168	39168	39616	39616	40576	40576	41024	41472	41984	42432	42432	42944	43456	43968	43968	43968	43968	44416	44416	44416	44416	44928	44928	45440	45952	47040	47552	48640	49152	50304	50816	51968	51968	51968	50816	50304	50304	48640	48064	46464	45440	45440	45440	45440	44928	44928	0	55552	55552	62656	3584	2880	2880	5952	0	0	0	0	0	0	0	25600	21632	17856	16000	13376	9984	9984	0	0	56192	51392	49728	48640	47552	47040	45952	44928	44416	43968	43456	42944	42432	42432	42432	42432	41984	41984	41984	41472	41472	41984	41472	41472	42432	42944	43968	44928	46464	48064	49728	51968	53120	54912	56192	56768	58048	59328	59328	0	0	0	0	0	0	0	0	0	0	0	0	0	0	0	0	0	0	0	0	0	0	0	0	0	0	0	0	0	0	0	0	0	0	0	0	0	0	0	0	0	0	0	0	0	0	0	0	0	0	0	0	0	0	0	0	0	0	0	0	0	0	0	0	37568	37568	41344	41344	45248	49216	57536
32704	32320	31936	31104	31104	30336	29952	29632	29248	28864	28864	28864	28864	29248	29248	29632	29248	29248	29248	29632	29632	29632	29632	29952	30336	30720	31104	31552	32704	33536	33920	34752	35648	36032	36480	36480	36480	36928	36480	36480	36032	36032	35648	35200	34752	34368	33920	33152	32704	31936	31552	30720	30336	29632	29248	28864	28480	28096	27776	27392	27008	26688	26688	26688	26688	27008	27008	27008	27392	27776	28480	28864	29632	30336	31552	33152	33920	35648	37824	39168	41472	43968	46464	49728	53120	55552	58048	60672	62016	62016	61312	60672	59328	58688	56768	55552	52544	51392	51392	50816	50816	50816	50816	50816	51392	53120	55552	58048	60672	62656	63360	64064	64768	63360	62016	59968	59968	0	58048	58048	58688	13376	0	0	27456	27456	1280	30208	45248	53312	57536	57536	49216	45248	30208	50560	43136	62272	62272	43904	13376	4352	62016	56192	51968	49152	47040	44928	43456	41984	40064	38720	38720	37824	36928	36032	35648	35200	34752	34368	33920	33920	34368	33536	32704	32704	0	0	0	0	0	0	0	0	0	0	0	0	0	0	0	0	0	0	0	0	0	0	0	0	0	0	0	0	0	0	0	0	0	0	0	0	0	0	0	0	0	0	0	0	0	0	0	0	0	0	0	0	0	0	0	0	0	0	0	0	0	0	0	0	0	0	0	0	0	0	0	0	0	0	0	0	0	0	0	0	0	0	0	0	0	8448	8448	8448	8448	8448	8448	8448	8512	8512	8512	8512	8512	8512	8512	8512	8576	8576	8576	8576	8576	8576	8576	8576	8576	8576	8576	8576	0	8576	8576	8576	8576	8576	8576	8576	8640	8640	8640	8640	8640	8640	8640	8640	8640	8576	8576	8576	8576	8576	8576	8576	8512	8512	8512	8512	8576	8576	8576	0	0	0	0	0	0	0	0	0	0	0	0	0	0	0	0	0	0	0	0	0	0	0	0	0	0	0	0	0	7104	6912	6912	6656	6464	6272	6016	6016	5632	5184	4992	4800	4352	4160	3968	3968	3968	7104	0	0	0	33920	33920	33920	33920	34368	34368	34752	35648	36032	36480	36928	37376	38272	38272	38720	39168	39168	39616	39616	39616	39616	40064	40064	40064	40064	40576	41024	41472	41984	42432	42944	43968	44416	44928	50304	0	0	0	48000	48000	10304	10304	13440	13440	13440	13440	7232	1280	61184	40768	13696	54784	29824	13376	65472	56768	52544	49728	47552	45440	43968	41984	40064	38720	37376	36480	36032	35648	35648	35648	35648	35648	35648	35648	35648	35648	36032	36032	36480	36480	36480	36480	36928	36928	37376	36928	36928	37376	37376	37376	37824	37376	37376	37824	37824	37824	37824	37824	38272	39168	39616	40576	41024	41472	41984	42432	43456	43456	43456	43968	43968	44416	44416	44928	44416	43968	43968	43456	43456	42944	42944	42432	42432	42944	42944	41984	41472	40576	40064	39616	38720	38272	37824	37824	37376	37376	37376	37824	37824	37824	38272	38272	38272	38720	39168	39168	39616	39616	40576	40576	41024	41472	41984	42432	42944	43456	43456	43968	44416	44416	44416	44928	44928	44928	44928	44928	45440	45440	45952	47040	48064	49152	50304	51968	52544	53760	53760	53760	53120	51968	51392	50304	48640	47040	45440	45440	45952	47040	47552	48640	0	59968	59968	1408	6720	8320	9984	16896	21632	26624	0	0	0	37760	34240	25600	21632	17856	16000	13376	9984	7488	7488	0	56192	53760	51392	49728	49152	47552	46464	45440	44416	43968	43456	42432	42432	42432	42432	42432	41984	41984	41984	41472	41472	41984	41472	41472	42432	42944	43968	44928	46464	48064	50304	51968	53760	54912	57408	58688	60672	61312	64768	0	0	0	0	0	0	0	0	0	0	0	0	0	0	0	0	0	0	0	0	0	0	0	0	0	0	0	0	0	0	0	0	0	0	0	0	0	0	0	0	0	0	0	0	0	0	0	0	0	0	0	0	0	0	0	0	0	0	0	0	0	0	0	0	37568	37568	41344	41344	45248	49216	57536
33152	32704	32320	31552	31104	30336	29632	29248	28480	28096	28096	27776	27776	28096	28096	28096	28096	28096	28480	28480	28480	28864	29632	29632	30336	30720	31552	32320	32704	33920	34368	34752	35648	36480	36480	36480	36480	36928	36480	36480	36032	35648	35200	34752	34368	33920	33536	33152	32320	31936	31552	30720	30336	29632	29248	28864	28480	27776	27776	27008	27008	26688	26688	26688	26688	27008	27008	27008	27392	27776	28096	28864	29632	30336	31104	32320	33152	34752	36032	38272	39616	41984	43968	46464	48640	51392	54336	56192	57408	58688	57408	57408	56768	55552	54336	53120	50816	50816	49728	49152	49152	49152	48640	48640	49152	51392	53760	56768	59328	60672	61312	62016	62656	61312	59968	58048	56768	55552	55552	55552	56768	64064	14208	28736	49216	10048	48000	10304	30208	45248	49216	53312	49216	45248	30208	1280	43136	19392	62272	43904	25600	13376	2112	59968	54336	50304	47040	44928	43456	41984	40064	38720	38720	37824	36928	36032	35648	35200	34752	34368	33920	33920	33920	33536	32704	31936	31936	0	0	0	0	0	0	0	0	0	0	0	0	0	0	0	0	0	0	0	0	0	0	0	0	0	0	0	0	0	0	0	0	0	0	0	0	0	0	0	0	0	0	0	0	0	0	0	0	0	0	0	0	0	0	0	0	0	0	0	0	0	0	0	0	0	0	0	0	0	0	0	0	0	0	0	0	0	0	0	0	0	0	0	0	8448	8448	8448	8448	8448	8448	8448	8448	8512	8512	8512	8512	8512	8512	8512	8512	8512	8512	8576	8576	8576	8576	8512	8512	8512	8512	8512	8512	8512	8512	8512	8512	8512	8512	8576	8576	8576	8576	8576	8576	8576	8576	8576	8576	8576	8576	8576	8576	8512	8512	8512	8512	8512	8512	8448	8448	8448	8512	8512	0	0	0	0	0	0	0	0	0	0	0	0	0	0	0	0	0	0	0	0	0	0	0	0	0	0	0	0	0	7360	7104	6912	6656	6656	6272	6016	5632	5376	4992	4544	4352	4160	4160	4160	4352	7104	0	0	0	34752	34752	34752	34752	34752	35200	35648	36032	36928	37376	37824	38272	38720	39168	39168	39616	39616	39616	39616	39616	39616	40064	40064	40064	40576	41024	41472	41472	41984	42432	42944	43968	44416	44928	54336	0	0	0	61184	61184	13440	10304	10304	10304	7232	7232	1280	61184	53120	31744	13696	45184	29824	9984	64768	56768	52544	49728	48064	45952	44416	42432	40576	39168	37824	37376	36480	36480	36032	36032	36032	36032	36032	36032	36032	36032	36480	36480	36928	36928	36928	36928	36928	37376	37376	37376	37376	37824	37824	37824	37824	38272	38272	38272	38272	38272	38272	38272	38720	39616	40064	40576	41472	41984	42432	43456	43968	43968	43968	44416	44416	44416	44928	44928	43968	43968	43456	43456	42944	42432	42432	42432	42432	41984	41472	41024	40064	39616	39168	38720	37824	37824	37376	37376	37376	37376	37376	37376	37824	37824	38272	38272	38720	39168	39168	39616	39616	40064	40576	41024	41024	41472	41984	42432	42944	43456	43456	43968	44416	44416	44928	44928	45440	44928	44928	45440	45440	45440	46464	47552	48640	50304	51968	53760	55552	56768	57408	56192	56192	54912	53760	52544	50304	48640	45952	45952	0	0	0	0	0	63360	63360	14208	14208	16000	16896	16896	21632	26624	37760	42624	45184	37760	34240	29824	26624	22592	19712	17856	13376	7488	7488	14208	58048	54336	51968	50304	49152	48064	46464	45440	44416	43968	43456	42432	42432	42432	42432	42432	41984	41984	41984	41984	41984	41984	41984	41984	42944	43456	0	47040	47040	49728	51392	52544	53760	55552	58688	59968	61312	65472	0	0	0	0	0	0	0	0	0	0	0	0	0	0	0	0	0	0	0	0	0	0	0	0	0	0	0	0	0	0	0	0	0	0	0	0	0	0	0	0	0	0	0	0	0	0	0	0	0	0	0	0	0	0	0	0	0	0	0	0	0	0	0	0	0	37568	37568	41344	0	0	0	768
33536	33152	32320	31552	31104	30336	29632	28864	28096	27776	27392	27392	27008	27008	27008	27008	27008	27008	27008	27392	27776	28480	28864	28864	29632	30720	31104	31936	32704	33536	33920	34752	35200	36032	36480	36480	36480	36480	36032	36032	35648	35200	34752	34368	33920	33536	33152	32704	32320	31552	31104	31104	30336	29952	29248	28864	28480	27776	27392	27008	26688	26304	26304	26304	26688	27008	27008	27008	27392	27776	28096	29248	29952	30720	31104	32320	33152	34368	35200	36480	38272	40064	41472	43456	45952	47552	49728	51968	53120	54336	53760	53760	53760	53120	51968	50816	50816	49728	48064	47552	47552	47040	47040	47040	47552	49728	51392	53760	56192	57408	58688	59328	59328	58048	56768	55552	54912	54336	54336	54336	55552	60672	2112	16000	36608	60736	27456	58432	13440	30208	37568	41344	37568	33856	26688	13440	64000	40768	17472	62272	42624	24576	10816	640	58688	52544	48640	45440	43968	41984	40576	38720	38272	37824	36928	36032	35648	35200	34752	34368	34368	34368	33920	33536	32704	31936	31936	0	0	0	0	0	0	0	0	0	0	0	0	0	0	0	0	0	0	0	0	0	0	0	0	0	0	0	0	0	0	0	0	0	0	0	0	0	0	0	0	0	0	0	0	0	0	0	0	0	0	0	0	0	0	0	0	0	0	0	0	0	0	0	0	0	0	0	0	0	0	0	0	0	0	0	0	0	0	0	0	0	0	0	0	8448	8448	8448	8448	8448	8448	8448	8448	8448	8448	8448	8448	8512	8512	8512	8512	8512	8512	8512	8512	8512	8512	8512	8512	8448	8448	8448	8448	8448	8448	8448	8448	8512	8512	8512	8512	8512	8576	8576	8576	8576	8576	8576	8576	8512	8512	8512	8512	8512	8512	8448	8448	8448	8448	8448	8384	8384	8512	8512	0	0	0	0	0	0	0	0	0	0	0	0	0	0	0	0	0	0	0	0	0	0	0	0	0	0	0	0	0	0	7360	7104	6656	6656	6464	6016	5632	5184	4800	4544	4352	4352	4544	4800	5632	0	0	0	35648	35648	35648	35648	35648	36032	36032	36480	37376	37824	38272	38720	38720	39168	39616	40064	40064	40064	40064	40064	40064	40064	40064	40064	40576	40576	41024	41472	41984	42432	42944	43456	43968	44928	50304	0	0	0	1280	1280	7232	13440	10304	10304	7232	7232	1280	64000	53120	43136	19392	59200	45184	45184	9984	62656	56768	53120	50304	48640	47040	44928	42944	41024	39616	38720	37824	37376	36928	36928	36480	36480	36480	36480	36480	36480	36928	36928	36928	37376	37376	37376	37376	37376	37376	37824	37824	37824	38272	38720	38720	38720	38720	39168	38720	38720	38720	38720	38720	39168	39616	40576	41472	41984	42432	42944	43968	44416	44416	44416	44416	44928	44928	44928	44928	43968	43456	43456	42944	42432	42432	42432	42432	41984	41472	41024	40064	39616	39168	38720	37824	37376	37376	36928	36928	36928	36928	37376	37376	37824	37824	38272	38272	38720	39168	39168	39616	40064	40064	40576	41024	41472	41984	41984	42432	42944	43456	43456	43968	44416	44416	44928	45440	45952	45440	45440	45440	45440	45952	46464	48064	49728	51968	54336	56768	62656	62016	62016	62016	62016	59968	59968	59968	57408	50816	48640	48640	54336	58048	58048	64064	64064	2880	7488	14208	14208	16000	16896	21632	26624	32000	37760	42624	45184	42624	38976	35392	35392	32000	29824	29824	30912	25600	19712	14208	5120	63360	58048	56192	51968	49152	46464	45440	44416	43968	43456	42432	42432	42432	42432	42432	42432	42432	42944	0	0	0	0	0	0	0	0	0	0	0	0	64768	64768	5952	0	0	0	0	0	0	0	0	0	0	0	0	0	0	0	0	0	0	0	0	0	0	0	0	0	0	0	0	0	0	0	0	0	0	0	0	0	0	0	0	0	0	0	0	0	0	0	0	0	0	0	0	0	0	0	0	0	0	0	0	0	0	0	0	0	0	0	0	0	37568	37568	37568	41344	45248	49216	53312
33536	33152	32320	31552	31104	30336	29632	28864	28096	27776	27392	27392	27008	27008	27008	27008	27008	27008	26688	26688	27008	27392	27776	28096	28864	29632	30336	31104	31936	32704	33152	34368	34752	35648	36032	36032	36032	36032	35648	35648	35200	34752	34752	34368	33536	33536	33152	32320	32320	31552	31104	31104	30336	29952	29248	28864	28480	28096	27392	27008	26688	26304	26304	26304	26688	27008	27008	27392	27776	28096	28480	29248	29952	30720	31552	31936	32704	33920	34752	35648	36928	37824	39616	41024	42432	44416	45952	48064	49152	50816	51392	51968	51968	50816	50304	50304	49152	47552	46464	45952	45952	45952	45952	45952	45952	48064	50304	51968	53760	55552	56192	56768	56768	56192	54912	53760	53760	53760	53760	53760	54336	58688	63360	8320	24576	42624	4864	33920	55744	10304	19904	30208	26688	26688	16640	10304	1280	53120	33920	13696	59200	38976	20672	8320	63360	56192	50816	46464	43968	42432	40576	39168	38272	37376	36928	36480	36480	36032	35200	34752	34752	34752	34368	33920	33536	32704	32704	0	0	0	0	0	0	0	0	0	0	0	0	0	0	0	0	0	0	0	0	0	0	0	0	0	0	0	0	0	0	0	0	0	0	0	0	0	0	0	0	0	0	0	0	0	0	0	0	0	0	0	0	0	0	0	0	0	0	0	0	0	0	0	0	0	0	0	0	0	0	0	0	0	0	0	0	0	0	0	0	0	0	0	0	8448	8448	8384	8384	8384	8384	8384	8384	8384	8384	8384	8384	8448	8448	8448	8512	8512	8512	8512	8512	8512	8448	8448	8448	8448	8448	8448	8448	8448	8448	8448	8448	8448	8448	8512	8512	8512	8512	8512	8512	8512	8512	8512	8512	8512	8512	8512	8448	8448	8448	8448	8448	8384	8384	8384	8384	8384	8384	0	0	0	0	0	0	0	0	0	0	0	0	0	0	0	0	0	0	0	0	0	0	0	0	0	0	0	0	0	0	0	0	0	6912	6656	6464	6016	5632	4800	4352	4352	4544	4544	5184	6016	7552	0	0	0	35648	35648	36480	36480	36480	36928	37376	37376	38272	38272	38720	39168	39616	40064	40064	40576	40576	40576	40064	40064	40576	40064	40064	40576	40576	40576	41024	41472	41984	42432	42944	45952	47040	49728	55552	0	0	0	1280	1280	13440	13440	10304	10304	7232	4224	1280	58432	45568	33920	13696	50560	50560	0	0	62656	56768	53120	51392	49152	47552	45440	43968	41984	40576	39616	39168	38272	37824	37376	37376	37376	37376	36928	36928	36928	37376	37376	37824	37824	37824	37824	37824	37824	37824	38272	38272	38720	38720	39616	39616	39616	39616	39616	39168	39168	39168	39168	39168	39616	40064	41024	41472	42432	42944	43456	44416	44928	44928	44928	44928	44928	44928	44928	44928	43968	43456	43456	42944	42432	42432	42432	41472	41472	41024	40576	40064	39168	38272	37824	37376	36928	36928	36928	36928	36928	36928	37376	37376	37824	37824	38272	38720	39168	39168	39168	39616	40064	40064	40576	41024	41472	41984	41984	42432	42432	43456	43456	44416	44416	44928	44928	45952	46464	46464	46464	46464	46464	47040	47552	49152	51392	53760	56768	62656	62656	65472	640	640	640	64768	62656	59968	57408	54912	52544	52544	54336	58048	58048	64064	64064	2880	7488	14208	20672	21632	23616	28736	33152	37760	42624	46528	47872	47872	45184	45184	42624	42624	43904	43904	43904	43904	43904	51968	0	13376	4352	63360	56768	51968	46464	45440	44416	43968	43456	42432	42432	42432	42432	42432	43456	0	0	0	0	0	0	0	0	0	0	0	0	0	0	0	0	0	0	0	0	0	0	0	0	0	0	0	0	0	0	0	0	0	0	0	0	0	0	0	0	0	0	0	0	0	0	0	0	0	0	0	0	0	0	0	0	0	0	0	0	0	0	0	0	0	0	0	0	0	0	0	0	0	0	0	0	0	0	0	0	0	0	0	0	0	0	37568	37568	37568	41344	45248	49216	53312
33536	33152	32320	31552	31104	30336	29632	28864	28480	28096	27392	27392	27392	27392	27008	27008	26688	26688	26688	26688	26688	26688	27008	27392	28096	28864	29632	30720	31104	31936	32704	33536	34368	34752	34752	35648	35648	35648	35648	35200	34752	34368	34368	33920	33536	33152	32704	32320	31936	31936	31552	31104	30336	29952	29632	29248	28864	28096	27776	27008	26688	26304	26304	26304	27008	27008	27008	27392	28096	28480	29248	29632	30336	30720	31552	31936	32704	33536	34368	34752	35648	36928	37824	39168	40064	41984	42944	44416	45952	47040	48064	48064	49152	48640	48640	49152	47552	46464	45440	44928	44416	44416	44416	44928	45440	46464	48640	50304	51968	53120	54336	54912	54912	53760	53120	52544	52544	52544	52544	53120	54336	57408	62656	4352	17856	33152	57728	15552	33920	55744	4224	10304	16640	13440	10304	4224	61184	53120	40768	25408	6592	63872	32000	16896	4352	60672	53760	48064	44928	42432	41024	39616	38720	37376	37376	36928	36480	36480	36032	35648	35648	35200	34752	34368	33920	33152	33152	0	0	0	0	0	0	0	0	0	0	0	0	0	0	0	0	0	0	0	0	0	0	0	0	0	0	0	0	0	0	0	0	0	0	0	0	0	0	0	0	0	0	0	0	0	0	0	0	0	0	0	0	0	0	0	0	0	0	0	0	0	0	0	0	0	0	0	0	0	0	0	0	0	0	0	0	0	0	0	0	0	0	0	0	8448	8384	8384	8384	8384	8320	8320	8320	8320	8320	8320	8384	8448	8448	8448	8512	8512	8512	8512	8448	8448	8448	8448	8448	8448	8448	8448	8384	8384	8384	8448	8448	8448	8448	8448	8448	8448	8512	8512	8512	8512	8512	8512	8512	8448	8448	8448	8448	8448	8448	8384	8384	8384	8384	8384	8320	8320	8320	8320	0	0	0	0	0	0	0	0	0	0	0	0	0	0	0	0	0	0	0	0	0	0	0	0	0	0	0	0	0	0	0	0	0	0	0	0	0	4800	4352	4352	4544	4992	6912	8000	0	0	0	33920	33920	36928	37824	37824	37824	37824	37824	38272	38720	39168	39616	40064	40064	40576	40576	41024	40576	40576	40576	40576	41024	40576	40576	41024	41024	41024	41472	41984	42432	42944	43968	48640	51392	0	0	0	0	30208	16640	16640	19904	16640	13440	10304	7232	1280	61184	53120	38464	23360	3200	45184	45184	0	0	62656	57408	53760	51392	49728	47552	45952	44416	42944	41472	40576	39616	39168	38720	38272	37824	37824	37824	37824	37824	37824	37824	37824	38272	38272	38272	38272	38272	38272	38272	38272	38720	39168	39168	40064	40064	40064	40064	40064	40064	39616	39616	39616	39616	40064	40576	41472	41984	42944	43456	43968	44416	44928	44928	44928	44928	44928	44928	44928	44416	43968	43456	43456	42944	42432	42432	42432	41472	41472	41024	40576	39616	39168	38272	37824	37376	36928	36928	36480	36480	36480	36928	37376	37376	37824	38272	38272	38720	39168	39168	39616	40064	40064	40064	40576	41024	41472	41472	41984	41984	42432	42944	42944	43456	43968	43968	44416	45440	45952	45952	45952	45952	46464	47040	48064	50304	53120	55552	62656	62656	640	2880	4352	4352	2880	2880	2880	0	60672	57408	56768	56768	59328	62656	64064	6720	6720	11648	16000	21632	26624	28736	30912	35392	37760	43904	46528	51968	53376	53376	53376	53376	51968	51968	53376	54784	57728	56256	51968	51968	0	0	0	8320	640	56768	44416	41472	41472	43968	43456	42944	42944	42944	42944	0	0	0	0	0	0	0	0	0	0	0	0	0	0	0	0	0	0	0	0	0	0	0	0	0	0	0	0	0	0	0	0	0	0	0	0	0	0	0	0	0	0	0	0	0	0	0	0	0	0	0	0	0	0	0	0	0	0	0	0	0	0	0	0	0	0	0	0	0	0	0	0	0	0	0	0	0	0	0	0	0	0	0	0	0	0	0	0	0	0	0	0	0	0	57536
33152	32704	32320	31936	31552	30720	29952	29632	28864	28480	28096	27776	27776	27776	27392	27008	26688	26688	26688	26304	26304	26304	26688	26688	27008	28096	28480	29632	29952	30720	31552	32704	33536	34368	34368	34752	35200	35200	35200	34752	34752	34368	33920	33536	33536	33152	32704	32320	31936	31936	31552	31104	30720	30336	29952	29248	28864	28480	28096	27392	26688	26688	26688	26688	27008	27392	27776	28096	28480	29248	29632	30336	30720	31104	31936	32320	33152	33536	33920	34368	35200	35648	36480	37824	38272	39616	40576	41984	43456	44416	45440	45952	45952	45952	48064	47552	45952	44928	44416	43968	43456	43456	43968	43968	44928	45952	47552	49152	50816	51968	52544	53120	53120	52544	51968	51392	51392	51392	51968	52544	53760	56192	59968	640	12480	33152	45184	3200	23360	43136	55744	64000	4224	4224	1280	61184	58432	53120	43136	29568	17472	63872	56256	37760	21632	640	58048	51392	46464	43968	41472	40064	39168	38272	38272	37376	37376	36928	36480	36480	36032	36032	35648	35200	34368	34368	34752	0	0	0	0	0	0	0	0	0	0	0	0	0	0	0	0	0	0	0	0	0	0	0	0	0	0	0	0	0	0	0	0	0	0	0	0	0	0	0	0	0	0	0	0	0	0	0	0	0	0	0	0	0	0	0	0	0	0	0	0	0	0	0	0	0	0	0	0	0	0	0	0	0	0	0	0	0	0	0	0	0	0	0	0	8448	8384	8384	8384	8384	8320	8320	8320	8320	8320	8320	8384	0	8448	8448	8448	8448	8448	8448	8448	8448	8448	8384	8384	8384	8384	8384	8384	8384	8384	8384	8384	8384	8448	8448	8448	8448	8448	8448	8448	8448	8448	8448	8448	8448	8448	8448	8384	8384	8384	8384	8384	8320	8320	8320	8320	8320	8320	8320	8320	8320	0	0	0	0	0	0	0	0	0	0	0	0	0	0	0	0	0	0	0	0	0	0	0	0	0	0	0	0	0	0	0	0	0	0	0	0	0	0	0	0	0	0	0	31936	31936	33920	33920	38272	39168	38720	38720	38720	38720	39616	39616	40064	40064	40576	40576	41024	41024	41472	41472	41024	41024	41024	41472	41472	41472	41472	41984	41984	42432	43456	43456	43968	44416	0	0	0	0	16640	16640	26688	23296	23296	23296	19904	16640	10304	7232	1280	61184	48000	29568	15552	62272	41408	24576	10816	4352	63360	58048	54336	52544	50304	48064	47040	45440	43968	42944	41472	41024	40576	39616	39168	38720	38720	38720	38720	38272	38272	38272	38272	38272	38272	38272	38272	38272	38272	38272	38720	38720	39168	39616	40064	40576	40576	40576	41024	41024	40576	40064	40064	40064	40576	41024	41984	42432	42944	43456	43968	44416	44928	44416	44416	44416	44416	44416	43968	43968	43456	43456	43456	42944	42944	42432	42432	41984	41472	41024	40576	39616	39168	38272	37824	37376	36928	36928	36480	36480	36480	36928	37376	37824	37824	38272	38720	38720	39168	39168	39616	40064	40064	40064	40576	40576	41024	41024	41472	41472	42432	42432	42944	42944	43456	43456	43456	43968	44416	44416	44928	44928	44928	45952	47040	49152	53120	57408	57408	61312	64064	65472	65472	2880	65472	65472	59968	58048	56192	53120	53120	58688	58688	64768	11648	11648	16000	21632	25600	29824	32000	35392	36608	40192	42624	45184	47872	51968	54784	54784	56256	57728	59200	59200	59200	60736	62272	63872	6592	1536	57728	50560	50560	0	0	0	44416	41472	41472	0	0	0	0	0	0	0	0	0	0	0	0	0	0	0	0	0	0	0	0	0	0	0	0	0	0	0	0	0	0	0	0	0	0	0	0	0	0	0	0	0	0	0	0	0	0	0	0	0	0	0	0	0	0	0	0	0	0	0	0	0	0	0	0	0	0	0	0	0	0	0	0	0	0	0	0	0	0	0	0	0	0	0	0	0	0	0	0	0	0	0	0	0	0	0	0	0	0	0	0	0
32704	32320	32320	31936	31936	31104	30720	29952	29632	29248	28864	28864	28864	28480	27776	27776	27008	27008	26688	26304	26304	26304	26304	26304	26688	27008	27776	28096	28864	29632	29952	31104	31936	33152	33536	34368	34368	34368	34368	34368	33920	33920	33536	33536	33152	33152	32320	32320	31936	31936	31552	31552	31104	30336	30336	29632	29248	28864	28480	28096	27776	27776	27776	27776	27776	28096	28480	28864	29248	29632	30336	31104	31552	31936	32704	33152	33536	33920	33920	34368	34752	35200	35648	36480	37376	38272	39168	40576	41472	42432	42944	43456	43968	45952	45440	44928	43968	43456	42944	42944	42432	42432	42944	43968	44416	45440	47040	48064	49152	50304	50816	51392	51392	51392	50816	50816	50304	50304	50816	51392	51968	54336	57408	63360	6720	16896	45184	56256	13696	33920	43136	53120	61184	61184	58432	55744	53120	50560	43136	33920	25408	8320	56256	37760	21632	7488	62016	53760	47552	43968	41472	40576	39616	38720	38272	38272	37824	37824	37376	36928	36928	36480	36032	35648	35200	34752	34752	35648	0	0	0	0	0	0	0	0	0	0	0	0	0	0	0	0	0	0	0	0	0	0	0	0	0	0	0	0	0	0	0	0	0	0	0	0	0	0	0	0	0	0	0	0	0	0	0	0	0	0	0	0	0	0	0	0	0	0	0	0	0	0	0	0	0	0	0	0	0	0	0	0	0	0	0	0	0	0	0	0	0	0	0	0	0	0	0	0	8256	8256	8256	8256	8256	8256	8256	0	0	0	8448	8448	8448	8448	8384	8384	8384	8384	8384	8384	8384	8384	8384	8384	8384	8384	8384	8384	8384	8384	8384	8384	8384	8448	8448	8448	8448	8448	8448	8384	8384	8384	8384	8384	8384	8320	8320	8320	8320	8256	8256	8256	8256	8256	8256	8256	0	0	0	0	0	0	0	0	0	0	0	8256	8256	8256	0	0	0	0	0	0	0	0	0	0	0	0	0	0	0	0	0	0	0	0	0	0	0	0	0	0	0	0	36928	31936	31936	34752	38272	40576	40576	40064	39616	39616	39616	40064	40064	40576	40576	40576	41024	41024	41024	41024	41024	41024	41024	41472	41472	41984	41984	42432	42432	42944	43456	43968	44416	44928	44928	0	0	0	7232	7232	16640	26688	26688	30208	26688	23296	16640	13440	7232	1280	58432	40768	21312	6592	62272	37760	22592	10816	4352	64768	59328	55552	53120	50816	49152	47552	45952	44928	43968	42944	42432	41024	40576	39616	39616	39168	38720	38272	38272	38272	38272	37824	37824	37824	37824	37824	37824	37824	37824	38272	38272	38720	39168	40064	40064	40576	40576	40576	41024	41024	40064	39616	39616	40064	40576	41024	41984	42432	42432	42944	43456	43968	43968	43456	43456	43456	43456	43456	43456	43456	43456	43456	42944	42944	42944	42432	41984	41472	41024	40576	40064	39168	38720	38272	37824	37376	36928	36928	36928	36928	36928	37376	37824	37824	38272	38720	38720	39168	39616	39616	39616	40064	40064	40064	40576	41024	41024	41472	41472	41984	42432	42432	42432	42432	42432	42432	42432	41472	41472	41984	42432	42944	43456	44928	46464	52544	52544	54912	57408	58048	57408	53760	51968	50304	48640	48640	45952	44416	43456	43456	45440	58688	64768	8320	8320	13376	17856	21632	25600	27712	30912	33152	35392	40192	45184	49216	53376	57728	59200	59200	62272	63872	65408	65408	1536	3200	6592	6592	1536	57728	50560	50560	0	0	0	0	0	0	0	27776	27776	0	0	0	0	0	0	0	0	0	0	0	0	0	0	0	0	0	0	0	0	0	0	0	0	0	0	0	0	0	0	0	0	0	0	0	0	0	0	0	0	0	0	0	0	0	0	0	0	0	0	0	0	0	0	0	0	0	0	0	0	0	0	0	0	0	0	0	0	0	0	0	0	0	0	0	0	0	0	0	0	0	0	0	0	0	0	0	0	0	0	0	0	0	0	0	0	0	0
31552	31936	31936	31936	31936	31552	31104	30720	30336	30336	29952	29632	29632	29248	28864	28096	27776	27392	27008	26688	26304	26304	26304	26304	26688	26688	27008	27392	27776	28480	28864	29952	30720	31552	32320	33152	33152	33920	33920	33536	33536	33536	33536	33152	33152	32704	32320	32320	31936	31936	31936	31936	31552	31104	30720	30336	29952	29632	29248	28864	28480	28480	28480	28480	28864	29248	29248	29632	30336	30720	31104	31936	32320	32704	32704	33536	33536	33920	34368	34368	34368	34752	35200	35648	36480	37376	38272	39616	40064	41024	41472	41984	43968	43456	43456	42944	42432	41984	41472	41472	41984	42432	42432	42944	43968	44928	46464	47552	48640	49152	49728	50304	50304	50304	50304	49728	49728	49728	50304	50304	50816	52544	55552	60672	2880	12480	23616	45184	63872	19392	33920	43136	50560	53120	53120	50560	48000	45568	40768	36160	29568	17472	1536	50560	46528	16000	2880	58048	50304	45440	42432	41024	40576	39616	39168	38720	38720	38272	37824	37824	37376	37376	36480	36032	36032	35648	35648	35648	0	0	0	0	0	0	0	0	0	0	0	0	0	0	0	0	0	0	0	0	0	0	0	0	0	0	0	0	0	0	0	0	0	0	0	0	0	0	0	0	0	0	0	0	0	0	0	0	0	0	0	0	0	0	0	0	0	0	0	0	0	0	0	0	0	0	0	0	0	0	0	0	0	0	0	0	0	0	0	0	0	0	0	0	0	0	0	8192	8192	8192	8192	8192	8192	8256	8256	0	0	0	0	8448	8384	8384	8384	8384	8384	8384	8384	8320	8320	8320	8320	8384	8384	8384	8384	8384	8384	8384	8384	8384	8384	8384	8384	8384	8384	8384	8384	8384	8384	8320	8320	8320	8320	8320	8320	8256	8256	8256	8256	8256	8256	8256	8256	8256	0	0	0	0	0	0	0	0	0	0	0	8256	8256	8256	8256	8256	8256	8256	0	0	0	0	0	0	0	0	0	0	0	0	0	0	0	0	0	0	0	0	0	0	53120	47552	36928	36928	37824	39168	40064	41472	41472	41024	40576	40576	40576	40576	40576	40576	40576	40576	40576	41024	40576	40576	41024	41024	41024	41472	41984	42432	42432	42944	43456	43968	44416	44928	45440	45952	0	0	0	0	7232	7232	37568	37568	37568	33856	30208	26688	19904	13440	7232	1280	50560	31744	11840	59200	59200	32000	19712	11648	5952	65472	60672	56192	53760	51968	49152	47552	45440	44416	42944	42432	41472	40576	39616	39168	38720	38272	38272	37824	37824	37376	37376	37376	37376	37376	37376	37376	37376	37376	37376	37376	37824	38272	38720	39616	39616	39616	40064	40576	40064	40064	39616	39168	39168	39616	40064	40576	41024	41472	41984	42432	42432	42944	42944	42432	42432	41984	41984	41984	41984	42944	42432	42432	42944	42944	42944	42432	42432	41984	41472	41472	40576	40064	39168	38720	38272	37824	37376	37376	36928	36928	37376	37376	37824	37824	38272	38720	38720	39168	39168	39616	39616	40064	40064	40064	40576	40576	41024	41024	41472	41984	41984	41984	41984	41984	41472	41472	40576	40576	40064	40064	40064	40576	41024	41984	43456	45440	48064	49728	50816	49152	47552	44416	41984	41984	48640	36032	36032	34752	33536	33536	45440	0	0	61312	61312	2880	8320	12480	14208	15104	15104	16896	22592	28736	42624	47872	54784	59200	63872	65408	4864	6592	8320	10048	11840	15552	21312	21312	17472	10048	1536	1536	0	0	0	0	0	0	0	27776	27776	0	0	0	0	0	0	0	0	0	0	0	0	0	0	0	0	0	0	0	0	0	0	0	0	0	0	0	0	0	0	0	0	0	0	0	0	0	0	0	0	0	0	0	0	0	0	0	0	0	0	0	0	0	0	0	0	0	0	0	0	0	0	0	0	0	0	0	0	0	0	0	0	0	0	0	0	0	0	0	0	0	0	0	0	0	0	0	0	0	0	0	0	0	0	0	0	0	0
31104	31552	31552	31936	31936	31936	31936	31552	31104	31104	30720	30720	30336	30336	29632	28864	28480	27776	27392	27008	26688	26304	26304	26304	26688	26688	26688	27008	27008	27392	27776	28864	29632	30336	31104	31552	31936	32704	33152	33152	33152	33152	33152	33152	33152	32704	32320	32320	31936	31936	31936	31936	31936	31552	31552	31104	31104	30336	30336	29632	29248	29248	28864	28864	29248	29632	29952	30336	31104	31936	32320	32704	33152	33152	33536	33536	33920	33920	34368	34368	34368	34752	34752	35648	36032	36928	37824	38720	39168	40064	41024	41984	42432	41984	41984	41984	41472	41472	41472	41472	41472	41984	42432	42944	43968	44928	46464	47552	48064	49152	49728	49728	49728	49728	49728	49728	49728	49728	50304	50304	50816	52544	55552	59968	1408	9984	19712	36608	54784	8320	21312	31744	40768	43136	45568	43136	43136	40768	38464	36160	31744	23360	10048	62272	46528	40192	13376	65472	55552	49152	44928	43456	41472	41024	40064	39616	39616	39168	38720	38272	38272	37824	36928	36928	36480	36032	36032	36480	0	0	0	0	0	0	0	0	0	0	0	0	0	0	0	0	0	0	0	0	0	0	0	0	0	0	0	0	0	0	0	0	0	0	0	0	0	0	0	0	0	0	0	0	0	0	0	0	0	0	0	0	0	0	0	0	0	0	0	0	0	0	0	0	0	0	0	0	0	0	0	0	0	0	0	0	0	0	0	0	0	0	0	0	0	0	8192	8192	8192	8192	8128	8128	8192	8192	8192	8192	8256	0	0	0	8384	8384	8320	8320	8320	8320	8320	8320	8320	8320	8320	8320	8320	8320	8320	8384	8384	8384	8384	8384	8384	8384	8384	8384	8384	8384	8320	8320	8320	8320	8320	8320	8320	8256	8256	8256	8256	8256	8192	8192	8192	8192	8192	8192	0	0	0	0	0	0	0	0	0	0	0	8192	8192	8192	8192	8192	8192	8256	0	0	0	0	0	0	0	0	0	0	0	0	0	0	0	0	0	0	0	0	0	0	53120	47552	46464	44928	44416	43968	43456	42944	42432	41984	41472	41472	41024	40576	40064	40064	39616	39616	39616	40064	39616	39616	40064	40576	40576	41024	41984	42432	43456	43968	44416	45440	45952	46464	47552	0	0	0	0	0	30208	30208	41344	41344	37568	37568	33856	30208	23296	16640	10304	64000	45568	25408	3200	59200	40192	28736	17856	10816	5952	1408	62016	57408	54336	50816	47552	45440	42944	41472	40576	39616	39168	38272	37376	37376	37376	37376	36928	36928	36480	36480	36480	36480	36480	36480	36480	36480	36480	36480	36480	36480	36928	37376	37824	38272	38720	38720	39168	39168	39616	39616	39168	38720	38720	38720	39168	39616	40576	40576	41024	41472	41472	41984	41472	41472	41024	41024	41024	41024	41984	41984	41984	41984	42432	42432	42944	42944	42944	42432	42432	41984	41472	41024	40064	39616	39168	38272	37824	37824	37376	37376	37376	37376	37824	37824	38272	38720	38720	39168	39168	39168	39616	39616	40064	40064	40064	40576	40576	41024	41472	41984	41984	41984	41472	41024	40576	40064	39616	38720	38720	38720	38720	38720	39168	40064	41472	42432	43456	43968	44416	44416	47552	44416	41984	32320	31552	30720	30720	29952	29952	33536	0	0	0	61312	61312	2880	8320	12480	14208	4352	4352	5952	9984	17856	42624	47872	56256	62272	1536	4864	8320	15552	17472	19392	21312	29568	31744	36160	33920	33920	0	0	0	0	0	20992	20672	20096	19776	19456	18880	18304	17984	17984	17984	17984	17728	17728	17728	17728	17984	0	0	0	0	0	0	0	0	0	0	0	0	0	0	0	0	0	0	0	0	0	0	0	0	0	0	0	0	0	0	0	0	0	0	0	0	0	0	0	0	0	0	0	0	0	0	0	0	0	0	0	0	0	0	0	0	0	0	0	0	0	0	0	0	0	0	0	0	0	0	0	0	0	0	0	0	0	0	0	0	0	0	0	0	0	0	0	0
31104	31552	31552	31936	32320	32320	32320	31936	31936	31936	31936	31936	31552	31552	30720	30336	29632	28864	28480	27776	27392	26688	26304	26304	26688	26688	26688	27008	27008	27392	27392	28096	29248	29952	31104	31552	31936	32320	33152	33152	33152	33152	33152	33152	33152	32704	32704	32320	32320	31936	31936	32320	32704	32320	31936	31936	31552	31104	31104	30336	29952	29952	29952	29952	29952	30336	30336	31104	31552	32320	32704	33152	33536	33920	33920	33920	34368	34368	34368	34368	34368	34752	34752	35648	36032	36928	37824	38272	39168	40064	41024	41472	41472	41472	41472	41472	41472	41472	41472	41472	41472	41984	42432	43456	44416	45440	46464	47552	48064	49152	49152	49728	49728	49728	49728	49728	49728	49728	50304	50816	51392	52544	55552	59968	65472	9984	16000	30912	54784	65408	11840	21312	29568	33920	36160	36160	36160	36160	33920	31744	29568	25408	17472	6592	59200	40192	40192	8320	62016	53120	47552	44928	42432	41984	41024	40576	40064	40064	39616	39168	38720	38272	37824	37376	36928	36480	36480	37376	0	0	0	0	0	0	0	0	0	0	0	0	0	0	0	0	0	0	0	0	0	0	0	0	0	0	0	0	0	0	0	0	0	0	0	0	0	0	0	0	0	0	0	0	0	0	0	0	0	0	0	0	0	0	0	0	0	0	0	0	0	0	0	0	0	0	0	0	0	0	0	0	0	0	0	0	0	0	0	0	0	0	0	0	0	0	8128	8128	8128	8128	8128	8128	8192	8192	8192	8192	8256	0	0	0	0	8384	8320	8320	8320	8256	8256	8256	8256	8256	8320	8320	8320	8320	8320	8320	8320	8320	8320	8320	8320	8320	8320	8320	8320	8320	8320	8320	8320	8320	8256	8256	8256	8256	8256	8256	8192	8192	8192	8192	8192	8192	8192	8192	0	0	0	0	0	0	0	0	0	0	0	8192	8192	8192	8192	8192	8192	8192	0	0	0	0	0	0	0	0	0	0	0	0	0	0	0	0	0	0	0	0	0	0	53120	51968	51968	0	46464	44416	43968	43456	42944	42432	41984	41472	41024	40064	39616	39168	38720	38720	38720	38720	38720	39168	39168	39616	40064	40576	41472	42432	42944	43968	44416	45440	45952	47552	0	0	0	0	0	0	45248	45248	41344	41344	41344	41344	37568	30208	26688	16640	10304	61184	38464	17472	62272	62272	35392	25600	16000	10816	6720	1408	61312	56768	53120	48640	44928	42432	39616	38720	37376	36928	36032	36032	35648	35648	35648	35200	35200	35648	35648	35648	35648	35648	35648	35648	35648	35648	35648	35648	35648	35648	36032	36032	36480	37376	37824	37824	38272	38272	38720	38720	38720	38272	38272	38272	38720	39168	39616	40064	40576	40576	41024	41024	41024	40576	40064	40064	41024	41024	41024	41024	41472	41472	41984	41984	42432	42944	42944	42944	42944	42944	42432	41984	41024	40576	39616	39168	38720	37824	37824	37376	37376	37376	37824	38272	38272	38720	38720	38720	39168	39168	39168	39616	39616	40064	40064	40064	40576	41024	41024	41984	41472	41024	41024	40576	39616	39168	38272	37376	37376	36928	36928	37376	37376	38272	39168	39168	40064	40064	39168	37376	35648	33536	30720	29248	27776	27392	27008	27008	27008	0	0	0	0	0	0	0	0	0	0	4352	4352	5952	9984	17856	0	0	0	0	0	0	0	0	0	0	0	0	0	0	0	0	0	0	0	0	0	20992	19776	19200	18880	18880	18560	18304	17984	17984	17984	17984	17728	17728	17728	17728	17984	18880	0	0	0	0	0	0	0	0	0	0	0	0	0	0	0	0	0	0	0	0	0	0	0	0	0	0	0	0	0	0	0	0	0	0	0	0	0	0	0	0	0	0	0	0	0	0	0	0	0	0	0	0	0	0	0	0	0	0	0	0	0	0	0	0	0	0	0	0	0	0	0	0	0	0	0	0	0	0	0	0	0	0	0	0	0	0	0
31104	31552	31936	31936	32704	32704	32704	32704	32704	33152	33152	32704	32704	32320	31936	31104	30336	29632	29248	28480	28096	27392	27008	27008	27008	27008	27008	27008	27008	27008	27008	27776	28480	29248	30336	30720	31552	31936	32320	32704	32704	32704	32704	33152	33152	33152	32704	32704	32704	32320	32320	32704	33152	33152	32704	32704	32320	31936	31552	31552	30720	30720	30336	30336	30336	30336	30720	31104	31104	31936	31936	32704	33152	33152	33536	33920	33920	34368	34368	34368	34368	34752	35200	35648	36032	36928	37824	38272	39168	40064	40576	41024	41472	41472	41472	41472	41472	41472	41472	41472	41984	42432	43456	44416	44928	45952	47040	47552	48640	49152	49152	49152	49728	49152	49152	49152	49152	49152	49728	50816	51392	53120	55552	59968	65472	14208	14208	25600	65408	65408	65408	11840	19392	25408	27456	29568	29568	29568	29568	29568	27456	25408	21312	11840	3200	60736	60736	0	0	58688	51968	48064	44928	43968	42432	41472	41024	41024	40576	40064	39616	38720	38272	37824	37824	37376	37376	0	0	0	0	0	0	0	0	0	0	0	0	0	0	0	0	0	0	0	0	0	0	0	0	0	0	0	0	0	0	0	0	0	0	0	0	0	0	0	0	0	0	0	0	0	0	0	0	0	0	0	0	0	0	0	0	0	0	0	0	0	0	0	0	0	0	0	0	0	0	0	0	0	0	0	0	0	0	0	0	0	0	0	0	0	0	0	8128	8128	8128	8128	8128	8128	8128	8128	8128	8192	0	0	0	0	0	0	8320	8320	8256	8256	8256	8256	8256	8256	8256	8256	8256	8320	8320	8320	8320	8320	8320	8320	8320	8320	8320	8320	8320	8320	8320	8256	8256	8256	8256	8256	8256	8256	8192	8192	8192	8192	8192	8128	8128	8128	8128	0	0	0	0	0	0	0	0	0	0	0	8128	8128	8128	8192	8192	8192	8192	8192	0	0	0	0	0	0	0	0	0	0	0	0	0	0	0	0	0	0	0	0	0	0	54336	54336	0	0	0	45440	44416	43968	43968	42944	41984	41472	40576	40064	38720	38720	38272	37824	37824	37824	37824	37824	38272	38720	39616	40064	41024	41984	42944	43968	44416	45440	46464	48064	0	0	0	0	0	0	49216	49216	49216	45248	45248	41344	41344	33856	30208	19904	13440	61184	38464	15552	62272	62272	33152	23616	15104	9984	6720	640	60672	55552	50816	45952	42432	39168	36928	35200	34752	34368	33920	33536	33536	33920	33920	33920	33920	33920	34368	34368	34368	34368	34752	34752	34752	34752	34752	34368	34368	34752	34752	35200	35648	36032	36480	36928	36928	37376	37376	37824	37824	37824	37824	37824	38272	38720	39168	39616	39616	40064	40064	40576	40064	39616	39616	40064	40064	40064	40064	40576	40576	41024	41024	41472	41984	42432	42432	42944	43456	43456	42944	42432	41984	41472	40576	39616	39168	38720	38272	37824	37824	37824	37824	38272	38272	38720	38720	38720	39168	39168	39168	39168	39616	39616	40064	40064	40576	40576	41024	41472	41472	40576	40064	39616	38720	37824	36928	36032	35648	35200	35200	35648	36032	36928	36928	36928	36928	36480	35200	33536	31552	29632	27776	26688	25280	23936	23232	23232	22592	22592	23616	0	0	0	0	0	0	49728	49728	49728	0	0	0	0	0	0	0	0	0	0	0	0	0	0	0	0	0	0	0	0	0	0	0	0	0	20992	19776	19200	18880	18880	18560	18560	18304	18304	18304	18304	18304	18304	18304	18560	18880	18880	0	0	0	0	0	0	0	0	0	0	0	0	0	0	0	0	0	0	0	0	0	0	0	0	0	0	0	0	0	0	0	0	0	0	0	0	0	0	0	0	0	0	0	0	0	0	0	0	0	0	0	0	0	0	0	0	0	0	0	0	0	0	0	0	0	0	0	0	0	0	0	0	0	0	0	0	0	0	0	0	0	0	0	0	0	0	0
31552	31552	32320	32704	32704	33536	33536	33536	33536	33920	33920	33920	33536	33536	32704	32320	31552	30720	29952	29248	28480	28096	27776	27392	27392	27008	27008	27008	27008	27008	27008	27392	27776	28864	29632	29952	31104	31552	31936	32320	32320	32704	32704	32704	32704	33152	33152	33152	33152	32704	32704	33152	33536	33536	33536	33152	33152	32704	32320	31552	31104	30720	30720	30336	29952	29952	29952	30336	30336	30720	31104	31552	32320	32704	32704	33536	33536	33920	33920	33920	34368	34752	35200	35648	36480	36928	37824	38272	39168	40064	40576	41024	41024	41472	41472	41472	41472	41472	41472	41984	42432	42944	43968	44416	45440	46464	47552	48064	48640	49152	49152	49152	49152	49152	48640	48640	48640	49152	49728	50816	51392	53120	55552	59968	65472	5952	13376	24576	35392	47872	57728	3200	11840	15552	19392	21312	23360	25408	25408	25408	23360	23360	21312	17472	10048	60736	54784	37760	37760	65472	56768	51392	47552	45952	43456	42944	42432	41472	41472	41024	40576	39616	39168	38272	38272	38272	38720	0	0	0	0	0	0	0	0	0	0	0	0	0	0	0	0	0	0	0	0	0	0	0	0	0	0	0	0	0	0	0	0	0	0	0	0	0	0	0	0	0	0	0	0	0	0	0	0	0	0	0	0	0	0	0	0	0	0	0	0	0	0	0	0	0	0	0	0	0	0	0	0	0	0	0	0	0	0	0	0	0	0	0	0	0	0	0	8128	8128	8128	8128	8128	8128	8128	8128	8128	8128	8128	8192	8192	0	0	0	0	0	8192	8192	8192	8192	8192	8192	8256	8256	8256	8256	8256	8256	8320	8256	8256	8256	8256	8256	8256	8256	8256	8256	8256	8256	8256	8256	8256	8256	8192	8192	8192	8192	8192	8128	8128	8128	8128	8128	8128	0	0	0	0	0	0	0	0	0	0	8128	8128	8128	8128	8128	8128	8128	8128	8128	8128	0	0	0	0	0	0	0	0	0	0	0	0	0	0	0	0	0	0	0	0	0	54336	54336	54336	0	49152	46464	45440	44928	44416	43456	42432	41472	40576	39168	38272	37824	37376	36928	36928	36928	37376	37376	37824	38720	39168	40064	41024	41984	42944	43968	44928	45952	46464	48064	29824	29824	0	0	0	14784	61824	57536	57536	53312	53312	49216	49216	41344	33856	23296	13440	64000	38464	13696	13696	43904	33152	23616	15104	9984	7488	640	59968	53760	48064	42944	39168	36480	34368	33152	32320	32320	31936	31936	31936	31936	31936	32320	32320	32704	33152	33152	33152	33536	33536	33536	33536	33536	33536	33536	33536	33536	33920	34368	34368	34752	35200	35648	35648	36480	36480	36928	36928	36928	36928	37376	37824	38272	38720	38720	39168	39168	39616	39616	39168	39168	39616	39616	39616	39616	39616	39616	40064	40576	40576	41024	41024	41472	41984	42432	42944	42944	42944	42944	42432	41984	41472	40576	39616	39168	38720	38272	38272	38272	38272	38272	38272	38720	38720	38720	39168	39168	39168	39168	39616	39616	40064	40064	40064	40576	41024	41024	40576	40064	39168	38272	37376	36928	35648	34752	33920	33920	33920	33920	34752	34752	35200	34752	34368	33536	32320	32320	28864	26688	24960	23616	22272	21312	20416	19776	19776	19776	20672	21632	22592	0	0	0	37376	37376	38720	39616	41472	39616	37376	37376	0	0	0	0	0	0	0	0	0	0	0	0	0	0	0	0	0	0	0	0	0	0	21312	20096	18880	18880	18560	18560	18304	18304	18304	18304	18304	18304	18560	18560	19200	19456	20096	0	0	0	0	0	0	0	0	0	0	0	0	0	0	0	0	0	0	0	0	0	0	0	0	0	0	0	0	0	0	0	0	0	0	0	0	0	0	0	0	0	0	0	0	0	0	0	0	0	0	0	0	0	0	0	0	0	0	0	0	0	0	0	0	0	0	0	0	0	0	0	0	0	0	0	0	0	0	0	0	0	0	0	0	0	0
31552	31936	32320	32704	33152	33536	33536	33536	33536	33920	33920	33920	33920	33536	33152	32320	31552	30720	29952	29248	28864	28096	27776	27776	27776	27392	27392	27008	27008	27008	27008	27392	27776	28096	28864	29632	29952	30720	31936	31936	31936	32320	32320	32320	32320	32704	32704	32704	32704	32320	32320	32704	33152	33536	33536	33536	33152	33152	32704	31936	31552	31104	30720	30336	29632	29632	29632	29632	29632	29952	29952	30720	31104	31552	32320	32704	33152	33536	33536	33920	34368	34368	35200	35648	36480	37376	38272	38272	39168	40064	40576	41024	41024	41472	41472	41472	41472	41984	41984	41984	42944	43968	45440	45952	46464	47040	48064	48640	48640	49152	49152	49152	49152	48640	48640	48640	48640	48640	49728	50816	51392	53760	56768	60672	65472	5952	13376	24576	34240	45184	53376	62272	3200	10048	13696	17472	19392	19392	21312	21312	21312	19392	17472	15552	13696	1536	54784	37760	37760	6720	6720	54912	49728	47040	44416	43456	42944	41984	41472	41472	41024	40064	39168	38720	38720	38720	39168	0	0	0	0	0	0	0	0	0	0	0	0	0	0	0	0	0	0	0	0	0	0	0	0	0	0	0	0	0	0	0	0	0	0	0	0	0	0	0	0	0	0	0	0	0	0	0	0	0	0	0	0	0	0	0	0	0	0	0	0	0	0	0	0	0	0	0	0	0	0	0	0	0	0	0	0	0	0	0	0	0	0	0	0	0	0	0	8128	8128	8128	8128	8128	8128	8128	8128	8128	8128	8128	8192	8192	8192	8192	0	0	0	8192	8192	8192	8192	8192	8192	8192	8192	8256	8256	8256	8256	8256	8256	8256	8256	8256	8256	8256	8256	8256	8256	8256	8256	8256	8256	8192	8192	8192	8192	8192	8192	8128	8128	8128	8064	8064	8064	8064	8064	0	0	0	0	0	0	0	8128	8128	8128	8128	8128	8128	8128	8128	8128	8128	8128	8128	0	0	0	0	0	0	0	0	0	0	0	0	0	0	0	0	0	0	0	0	0	54912	54336	54336	0	49152	47552	46464	45952	44928	43968	42432	41472	40576	39168	37824	37376	36928	36480	36480	36480	36480	36928	37376	38272	38720	39616	40576	41984	42944	43968	44928	45952	46464	0	29824	29824	0	0	0	14784	9984	5312	768	768	61824	57536	57536	45248	37568	26688	16640	64000	38464	13696	60736	43904	33152	23616	15104	10816	8320	64768	56768	50816	48064	40064	35648	33536	32320	31104	30720	30720	30336	29952	29952	29952	30336	30336	31104	31104	31552	31936	32320	32320	32320	32320	32704	32704	32704	32704	32704	32704	33152	33536	33536	33920	34752	34752	34752	35648	35648	36032	36032	36032	36032	36480	36928	37376	37824	37824	38272	38272	38272	38272	39168	38720	38720	38720	38720	38720	38720	39168	39168	39616	40064	40064	40576	40576	41024	41472	41984	42432	42432	42944	42432	41984	41472	41024	40064	39616	39168	38720	38272	38272	38272	38272	38720	38720	38720	38720	39168	39168	39168	39168	39616	39616	39616	39616	40064	40576	40576	40576	40064	39168	38272	37376	36480	35648	34752	33536	33152	32704	32704	33152	33152	33536	33536	32704	31936	31104	29632	28096	26688	24576	22912	21312	20416	19456	19200	18880	18880	18880	18880	18880	22592	0	0	0	37376	37376	30720	30720	30720	31104	31552	37376	0	0	0	0	0	0	0	0	0	0	0	0	0	0	0	0	0	0	0	0	0	0	0	20672	18880	18880	18560	18560	18304	18304	18304	18304	18304	18304	18560	18880	19200	19456	20096	0	0	0	0	0	0	0	0	0	0	0	0	0	0	0	0	0	0	0	0	0	0	0	0	0	0	0	0	0	0	0	0	0	0	0	0	0	0	0	0	0	0	0	0	0	0	0	0	0	0	0	0	0	0	0	0	0	0	0	0	0	0	0	0	0	0	0	0	0	0	0	0	0	0	0	0	0	0	0	0	0	0	0	0	0	0
31552	31936	32320	32704	33152	33536	33536	33152	33152	33536	33536	33152	33152	32704	32320	31936	31104	30336	29952	29248	28864	28480	28480	28096	28096	28096	27776	27392	27392	27008	27008	27392	27776	28096	28480	28864	29248	29952	30336	30720	30720	31104	31104	31104	31104	31104	31104	31104	31104	31552	31936	31936	32704	32704	33152	33152	33152	33152	32704	31936	31552	31104	30336	29952	29632	28864	28864	28480	28480	28864	28864	29632	29952	30336	30720	31552	31936	32704	33152	33152	33536	34368	34752	36032	36928	37824	38720	38720	39616	40064	41024	41024	41472	41472	41472	41472	41984	41984	42432	42944	43968	44416	45440	45952	47040	47552	48064	48640	49152	49152	49728	49728	49728	48640	48640	48640	48640	48640	49728	50816	51968	53760	56768	60672	65472	5952	14208	21632	32000	41408	47872	54784	62272	3200	6592	10048	13696	13696	15552	17472	17472	15552	13696	11840	10048	4864	59200	46528	46528	19712	7488	7488	51968	48640	45440	44416	43456	42944	42432	42432	41472	40576	39616	39168	39168	39616	39616	0	0	0	0	0	0	0	0	0	0	0	0	0	0	0	0	0	0	0	0	0	0	0	0	0	0	0	0	0	0	0	0	0	0	0	0	0	0	0	0	0	0	0	0	0	0	0	0	0	0	0	0	0	0	0	0	0	0	0	0	0	0	0	0	0	0	0	0	0	0	0	0	0	0	0	0	0	0	0	0	0	0	0	0	0	0	0	8128	8128	8128	8128	8128	8128	8128	8128	8128	8128	8128	8192	8192	8192	8192	8192	8192	8192	8192	8192	8192	8192	8192	8192	8192	8192	8192	8192	8256	8256	8256	8256	8256	8256	8256	8256	8256	8256	8256	8256	8192	8192	8192	8192	8192	8192	8192	8192	8128	8128	8128	8128	8064	8064	8064	8000	8000	8000	0	0	0	0	0	0	0	8064	8064	8064	8128	8128	8128	8128	8128	8128	8128	8128	8128	0	0	0	0	0	0	0	0	0	0	0	0	0	0	0	0	0	0	0	0	0	0	0	0	0	0	0	0	0	0	0	0	0	40576	39168	37376	36480	36032	36032	36032	36032	36032	36480	36928	37376	38272	39168	40576	41984	42944	0	0	0	0	0	0	0	0	0	6336	35584	30144	19776	14784	9984	5312	5312	61824	53312	41344	30208	19904	64000	38464	15552	60736	43904	33152	23616	16000	10816	7488	62016	53760	47040	47040	36928	33920	31552	30336	29952	29632	28864	28864	28864	28864	28864	28864	29248	29632	29632	30336	30720	31104	31552	31936	31936	31936	32320	32320	32320	32320	32320	32704	33152	33536	33920	34368	34752	34752	35200	35648	36032	36032	36032	35648	35648	36032	36480	36928	37376	37376	37376	37824	38272	37824	37824	37824	37824	37824	37824	37824	37824	38272	38720	39168	39168	39616	39616	40064	40576	41024	41472	41472	41984	42432	41984	41472	41472	40576	40064	39616	39168	38720	38720	38720	38720	38720	38720	38720	39168	39168	39168	39168	39168	39616	39616	39616	39616	40064	40064	40576	40576	40064	39168	38272	37376	36480	35648	34752	33536	33152	32704	32704	32704	32704	33152	32704	32320	31936	31104	29632	28096	26688	24576	22912	21312	20416	19456	19200	18880	18304	18304	18304	18304	0	0	0	0	0	0	30720	30720	30720	31104	31552	0	0	0	0	0	0	0	0	0	0	0	0	0	0	0	0	0	0	0	0	0	0	0	0	20672	18880	18880	18560	18560	18304	18304	18304	18304	18304	18304	18560	18880	19456	19456	20096	0	0	0	0	0	0	0	0	0	0	0	0	0	0	0	0	0	0	0	0	0	0	0	0	0	0	0	0	0	0	0	0	0	0	0	0	0	0	0	0	0	0	0	0	0	0	0	0	0	0	0	0	0	0	0	0	0	0	0	0	0	0	0	0	0	0	0	0	0	0	0	0	0	0	0	0	0	0	0	0	0	0	0	0	0	0
31936	31936	32320	32704	33152	33152	33152	33152	32704	32704	32704	32704	32320	31936	31552	30720	30336	29952	29632	29248	28864	28480	28480	28096	28096	28096	27776	27776	27392	27392	27392	27392	27776	28096	28480	28864	29248	29632	29952	29952	29952	29952	29952	30336	29952	29952	29952	30336	30336	30336	30336	31552	31936	31936	32704	32704	32704	32704	32320	31936	31104	30720	30336	29632	29248	28864	28480	28096	28096	28096	28480	28480	28864	29248	29632	29952	30720	31104	31552	31936	32704	33152	33920	35200	36032	36928	38720	39168	40064	41024	41024	41472	41472	41472	41472	41472	41984	42944	43456	43456	44416	44928	45952	47040	47552	48064	48640	49152	49728	49728	50816	50304	50304	49728	49152	49152	49728	49728	50816	51968	52544	54912	58048	62016	1408	7488	15104	21632	28736	36608	41408	47872	54784	60736	65408	4864	6592	10048	10048	11840	11840	11840	10048	6592	4864	1536	60736	51968	40192	19712	7488	7488	54912	50304	46464	44928	44416	43456	42944	42432	42432	41024	40064	40064	0	40064	40064	0	0	0	0	0	0	0	0	0	0	0	0	0	0	0	0	0	0	0	0	0	0	0	0	0	0	0	0	0	0	0	0	0	0	0	0	0	0	0	0	0	0	0	0	0	0	0	0	0	0	0	0	0	0	0	0	0	0	0	0	0	0	0	0	0	0	0	0	0	0	0	0	0	0	0	0	0	0	0	0	0	0	0	0	0	0	0	8128	8128	8128	8128	8128	8128	8128	8128	8128	8128	8128	8192	8192	8192	8192	8192	8192	8192	8192	8192	8192	8192	8192	8192	8192	8192	8192	8192	8192	8192	8192	8192	8192	8192	8192	8192	8192	8192	8192	8192	8192	8192	8192	8192	8192	8192	8192	8128	8128	8128	8128	8064	8064	8064	8000	8000	8000	8000	0	0	0	0	0	0	8064	8064	8064	8064	8064	8064	8128	8128	8128	8064	8064	8064	0	0	0	0	0	0	0	0	0	0	0	0	0	0	0	0	0	0	0	0	0	0	0	0	0	0	0	0	0	0	0	0	0	0	0	0	37376	36480	35648	35200	35200	35200	35648	36032	36480	37376	38272	39168	40576	0	0	0	0	0	0	0	0	0	0	0	6336	65344	52864	35584	30144	24896	19776	14784	9984	57536	45248	33856	19904	64000	40768	17472	1536	46528	35392	24576	16000	16000	7488	57408	53760	47040	47040	35200	32704	31104	29952	29248	28864	28480	28480	28096	28096	28096	28480	28480	28480	28864	29248	29952	30336	30720	31104	31104	31552	31552	31936	31936	31936	31936	32320	33152	33536	33920	34368	34752	35200	35200	35648	36032	36032	36032	35648	35648	36032	36480	36928	37376	37376	37376	37824	37376	36928	36480	36480	36480	36480	36928	36928	37376	37376	37824	37824	38272	38720	39168	39168	39616	40064	40576	40576	41024	41984	41984	41472	41472	41024	40576	40064	39616	39168	38720	38720	38720	38720	38720	38720	39168	39168	39168	39168	39168	39616	39616	39616	39616	40064	40064	40064	40064	39616	39168	37824	36928	36480	35648	34752	33536	33152	32704	32704	32704	32704	32704	32320	31936	31936	31552	31104	29632	28096	26688	24576	23616	22592	20992	19776	18880	18304	18304	18304	18304	20096	0	0	0	0	0	0	0	0	0	0	0	0	0	0	0	0	0	0	0	0	0	0	0	0	0	0	0	0	0	0	0	0	0	0	0	18880	18880	18560	18560	18560	18560	18560	18560	18560	18560	18880	19200	19776	20416	20672	0	0	0	0	0	0	0	0	0	0	0	0	0	0	0	0	0	0	0	0	0	0	0	0	0	0	0	0	0	0	0	0	0	0	0	0	0	0	0	0	0	0	0	0	0	0	0	0	0	0	0	0	0	0	0	0	0	0	0	0	0	0	0	0	0	0	0	0	0	0	0	0	0	0	0	0	0	0	0	0	0	0	0	0	0	0
31936	32320	32704	32704	33152	33152	32704	32320	32320	32320	31936	31936	31552	31104	30336	29952	29632	29248	28864	28864	28480	28480	28480	28480	28480	28480	28480	28480	28096	28096	28096	28096	28480	28480	28864	28864	29248	29248	29632	29632	29632	29248	29248	29248	29248	28864	28864	29248	29248	29632	29952	30336	30720	31104	31552	31936	31936	32320	31936	31552	31104	30336	30336	29632	29248	28864	28480	28096	28096	28096	28096	28480	28480	28480	29248	29248	29248	29952	30336	30720	30720	31552	32320	33536	34752	36928	37824	38720	39616	40576	41024	41024	41024	41472	41472	41984	42432	42944	43456	44416	44928	45952	46464	47040	48064	48640	49728	50816	51392	51968	52544	52544	52544	52544	51968	51968	51968	51968	52544	53760	54336	56768	59968	64064	3584	9152	15104	21632	25600	30912	37760	42624	47872	53376	59200	62272	1536	3200	6592	6592	6592	6592	4864	1536	65408	62272	57728	51968	40192	26624	13376	8320	59328	53120	48064	45952	44928	44416	43456	42944	42432	41472	40576	40576	0	0	0	0	0	0	0	0	0	0	0	0	0	0	0	0	0	0	0	0	0	0	0	0	0	0	0	0	0	0	0	0	0	0	0	0	0	0	0	0	0	0	0	0	0	0	0	0	0	0	0	0	0	0	0	0	0	0	0	0	0	0	0	0	0	0	0	0	0	0	0	0	0	0	0	0	0	0	0	0	0	0	0	0	0	0	0	0	0	0	0	8128	8128	8128	8128	8128	8128	8128	8128	8128	8128	8192	8192	8192	8192	8192	8192	8192	8192	8192	8192	8192	8192	8192	8192	8192	8192	8192	8192	8192	8192	8192	8192	8192	8192	8192	8192	8192	8192	8192	8192	8192	8192	8192	8192	8128	8128	8128	8128	8128	8064	8064	8064	8000	8000	8000	8000	8000	8000	8000	8000	0	0	0	8064	8064	8064	8064	8064	8064	8064	8128	8064	8064	8064	8064	0	0	0	0	0	0	0	0	0	0	0	0	0	0	0	0	0	0	0	0	0	0	0	0	0	0	0	0	0	0	0	0	0	0	0	0	0	0	35648	35200	34752	34752	35200	35648	36480	37376	0	0	0	0	0	0	0	0	0	0	9536	9536	51328	30528	34880	27392	6336	59008	46912	41152	35584	30144	19776	768	53312	33856	23296	64000	40768	17472	1536	1536	0	25600	25600	640	62656	57408	57408	0	0	34752	32704	31104	29952	29248	28864	28480	28480	28096	28096	28096	28096	28096	28480	28480	29248	29632	29952	30336	30720	31104	31104	31552	31936	31936	31936	31936	32320	33152	33536	34368	34752	35200	35648	36480	36928	36928	0	0	0	36928	36480	36480	36928	37376	37376	37376	37376	36928	36480	36480	36480	36480	36480	36480	36480	36928	37376	37376	37376	37824	37824	38272	38272	38720	39168	39616	40064	40576	41024	41472	41472	41472	41024	41024	40064	39616	39168	39168	39168	39168	39168	39168	39168	39168	39168	39168	39168	39168	39168	39616	39616	39616	39616	39616	39616	39616	39168	38720	37824	36928	36480	35648	34752	33920	33152	32704	32704	32704	32704	32320	31936	31936	31936	32320	32320	31936	30720	29248	28096	27008	26304	24256	22592	20672	19776	19776	19776	19776	20096	24256	24256	24576	0	0	0	0	0	0	0	0	0	0	0	0	0	0	0	0	0	0	0	0	0	0	0	0	0	0	0	0	0	0	0	0	0	0	0	0	0	0	0	0	0	0	0	0	0	21312	21312	0	0	0	0	0	0	0	0	0	0	0	0	0	0	0	0	0	0	0	0	0	0	0	0	0	0	0	0	0	0	0	0	0	0	0	0	0	0	0	0	0	0	0	0	0	0	0	0	0	0	0	0	0	0	0	0	0	0	0	0	0	0	0	0	0	0	0	0	0	0	0	0	0	0	0	0	0	0	0	0	0	0	0	0	0	0
