1435	1441	1452	1452	1452	1463	1463	1469	1469	1475	0	0	0	0	0	0	0	3021	3021	3070	3096	3096	3122	3122	3148	3202	3229	3257	3315	3375	3469	3568	3709	3822	4028	4306	4625	5062	5203	5351	5429	5509	5429	5429	5351	5203	4995	4460	3746	3746	0	2714	2566	2464	2448	2432	2401	2371	2341	2327	2298	2284	2257	2217	2141	2081	2081	0	1718	1636	1587	1542	1529	1517	1492	1475	1458	1446	1435	1435	1430	1419	1414	1403	1393	1382	1372	1362	1362	0	0	0	0	0	0	0	0	0	0	1287	1287	1292	1292	1296	1305	1305	1310	1310	1310	1314	1314	1314	1314	1310	1310	1310	1305	1305	1301	1301	1301	1296	1296	1292	1287	1287	1283	1278	1274	1270	1270	1270	1270	1270	1270	1270	1270	1274	1274	1278	1278	1278	1278	1274	1270	1270	1270	1266	1261	1253	1253	1245	1240	1240	1212	1182	1171	1156	1142	1125	1108	1099	1092	1086	1083	1076	1076	1073	1073	1076	1076	1076	1076	1076	1076	0	0	0	0	0	0	0	0	0	0	0	0	0	0	0	0	0	0	0	0	0	0	0	0	0	2531	2514	2497	2481	2448	2386	2312	2230	2230	0	0	1951	1902	1873	1845	1818	1792	1759	1734	1711	1687	1665	1643	1622	1587	1574	1574	1574	1581	1587	1601	1608	1615	1629	1629	1636	1622	1615	1615	1587	1587	1567	1542	1504	1498	1481	1469	1446	1430	1419	1403	1393	1377	1357	1333	1310	1287	1274	1266	1249	1232	1220	1208	1197	1189	1178	1171	1160	1153	1149	1146	1142	1142	1142	1149	1153	1160	1171	1182	1197	1212	1224	1232	1236	1236	1236	1236	1236	1236	1232	1232	1236	1236	1236	1236	1240	1245	1245	1249	1257	1270	1278	1292	1310	1324	1338	1347	1352	1352	1357	1357	1357	1357	1362	1372	1382	1403	1430	1481	1498	1535	1548	1554	1574	1587	1587	1587	1594	1594	1594	1594	1594	1587	1587	1581	1581	1587	1587	1594	1601	1608	1615	1629	1636	1643	1650	1658	1672	1687	1695	1711	1718	1726	1734	1734	1734	1726	1726	1718	1718	1718	1718	1718	1718	1726	1734	1742	1759	1767	1767	1767	1767	1759	1759	1742	1726	1711	1695	1680	1665	1658	1643	1643	1636	1636	1636	1636	1636	1636	1636	1643	1658	1658	1672	1687	1711	1734	1775	1836	2448	2448	2754	3096	3568	3709	3602	3469	3345	3257	3148	3046	2882	2676	2464	2464	2014	1854	1759	1718	1695	1687	1687	1687	1695	1695	1695	1703	1718	1726	1734	1750	1759	1767	1775	1784	1801	1801	1810	1810	1810	1801	1801	1792	1784	1775	1767	1759	1759	1750	1742	1742	1734	1734	1734	1734	1734	1742	1742	1742	1742	1742	1742	1734	1726	1711	1680	1650	1629	1601	1567	1542	1523	1510	1498	1498	1492	1492	1498	1498	1498	1498	1492	1492	1475	1475	0	0	0	0	0	0	0	0	0	0	0	0	0	0	0	0	0	0	0	0	0	0	0	0	0	0	0	0	0	0	0	0	0	0	0	0	0	1232	1224	1224	1224	1224	1249	1253	1257	1270	1278	1283	1296	1305	1310	1328	0	0	0	0	0	0	1367	1357	1357	1352	1352	1347	1347	1347	1343	1343	1338	1333	1328	1324	1324	0	0	0	0	0	0	0	0	0	0	0	0	0	0	0	0	0	0	0	0	0	0	0	0	0	0	0	0	0	0	0	0	0	0	0	0	0	0	0	0	2153	2141	2141	2141	2116	2070	2036	1982	1941	1882	1827	1767	1734	1711	1687	1680	1672	1672	1665	1665	1665	1672	1672	1680	1687	1687	1695	1703	1711	1734	1767	1810	1873	1941	2025	2104	2204	2284	2371	2401	2432	2432	2432	2448	2464	2464	2448	2448	2464	2464	2497	2514	2548	2583	2638	2695	2734	2796	2860	2904	2973	3021	3096	3148	0	0	0	0	0	0	0	0	0	0	0	0	0	0	0	0	0	0	0	0	2601	2531	2531	0	2284	2153	2153	0	2003	1993	1982	1982	1982	1993	2014	0	0	2116	2116	2128	2153	0	0	0	0	0	0	0	0	0	0	0	0	0	0	0	0	0	0	3746	3746	3746	3709	3709	0	0	0	0	0	0	0	0	0	0	0	0	0	0	0	0	0	0	0	0	0	0	0	0	0	0	0	0	0	0	0	0	0	0	0	0	0	0	0	0	0	0	0	0	0	0	0	0	0	0	0	1734	1734	1750	1750	1750	1750	1750	1742	1734	1726	1718	1718	1718	1718	1726	1734	1742	1750	1750	1759	1759	1759	1759
1441	1441	1452	1452	1452	1463	1463	1469	1469	1475	1475	0	0	0	0	0	0	3021	3021	3046	3046	3046	3046	3070	3096	3122	3148	3202	3229	3286	3375	3469	3637	3746	3943	4257	4568	4995	5203	5203	5429	5509	5509	5509	5429	5276	5062	4460	3746	3746	0	0	0	2464	2448	2432	2401	2356	2341	2312	2284	2270	2243	2217	2165	2081	2081	0	0	1658	1587	1535	1523	1510	1492	1463	1446	1435	1424	1414	1414	1403	1398	1393	1387	1377	1372	1357	1357	0	0	0	0	0	0	0	0	0	0	1287	1287	1292	1292	1296	1305	1310	1310	1314	1314	1319	1319	1319	1319	1319	1319	1314	1314	1310	1310	1310	1301	1301	1296	1292	1287	1283	1278	1270	1266	1257	1253	1249	1249	1249	1249	1245	1245	1249	1249	1253	1253	1253	1249	1249	1249	1249	1249	1249	1245	1245	1249	1249	1240	1240	1212	1197	1185	1174	1160	1142	1128	1112	1102	1099	1095	1089	1083	1083	1083	1083	1080	1080	1080	1076	1076	0	0	0	0	0	0	0	0	2401	2401	2386	2386	2371	2371	0	0	0	0	0	0	0	0	0	0	2448	2432	2432	2417	2417	2386	2327	2270	2204	2141	2081	2014	1961	1921	1892	1864	1836	1810	1775	1750	1726	1703	1672	1658	1622	1594	1574	1574	1574	1581	1587	1594	1594	1601	1601	1594	1594	1594	1587	1574	1561	1548	1548	1517	1492	1481	1469	1452	1441	1419	1408	1393	1387	1372	1352	1333	1310	1287	1274	1261	1249	1232	1220	1208	1201	1193	1185	1174	1167	1163	1156	1149	1142	1142	1142	1142	1146	1149	1156	1171	1185	1205	1224	1232	1236	1236	1236	1236	1236	1236	1232	1232	1232	1232	1232	1232	1232	1236	1236	1245	1257	1261	1274	1292	1310	1324	1338	1347	1352	1352	1357	1357	1357	1357	1362	1372	1382	1403	1430	1475	1498	1535	1561	1574	1587	1601	1601	1608	1608	1608	1608	1608	1601	1601	1594	1587	1587	1587	1594	1601	1608	1615	1622	1629	1636	1643	1650	1658	1665	1680	1695	1711	1726	1734	1734	1742	1734	1726	1726	1726	1726	1726	1726	1726	1726	1726	1734	1750	1759	1767	1767	1767	1767	1759	1759	1742	1726	1718	1695	1687	1672	1658	1650	1643	1643	1636	1636	1636	1629	1629	1636	1636	1643	1658	1665	1680	1703	1726	1759	1818	1951	2514	2838	3229	3709	3862	3709	3534	3437	3315	3202	3021	2796	2531	2284	2070	2070	0	0	1718	1703	1695	1695	1695	1703	1703	1711	1718	1718	1734	1742	1759	1767	1775	1784	1792	1801	1810	1810	1810	1810	1810	1810	1801	1792	1784	1775	1759	1750	1750	1742	1734	1734	1726	1726	1734	1734	1734	1734	1734	1734	1742	1742	1734	1726	1711	1687	1658	1629	1601	1567	1542	1523	1510	1498	1487	1487	1492	1487	1487	1481	1475	1475	1469	1458	1458	0	0	0	0	0	0	0	0	0	0	0	0	0	0	0	0	0	0	0	0	0	0	0	0	0	0	0	0	0	0	0	0	0	0	0	0	0	1232	1224	1224	1224	1224	0	1240	1240	1253	1257	1261	1274	1287	1310	0	0	0	0	0	0	0	0	1357	1352	1352	1343	1343	1343	1338	1338	1338	1333	1328	1324	1314	1305	1305	0	0	0	0	0	0	0	0	0	0	0	0	0	0	0	0	0	0	0	0	0	0	0	0	0	0	0	0	0	0	0	0	0	0	0	0	0	2093	2093	2104	2104	2104	2104	2081	2058	2036	1982	1941	1892	1845	1801	1759	1734	1718	1711	1703	1695	1695	1687	1687	1695	1695	1695	1703	1703	1711	1711	1726	1750	1775	1818	1873	1931	2014	2104	2204	2298	2386	2432	2464	2481	2497	2497	2497	2497	2497	2497	2514	2514	2531	2531	2566	2601	2657	2695	2754	2796	2838	2882	2950	3021	3070	3122	3148	3175	3202	3257	3286	0	0	0	0	0	0	0	0	0	3096	2973	2973	0	0	0	2601	2531	2497	2464	2257	2141	2141	0	1993	1982	1972	1972	1982	1993	2025	2070	2070	2093	2116	2128	2153	2178	2178	2204	2230	0	0	0	0	0	0	0	0	0	0	0	0	0	3746	3709	3709	3709	3709	3709	3709	3709	0	0	0	0	0	0	0	0	0	0	0	0	0	0	0	0	0	0	0	0	0	0	0	0	0	0	0	0	0	0	0	0	0	0	0	0	0	0	0	0	0	0	0	0	0	0	0	0	0	1750	1750	1750	1759	1759	1759	1750	1750	1750	1742	1742	1734	1734	1734	1742	1750	1750	1750	1750	1750	1750	1750	1750
1458	1458	1458	1458	1463	1463	1463	1469	1469	1475	1475	0	0	0	0	0	0	2950	2950	2973	2997	2997	2997	2997	3021	3070	3096	3122	3148	3202	3286	3437	3568	3673	3902	4162	4460	4803	5062	5132	5203	5351	5351	5276	5062	4803	4803	0	0	0	0	2676	2583	2497	2481	2432	2401	2356	2327	2298	2270	2257	2230	2204	2178	2104	2014	2014	0	1672	1594	1535	1523	1498	1469	1446	1430	1424	1414	1398	1398	1403	1398	1393	1387	1377	1372	1357	1357	0	0	0	0	0	0	0	0	0	0	0	0	0	0	0	0	1310	1310	1314	1314	1324	1324	1324	1324	1324	1324	1324	1324	1314	1314	1310	1305	1301	1296	1292	1283	1274	1270	1261	1253	1245	1236	1232	1228	1224	1224	1224	1224	1224	1224	1228	1228	1224	1224	1228	1228	1228	1228	1228	1232	1232	1236	1236	0	1240	1236	1216	1205	1193	1178	1163	1149	1135	1125	1115	1105	1099	1095	1092	1089	1089	1089	1089	1086	1086	1086	0	0	0	0	0	0	0	2356	2356	2341	2327	2327	2327	2284	2284	0	0	0	0	0	0	0	0	0	2448	2432	2386	2371	2356	2327	2284	2230	2178	2116	2058	2014	1972	1931	1902	1873	1845	1818	1792	1767	1742	1718	1687	1665	1629	1608	1587	1581	1581	1581	1581	1581	1581	1581	1581	1574	1574	1574	1561	1561	1554	1542	1542	1517	1492	1481	1463	1446	1435	1419	1403	1393	1387	1372	1352	1333	1310	1287	1274	1261	1253	1240	1224	1216	1212	1205	1197	1189	1182	1174	1163	1153	1146	1142	1142	1142	1142	1142	1149	1163	1178	1201	1224	1232	1236	1236	1236	1236	1236	1236	1236	1232	1232	1232	1232	1228	1228	1232	1236	1236	1249	1257	1270	1283	1305	1324	1338	1347	1352	1352	1357	1357	1357	1357	1362	1372	1382	1403	1441	1475	1529	1561	1587	1587	1587	1608	1622	1622	1622	1622	1622	1622	1615	1608	1601	1601	1601	1608	1608	1608	1615	1622	1622	1636	1636	1643	1650	1658	1665	1680	1703	1718	1726	1734	1742	1742	1742	1734	1734	1726	1726	1726	1734	1734	1734	1734	1742	1759	1767	1775	1784	1784	1775	1767	1759	1759	1734	1718	1703	1695	1680	1665	1650	1650	1643	1636	1636	1636	1629	1629	1629	1636	1643	1643	1658	1672	1703	1726	1750	1801	1921	4742	4209	3862	3862	4028	3822	3637	3501	3375	3229	2950	2796	2371	2284	2070	2070	0	0	0	0	1695	1695	1695	1703	1711	1718	1718	1726	1734	1750	1759	1767	1775	1792	1801	1801	1810	1818	1818	1818	1818	1810	1801	1792	1775	1767	1759	1750	1742	1726	1726	1718	1718	1718	1718	1726	1726	1726	1726	1734	1734	1734	1734	1726	1711	1687	1658	1629	1601	1574	1548	1529	1510	1498	1487	1487	1487	1475	1475	1469	1463	1463	1452	1446	1446	0	0	0	0	0	0	0	0	0	0	0	0	0	0	0	0	0	0	0	0	0	0	0	0	0	0	0	0	0	0	0	0	0	0	0	0	0	0	0	0	0	0	1208	1208	1216	1224	1232	1232	1245	1287	0	0	0	0	0	0	0	0	0	0	1352	1352	1343	1343	1328	1328	1328	1328	1324	1319	1314	1310	1296	1296	0	0	0	0	0	0	0	0	0	0	0	0	0	0	0	0	0	0	0	0	0	0	0	0	0	0	0	0	0	0	0	0	0	1982	1982	0	0	2058	2058	2058	2070	2070	2070	2058	2036	2014	1982	1941	1902	1864	1836	1801	1784	1767	1759	1742	1734	1718	1718	1718	1718	1718	1711	1711	1718	1718	1726	1734	1750	1775	1818	1873	1931	2003	2104	2204	2327	2401	2464	2497	2514	2531	2548	2566	2548	2548	2548	2548	2548	2566	2583	2583	2620	2657	2695	2734	2796	2838	2882	2927	2973	3046	3096	3122	3175	3202	3229	3286	3315	3345	3345	3345	3345	3345	3315	3286	3229	3096	2973	2927	2838	2775	2714	2620	2514	2448	2371	2217	2116	2047	2047	1982	1972	1972	1972	1982	1993	2014	2047	2070	2093	2104	2116	2128	2141	2153	2165	2178	2178	0	0	0	0	0	0	0	0	0	0	0	3746	3746	3709	3709	3709	3709	3709	3709	3709	0	0	0	0	0	0	0	0	0	0	0	0	0	0	0	0	0	0	0	0	0	0	0	0	0	0	0	0	0	0	0	0	0	0	0	0	0	0	0	0	0	0	0	0	0	0	0	0	0	0	1750	1750	1759	1759	1759	1759	1759	1759	1759	1759	1750	1750	1750	1759	1759	1759	1750	1750	1742	1742	1742	1734
1475	1475	1475	1469	1469	1475	1475	1475	1475	1481	1481	0	0	0	0	0	0	2927	2927	2950	2950	2950	2950	2973	2997	3021	3046	3046	3096	3148	3229	3345	3469	3637	3902	4162	4460	4803	4929	4929	5132	5132	5132	5276	5062	4803	4803	0	0	0	0	2676	2548	2497	2481	2432	2386	2356	2312	2284	2257	2243	2217	2191	2178	2116	2014	2014	0	0	1601	1542	1523	1498	1469	1435	1424	1408	1398	1387	1387	0	0	0	0	0	0	0	0	0	0	0	0	0	0	0	0	0	0	0	0	0	0	1305	1305	1314	1314	1319	1324	1328	1328	1333	1328	1328	1328	1328	1328	1324	1314	1314	1310	1301	1296	1287	1278	1270	1261	1249	1240	1228	1220	1212	1208	1205	1201	1201	1201	1201	1201	1205	1205	1205	1205	1208	1208	1212	1216	1216	1216	1220	1224	1232	1232	1236	1236	1224	1224	1212	1201	1185	1160	1146	1132	1122	1112	1108	1105	1102	1102	1102	1099	1099	0	0	0	0	0	0	0	0	0	2298	2298	2298	2284	2270	2270	2257	2204	2165	2165	0	0	0	0	0	0	0	0	0	2243	2243	2270	2270	2243	2217	2165	2116	2070	2025	1982	1951	1921	1892	1873	1845	1818	1801	1775	1759	1726	1703	1680	1650	1615	1594	1581	1574	1574	1561	1561	1554	1554	1554	1554	1554	1548	1548	1548	1542	1529	1504	1504	1487	1475	1458	1446	1435	1419	1403	1393	1387	1372	1352	1333	1314	1296	1287	1270	1261	1253	1240	1232	1224	1220	1212	1205	1201	1189	1178	1163	1149	1146	1142	1142	1139	1139	1149	1163	1178	1201	1224	1236	1236	1240	1240	1240	1240	1240	1236	1232	1232	1232	1232	1228	1228	1232	1236	1236	1245	1257	1270	1283	1305	1324	1338	1347	1352	1352	1357	0	0	1362	1362	1372	1387	1408	1441	1487	1529	1581	1601	1601	1622	1643	1650	1658	1650	1650	1643	1643	1636	1629	1622	1622	1615	1615	1622	1622	1629	1629	1629	1636	1643	1643	1650	1658	1665	1687	1703	1726	1734	1742	1750	1750	1750	1742	1734	1734	1726	1726	1734	1742	1742	1742	1750	1759	1775	1775	1784	1784	1775	1775	1767	1759	1742	1726	1711	1703	1687	1680	1658	1658	1650	1643	1636	1636	1629	1629	1629	1629	1636	1643	1650	1665	1687	1711	1734	1784	1873	4742	4568	4460	4356	4162	3985	3784	3637	3501	3229	2950	2950	2371	2371	0	0	0	0	0	1672	1672	1672	1672	1695	1703	1703	1711	1718	1726	1734	1750	1759	1775	1784	1792	1801	1810	1810	1810	1810	1810	1801	1792	1784	1775	1759	1750	1734	1726	1726	1718	1711	1711	1711	1711	1711	1718	1718	1718	1726	1726	1726	1726	1718	1711	1687	1658	1636	1608	1574	1548	1529	1510	1498	1487	1487	1481	1475	1469	1463	1463	1463	1441	1441	1446	0	0	0	0	0	0	0	0	0	0	0	0	0	0	0	0	0	0	0	0	0	0	0	0	0	0	0	0	0	0	0	0	0	0	0	0	0	0	0	0	0	0	1193	1193	1197	1205	1208	1208	1245	0	0	0	0	0	0	0	0	0	0	0	0	0	0	0	1328	1328	1310	1310	1314	1310	1305	1301	1292	1292	0	0	0	0	0	0	0	0	0	0	0	0	0	0	0	0	0	0	0	0	0	0	0	0	0	0	0	0	0	0	0	0	0	1982	1982	0	0	2025	2025	2036	2036	2047	2047	2047	2036	2014	1982	1961	1931	1902	1873	1854	1836	1818	1810	1792	1784	1759	1750	1742	1742	1734	1734	1726	1726	1726	1734	1742	1759	1784	1810	1864	1921	1993	2093	2217	2341	2448	2514	2548	2566	2583	2601	2620	2601	2583	2583	2583	2583	2583	2583	2583	2620	2657	2695	2734	2796	2817	2860	2927	2973	3021	3070	3122	3148	3175	3229	3257	3286	3315	3315	3345	3345	3345	3315	3286	3229	3148	3046	2927	2838	2775	2695	2566	2464	2356	2298	2153	2070	2047	2047	1972	1972	1972	1972	1982	1993	2014	2036	2058	2070	2081	2093	2104	2116	2116	2116	2104	2104	2104	0	0	0	0	0	0	0	0	0	0	3746	3746	3746	3746	3746	3746	3746	3746	3746	3822	0	0	0	0	0	0	0	0	0	0	0	0	0	0	0	0	0	0	0	0	0	0	0	0	0	0	0	0	0	0	0	0	0	0	0	0	0	0	0	0	0	0	0	0	0	0	0	0	1767	1759	1759	1759	1767	1767	1767	1775	1775	1767	1767	1775	1767	1767	1767	1759	1759	1750	1742	1734	1734	1726	1726
1492	1487	1487	1481	1481	1481	1481	1481	1481	1481	1481	0	0	0	0	0	0	2714	2714	2734	2775	2796	2796	2817	2838	2882	2950	2997	3070	3122	3175	3286	3437	3637	0	0	0	0	4929	4803	4803	4803	5132	0	0	0	0	0	0	2950	2754	2676	2548	2497	2481	2432	2386	2327	2298	2270	2243	2230	2204	2178	2165	2128	2025	2025	0	0	1629	1554	1535	1492	1463	1430	1408	1393	1377	1362	1362	1362	0	0	0	0	0	0	0	0	0	0	0	0	0	0	0	0	0	0	0	0	0	1305	1305	1314	1319	1324	1328	1333	1338	1338	1338	1338	1333	1333	1333	1324	1319	1314	1310	1301	1296	1283	1274	1266	1253	1245	1232	1220	1212	1201	1193	1189	1185	1182	1182	1182	1185	1185	1185	1185	1185	1189	1189	1193	1197	1197	1201	1205	1212	1220	1224	1228	1232	1232	1224	1212	1201	1185	1167	1153	1139	1128	1118	1115	1112	1108	1108	1108	1108	1108	1115	0	0	0	0	0	0	0	0	2230	2230	2230	2230	2217	2204	2165	2116	2058	2058	0	0	0	0	0	0	0	0	2003	2003	2070	2116	2141	2128	2104	2093	2058	2025	1993	1961	1931	1911	1882	1864	1836	1818	1792	1775	1750	1734	1703	1680	1650	1622	1594	1581	1574	1567	1554	1548	1535	1529	1529	1523	1517	1517	1523	1523	1517	1510	1487	1487	1469	1463	1446	1441	1424	1408	1403	1393	1387	1382	1367	1352	1333	1319	1305	1296	1283	1274	1261	1253	1245	1245	1232	1228	1220	1208	1197	1178	1163	1153	1146	1135	1132	1132	1132	0	0	1224	1224	1236	1240	1245	1245	1249	1249	1249	1240	1240	1236	1236	1236	1232	1232	1232	1236	1236	1245	0	0	0	0	0	0	0	0	0	0	0	0	0	0	0	0	0	0	0	0	1622	1622	1636	1658	1680	1687	1687	1687	1680	1665	1665	1658	1650	1643	1643	1636	1636	1636	1636	1636	1636	1636	1636	1643	1650	1650	1658	1672	1687	1711	1734	1742	1750	1759	1759	1759	1750	1742	1734	1734	1734	1734	1742	1750	1750	1759	1767	1784	1792	1792	1792	1792	1784	1784	1767	1759	1734	1718	1711	1703	1695	1672	1665	1658	1650	1643	1643	1636	1629	1629	1629	1629	1636	1643	1658	1687	1703	1726	1750	1854	4995	4865	4683	4568	4356	4162	3943	3784	3602	3175	3175	0	0	0	1775	1711	1711	0	0	1643	1643	1650	1650	1665	1680	1687	1687	1695	1711	1718	1734	1750	1759	1775	1775	1784	1801	1801	1801	1801	1792	1792	1784	1775	1759	1750	1734	1726	1718	1711	1703	1703	1703	1703	1703	1703	1703	1711	1711	1718	1718	1726	1726	1718	1711	1687	1658	1636	1615	1581	1561	1535	1517	1504	1492	1487	1481	1475	1469	1463	1463	1435	1435	1435	0	0	0	0	0	0	0	0	0	0	0	0	0	0	0	0	0	0	0	0	0	0	0	0	0	0	0	0	0	0	0	0	0	0	0	0	0	0	0	0	0	0	0	1182	1182	1185	1193	1193	1193	0	0	0	0	0	0	0	0	0	0	0	0	0	0	0	0	0	0	1310	1310	1314	1310	1305	1287	1278	1278	0	0	0	0	0	0	0	0	0	0	0	0	0	0	0	0	0	0	0	0	0	0	0	0	0	0	0	0	0	0	0	0	0	0	0	0	0	2014	2014	2014	2025	2025	2036	2036	2036	2025	2014	2003	1982	1961	1941	1921	1902	1892	1864	1845	1818	1792	1784	1775	1767	1759	1742	1734	1734	1734	1742	1742	1767	1784	1810	1864	1911	1982	2081	2204	2356	2464	2531	2583	2601	2620	2657	2657	2638	2638	2620	2620	2601	2601	2601	2601	2638	2657	2695	2734	2796	2817	2860	2904	2950	3021	3046	3096	3122	3148	3202	3229	3286	3315	3315	3345	3345	3345	3315	3286	3229	3148	3070	2973	2860	2754	2638	2481	2371	2298	2217	2128	2058	2058	0	1972	1972	1972	1972	1982	1993	2014	2036	2058	2058	2070	2070	2070	2081	2081	2081	2058	2047	2047	0	0	0	0	0	0	0	0	0	0	3784	3784	3784	3784	3784	3784	3784	3784	3784	3822	0	0	0	0	0	0	0	0	0	0	0	0	0	0	0	0	0	0	0	0	0	0	0	0	0	0	0	0	0	0	0	0	0	0	0	0	0	4568	4568	4568	4568	4568	4568	0	0	0	0	0	1767	1767	1767	1775	1775	1784	1784	1792	1792	1792	1784	1784	1784	1775	1767	1759	1750	1750	1734	1734	1726	1718	1718
1504	1504	1498	1492	1492	1492	1492	1492	1492	1492	0	0	0	0	0	0	0	2714	2401	2401	2464	2514	2531	2548	2566	2583	2657	2676	2695	2695	2734	3286	3437	0	0	0	0	0	0	4568	4407	4407	4209	4209	3862	3862	0	0	2973	2796	2676	2601	2514	2481	2464	2432	2371	2327	2284	2257	2230	2217	2191	2165	2153	2128	2036	2036	0	0	1658	1567	1535	1481	1441	1414	1382	1357	1347	1328	1328	1362	0	0	0	0	0	0	0	0	0	0	0	0	0	0	0	0	0	0	0	0	0	0	1324	1324	1328	1333	1333	1343	1343	1343	1343	1343	1343	1338	1333	1328	1324	1319	1314	1301	1292	1283	1270	1261	1249	1240	1228	1216	1212	1193	1185	1178	1174	1171	1171	1171	1171	1171	1174	1174	1174	1178	1178	1182	1185	1185	1189	1193	1201	1205	1216	1224	1224	1236	1232	1228	1212	1197	1197	1160	1149	1149	0	1122	1118	1118	1115	1115	1115	1115	1115	0	0	0	0	0	0	0	0	2165	2165	2165	2165	2153	2128	2093	2036	1982	1941	1873	1810	1750	1750	0	0	0	1801	1801	1845	1882	1911	1941	1972	1982	1982	1972	1961	1941	1931	1911	1892	1873	1854	1827	1810	1792	1767	1750	1734	1711	1680	1650	1629	1601	1581	1574	1554	1535	1529	1517	1510	1510	1498	1498	1498	1504	1504	1504	1498	1481	1463	1463	1452	1446	1435	1424	1408	1403	1398	1398	1398	1387	1377	1362	1352	1343	1333	1319	1310	1301	1292	1283	1274	1266	1253	1240	1228	1212	1189	1171	1156	1146	1135	1132	1132	1132	0	0	0	0	1249	1249	1253	1257	1257	1257	1257	1249	1245	1240	1240	1236	1232	1232	1232	0	0	0	0	0	0	0	0	0	0	0	0	0	0	0	0	0	0	0	0	0	0	0	1665	1665	1680	1711	1726	1734	1726	1726	1718	1711	1695	1687	1680	1665	1665	1658	1658	1650	1650	1650	1650	1650	1650	1650	1650	1658	1665	1672	1695	1718	1742	1750	1759	1767	1767	1767	1759	1750	1742	1742	1742	1750	1750	1750	1759	1767	1784	1792	1801	1801	1810	1801	1801	1801	1784	1767	1750	1734	1726	1711	1711	1687	1680	1672	1665	1658	1650	1636	1629	1629	1629	1629	1636	1643	1650	1687	1695	1711	1718	1784	5351	5132	4865	4803	4625	4356	4116	3943	3673	3175	3175	0	0	1818	1726	1680	1672	1658	1643	1636	1636	1636	1636	1650	1665	1665	1672	1680	1687	1703	1718	1734	1742	1750	1759	1767	1784	1784	1784	1784	1784	1784	1775	1759	1750	1742	1726	1718	1711	1703	1695	1695	1695	1695	1695	1695	1695	1703	1703	1711	1711	1718	1718	1718	1711	1687	1665	1643	1615	1594	1574	1554	1535	1523	1510	1504	1498	1487	1475	1475	0	1435	1435	1435	0	0	0	0	0	0	0	0	0	0	0	0	0	0	0	0	0	0	0	0	0	0	0	0	0	0	0	0	0	0	0	0	0	0	0	0	0	0	0	0	0	0	0	1167	1167	1174	1178	1193	1193	0	0	0	0	0	0	0	0	0	0	0	0	0	0	0	0	0	0	0	0	0	0	0	1287	1278	1278	0	0	0	0	0	0	0	0	0	0	0	0	0	0	0	0	0	0	0	0	0	0	0	0	0	0	0	0	0	0	0	0	0	0	0	0	2014	2014	2014	2014	2014	2025	2025	2036	2036	2047	2047	2047	2047	2025	2014	1993	1993	1993	1982	1982	1961	1941	1911	1892	1873	1836	1801	1775	1759	1750	1750	1750	1767	1784	1810	1854	1902	1951	2047	2165	2327	2448	2566	2638	2676	2695	2714	2714	2695	2695	2676	2657	2620	2620	2620	2620	2620	2620	2601	2601	2638	2657	2695	2734	2796	2882	2950	3021	3096	3148	3175	3229	3257	3286	3315	3315	3345	3345	3315	3286	3257	3175	3070	3070	0	2531	2417	2298	2257	2191	2191	2081	2047	2025	2003	1993	1982	1982	1982	1993	2003	2014	2025	2036	2036	2036	2036	2036	2036	2036	2025	2014	2003	2003	0	0	0	0	0	0	0	0	0	0	3822	3746	3746	3822	3822	3822	3822	3784	3784	3822	0	0	0	0	0	0	0	0	0	0	0	0	0	0	0	0	0	0	0	0	0	0	0	0	0	0	0	0	0	0	0	0	0	0	0	0	4407	4407	4460	4460	4407	4407	4407	0	0	0	0	1982	1810	1810	1792	1792	1801	1801	1801	1810	1810	1801	1801	1792	1792	1784	1775	1767	1750	1742	1734	1726	1718	1718	1711
1517	1517	1510	1504	1504	1504	1504	1504	1510	0	0	0	0	0	0	0	0	0	2401	2243	2243	2284	2312	2327	2341	2341	2356	2356	2695	2695	2734	0	0	0	0	0	0	0	0	4568	4407	4407	4209	4209	3862	3862	3096	2997	2904	2796	2676	2601	2514	2481	2464	2432	2371	2327	2284	2257	2230	2204	2191	2165	2141	2128	2036	2036	0	1784	1680	1581	1535	1469	1424	1387	1382	1333	1305	1305	1328	0	0	0	0	0	0	0	0	0	0	0	0	0	0	0	0	0	0	0	0	0	0	0	0	1328	1328	1328	1333	1338	1338	1343	1343	1343	1338	1338	1333	1328	1324	1319	1310	1296	1287	1274	1266	1257	1245	1236	1224	1212	1197	1185	1174	1167	1163	1163	1160	1160	1160	1163	1163	1163	1167	1167	1171	1174	1174	1182	1182	1185	1193	1205	1208	1216	1224	1236	1236	1228	1212	1197	1197	0	1156	1156	0	0	1122	1118	1118	1118	1118	1118	1118	0	0	0	0	0	0	0	0	2104	2104	2104	2093	2081	2058	2014	1961	1921	1921	1873	1775	1718	1680	1680	1680	1687	1801	1801	1845	1801	1801	1818	1836	1854	1873	1882	1882	1882	1873	1864	1864	1854	1827	1810	1792	1775	1759	1750	1726	1711	1680	1658	1629	1601	1581	1574	1554	1529	1517	1510	1504	1498	1492	1487	1487	1492	1492	1492	1492	1475	1458	1452	1452	1446	1435	1424	1414	1408	1408	1408	1419	1414	1414	1403	1393	1387	1377	1367	1357	1343	1328	1324	1310	1301	1278	1270	1253	1236	1212	1189	1189	0	1139	1132	1132	0	0	0	0	0	0	0	1274	1274	1274	1274	1274	1266	1257	1253	1253	1245	1245	0	0	0	0	0	0	0	0	0	0	0	0	0	0	0	0	0	0	0	0	0	0	0	0	0	0	1742	1742	1767	1767	1775	1759	1759	1750	1742	1734	1726	1711	1695	1695	1687	1687	1680	1680	1672	1672	1672	1672	0	0	0	0	0	0	0	1792	1792	1801	1810	1818	1818	1810	1801	1792	1784	1784	1784	1784	1784	1784	1792	1801	1810	1818	1827	1818	1818	1818	1810	1801	1784	1767	1759	1742	1734	1726	1711	1703	1687	1680	1665	1658	1643	1636	1629	1629	1629	1629	1643	1650	1680	1695	1703	1711	1784	5429	5276	4865	4865	4683	4460	4257	4072	3746	3746	0	0	0	1734	1665	1650	1650	1643	1636	1629	1629	1629	1629	1636	1643	1650	1658	1665	1672	1687	1703	1711	1718	1734	1742	1750	1759	1767	1767	1767	1767	1767	1759	1750	1742	1734	1718	1711	1703	1695	1687	1687	1687	1687	1687	1687	1687	1695	1695	1703	1703	1711	1711	1711	1703	1687	1665	1650	1629	1608	1587	1574	1561	1542	1529	1529	1529	0	1492	1492	0	0	0	0	0	0	0	0	0	0	0	0	0	0	0	0	0	0	0	0	0	0	0	0	0	0	0	0	0	0	0	0	0	0	0	0	0	0	0	0	0	0	0	0	0	0	0	1167	1167	1174	1178	0	0	0	0	0	0	0	0	0	0	0	0	0	0	0	0	0	0	0	0	0	0	0	0	0	0	0	0	0	0	0	0	0	0	0	0	0	0	0	0	0	0	0	0	0	0	0	0	0	0	0	0	0	0	0	0	0	0	0	0	0	0	0	0	2003	1993	1993	1993	1993	2003	2003	2025	2047	2070	2093	2093	2104	2116	2116	2093	2093	2104	2104	2116	2104	2047	2025	1982	1982	0	1836	1792	1767	1750	1750	1759	1767	1784	1801	1836	1873	1931	2014	2104	2217	2327	2386	2481	2548	2583	2638	2657	2676	2695	2695	2676	2657	2620	2566	2514	2464	2432	2401	2386	2386	2401	2448	2514	2583	2676	2775	2882	2997	3070	3122	3175	3229	3286	3315	3315	3345	3315	3229	3175	3122	3046	3046	0	2386	2312	2217	2217	2257	2104	2104	2036	2025	2003	1993	1982	1982	1982	1982	1982	1993	2003	2003	2003	1993	1993	1993	1993	1993	1982	1972	1961	1961	1951	1941	1921	1921	0	0	0	0	0	0	0	0	3746	3602	3602	3673	3746	3822	3822	3862	3862	0	0	0	0	0	0	0	0	0	0	0	0	0	0	0	0	0	0	0	0	0	0	0	0	0	0	0	0	0	0	0	0	0	0	0	0	4257	4257	4257	4257	4209	4209	4209	0	0	0	0	1982	1921	1892	1845	1845	1836	1827	1827	1827	1827	1818	1810	1810	1801	1784	1775	1759	1750	1742	1734	1726	1718	1711	1703
1529	1529	1523	1517	1517	1517	1523	1523	1529	1561	0	0	0	0	0	0	0	0	0	2243	2243	2284	2312	2327	2341	2341	2356	2356	0	0	0	0	0	0	0	0	0	0	0	0	0	0	0	0	3175	3070	2997	2973	2904	2817	2734	2638	2583	2531	2481	2448	2386	2341	2284	2257	2230	2204	2191	2165	2141	2128	2047	1993	1902	1784	1695	1594	1535	1463	1408	1367	1367	1314	1305	1305	0	0	0	0	0	0	0	0	0	0	0	0	0	0	0	0	0	0	0	0	0	0	0	0	0	1328	1328	1328	1328	1328	1333	1338	1338	1338	1338	1338	1333	1328	1319	1314	1305	1292	1283	1274	1257	1249	1240	1228	1220	1205	1193	1178	1167	1156	1153	1153	1149	1149	1153	1153	1156	1156	1160	1160	1163	1167	1171	1171	1178	1182	1185	1193	1205	1208	0	1236	1236	1236	1220	1205	1205	0	1156	1156	0	0	1122	1122	1122	1122	1122	0	0	0	0	0	0	0	0	0	2058	2058	2036	2025	2014	2003	1972	1921	1882	1854	1810	1775	1734	1695	1665	1658	1658	1672	1680	1687	1711	1711	1742	1750	1767	1775	1792	1801	1810	1827	1827	1827	1827	1818	1801	1792	1784	1767	1759	1750	1726	1711	1687	1658	1629	1608	1587	1574	1554	1529	1517	1510	1498	1492	1481	1481	1481	1487	1487	1487	1487	1475	1458	1452	1452	1446	1441	1430	1419	1419	1419	1424	1435	1441	1441	1441	1430	1430	1419	1408	1398	1382	1372	1362	1347	1338	1314	1301	1287	1270	1245	1220	1220	1232	0	0	0	0	0	0	0	0	0	0	1301	1301	1305	1305	1305	1301	1296	1292	1287	1278	1278	0	0	0	0	0	0	0	0	0	0	0	0	0	0	0	0	0	0	0	0	0	0	0	0	0	0	0	1792	1792	1801	1810	1801	1801	1792	1775	1767	1759	1750	1734	1726	1718	1718	1711	1711	1703	1703	1703	0	0	0	0	0	0	0	0	0	1882	1882	1882	1882	0	0	0	0	1827	1818	1818	1810	1810	1818	1827	1827	1836	1836	1845	1845	1845	1836	1827	1818	1801	1792	1775	1767	1759	1750	1734	1718	1703	1695	1680	1665	1658	1643	1629	1629	1629	1629	1636	1650	1680	1687	1703	1703	1818	4683	5276	4995	4865	4625	4407	4209	4162	3822	3822	0	0	0	1711	1650	1643	1643	1643	1636	1629	1622	1622	1622	1622	1629	1636	1643	1643	1658	1665	1680	1695	1711	1718	1726	1734	1734	1742	1750	1750	1750	1750	1742	1742	1734	1726	1718	1703	1703	1695	1687	1680	1680	1680	1680	1687	1687	1695	1695	1695	1703	1703	1711	1711	1703	1687	1672	1650	1636	1622	1608	1594	1581	1574	1567	1567	1567	0	0	0	0	0	0	0	0	0	0	0	0	0	0	0	0	0	0	0	0	0	0	0	0	0	0	0	0	0	0	0	0	0	0	0	0	0	0	0	0	0	0	0	0	0	0	0	0	0	0	0	0	0	0	0	0	0	0	0	0	0	0	0	0	0	0	0	0	0	0	0	0	0	0	0	0	0	0	0	0	0	0	0	0	0	0	0	0	0	0	0	0	0	0	0	0	0	0	0	0	0	0	0	0	0	0	0	0	0	0	0	0	0	0	0	0	0	2003	1993	1993	1982	1982	1993	2003	2003	2025	2047	2070	2093	2116	2153	2178	2204	2191	2191	2191	2204	2204	2191	2165	2165	0	0	0	0	0	1775	1750	1742	1742	1759	1767	1784	1836	1873	1931	2014	2104	2217	2327	2386	2481	2548	2583	2432	2432	2464	2497	2531	2566	2531	2497	2417	2341	2341	2432	2401	2386	2386	2401	2448	2514	2464	2464	2583	2695	2817	2927	2997	3096	3175	3257	3315	3286	3257	3148	2997	2904	2904	3046	3046	0	2386	2312	2217	2217	0	2104	2025	2003	1993	1982	1982	1972	1972	1972	1972	1972	1972	1972	1961	1961	1951	1951	1941	1941	1941	1941	1931	1921	1921	1902	1902	1892	1882	1882	0	0	0	0	0	0	2838	2838	3122	3375	3673	3746	3746	3784	3822	0	0	0	0	0	0	0	0	0	0	0	0	0	0	0	0	0	0	0	0	0	0	0	0	0	0	0	0	0	0	0	0	0	0	0	0	3985	3985	4072	4072	4028	4028	3985	3985	0	0	0	0	2243	2025	1972	1911	1892	1873	1864	1854	1845	1827	1818	1810	1810	1801	1784	1775	1759	1750	1742	1734	1726	1718	1711	1703
1548	1542	1535	1535	1535	1535	1542	1548	1554	1561	1594	1615	0	0	0	0	0	0	0	1941	1941	1961	1982	1993	0	0	0	0	0	0	0	0	0	0	0	0	0	0	0	0	0	0	0	3122	3096	3021	2997	2950	2904	2838	2754	2676	2601	2548	2497	2448	2386	2341	2284	2257	2217	2204	2191	2165	2141	2128	2058	1993	1902	1818	1726	1608	1548	1458	1393	1352	1352	1301	1301	0	0	0	0	0	0	0	0	0	0	0	0	0	0	0	0	0	0	0	0	0	0	0	0	0	0	0	1328	1328	1328	1328	1333	1333	1338	1333	1333	1328	1328	1319	1310	1301	1292	1283	1270	1261	1253	1245	1236	1224	1216	1205	1193	1178	1167	1156	1142	1142	1142	1142	1142	1146	1146	1146	1153	1156	1156	1163	1163	1167	1171	1174	1182	1185	1193	1208	0	0	0	0	0	0	0	0	0	0	0	0	0	0	0	0	0	0	0	0	0	0	2153	2104	2070	2036	2014	1993	1972	1951	1941	1921	1882	1845	1818	1784	1750	1726	1695	1672	1650	1650	1650	1650	1658	1665	1665	1680	1687	1703	1711	1726	1726	1742	1750	1767	1767	1775	1775	1784	1784	1775	1759	1750	1750	1742	1718	1703	1687	1665	1636	1615	1587	1567	1548	1523	1517	1504	1492	1487	1481	1481	1481	1481	1487	1487	1487	1481	1463	1458	1458	1452	1446	1446	1441	1441	1446	1452	1458	1469	1469	1475	1463	1463	1452	1446	1435	1424	1408	1398	1387	1372	1352	1338	1324	1301	1274	1245	1232	1232	0	0	0	0	0	0	0	0	0	0	1352	1352	1352	1347	1343	1343	1338	1333	1333	1333	0	0	0	0	0	0	0	0	0	0	0	0	0	0	0	0	0	1658	1658	1672	1680	0	0	0	0	0	0	0	0	1818	1818	1818	1818	1810	1801	1792	1775	1767	1759	1750	1742	1734	1734	1726	1726	1726	1726	0	0	0	0	0	0	0	0	0	0	0	0	1941	1941	0	0	0	0	0	1882	1864	1854	1836	1836	1845	1845	1854	1854	1854	1854	1854	1854	1845	1836	1818	1801	1792	1784	1784	1775	1759	1742	1726	1711	1695	1680	1665	1643	1636	1629	1629	1629	1636	1650	1680	1687	1703	1703	1818	4683	4865	4865	4683	4407	4209	4028	4028	0	0	0	0	1854	1711	1650	1643	1643	1643	1636	1629	1622	1622	1622	1622	1629	1629	1629	1636	1643	1658	1665	1680	1687	1695	1703	1711	1711	1718	1726	1726	1734	1734	1734	1734	1726	1718	1711	1703	1695	1695	1687	1680	1680	1680	1680	1680	1680	1687	1687	1695	1703	1703	1703	1711	1703	1695	1680	1658	1643	1629	1622	1615	1608	1608	1601	1601	1615	0	0	0	0	0	0	0	0	0	0	0	0	0	0	0	0	0	0	0	0	0	0	0	0	0	0	0	0	0	0	0	0	0	0	0	0	0	0	0	0	0	0	0	0	0	0	0	0	0	0	0	0	0	0	0	0	0	0	0	0	0	0	0	0	0	0	0	0	0	0	0	0	0	0	0	0	0	0	0	0	0	0	0	0	0	0	0	0	0	0	0	0	0	0	0	0	0	0	0	0	0	0	0	0	0	0	0	0	0	0	0	0	0	0	0	0	0	2003	1993	1993	1982	1982	1993	1993	2003	2025	2058	2081	2104	2141	2191	2230	2243	2284	2270	2270	2356	2386	2356	2298	2204	2128	2081	2081	0	0	0	1734	1734	1734	1742	1750	1759	1784	1801	1836	1882	1951	2036	0	0	0	0	0	2432	2270	2270	2312	2356	2386	2371	2327	2327	2341	2341	0	0	0	0	0	0	0	2464	2417	2417	2531	2657	2775	2860	2973	3070	3122	3148	3096	3021	2882	2882	2904	2904	0	0	0	0	0	0	0	0	1993	1982	1972	1972	1972	1972	1972	1961	1961	1961	1951	1941	1931	1921	1921	1911	1911	1902	1902	1892	1892	1892	1882	1882	1873	1873	1873	1864	1864	1864	0	0	0	0	0	2583	2583	3122	3375	3534	3637	3709	3746	3822	3862	0	0	0	0	0	0	0	0	0	0	0	0	0	0	0	0	0	0	0	0	0	0	0	0	0	0	0	0	0	0	0	0	0	0	0	3985	3862	3862	3902	3862	3862	3784	3746	3746	0	2927	2927	2243	2204	2036	1972	1931	1911	1892	1882	1854	1836	1827	1818	1801	1792	1784	1775	1759	1750	1742	1734	1726	1718	1711	1703
1574	1561	1561	1561	1561	1561	1561	1567	1574	1581	1594	1615	1643	1672	1672	1687	1726	1750	1784	1810	1827	1845	1864	1854	1836	1810	1784	1742	1703	1703	0	1615	1608	1608	0	0	0	0	0	0	0	0	0	3021	3021	2973	2950	2927	2882	2882	2796	2714	2620	2548	2497	2448	2386	2341	2284	2257	2217	2204	2191	2165	2141	2116	2070	2014	1931	1845	1742	1629	1554	1458	1393	1352	1324	1301	1278	1278	1257	1253	1253	0	0	0	0	0	0	0	0	0	0	0	0	0	0	0	0	0	0	0	0	0	0	0	1328	1328	1328	1328	1333	1333	1333	1333	1328	1328	1319	1314	1305	1296	1287	1274	1266	1257	1249	1240	1232	1224	1216	1216	0	0	0	0	1142	1142	1139	1139	1139	1139	1142	1146	1146	1149	1153	1156	1156	1163	1163	1167	1174	1178	1182	1189	0	0	0	0	0	0	0	0	0	0	0	0	0	0	0	0	0	0	2298	2270	2243	2230	2153	2104	2047	2014	1972	1941	1911	1892	1864	1836	1818	1784	1759	1734	1718	1687	1672	1658	1643	1636	1636	1636	1636	1636	1636	1643	1658	1665	1672	1672	1680	1687	1695	1711	1718	1726	1726	1742	1750	1750	1742	1742	1726	1718	1711	1695	1680	1650	1636	1608	1587	1567	1548	1523	1510	1504	1492	1487	1481	1481	1481	1481	1487	1492	1492	1492	1481	1481	1481	1481	1475	1475	1475	1475	1475	1487	1492	1504	1510	1517	1510	1510	1504	1498	1492	1481	1475	1463	1452	1430	1414	1414	1377	1357	1357	0	0	0	0	0	0	0	0	0	0	0	0	1469	1408	1403	1398	1393	1387	1387	1398	1475	0	0	0	0	0	0	0	0	0	0	0	0	0	0	0	0	1629	1629	1643	1650	1658	1672	1680	1703	1718	0	1759	1759	1801	1801	1810	1827	1827	1836	1827	1827	1818	1801	1792	1784	1767	1759	1750	1750	1742	1742	1742	1742	1742	1750	1759	0	0	0	0	0	0	0	0	0	2025	2014	2014	1993	1982	1961	1931	1911	1882	1864	1854	1854	1854	1854	1854	1864	1864	1864	1864	1854	1854	1854	1845	1836	1818	1810	1810	1801	1801	1784	1767	1742	1734	1711	1695	1680	1658	1643	1636	1636	1636	1643	1658	1680	1695	1711	1718	1911	3746	3746	3985	3985	4209	3985	3822	3822	0	2695	2695	0	1854	1726	1665	1658	1658	1650	1643	1629	1622	1622	1622	1622	1629	1629	1629	1629	1629	1636	1650	1658	1665	1672	1680	1687	1687	1695	1703	1711	1711	1718	1718	1718	1718	1718	1711	1703	1695	1695	1687	1687	1680	1680	1680	1680	1680	1687	1687	1695	1695	1703	1703	1703	1703	1695	1680	1665	1658	1650	1643	1636	1636	1636	1636	1636	1650	0	0	0	0	0	0	0	0	0	0	0	0	0	0	0	0	0	0	0	0	0	0	0	0	0	0	0	0	0	0	0	0	0	0	0	0	0	0	0	0	0	0	0	0	0	0	0	0	0	0	0	0	0	0	0	0	0	0	0	0	0	0	0	0	0	0	0	0	0	0	0	0	0	0	0	0	0	0	0	0	0	0	0	0	0	0	0	0	0	0	0	0	0	0	0	0	0	0	0	0	0	0	0	0	0	0	0	0	0	0	0	0	0	0	0	0	0	0	0	1993	1972	1972	1982	1993	2003	2025	2058	2093	2128	2165	2257	2270	2432	2356	2341	2341	2356	2386	2356	2298	2204	2128	2081	2081	0	0	0	1734	1726	1726	1734	1734	1742	1759	1775	1792	1827	1873	1931	0	0	0	0	0	0	2270	2270	2312	2217	2217	2217	2327	2327	0	0	0	0	1873	1873	1892	1941	2014	0	2417	2417	2531	2657	2714	2714	2973	3070	3122	3148	3096	3021	2882	2882	0	0	0	0	1827	1827	1845	1873	1892	1921	1951	1951	1951	1961	1961	1961	1961	1961	1951	1951	1941	1931	1911	1892	1882	1873	1873	1864	1864	1864	1864	1864	1864	1864	1854	1854	1854	1854	1854	1854	1854	1864	1911	1982	0	2583	2583	2817	3070	3315	3437	3501	3602	3709	3862	0	0	0	0	0	0	0	0	0	0	0	0	0	0	0	0	0	0	0	0	0	0	0	0	0	0	0	0	0	0	0	0	0	0	0	0	3746	3746	3784	3746	3746	3673	3602	3437	3202	2927	2927	2464	2204	2204	2047	2003	1961	1921	1902	1873	1854	1827	1810	1792	1784	1775	1767	1759	1750	1742	1734	1726	1718	1718	1711
1587	1581	1581	1574	1574	1581	1581	1587	1594	1601	1615	1622	1643	1658	1672	1672	1687	1703	1718	1734	1742	1750	1750	1742	1726	1703	1680	1658	1629	1615	1601	1587	1587	1587	1587	1594	1594	1608	0	0	0	2243	2243	2531	2734	2817	2860	2882	2860	2838	2796	2714	2620	2566	2497	2432	2371	2327	2284	2257	2217	2204	2178	2165	2141	2116	2081	2025	1951	1892	1792	1792	1574	1469	1398	1357	1324	1301	1278	1278	1257	1253	1253	1257	1257	1257	1257	1261	1266	1266	1274	0	0	0	0	0	0	0	0	0	0	0	0	0	0	1347	1328	1328	1328	1333	1333	1333	1333	1333	1328	1324	1319	1314	1305	1292	1283	1274	1266	1257	1249	1240	1232	1224	1216	1216	0	0	0	0	0	1135	1135	1139	1139	1139	1142	1146	1146	1149	1149	1153	1156	1160	1160	1163	1167	1171	1174	1189	0	0	0	0	0	0	0	0	0	0	0	0	0	0	0	0	0	2298	2298	2270	2243	2217	2153	2093	2036	1982	1931	1892	1854	1836	1801	1784	1750	1726	1703	1680	1665	1650	1636	1629	1615	1615	1615	1615	1615	1615	1615	1622	1622	1629	1636	1636	1643	1643	1650	1665	1672	1680	1680	1695	1703	1711	1711	1711	1711	1703	1687	1672	1658	1643	1622	1594	1581	1561	1542	1529	1510	1504	1492	1492	1487	1487	1487	1492	1492	1498	1504	1510	1504	1504	1504	1510	1510	1510	1504	1504	1517	1517	1535	1535	1548	1548	1561	1567	1581	1581	1587	1594	1601	1601	1581	1561	1535	1510	1498	1458	1458	0	0	0	0	0	0	0	0	0	0	0	1498	1469	1458	1452	1441	1435	1435	1435	1458	1475	1561	1587	1615	0	0	0	1695	1672	1665	1658	1650	1643	1636	1636	1636	1636	1629	1629	1643	1650	1665	1672	1680	1703	1718	1734	1742	1759	1775	1792	1801	1810	1818	1827	1827	1818	1810	1801	1792	1775	1767	1759	1750	1742	1734	1734	1734	1734	1734	1734	1742	1767	1792	1836	1882	1902	1941	1982	2036	2036	2025	2014	2014	1993	1982	1961	1931	1911	1892	1873	1864	1864	1864	1864	1864	1864	1864	1864	1864	1864	1864	1864	1864	1854	1845	1836	1836	1827	1827	1818	1792	1767	1750	1734	1711	1695	1672	1658	1650	1643	1643	1650	1658	1687	1695	1726	1734	1902	3405	3405	3469	3469	3862	3673	3469	3345	2997	2695	2695	0	0	1742	1680	1665	1665	1658	1643	1636	1629	1622	1622	1622	1622	1622	1622	1622	1622	1629	1636	1643	1650	1658	1658	1665	1665	1680	1680	1687	1695	1703	1703	1711	1718	1718	1711	1703	1703	1695	1687	1687	1687	1680	1680	1680	1687	1687	1687	1695	1695	1703	1703	1703	1703	1695	1687	1672	1672	1665	1665	1658	1658	1665	1665	1672	1680	1718	1726	1742	0	0	0	0	0	0	0	0	0	0	0	0	0	0	0	0	0	0	0	0	0	0	0	0	0	0	0	0	0	0	0	0	0	0	0	0	0	0	0	0	0	0	0	0	0	0	0	0	0	0	0	0	0	0	0	0	0	0	0	0	0	0	0	0	0	0	0	0	0	0	0	0	0	0	0	0	0	0	0	0	0	0	0	0	0	0	0	0	0	0	0	0	0	0	0	0	0	0	0	0	0	0	0	0	0	0	0	0	0	0	0	0	0	0	0	0	0	1972	1972	1982	1982	1993	2014	2058	2104	2141	2191	2257	0	2432	2432	2448	2464	2481	2514	0	2432	2284	2284	0	0	0	0	0	0	1726	1726	1734	1734	1742	1759	1767	1775	1792	1818	1845	1854	1854	1873	1892	1902	1911	0	0	0	2217	2217	2217	0	0	0	1873	1836	1801	1801	1801	1810	1864	1931	2003	2178	2178	2270	2371	2464	2714	0	0	0	0	0	0	0	0	0	0	1931	1892	1810	1810	1827	1854	1864	1892	1911	1931	1941	1951	1961	1961	1961	1961	1951	1941	1931	1911	1892	1873	1854	1845	1836	1836	1827	1827	1836	1836	1836	1845	1845	1845	1845	1845	1845	1854	1854	1864	1892	1982	0	2356	2356	2548	2796	3021	3175	3315	3405	3534	0	0	0	0	0	0	0	0	0	0	0	0	0	0	0	0	0	0	0	0	0	0	0	0	0	0	0	0	0	0	0	0	0	0	0	0	0	3637	3637	3673	3673	3637	3568	3469	3345	3175	2927	2734	2464	2284	2204	2116	2058	2014	1972	1931	1882	1845	1810	1792	1775	1767	1750	1750	1742	1742	1734	1734	1726	1726	1718	1711
1601	1594	1587	1587	1587	1594	1594	1601	1608	1615	1622	1629	1643	1658	1665	1672	1672	1672	1680	1680	1672	1665	1658	1658	1643	1629	1615	1608	1601	1594	1594	1587	1587	1587	1587	1594	1594	1608	1636	0	1921	1921	2104	2327	2531	2638	2734	2796	2838	2838	2796	2714	2620	2566	2497	2432	2371	2327	2270	2243	2217	2191	2178	2153	2141	2116	2081	2047	1982	1892	1792	1792	1587	1481	1398	1357	1324	1305	1287	1278	1266	1261	1257	1257	1257	1257	1257	1261	1266	1266	1274	1305	0	0	0	0	0	0	0	0	0	0	0	0	0	1347	1343	1338	1338	1333	1333	1333	1333	1333	1328	1324	1319	1314	1305	1292	1283	1274	1266	1257	1249	1240	1232	1224	1216	1216	0	0	0	0	0	1135	1135	0	0	0	1146	1146	1146	1149	1149	1153	1153	1156	1160	1163	1163	1167	1174	0	0	0	0	0	0	0	0	0	0	0	0	0	0	0	0	2298	2298	2298	2284	2257	2230	2204	2141	2081	2014	1951	1902	1854	1818	1784	1759	1726	1703	1680	1665	1650	1636	1629	1615	1608	1601	1601	1601	1601	1601	1601	1608	1608	1608	1608	1615	1615	1615	1615	1622	1622	1629	1636	1643	1650	1665	1672	1672	1672	1680	1680	1665	1650	1636	1622	1601	1587	1574	1561	1542	1523	1510	1504	1498	1498	1498	1492	1492	1504	1504	1517	1523	1517	1517	1523	1529	1535	1542	1542	1542	1542	1554	1561	1574	1587	1594	1608	1629	1650	1672	1687	1703	1726	1742	1750	1742	1711	1687	1658	1636	1587	1587	0	0	0	0	0	0	0	0	0	0	0	1498	1492	1481	1475	1469	1463	1463	1469	1498	1535	1561	1587	1615	0	1726	1726	1695	1672	1665	1658	1650	1643	1636	1636	1636	1636	1636	1643	1650	1658	1665	1672	1687	1703	1718	1726	1742	1759	1767	1775	1784	1801	1810	1810	1810	1810	1801	1792	1784	1775	1759	1750	1734	1726	1726	1726	1718	1718	1718	1726	1734	1742	1775	1810	1836	1864	1892	1931	1972	1993	1993	1993	1982	1972	1961	1941	1921	1902	1892	1873	1864	1864	1864	1864	1864	1864	1864	1864	1864	1864	1864	1864	1864	1854	1854	1845	1845	1845	1854	1845	1818	1792	1775	1750	1734	1711	1687	1672	1658	1658	1658	1665	1672	1695	1711	1742	1750	1902	3405	3405	3469	3469	3469	3286	3175	3021	2754	2417	2178	2178	0	1775	1703	1687	1680	1665	1650	1636	1629	1629	1622	1622	1622	1615	1615	1615	1615	1615	1622	1629	1629	1636	1643	1643	1650	1658	1665	1680	1687	1695	1703	1703	1718	1718	1711	1711	1703	1703	1703	1695	1687	1687	1687	1687	1687	1687	1695	1695	1703	1703	1703	1703	1703	1703	1695	1687	1680	1680	1680	1680	1687	1687	1687	1695	1711	1718	1726	1742	1759	1767	1775	1784	0	0	0	0	0	0	0	0	0	0	0	0	0	0	0	0	0	0	0	0	0	0	0	0	0	0	0	0	0	0	0	0	0	0	0	0	0	0	0	0	0	0	0	0	0	0	0	2927	2927	2950	2997	3021	3070	3096	0	0	0	3315	3315	0	0	0	3375	3375	3437	0	0	0	0	0	0	0	0	0	0	0	0	0	0	0	0	0	0	0	0	0	0	0	0	0	0	0	0	0	0	0	0	0	0	0	0	0	0	0	0	0	0	0	0	0	0	0	0	0	0	1982	1982	1993	2014	2058	0	0	2298	2298	0	2548	2548	2601	2620	2638	0	0	0	2327	2327	0	0	1972	1972	1854	1810	1759	1759	1759	1759	1759	1767	1767	1767	1767	1775	1775	1759	1759	1767	1775	1775	1792	1818	1854	1882	1921	0	0	0	1892	1845	1801	1775	1750	1742	1742	1759	1810	1873	1941	2014	2093	2178	2257	2341	2432	2432	0	0	0	0	0	0	1818	1818	1873	1836	1810	1810	1810	1810	1827	1854	1882	1911	1931	1941	1951	1961	1972	1961	1961	1951	1941	1921	1902	1873	1854	1836	1818	1818	1810	1810	1810	1810	1818	1818	1818	1818	1827	1836	1836	1836	1845	1854	1854	1892	1951	2036	2116	2312	2312	2497	2657	2754	2838	2860	3534	0	0	0	0	0	0	0	0	0	0	0	0	0	0	0	0	0	0	0	0	0	0	0	0	0	0	2497	2497	2531	2566	2638	2714	2754	2882	3070	0	3437	3437	3501	3534	3534	3501	3437	3345	3229	3122	2950	2734	2548	2386	2298	2204	2141	2070	2003	1951	1882	1845	1801	1775	1759	1742	1734	1734	1734	1734	1734	1726	1726	1726	1726	1718
1608	1608	1601	1601	1601	1601	1608	1608	1615	1622	1629	1636	1643	1658	1665	1665	1665	1665	1672	1672	1672	1665	1658	1650	1636	1622	1615	1608	1601	1594	1594	1587	1587	1587	1587	1594	1594	1601	1629	1672	1921	1921	1982	2153	2312	2448	2548	2657	2734	2796	2775	2695	2620	2548	2497	2417	2371	2327	2270	2243	2217	2191	2178	2153	2141	2128	2093	2070	2014	1931	1931	0	0	0	1414	1362	1333	1310	1301	1292	1283	1274	1270	1270	1266	1266	1266	1274	1278	1278	1292	1305	0	0	0	1475	1475	1504	0	0	0	0	0	0	0	0	0	1352	1338	1333	1333	1338	1333	1333	1328	1328	1319	1314	1305	1296	1283	1274	1266	1257	1249	1240	1236	1228	1228	0	0	0	0	0	0	0	0	0	0	0	0	0	0	0	1153	1153	1153	1156	1160	1163	1163	1167	0	0	0	0	0	0	0	0	0	0	0	0	0	0	0	2230	2230	2270	2284	2284	2284	2243	2230	2191	2128	2070	1993	1921	1873	1818	1775	1742	1711	1687	1665	1643	1629	1622	1608	1601	1601	1594	1594	1594	1594	1594	1594	1594	1594	1594	1601	1601	1601	1601	1601	1601	1601	1601	1608	1608	1622	1629	1636	1650	1650	1650	1658	1658	1650	1636	1629	1615	1601	1587	1574	1561	1542	1523	1517	1510	1504	1504	1504	1504	1504	1504	1510	1523	1529	1529	1529	1535	1542	1548	1561	1561	1567	1567	1574	1587	1601	1615	1629	1658	1695	1711	1734	1750	1775	1801	1827	1845	1827	1810	1792	1792	1775	1775	0	0	0	0	0	0	0	0	0	0	0	0	0	1517	1510	1504	1504	1498	1498	1504	1554	1594	1629	1658	1680	1734	1726	1726	1703	1695	1680	1672	1658	1658	1650	1643	1643	1643	1643	1643	1658	1658	1665	1680	1695	1703	1718	1726	1734	1750	1759	1775	1775	1784	1792	1792	1792	1792	1784	1784	1775	1767	1759	1742	1726	1726	1718	1718	1711	1711	1711	1718	1718	1734	1759	1792	1810	1836	1864	1892	1921	1941	1951	1951	1951	1941	1931	1911	1911	1892	1882	1873	1854	1854	1854	1854	1864	1864	1864	1864	1864	1864	1864	1864	1864	1864	1873	1873	1873	1873	1882	1873	1854	1827	1810	1784	1759	1734	1711	1687	1680	1680	1680	1680	1687	1711	1718	1759	1775	1931	2312	2312	0	2997	2997	2927	2838	2734	2531	2327	2178	2178	1902	1801	1734	1703	1687	1672	1658	1643	1636	1629	1629	1629	1622	1615	1615	1615	1615	1608	1608	1615	1615	1622	1629	1636	1636	1650	1658	1672	1680	1687	1695	1703	1718	1718	1718	1718	1711	1711	1711	1703	1695	1695	1695	1695	1695	1695	1703	1703	1703	1703	1703	1711	1711	1711	1703	1695	1695	1695	1703	1703	1703	1703	1711	1711	1718	1726	1742	1742	1759	1767	1775	1784	1810	1810	1818	1818	1845	1854	1864	1882	0	0	0	0	0	0	0	0	0	0	0	0	0	0	0	0	0	0	0	0	0	0	0	0	0	0	0	0	0	0	2796	2796	2775	2775	2796	2796	2796	2796	2838	2860	2904	2950	2997	3021	3046	3096	3148	3202	3229	3286	3286	3315	3315	3315	3315	3375	3437	3437	3469	0	0	0	0	0	0	0	0	0	0	0	0	0	0	0	0	0	0	0	0	0	0	0	0	0	0	0	0	0	0	0	0	0	0	0	0	0	0	0	0	0	0	0	0	0	0	0	0	0	0	0	0	0	0	0	0	0	0	0	0	0	0	0	0	0	0	0	0	0	2093	1972	1931	1854	1810	1801	1792	1784	1775	1767	1767	1767	1767	1767	1775	1775	1759	1759	1767	1775	1775	1775	1792	1810	1818	1845	1864	0	0	1845	1818	1792	1775	1750	1742	1742	1759	1810	1873	1941	2003	2058	2128	2178	2230	2270	2298	0	0	0	0	0	1972	1818	1818	1845	1818	1810	1810	1810	1810	1827	1854	1882	1911	1941	1951	1961	1972	1982	1982	1961	1961	1941	1921	1902	1873	1854	1836	1818	1810	1810	1810	1801	1801	1810	1810	1810	1818	1818	1827	1827	1836	1845	1854	1854	1892	1941	1993	2047	2104	2204	2312	2657	2754	2838	2860	0	0	0	0	0	0	0	0	0	0	0	0	0	0	0	0	0	0	0	0	0	0	2312	2312	2356	2401	2432	2464	2464	2497	2531	2601	2657	2714	2796	2950	3096	3202	3257	3315	3315	3345	3315	3257	3175	3096	2997	2882	2754	2583	2448	2371	2284	2217	2141	2047	1972	1902	1845	1792	1750	1734	1726	1718	1718	1718	1718	1726	1726	1726	1726	1726	1726
1615	1615	1615	1615	1615	1615	1615	1622	1622	1629	1636	1643	1650	1658	1665	1665	1665	1658	1658	1658	1658	1650	1643	1636	1629	1622	1615	1608	1601	1594	1594	1587	1587	1587	1594	1594	1594	1601	1629	1665	0	1982	1982	2014	2141	2243	2356	2481	2566	2657	2714	2695	2601	2548	2481	2417	2386	2327	2270	2243	2217	2191	2178	2153	2153	2141	2116	2093	2047	1982	1911	1775	1775	0	1424	1372	1338	1324	1310	1296	1292	1283	1278	1274	1274	1274	1274	1283	1292	1301	1301	1319	1352	1377	1414	1441	1475	1498	0	0	0	0	0	0	0	0	0	1352	1347	1343	1343	1338	1338	1333	1333	1328	1324	1314	1310	1296	1287	1278	1270	1261	1253	1245	1240	1240	0	0	0	0	0	0	0	0	0	0	0	0	0	0	0	0	0	0	0	0	0	0	0	0	0	0	0	0	0	0	0	0	0	0	0	0	0	0	0	2230	2230	2257	2270	2270	2270	2243	2230	2191	2128	2058	1982	1902	1836	1775	1734	1703	1672	1650	1636	1622	1608	1601	1594	1594	1587	1587	1587	1587	1587	1587	1587	1587	1587	1587	1587	1587	1587	1587	1587	1587	1587	1587	1587	1594	1594	1601	1608	1622	1629	1629	1636	1636	1636	1629	1615	1608	1594	1587	1574	1561	1548	1535	1523	1523	1517	1517	1517	1510	1510	1523	1523	1529	1535	1535	1535	1548	1554	1567	1581	1587	1587	1587	1601	1615	1629	1658	1687	1711	1750	1767	1792	1810	1836	1882	1902	1911	1902	1902	1902	1911	1921	2003	0	0	0	0	0	0	0	0	0	0	0	0	0	0	0	0	1535	1535	1535	1554	1601	1643	1672	1695	1718	1734	1734	1726	1711	1703	1687	1680	1672	1665	1658	1650	1650	1650	1643	1643	1658	1665	1672	1680	1695	1711	1718	1726	1734	1750	1750	1759	1767	1767	1775	1775	1775	1775	1767	1767	1759	1750	1742	1742	1726	1718	1718	1718	1711	1711	1711	1711	1718	1726	1750	1767	1792	1810	1827	1864	1892	1911	1921	1921	1921	1921	1911	1902	1892	1873	1864	1854	1854	1854	1854	1854	1854	1854	1854	1864	1864	1864	1864	1873	1873	1873	1873	1882	1882	1902	1911	1911	1882	1864	1836	1810	1784	1750	1726	1711	1695	1687	1687	1695	1703	1718	1734	1767	1784	1902	2025	2312	0	2638	2638	2620	2566	2497	2371	2230	2116	2116	1902	1818	1750	1718	1703	1687	1665	1650	1643	1636	1636	1629	1629	1622	1615	1615	1615	1608	1608	1608	1615	1615	1622	1622	1629	1643	1650	1665	1680	1687	1695	1711	1718	1718	1726	1726	1726	1718	1718	1711	1711	1703	1703	1703	1703	1703	1703	1703	1703	1711	1711	1711	1711	1718	1711	1711	1703	1703	1711	1711	1711	1711	1718	1726	1726	1734	1742	1750	1759	1767	1775	1792	1810	1810	1818	1818	1845	1854	1864	1882	0	0	0	0	0	0	0	0	0	0	0	0	0	0	0	0	0	0	0	0	0	0	0	0	0	0	0	0	0	2775	2754	2754	2775	2775	2775	2775	2775	2796	2817	2838	2860	2927	2973	2997	3046	3070	3122	3175	3229	3257	3286	3286	3286	3315	3315	3345	3375	3375	3375	3375	0	0	0	0	0	0	0	0	0	0	0	0	0	0	0	0	0	0	0	0	0	0	0	0	0	0	0	0	0	0	0	0	0	0	0	0	0	0	0	0	0	0	0	0	0	0	0	0	0	0	0	0	0	0	0	0	0	0	0	0	0	0	0	2531	2327	2327	0	0	2070	2003	1931	1902	1864	1854	1836	1836	1818	1810	1810	1810	1801	1801	1801	1801	1784	1784	1784	1775	1775	1775	1792	1801	1801	1810	1818	1818	0	1836	1818	1792	1784	1775	1775	1784	1801	1836	1882	1941	2003	2058	2093	2141	2178	2191	2178	2178	0	0	1951	1911	1911	1892	1864	1845	1818	1810	1810	1818	1827	1845	1873	1902	1931	1951	1972	1982	1982	1993	1982	1982	1961	1941	1931	1902	1873	1854	1836	1818	1810	1810	1810	1801	1801	1810	1810	1810	1818	1818	1827	1827	1845	1845	1845	1854	1882	1911	1951	1993	2036	2081	2153	2243	2298	0	0	0	0	0	0	0	0	0	0	0	0	0	0	2341	2312	2312	0	0	0	0	0	0	2257	2257	2284	2312	2341	2371	2401	2401	2432	2481	2531	2601	2638	2734	2860	2950	3021	3070	3096	3122	3122	3096	3070	2997	2927	2860	2775	2676	2566	2464	2401	2341	2270	2191	2093	2003	1911	1836	1775	1734	1711	1703	1695	1695	1703	1711	1718	1718	1726	1726	1734	1734
1636	1629	1629	1629	1629	1629	1629	1629	1636	1643	1643	1650	1658	1658	1658	1665	1658	1650	1650	1650	1643	1636	1629	1629	1622	1615	1608	1601	1594	1594	1594	1594	1587	1587	1587	1594	1594	1601	1622	1650	1695	1742	1810	1902	1982	2070	2165	2284	2566	2548	2548	2601	2601	2548	2481	2417	2386	2327	2270	2243	2217	2204	2178	2165	2153	2141	2128	2116	2081	2036	1911	1775	1775	1587	1446	1382	1343	1328	1324	1314	1301	1296	1287	1287	1287	1287	1287	1296	1305	1314	1314	1333	1352	1377	1414	1441	1469	1492	1517	1535	1535	1517	1504	1481	1463	1441	1441	1367	1357	1352	1347	1347	1343	1338	1338	1333	1328	1324	1314	1305	1296	1287	1278	1270	1261	1257	1257	0	0	0	0	0	0	0	0	0	0	0	0	0	0	0	0	0	0	0	0	0	0	0	0	0	0	0	0	0	0	0	0	0	0	0	0	0	0	0	0	2178	2178	2230	2243	2270	2257	2243	2217	2178	2116	2025	1941	1864	1792	1742	1695	1665	1636	1622	1608	1594	1594	1587	1587	1581	1581	1581	1581	1587	1587	1587	1587	1587	1587	1587	1587	1587	1587	1581	1581	1581	1581	1581	1581	1581	1587	1587	1594	1608	1608	1615	1615	1629	1622	1622	1615	1601	1594	1581	1574	1561	1548	1542	1535	1529	1523	1523	1523	1523	1523	1523	1529	1535	1535	1542	1542	1554	1567	1581	1601	1608	1608	1615	1622	1643	0	1726	1726	1759	1810	1836	1854	1892	1911	1972	2003	2003	1993	1982	1982	1993	1993	2003	0	0	0	0	0	0	0	0	0	0	0	0	0	0	0	0	0	0	1587	1587	1636	1665	1703	1718	1734	1734	1734	1726	1718	1703	1695	1687	1680	1665	1665	1658	1658	1650	1650	1650	1658	1665	1672	1680	1695	1711	1718	1726	1742	1742	1750	1759	1759	1759	1759	1759	1767	1759	1759	1750	1750	1742	1734	1734	1726	1718	1711	1711	1711	1703	1703	1711	1718	1726	1742	1759	1775	1792	1810	1836	1854	1873	1882	1882	1882	1882	1873	1864	1864	1854	1845	1836	1836	1836	1836	1845	1845	1845	1845	1854	1854	1864	1864	1873	1873	1873	1882	1892	1911	1921	1941	1941	1921	1892	1864	1836	1801	1775	1750	1726	1711	1703	1703	1703	1711	1726	1734	1775	1792	1864	1951	2036	2257	2257	2371	2386	2356	2312	2230	2141	2058	1972	1902	1818	1759	1726	1711	1695	1672	1658	1650	1643	1636	1636	1629	1622	1615	1608	1608	1608	1608	1608	1608	1608	1615	1622	1629	1643	1650	1665	1680	1687	1695	1711	1718	1734	1734	1734	1734	1726	1726	1718	1718	1711	1711	1711	1711	1711	1711	1711	1711	1711	1711	1718	1718	1718	1711	1711	1711	1711	1711	1711	1718	1718	1718	1726	1726	1734	1742	1750	1759	1775	1784	1801	1827	1845	1845	1864	1873	1902	1921	1961	0	0	0	0	0	0	0	0	0	0	0	0	0	0	0	0	0	0	0	0	0	0	0	0	0	0	0	0	2754	2754	2754	2754	2754	2754	2754	2754	2775	2775	2796	2817	2860	2904	2927	2997	3021	3070	3122	3175	3202	3257	3286	3286	3286	3286	3286	3315	3345	3315	3315	3315	0	0	0	0	0	0	0	0	0	0	0	0	0	0	0	0	0	0	0	0	0	0	0	0	0	0	0	0	0	0	0	0	0	0	0	0	0	0	0	0	0	0	0	0	0	0	0	0	0	0	0	0	0	0	0	0	0	0	0	0	2714	2695	2657	2481	2284	2178	2178	2104	2070	2014	1972	1972	1931	1911	1902	1882	1873	1854	1845	1836	1827	1827	1827	1818	1810	1801	1801	1792	1792	1792	1792	1801	1801	1810	1818	1818	1836	1836	1827	1818	1818	1818	1818	1836	1854	1873	1911	1961	2014	2058	2093	2141	2178	2191	2178	2128	2081	2036	1951	1911	1911	1892	1864	1845	1836	1836	1836	1845	1854	1873	1892	1921	1941	1972	1982	1993	2003	2014	2003	1982	1961	1941	1931	1902	1882	1854	1836	1818	1818	1810	1810	1810	1810	1810	1810	1810	1818	1818	1827	1827	1836	1845	1845	1854	1873	1902	1921	1951	1972	2014	2058	2093	2128	0	0	2116	2116	0	0	2191	2191	0	2298	2298	2312	2312	2298	2284	2270	2243	2243	2191	2178	2178	2191	2204	2217	2217	2243	2284	2298	2327	2356	2356	2386	2417	2481	2531	2566	2657	2754	2817	2860	2882	2927	2927	2927	2904	2860	2817	2754	2714	2657	2566	2497	2417	2371	2327	2270	2191	2104	2104	0	1836	1767	1726	1695	1687	1687	1687	1687	1695	1703	1711	1718	1726	1742	1742
1650	1650	1650	1650	1643	1643	1643	1643	1643	1643	1650	1658	1658	1658	1658	1658	1650	1650	1643	1643	1636	1629	1629	1622	1622	1615	1608	1601	1594	1594	1594	1594	1587	1587	1587	1594	1594	1601	1615	1636	1672	1711	1750	1818	1864	1972	1972	2070	0	2548	2386	2386	2448	2481	2464	2464	2356	2327	2284	2270	2230	2204	2191	2178	2165	2153	2141	2128	2104	2070	1951	1827	1827	1587	1487	1414	1362	1338	1333	1324	1314	1310	1301	1301	1296	1296	1301	1305	1314	1324	1338	1338	1357	1382	1414	1441	1469	1492	1517	1529	1529	1517	1504	1481	1463	1441	1424	1387	1372	1367	1362	1357	1352	1347	1347	1347	1347	1343	1338	1328	1324	1319	1314	1310	1301	1301	0	0	0	0	0	0	0	0	0	0	0	0	0	0	0	0	0	0	0	0	0	0	0	0	0	0	0	0	0	0	0	0	0	0	0	0	0	0	0	0	0	2153	2153	2204	2230	2230	2230	2217	2191	2141	2081	1993	1911	1827	1767	1711	1665	1636	1615	1601	1594	1587	1581	1581	1581	1581	1581	1581	1581	1587	1587	1587	1587	1587	1587	1587	1587	1581	1581	1581	1574	1574	1574	1574	1574	1574	1581	1581	1587	1594	1601	1608	1608	1622	1622	1615	1608	1601	1594	1581	1574	1561	1554	1548	1542	1535	1535	1535	1535	1535	1535	1535	1535	1542	1542	1548	1548	1561	0	1615	1615	1629	1636	1636	1643	1665	0	0	1873	1873	1931	1961	2003	2036	2081	2141	2153	2153	2141	2141	2153	2153	2165	0	0	0	0	0	0	0	0	0	0	0	0	0	0	0	0	0	0	0	0	0	0	0	1742	1742	1742	1742	1742	1734	1718	1711	1695	1687	1680	1672	1665	1665	1658	1658	1658	1665	1665	1672	1680	1687	1695	1711	1718	1726	1734	1742	1742	1750	1750	1750	1750	1750	1750	1750	1750	1750	1742	1742	1734	1726	1718	1711	1711	1703	1703	1703	1703	1711	1711	1718	1726	1742	1759	1767	1784	1801	1818	1827	1845	1845	1854	1854	1854	1845	1836	1836	1827	1827	1827	1827	1827	1827	1836	1836	1836	1836	1836	1845	1854	1864	1882	1902	1902	1921	1931	1951	1961	1972	1951	1921	1892	1854	1827	1792	1759	1734	1718	1711	1711	1711	1718	1726	1742	1775	1792	1810	1854	1921	1993	2058	2141	2178	2178	2165	2104	2047	1993	1941	1882	1818	1767	1734	1711	1687	1672	1658	1650	1650	1636	1636	1629	1615	1615	1608	1608	1608	1608	1608	1608	1608	1615	1622	1629	1643	1658	1665	1672	1687	1703	1718	1726	1734	1742	1742	1742	1734	1734	1726	1726	1718	1718	1711	1711	1711	1711	1718	1718	1718	1718	1718	1718	1718	1718	1718	1718	1718	1718	1718	1726	1726	1726	1726	1726	1726	1742	1750	1767	1784	1801	1836	1854	1873	1873	1902	1921	1961	1993	2036	0	0	0	0	0	0	0	0	0	0	0	0	0	0	0	0	0	0	0	0	0	0	0	0	0	0	0	0	2734	2734	2734	2734	2754	2754	2754	2754	2754	2754	2796	2796	2838	2882	2927	2973	2997	3046	3096	3148	3202	3229	3257	3257	3286	3286	3286	3286	3286	3286	3286	3286	0	0	0	0	0	0	0	0	0	0	0	0	0	0	0	0	0	0	0	0	0	0	0	0	0	0	0	0	0	0	0	0	0	0	0	0	0	0	0	0	0	0	0	0	0	0	0	0	0	0	0	0	0	2327	2327	2327	0	0	0	0	2714	2695	2657	2371	2243	2178	2178	2104	2070	2036	2003	1993	1972	1961	1961	1941	1921	1911	1892	1882	1873	1864	1864	1845	1836	1836	1827	1818	1810	1810	1810	1810	1810	1818	1818	1836	1836	1854	1864	1873	1882	1892	1892	1902	1921	1951	1993	2025	2070	2093	2128	2153	2178	2178	2165	2128	2081	2036	1972	1941	1941	1921	1902	1873	1864	1864	1873	1882	1892	1911	1931	1951	1982	1993	2014	2014	2025	2025	2014	1993	1972	1951	1931	1902	1882	1864	1845	1836	1827	1818	1818	1818	1818	1818	1818	1827	1827	1827	1827	1836	1836	1845	1845	1854	1873	1892	1911	1931	1941	1961	1993	2014	2025	2036	0	2104	2104	2128	2128	2141	2165	2204	2243	2257	2257	2257	2257	2243	2230	2217	2191	2178	2165	2165	2178	2178	2178	2178	2204	2230	2270	2298	2312	2341	2341	2371	2432	2481	2514	2583	2638	2676	2734	2734	2754	2754	2754	2714	2695	2657	2620	2583	2548	2481	2417	2356	2341	2298	2243	2178	2093	2093	0	1836	1767	1718	1687	1680	1672	1672	1680	1687	1695	1703	1718	1726	1742	1750
1658	1665	1665	1665	1658	1658	1650	1650	1658	1658	1658	1658	1658	1658	1658	1658	1650	1650	1643	1643	1636	1629	1629	1622	1615	1615	1608	1601	1601	1594	1594	1594	1594	1594	1594	1594	1594	1601	1608	1622	1643	1665	1695	1726	1750	1784	1873	1873	1931	0	2104	2104	2191	2243	2284	2341	2356	2341	2284	2270	2243	2204	2191	2191	2178	2165	2153	2141	2141	2116	2014	1892	1818	1818	1535	1458	1393	1362	1352	1343	1333	1324	1319	1319	1314	1314	1314	1319	1328	1338	1352	1352	1372	1393	1419	1441	1463	1481	1504	1517	1517	1517	1510	1498	1463	1441	1424	1408	1393	1382	1377	1372	1367	1362	1357	1357	1357	1357	1352	1347	1343	1343	1347	1347	1352	0	0	0	0	0	0	0	0	0	0	0	0	0	0	0	0	0	0	0	0	0	0	0	0	0	0	0	0	0	0	0	0	0	0	0	0	0	0	0	0	0	2093	2093	2141	2178	2204	2217	2217	2204	2165	2104	2058	1972	1882	1801	1734	1680	1643	1615	1601	1587	1581	1581	1574	1574	1574	1581	1581	1581	1581	1587	1587	1587	1594	1594	1587	1587	1587	1581	1581	1581	1574	1574	1574	1574	1574	1574	1574	1581	1587	1594	1594	1601	1608	1615	1615	1615	1608	1608	1594	1587	1581	1574	1561	1561	1554	1554	1554	1554	1554	1554	1561	1567	1567	1581	1581	1587	1587	1601	0	0	0	0	0	0	0	0	0	0	0	0	2081	2081	2116	2165	2217	0	0	0	2284	2284	2298	2327	0	0	0	0	0	0	0	0	0	0	0	0	0	0	0	0	0	0	0	0	0	0	0	0	0	0	1759	1750	1742	1734	1726	1711	1703	1695	1687	1680	1680	1665	1658	1658	1665	1665	1672	1680	1687	1695	1703	1718	1726	1734	1734	1742	1742	1742	1742	1742	1742	1742	1742	1742	1742	1742	1734	1734	1734	1726	1718	1711	1711	1703	1703	1703	1703	1703	1703	1703	1718	1726	1734	1742	1759	1775	1784	1792	1810	1818	1818	1818	1818	1818	1818	1818	1818	1818	1818	1818	1818	1818	1827	1827	1827	1836	1836	1836	1845	1864	1882	1911	1911	1941	1951	1972	1993	2003	1982	1951	1911	1873	1836	1810	1775	1742	1726	1718	1718	1718	1718	1726	1742	1767	1784	1801	1827	1864	1911	1951	2003	2036	2036	2025	1993	1961	1921	1892	1845	1801	1759	1726	1711	1687	1665	1658	1650	1650	1636	1636	1629	1615	1615	1608	1608	1608	1608	1608	1608	1615	1622	1629	1636	1643	1658	1665	1672	1687	1703	1718	1726	1742	1742	1750	1750	1742	1734	1734	1726	1726	1718	1718	1718	1718	1718	1718	1718	1718	1718	1718	1726	1726	1726	1726	1726	1726	1718	1718	1726	1726	1718	1718	1718	1718	1742	1767	1801	1836	1873	1921	1951	1982	1982	2025	2070	2104	2128	2178	2298	2341	2371	2371	2371	0	0	0	0	0	0	0	0	0	0	0	0	0	0	0	0	0	0	0	0	0	0	0	2734	2734	2734	2734	2754	2754	2754	2734	2734	2754	2775	2775	2817	2860	2882	2950	2973	3046	3096	3148	3202	3229	3257	3257	3286	3286	3286	3286	3286	3286	3286	3286	0	0	0	0	0	0	0	0	0	0	0	0	0	0	0	0	0	0	0	0	0	0	0	0	0	0	0	0	0	0	0	0	0	0	0	0	0	0	0	0	0	0	0	0	0	0	0	0	0	0	0	0	0	2312	2298	2298	0	0	0	0	0	0	0	2371	2230	2178	2153	2104	2070	2047	2025	2025	2014	2003	2003	1982	1972	1961	1941	1921	1911	1902	1892	1882	1882	1882	1873	1854	1845	1836	1836	1845	1845	1845	1845	1864	1892	1921	1941	1961	1972	1972	1982	1993	2014	2036	2070	2093	2116	2128	2153	2165	2178	2178	2165	2128	2093	2058	2003	1972	1972	1951	1941	1921	1921	1921	1921	1931	1951	1961	1982	2003	2025	2047	2047	2058	2058	2047	2036	2014	1993	1972	1951	1921	1902	1873	1864	1845	1836	1836	1836	1836	1836	1836	1836	1827	1827	1836	1836	1836	1845	1854	1854	1864	1873	1892	1902	1902	1911	1931	1941	1951	1961	1972	1993	2003	2058	2070	2081	2093	2116	2153	2178	2191	2204	2204	2217	2217	2217	2204	2178	2165	2153	2153	2153	2141	2141	2153	2165	2191	2204	2230	2257	2284	2284	2312	2356	2417	2448	2497	2531	2548	2566	2566	2566	2566	2566	2548	2531	2497	2481	2464	2432	2401	2341	2312	2298	2270	2230	2153	2081	1993	1993	0	1767	1711	1680	1665	1665	1665	1665	1680	1687	1703	1711	1718	1734	1750
1665	1672	1680	1680	1672	1672	1665	1665	1665	1665	1665	1665	1658	1658	1650	1650	1643	1643	1636	1636	1636	1636	1629	1622	1615	1615	1608	1608	1601	1601	1594	1594	1594	1594	1594	1594	1594	1594	1601	1608	1622	1629	1650	1672	1672	1680	1695	1726	1931	0	2104	1951	1951	2036	2104	2341	2356	2356	2312	2270	2243	2217	2204	2191	2191	2178	2178	2165	2165	2141	2047	1951	1818	1818	1587	1498	1430	1387	1367	1362	1352	1347	1338	1338	1333	1333	1333	1338	1343	1352	1367	1382	1382	1403	1419	1441	1458	1481	1492	1504	1510	1517	1510	1498	1487	1469	1452	1435	1419	1408	1398	1387	1382	1377	1377	1377	1377	1377	1377	1377	1377	1377	1382	1393	1441	0	0	0	0	0	0	0	0	0	0	0	0	0	0	0	0	0	0	0	0	0	0	0	0	0	0	0	1481	1481	1517	1542	1561	1581	1594	1608	0	0	0	0	0	2025	2025	2070	2104	2141	2165	2178	2178	2153	2104	2058	2003	1921	1845	1767	1711	1665	1622	1608	1594	1581	1581	1581	1574	1574	1574	1581	1581	1581	1587	1587	1594	1594	1594	1594	1587	1587	1587	1581	1581	1581	1581	1581	1574	1574	1574	1574	1574	1581	1587	1594	1594	1601	1608	1615	1615	1615	1615	1608	1601	1594	1587	1581	1574	1574	1574	1574	1574	1574	1581	1581	1587	1594	1608	0	0	0	0	0	0	0	0	0	0	0	0	0	0	0	0	0	2257	2257	2284	0	0	0	0	0	2464	2464	0	0	0	0	0	0	0	0	0	0	0	0	0	0	0	0	0	0	0	0	0	0	0	0	0	0	0	0	0	1734	1734	1726	1718	1711	1703	1695	1687	1680	1680	1672	1672	1672	1672	1680	1680	1687	1695	1703	1703	1718	1726	1726	1734	1734	1734	1734	1742	1734	1734	1734	1734	1734	1734	1734	1726	1726	1726	1718	1718	1711	1703	1703	1703	1703	1695	1695	1695	1703	1703	1711	1718	1726	1734	1742	1759	1767	1784	1784	1792	1792	1801	1801	1801	1801	1801	1801	1801	1801	1810	1810	1810	1818	1818	1827	1836	1836	1845	1864	1892	1921	1951	1951	1982	2003	2025	2036	2014	1972	1931	1892	1854	1818	1784	1750	1734	1726	1726	1726	1726	1726	1734	1759	1767	1784	1801	1818	1845	1873	1902	1931	1931	1921	1902	1902	1873	1845	1818	1784	1742	1718	1695	1672	1665	1643	1643	1636	1636	1629	1622	1622	1615	1615	1615	1615	1615	1615	1615	1622	1629	1636	1643	1650	1658	1665	1680	1695	1711	1718	1726	1742	1742	1750	1750	1742	1734	1734	1726	1726	1718	1718	1718	1718	1718	1718	1718	1718	1718	1718	1718	1726	1726	1726	1718	1718	1718	1711	1711	1711	1711	1703	1703	1703	1718	1767	1836	1882	1951	2014	2047	2093	2116	2116	2153	2191	2230	2270	2298	2341	2371	2371	2371	0	0	0	0	0	0	0	0	0	0	0	0	0	0	0	0	0	0	0	0	0	0	0	2714	2714	2714	2714	2714	2714	2714	2734	2734	2734	2734	2754	2796	2838	2860	2904	2950	2997	3046	3122	3175	3202	3229	3257	3286	3286	3286	3286	3286	3286	3286	3286	3315	0	0	0	0	0	0	0	0	0	0	0	0	0	0	0	0	0	0	0	0	0	0	0	0	0	0	0	0	0	0	0	0	0	0	0	0	0	0	0	0	0	0	0	0	0	0	0	0	0	0	2298	2298	2298	2298	2298	0	0	0	0	0	0	2298	2298	2217	2178	2153	2128	2104	2070	2058	2047	2047	2047	2047	2025	2014	1993	1982	1961	1951	1941	1931	1921	1921	1911	1911	1892	1882	1873	1873	1873	1882	1882	1892	1892	1931	1961	2003	2025	2047	2070	2081	2093	2116	2128	2141	2165	2178	2178	2178	2191	2191	2178	2165	2128	2104	2070	2036	2014	1993	1993	1982	1961	1961	1961	1972	1993	2003	2014	2025	2047	2070	2093	2093	2093	2093	2081	2058	2036	2014	1993	1972	1951	1921	1902	1882	1864	1864	1864	1854	1854	1845	1836	1836	1836	1845	1845	1845	1854	1854	1854	1864	1864	1882	1892	1892	1902	1911	1931	1941	1951	1961	1972	1993	2003	2058	2070	2081	2093	2116	2153	2178	2191	2204	2204	2217	2217	2217	2204	2178	2165	2153	2141	2128	2128	2128	2128	2141	2165	2178	2204	2230	2243	2243	2270	2327	2371	2401	2448	2464	2481	2497	2481	2481	2464	2448	2432	2417	2386	2371	2356	2341	2312	2298	2270	2270	2270	2230	2153	2081	1993	1961	1882	1810	1711	1672	1658	1650	1650	1658	1665	1680	1695	1703	1718	1734	1750
1665	1680	1687	1687	1687	1680	1680	1680	1672	1672	1672	1665	1665	1658	1650	1650	1643	1643	1636	1636	1636	1629	1622	1622	1622	1615	1608	1608	1601	1601	1601	1594	1594	1594	1594	1594	1594	1594	1601	1601	1608	1615	1615	1636	1636	1636	1636	1650	1665	0	0	1810	1810	1931	1931	0	0	2371	2312	2312	2257	2243	2217	2217	2204	2204	2191	2178	2178	2165	2093	2014	1951	1951	0	1548	1463	1414	1382	1377	1372	1367	1357	1357	1352	1352	1352	1357	1357	1367	1382	1398	1398	1408	1424	1441	1458	1475	1492	1498	1510	1510	1510	1504	1492	1481	1463	1452	1435	1424	1414	1414	1403	1403	1403	1403	1408	1408	1408	1408	1408	1414	1419	1430	1441	1487	1504	1517	1535	1548	0	0	0	0	0	0	0	0	0	0	0	0	0	0	1352	1343	1343	1343	1347	1362	1393	1424	1458	1481	1517	1542	1561	1581	1594	1608	1658	0	0	1892	1892	1961	2014	2047	2081	2116	2128	2141	2116	2093	2047	2003	1941	1882	1810	1750	1695	1650	1622	1601	1587	1581	1581	1581	1574	1574	1574	1581	1581	1587	1587	1594	1594	1594	1594	1594	1594	1587	1587	1587	1581	1581	1581	1581	1574	1574	1574	1581	1581	1587	1587	1594	1601	1601	1608	1622	1622	1622	1622	1615	1608	1608	1601	1594	1594	1594	1594	1594	1594	1601	1608	1629	1643	1650	0	0	0	0	0	0	0	0	0	0	0	0	0	0	0	0	0	0	0	0	0	0	0	0	0	0	0	0	0	0	0	0	0	0	0	0	0	0	0	0	0	0	0	0	0	0	0	0	0	0	0	0	0	0	0	0	1703	1703	1711	1711	1703	1703	1695	1695	1687	1680	1680	1680	1680	1680	1680	1687	1687	1687	1695	1711	1711	1718	1726	1726	1734	1734	1734	1734	1734	1726	1726	1726	1726	1726	1726	1726	1726	1718	1718	1718	1711	1711	1703	1703	1695	1695	1695	1695	1695	1695	1695	1703	1711	1711	1718	1726	1742	1750	1759	1759	1767	1775	1775	1775	1784	1784	1784	1792	1792	1792	1801	1801	1801	1801	1810	1818	1818	1827	1836	1864	1892	1931	1972	1972	2003	2036	2058	2070	2025	1993	1951	1902	1864	1818	1775	1742	1726	1726	1718	1718	1718	1718	1726	1742	1759	1767	1784	1801	1810	1827	1845	1864	1864	1854	1845	1836	1827	1810	1784	1750	1726	1703	1680	1665	1650	1643	1636	1636	1636	1629	1622	1622	1622	1615	1615	1622	1622	1622	1629	1629	1636	1643	1650	1665	1672	1680	1687	1703	1718	1726	1734	1742	1750	1750	1742	1742	1734	1726	1726	1718	1711	1711	1711	1711	1711	1711	1711	1711	1711	1718	1718	1718	1718	1718	1711	1711	1703	1695	1695	1687	1687	1687	1680	1680	1703	1759	1836	1892	1961	2047	2116	2165	2204	2204	2257	2298	2327	2371	2401	2417	2417	2386	2386	0	0	0	0	0	0	0	0	0	0	0	0	0	0	0	0	0	0	0	0	0	0	0	2714	2714	2695	2695	2714	2714	2714	2714	2714	2714	2714	2754	2754	2796	2817	2882	2904	2973	3021	3070	3122	3175	3229	3229	3257	3257	3286	3286	3257	3202	3202	3175	3175	0	0	0	0	0	0	0	0	0	0	0	0	0	0	0	0	0	0	0	0	0	0	0	0	0	0	0	0	0	0	0	0	0	0	0	0	0	0	0	0	0	0	0	0	0	0	0	0	0	0	2298	2298	2298	2270	2243	2217	2217	2217	2230	0	0	2230	2217	2204	2178	2153	2141	2128	2104	2093	2093	2081	2081	2070	2047	2025	2014	1993	1982	1972	1951	1951	1931	1931	1931	1921	1911	1882	1873	1873	1873	1882	1882	1902	1902	0	2116	2116	2116	2116	2141	2153	2178	2191	2204	2204	2204	2204	2204	2204	2204	2204	2191	2165	2141	2116	2081	2070	2047	2036	2036	2025	2025	2025	2025	2047	2058	2070	2081	2093	2116	2128	2153	2153	2141	2128	2104	2093	2070	2047	2025	2003	1982	1951	1941	1921	1902	1902	1892	1882	1882	1845	1845	1845	1845	1854	1864	1864	1864	1864	1864	1873	1873	1882	1892	1892	1902	1911	1921	1951	1961	1972	1982	1993	2025	2070	2081	2081	2093	2116	2153	2178	2191	2191	2191	2204	2204	2204	2191	2165	2153	2141	2128	2116	2104	2104	2104	2116	2128	2141	2165	2191	2204	2230	2230	2284	2327	2356	2371	2401	2401	2401	2401	2386	2386	2371	2341	2327	2312	2284	2284	2284	2270	2243	2243	2257	2270	2243	2204	2128	2047	1961	1882	1810	1726	1672	1650	1643	1643	1650	1658	1672	1687	1703	1711	1726	1742
1665	1680	1695	1695	1687	1687	1687	1687	1687	1680	1672	1672	1665	1658	1650	1643	1636	1636	1636	1629	1629	1629	1622	1622	1615	1615	1608	1608	1601	1601	1601	1594	1594	1594	1594	1594	1594	1594	1594	1594	1601	1601	1601	1608	1608	1601	1601	1608	1622	1636	1658	1810	1810	1818	1818	2356	2356	0	2341	2341	2284	2270	2243	2230	2230	2217	2217	2217	2204	2191	2141	2070	1951	1882	1882	0	1498	1435	1398	1393	1387	1382	1377	1372	1367	1367	1372	1372	1377	1387	1398	1408	1419	1419	1435	1446	1458	1469	1481	1492	1498	1504	1517	1510	1504	1492	1481	1463	1452	1441	1435	1435	1430	1430	1430	1430	1430	1435	1435	1435	1435	1446	1452	1463	1475	1487	1504	1517	1535	1548	1561	1561	1561	1561	0	0	0	0	0	0	0	0	0	1382	1352	1343	1343	1343	1347	1362	1393	1424	1458	1487	1517	1548	1567	1587	1608	1629	1658	1695	1742	1818	1892	1961	2003	2036	2070	2093	2104	2104	2081	2047	2014	1961	1911	1864	1810	1750	1695	1650	1629	1601	1587	1581	1581	1581	1581	1581	1581	1581	1587	1587	1594	1594	1601	1601	1601	1601	1594	1594	1587	1587	1581	1581	1581	1581	1581	1581	1581	1581	1581	1587	1587	1594	1601	1601	1608	1622	1622	1622	1622	1622	1615	1608	1608	1601	1601	1601	1601	1601	1608	1615	1622	1629	1643	1650	1695	1718	1734	1750	1775	0	0	0	0	0	0	0	0	0	0	0	0	0	0	0	0	0	0	0	0	0	0	0	0	0	0	0	0	0	0	0	0	0	0	0	0	0	0	0	0	0	0	0	0	0	0	0	0	0	1650	1650	1665	1680	1687	1687	1687	1687	1680	1680	1687	1687	1687	1687	1687	1687	1687	1695	1695	1695	1703	1711	1718	1726	1726	1734	1734	1734	1734	1726	1726	1726	1726	1726	1718	1718	1718	1718	1718	1718	1718	1718	1711	1711	1703	1703	1695	1695	1687	1687	1687	1687	1695	1695	1695	1703	1703	1718	1718	1726	1734	1734	1742	1750	1750	1759	1767	1775	1775	1784	1784	1784	1792	1792	1792	1801	1810	1810	1818	1827	1836	1864	1902	1951	1993	1993	2025	2070	2093	2093	2047	2003	1951	1902	1854	1810	1767	1742	1726	1718	1711	1711	1711	1711	1711	1726	1734	1750	1759	1767	1775	1792	1810	1827	1827	1818	1801	1801	1792	1784	1767	1734	1711	1687	1672	1658	1643	1636	1636	1636	1636	1636	1636	1636	1629	1629	1629	1629	1636	1636	1636	1650	1650	1658	1665	1680	1680	1687	1703	1711	1718	1726	1742	1742	1750	1750	1742	1734	1726	1726	1718	1711	1711	1711	1711	1711	1711	1711	1711	1711	1711	1711	1711	1711	1711	1711	1703	1695	1687	1680	1680	1665	1665	1665	1658	1658	1680	1759	1836	1902	1993	2093	2165	2217	2257	2257	2312	2371	2386	2417	2432	2448	2432	2386	2356	2356	0	0	0	0	0	0	0	0	0	0	0	0	0	0	0	0	0	0	0	0	0	0	0	0	2676	2676	2695	2695	2695	2695	2695	2695	2695	2714	2734	2754	2796	2817	2860	2904	2950	3021	3070	3096	3148	3202	3229	3257	3229	3202	3096	3046	3046	3175	3175	0	0	0	0	0	0	0	0	0	0	0	0	0	0	0	0	0	0	0	0	0	0	0	0	0	0	0	0	0	0	0	0	0	0	0	0	0	0	0	0	0	0	0	0	0	0	0	2312	2298	2298	2312	2327	2284	2257	2217	2217	2217	2128	2093	2093	2093	2104	2116	2116	2128	2128	2116	2116	2104	2093	2081	2081	2070	2070	2047	2014	1993	1982	1972	1961	1941	1941	1921	1911	1902	1892	1864	1845	1827	1827	1873	0	0	1911	1911	1993	2093	2116	2141	2178	2217	2230	2257	2257	2257	2243	2230	2230	2217	2217	2217	2204	2191	2165	2153	2116	2081	2047	2025	2025	2003	2003	2003	2014	2025	2036	2070	2128	2153	2165	2191	2217	2217	2217	2204	2178	2153	2141	2104	2081	2070	2058	2025	1993	1982	1961	1951	1941	1931	1882	1882	1873	1873	1873	1873	1873	1873	1873	1873	1873	1873	1873	1882	1882	1892	1902	1902	1911	1921	1951	1972	1982	2003	2014	2047	2081	2104	2104	2104	2104	2128	2141	2141	2141	2141	2141	2165	2165	2165	2165	2128	2116	2104	2093	2081	2081	2081	2081	2093	2104	2128	2141	2153	2178	2178	2217	2257	2284	2298	2298	2298	2298	2298	2270	2270	2270	2270	2257	2257	2243	2243	2243	2257	2243	2243	2257	2270	2270	2257	2204	2116	2058	1972	1882	1792	1672	1650	1643	1643	1650	1658	1672	1687	1695	1711	1726	1734
1643	1658	1665	1665	1665	1665	1658	1658	1672	1680	1680	1665	1665	1650	1650	1643	1636	1636	1636	1629	1629	1622	1622	1622	1615	1615	1608	1608	1601	1601	1601	1594	1594	1594	1594	1594	1594	1594	1594	1594	1594	1594	1601	1601	1601	1594	1594	1594	1601	1601	1629	1636	1687	1695	1818	2356	2356	0	0	2401	2312	2298	2270	2257	2257	2257	2243	2243	2243	2230	2204	2153	2036	1882	1882	0	1535	1458	1414	1403	1403	1393	1387	1382	1382	1382	1382	1382	1387	1398	1403	1414	1424	1435	1435	1441	1452	1463	1475	1487	1492	1504	1510	1510	1510	1498	1492	1481	1463	1458	1458	1458	1452	1452	1452	1458	1458	1458	1463	1463	1469	1475	1481	1492	1504	1517	1523	1542	1554	1561	1561	1561	1561	1561	1567	1554	1542	1523	1510	1487	1458	1435	1414	1382	1367	1357	1357	1357	1357	1377	1393	1424	1458	1481	1517	1548	1567	1594	1615	1643	1665	1695	1742	1818	1892	1961	1993	2025	2047	2070	2081	2058	2036	2003	1972	1961	1892	1845	1801	1750	1695	1658	1629	1608	1594	1587	1581	1581	1581	1581	1581	1587	1587	1594	1601	1601	1601	1601	1601	1601	1594	1594	1587	1587	1581	1581	1581	1581	1581	1581	1581	1587	1587	1594	1594	1594	1601	1608	1615	1622	1629	1629	1629	1622	1622	1622	1615	1615	1608	1608	1615	1615	1622	1629	1636	1650	1665	1680	1695	1718	1734	1750	1775	0	0	0	0	0	0	0	0	0	0	0	0	0	0	0	0	0	0	0	0	0	0	0	0	0	0	0	0	0	0	0	0	0	0	0	0	0	0	0	0	0	0	0	1535	1535	1535	1548	1561	1574	1608	1622	1636	1650	1658	1665	1672	1672	1680	1680	1680	1687	1687	1687	1695	1695	1695	1703	1703	1711	1711	1718	1726	1726	1734	1734	1734	1734	1734	1726	1726	1726	1726	1718	1718	1718	1718	1718	1711	1711	1711	1711	1711	1703	1703	1703	1703	1695	1687	1687	1687	1687	1687	1687	1687	1687	1687	1695	1703	1711	1718	1726	1726	1742	1742	1750	1759	1759	1767	1775	1775	1784	1792	1792	1792	1801	1810	1810	1818	1827	1845	1873	1921	1961	2014	2058	2058	2093	2116	2104	2058	2003	1951	1892	1845	1801	1759	1726	1711	1711	1703	1703	1703	1703	1703	1703	1718	1734	1734	1750	1759	1767	1784	1792	1792	1792	1775	1775	1767	1759	1734	1718	1695	1687	1665	1658	1643	1636	1636	1636	1636	1643	1650	1650	1650	1650	1650	1650	1658	1658	1658	1665	1665	1680	1687	1687	1695	1703	1703	1718	1726	1742	1742	1742	1742	1742	1742	1734	1726	1718	1711	1711	1711	1711	1703	1703	1703	1703	1703	1703	1703	1711	1711	1711	1703	1703	1695	1687	1680	1672	1665	1658	1650	1650	1650	1650	1672	1742	0	2014	2014	2165	2230	2284	2327	2327	2386	2417	2448	2464	2481	2464	2448	2386	2356	2356	0	0	0	0	0	0	0	0	0	0	0	0	0	0	0	0	0	0	0	0	0	0	0	0	2657	2657	2695	2695	2695	2695	2695	2695	2695	2695	2695	2714	2734	2775	2796	2838	2882	2927	2973	3046	3096	3122	3148	3175	3148	3122	2904	2904	3046	0	0	0	0	0	0	0	0	0	0	0	0	0	0	0	0	0	0	0	0	0	0	0	0	0	0	0	0	0	0	0	0	0	0	0	0	0	0	0	0	0	0	0	0	0	0	0	0	2341	2312	2298	2298	2312	2327	2284	2257	2217	2217	2116	2093	2036	2025	2025	2036	2058	2070	2081	2081	2081	2081	2070	2058	2058	2058	2036	2025	2014	1993	1961	1961	1941	1931	1911	1902	1882	1864	1864	1892	1864	1845	1827	1792	1792	1801	1810	1911	1911	1993	2093	2178	2204	2257	2284	2298	2312	2298	2284	2270	2257	2243	2230	2217	2217	2204	2178	2128	2093	2036	1993	1951	1911	1902	1902	1902	1902	1902	1941	1972	2036	2128	2178	2230	2257	2270	2284	2284	2257	2230	2191	2165	2128	2104	2093	2081	2047	2025	2003	2003	1972	1941	1931	1921	1911	1902	1902	1892	1892	1892	1892	1892	1882	1882	1892	1892	1902	1911	1921	1941	1941	1961	1982	2014	2047	2058	2070	2081	2093	2116	2093	2070	2070	2047	2047	2058	2058	2058	2058	2058	2070	2165	2165	0	2128	2116	2104	2070	2058	2058	2058	2058	2070	2081	2081	2093	2104	2104	2104	2128	2257	2165	2165	2178	2204	2204	2217	2230	2230	2243	2243	2243	2243	2243	2243	2243	2257	2257	2257	2270	2298	2371	2386	2386	2327	2243	2165	2058	1941	1784	1680	1650	1650	1658	1665	1672	1680	1695	1711	1718	1734
1622	1629	1629	1622	1615	1615	1615	1622	1636	1650	1665	1665	1665	1650	1650	1643	1636	1636	1629	1629	1629	1622	1622	1615	1615	1615	1608	1608	1601	1601	1594	1594	1587	1587	1594	1594	1594	1594	1594	1594	1594	1594	1601	1601	1601	1594	1587	1587	1594	1594	1601	1608	1622	1622	0	2204	2204	0	0	2401	2356	2341	2312	2298	2284	2284	2270	2270	2270	2270	2257	2217	2116	1951	1951	0	1567	1481	1419	1419	1414	1408	1403	1398	1398	1393	1393	1393	1398	1403	1414	1419	1424	1430	1435	1435	1446	1458	1469	1487	1492	1504	1510	1517	1517	1510	1504	1492	1487	1481	1481	1481	1481	1481	1481	1481	1481	1487	1492	1492	1498	1504	1510	1523	1529	1542	1548	1561	1567	1574	1574	1574	1574	1574	1567	1554	1542	1523	1510	1487	1458	1435	1414	1393	1382	1372	1367	1367	1367	1382	1398	1424	1458	1481	1517	1548	1567	1594	1615	1643	1665	1695	1742	1818	1882	1941	1982	2003	2025	2036	2036	2025	1993	1961	1961	1902	1864	1836	1792	1767	1711	1672	1643	1622	1601	1594	1594	1594	1594	1594	1594	1601	1601	1601	1608	1608	1608	1608	1608	1601	1601	1594	1594	1587	1587	1581	1581	1581	1587	1587	1587	1594	1594	1601	1601	1608	1615	1615	1615	1629	1629	1629	1629	1629	1629	1629	1622	1622	1622	1622	1622	1629	1636	1643	1658	1672	1695	1718	1742	1767	1792	0	0	0	0	0	0	0	0	0	0	0	0	0	0	0	0	0	0	0	0	0	0	0	0	0	0	0	0	0	0	0	0	0	0	0	0	0	0	0	0	0	0	0	0	0	1529	1529	1529	1535	1548	1567	1581	1594	1608	1622	1636	1643	1650	1672	1672	1672	1672	1680	1680	1687	1695	1695	1703	1711	1711	1718	1726	1726	1734	1734	1742	1742	1742	1734	1734	1726	1726	1718	1718	1718	1711	1711	1711	1703	1703	1703	1703	1703	1703	1703	1703	1703	1695	1695	1695	1687	1687	1687	1687	1687	1687	1687	1687	1695	1703	1711	1711	1718	1726	1734	1742	1750	1759	1759	1767	1775	1775	1784	1784	1792	1801	1801	1810	1810	1827	1827	1845	1882	1931	1982	2025	2081	2081	2116	2141	2116	2070	2003	1951	1892	1836	1792	1750	1726	1711	1703	1703	1695	1695	1695	1695	1703	1703	1718	1734	1734	1742	1750	1759	1767	1775	1767	1759	1759	1750	1742	1734	1711	1695	1680	1665	1658	1650	1643	1643	1643	1658	1665	1672	1672	1672	1672	1672	1672	1672	1672	1680	1680	1687	1687	1703	1703	1703	1703	1711	1718	1726	1734	1734	1742	1742	1742	1742	1726	1726	1718	1711	1711	1703	1703	1703	1703	1703	1703	1703	1703	1703	1703	1703	1695	1695	1695	1687	1672	1665	1665	1658	1650	1643	1643	1643	1643	1665	1742	0	0	2230	2230	2312	2341	2386	2432	2432	2432	2432	2448	2432	2432	2432	2432	2432	0	0	0	0	0	0	0	0	0	0	0	0	0	0	0	0	0	0	0	0	0	0	0	0	0	2657	2657	2695	2695	2695	2676	2676	2676	2695	2695	2695	2714	2714	2734	2775	2817	2860	2904	2950	2997	3046	3096	3122	3175	3148	3122	2904	2904	0	0	0	0	0	0	0	0	0	0	0	0	0	0	0	0	0	0	0	0	0	0	0	0	0	0	0	0	0	0	0	0	0	0	0	0	0	0	0	0	0	0	0	0	0	0	0	0	0	2341	2312	2312	2312	2327	2341	2298	2257	2230	2230	2116	2093	2036	2025	2025	2036	2047	2058	2058	2058	2058	2058	2047	2047	2036	2025	2014	2003	1993	1961	1931	1921	1911	1892	1873	1854	1836	1836	1864	0	1775	1767	1759	1759	1767	1775	1792	0	0	0	0	0	2327	2327	2356	2371	2371	2327	2312	2284	2257	2257	2230	2230	2217	2178	2141	2081	2025	1972	1911	1873	1827	1827	1827	1836	1836	1836	1882	1921	1993	2093	2178	2257	2312	2341	0	2327	2312	2270	2230	2191	2153	2128	2104	2093	2058	2047	2025	2025	1972	1972	1961	1951	1931	1921	1911	1902	1902	1902	1892	1892	1892	1882	1882	1892	1902	1921	1931	1961	1972	2003	2036	2070	2104	2128	2141	2141	2141	2141	2093	2070	2070	2047	2047	2058	2058	2058	2058	2058	2070	0	0	0	0	0	0	2070	2058	2058	2058	2058	2070	2081	2081	2093	2104	2104	2104	2128	2025	2025	2165	2178	2204	2204	2217	2230	2230	2243	2230	2230	2243	2243	2243	2257	2270	2298	2312	2327	2401	2464	2531	2566	2754	2497	2417	2284	2165	1993	1854	1726	1703	1680	1672	1672	1680	1695	1703	1718	1726
1581	1567	1561	1554	1548	1548	1548	1554	1574	1574	1601	1615	1629	1629	1629	1622	1615	1615	1629	1622	1622	1622	1622	1615	1615	1608	1608	1608	1601	1594	1594	1587	1587	1587	1587	1587	1594	1594	1594	1594	1601	1601	1608	1601	1601	1594	1587	1587	1594	1594	1601	1608	1622	1622	1650	2204	2204	0	2464	2448	2401	2371	2341	2327	2327	2312	2298	2298	2298	2298	2284	2284	2191	2036	2036	0	0	1510	1441	1424	1419	1419	1414	1408	1408	1403	1403	1408	1408	1408	1419	1419	1424	1430	1435	1435	1441	1452	1463	1487	1492	1492	1498	1504	1510	1517	1510	1510	1498	1498	1498	1504	1504	1504	1504	1504	1510	1517	1517	1523	1523	1529	1535	1542	1554	1561	1574	1574	1581	1587	1587	1587	1587	1581	1574	1567	1548	1535	1517	1498	1475	1452	1430	1408	1393	1382	1377	1377	1377	1387	1398	1424	1452	1481	1517	1548	1567	1594	1615	1643	1665	1695	1742	1810	1873	1931	1972	1993	2014	2025	2025	2003	1972	1941	1911	1882	1854	1827	1792	1759	1718	1687	1658	1636	1615	1608	1601	1601	1594	1594	1601	1608	1608	1615	1615	1615	1622	1615	1608	1608	1601	1601	1594	1594	1587	1587	1587	1587	1587	1594	1594	1594	1601	1601	1608	1608	1615	1622	1622	1629	1629	1629	1636	1636	1636	1636	1629	1629	1629	1636	1636	1643	1658	1672	1687	1703	1726	1750	1775	0	0	0	0	0	0	0	0	0	0	0	0	0	0	0	0	0	0	0	0	0	0	0	0	0	0	0	0	0	0	0	0	0	0	0	0	0	0	0	0	0	0	0	0	0	0	0	1523	1523	1523	1529	1535	1554	1561	1574	1587	1608	1615	1629	1650	1658	1658	1658	1665	1672	1672	1687	1695	1703	1703	1718	1718	1726	1734	1742	1742	1742	1750	1750	1750	1742	1734	1734	1726	1718	1718	1718	1711	1711	1703	1703	1703	1695	1695	1695	1695	1695	1695	1695	1695	1695	1695	1687	1687	1687	1687	1687	1687	1687	1695	1695	1703	1711	1711	1718	1726	1734	1742	1750	1759	1767	1775	1775	1784	1784	1784	1792	1801	1810	1810	1818	1836	1845	1864	1902	1951	2003	2058	2116	2116	2141	2165	2141	2070	2014	1951	1882	1827	1775	1742	1718	1711	1703	1695	1695	1695	1695	1695	1695	1703	1711	1718	1726	1726	1734	1750	1750	1750	1742	1742	1742	1734	1726	1718	1703	1695	1680	1665	1658	1650	1650	1650	1650	1672	1680	1687	1695	1695	1695	1703	1695	1695	1695	1695	1695	1695	1703	1703	1703	1703	1703	1711	1711	1718	1726	1734	1734	1734	1734	1734	1726	1726	1718	1711	1703	1703	1703	1695	1695	1695	1695	1695	1695	1695	1695	1695	1687	1687	1687	1672	1665	1658	1650	1650	1643	1643	1636	1636	1636	1650	0	0	0	0	0	0	0	2448	2448	2432	2432	2432	2448	2432	2432	2432	2432	0	0	0	0	0	0	0	0	0	0	0	0	0	0	0	0	0	0	0	0	0	0	0	0	0	0	0	0	0	2695	2695	2676	2676	2676	2676	2676	2695	2695	2714	2734	2754	2796	2838	2882	2927	2973	3046	3096	3122	0	0	0	0	0	0	0	0	0	0	0	0	0	0	0	0	0	0	0	0	0	0	0	0	0	0	0	0	0	0	0	0	0	0	0	0	0	0	0	0	0	0	0	0	0	0	0	0	0	0	0	0	0	0	2356	2341	2341	2341	2356	2371	2327	2270	2230	2178	2141	2104	2047	2025	2014	2014	2014	2025	2025	2025	2025	2025	2025	2014	2003	2003	1982	1972	1961	1921	1902	1882	1864	1845	1827	1801	1775	1775	0	1742	1726	1711	1711	1711	1718	1726	1742	0	0	0	0	0	0	0	0	0	0	0	0	0	0	2257	2230	2230	2204	2178	2104	2081	1982	1921	1854	1792	1775	1759	1750	1750	1767	1767	1801	1845	1921	2025	2128	2204	2284	2356	2386	2386	2386	0	0	2178	2141	2141	0	2081	2058	2047	2025	2025	2014	2003	1993	1972	1961	1941	1931	1921	1911	1902	1902	1882	1882	1873	1873	1882	1892	1911	1941	1972	1993	2025	2070	2128	2153	2191	2191	2191	2217	0	0	0	0	0	0	0	0	0	0	0	0	0	0	0	0	0	0	0	0	0	0	0	0	0	0	0	0	0	0	0	2025	2025	0	0	0	0	0	0	0	0	2230	2230	2257	2257	2270	2284	2298	2341	2371	2432	2497	2601	2927	2754	2754	2734	2734	2775	0	0	0	1892	1792	1742	1703	1695	1695	1695	1695	1711	1718
1548	1535	1529	1529	1548	1548	1548	1554	1574	1574	1601	1608	1608	1622	1615	1615	1608	1608	1622	1622	1615	1615	1615	1615	1615	1608	1608	1608	1601	1594	1594	1581	1581	1581	1587	1587	1587	1601	1601	1601	1608	1615	1615	1615	1608	1601	1601	1594	1594	1594	1601	1608	1622	1636	1650	0	0	0	2464	2464	2417	2401	2371	2371	2341	2341	2327	2327	2327	2312	2312	2312	2257	2104	2104	0	0	1542	1452	1430	1424	1424	1419	1419	1414	1414	1408	1408	1414	1419	1419	1424	1424	1430	1435	1441	1441	1452	1463	1469	1487	1487	1487	1492	1498	1504	1510	1510	1510	1510	1523	0	0	1529	1529	1529	1535	1535	1542	1548	1548	1554	1554	1561	1567	1581	1587	1594	1594	1594	1594	1594	1594	1587	1581	1561	1548	1529	1510	1492	1475	1452	1430	1414	1398	1382	1382	1377	1377	1387	1398	1424	1452	1481	1523	1561	1587	1629	1629	1658	1687	1711	1759	1810	1873	1931	1961	1993	2003	2014	2003	1982	1951	1921	1892	1873	1845	1818	1792	1759	1718	1687	1665	1643	1622	1615	1601	1601	1601	1601	1601	1608	1608	1615	1622	1622	1622	1622	1615	1608	1601	1601	1594	1594	1594	1594	1594	1594	1594	1594	1594	1601	1601	1608	1608	1608	1615	1622	1629	1636	1636	1643	1643	1643	0	0	0	0	0	0	0	0	0	0	0	0	0	0	0	0	0	0	0	0	0	0	0	0	0	0	0	0	0	0	0	0	0	0	0	0	0	0	0	0	0	0	0	0	0	0	0	0	0	0	0	0	0	0	0	0	0	0	0	0	0	1517	1517	1517	1517	1523	1535	1542	1548	1561	1567	1587	1601	1629	1636	1643	1650	1650	1658	1665	1672	1680	1695	1703	1718	1726	1734	1742	1742	1759	1759	1759	1759	1759	1750	1750	1742	1734	1734	1726	1718	1718	1711	1703	1703	1703	1695	1695	1695	1695	1695	1695	1695	1695	1695	1695	1695	1687	1687	1687	1687	1687	1687	1695	1695	1695	1703	1711	1718	1726	1734	1742	1750	1759	1767	1775	1784	1784	1792	1792	1801	1801	1810	1818	1827	1836	1845	1854	1882	1921	1982	2047	2093	2141	2178	2178	2191	2141	2081	2003	1941	1882	1827	1775	1742	1718	1703	1703	1695	1695	1687	1687	1687	1687	1695	1703	1711	1711	1718	1718	1726	1734	1734	1726	1726	1718	1718	1718	1711	1695	1687	1672	1672	1665	1658	1658	1658	1658	1680	1695	1703	1711	1711	1711	1711	1711	1711	1703	1703	1703	1703	1703	1703	1703	1703	1703	1703	1711	1718	1718	1726	1734	1734	1734	1734	1726	1726	1718	1711	1703	1703	1703	1695	1695	1695	1695	1695	1695	1695	1695	1687	1687	1680	1680	1672	1658	1650	1650	1643	1636	1636	1636	1629	1629	1636	0	0	0	0	0	0	0	0	2178	2178	2178	2178	0	0	0	0	0	0	0	0	0	0	0	0	0	0	0	0	0	0	0	0	0	0	0	0	0	0	0	0	0	0	0	0	0	0	0	0	0	2676	2676	2676	2676	2695	2695	2714	2714	2754	2775	2817	2860	2904	2973	0	0	0	0	0	0	0	0	0	0	0	0	0	0	0	0	0	0	0	0	0	0	0	0	0	0	0	0	0	0	0	0	0	0	0	0	0	0	0	0	0	0	0	0	0	0	0	0	0	0	0	0	0	0	0	0	0	2371	2356	2356	2356	2386	2371	2312	2257	2204	2178	2116	2070	2014	1993	1982	1982	1993	1993	1993	1982	1982	1982	1982	1972	1972	2003	1982	1931	1911	1892	1864	1845	1818	1801	1784	1750	1742	1718	1711	1703	1687	1672	1672	1672	1672	1726	1742	0	0	0	0	0	0	0	0	0	0	0	0	0	0	2230	2217	2204	2191	2141	2047	1961	1961	1827	1827	1792	1775	1672	1672	1680	1695	1695	1718	1845	1921	2025	2128	2165	2284	2356	2386	2386	2386	0	0	2165	2141	2141	0	2081	2058	2047	2047	2036	2036	2025	2014	2003	1993	1972	1951	1931	1921	1902	1892	1873	1864	1854	1854	1854	1864	1902	1931	1982	2014	2081	2153	2230	2284	2312	2257	2217	2217	0	0	0	0	0	1836	1836	0	0	0	0	0	0	0	0	0	0	0	0	0	0	0	0	0	0	0	0	0	0	0	0	0	0	0	0	0	0	0	0	0	2284	2284	2298	2284	2284	2312	2327	2371	2417	2448	2638	2775	2927	2927	2927	2973	2997	3021	3021	3257	0	0	0	0	0	1759	1726	1695	1695	1695	1703	1711
1523	1517	1517	1504	1498	1498	1498	1523	1523	0	0	1608	1608	1622	1601	1601	1601	1601	1615	1615	1615	1615	1608	1608	1608	1601	1601	1601	1594	1587	1587	1581	1581	1581	1581	1587	1587	1601	1601	1601	1608	1622	1622	1622	1622	1615	1615	1608	1608	1608	1615	1629	1643	1672	1695	0	0	0	2464	2448	2417	2417	2401	2386	2371	2356	2356	2341	2341	2327	2327	2327	2284	2153	2153	0	0	1567	1469	1435	1435	1430	1430	1424	1419	1419	1414	1414	1419	1419	1424	1424	1424	1430	1441	1441	1441	1452	1458	1463	1469	1475	1487	1487	1492	1498	1504	1510	1510	1510	1523	1542	1554	1554	1554	1554	1561	1561	1567	1567	1574	1581	1581	1587	1594	1601	1601	1608	1601	1601	1601	1601	1594	1587	1574	1561	1542	1529	1510	1492	1475	1458	1441	1424	1408	1398	1393	1393	1393	1398	1414	1435	0	0	0	0	0	0	0	0	1742	1742	1775	1818	1882	1931	1961	1993	1993	1993	1982	1961	1931	1902	1873	1854	1836	1810	1792	1767	1734	1703	1672	1658	1636	1622	1608	1608	1601	1601	1608	1608	1615	1622	1622	1629	1629	1622	1615	1608	1608	1601	1601	1594	1594	1594	1594	1594	1594	1594	1594	1601	1601	1615	1615	1622	1629	1629	1636	1643	1643	1658	0	0	0	0	142	142	143	143	143	143	143	143	143	143	143	143	143	0	143	143	143	143	0	0	0	0	0	0	0	0	0	0	0	0	0	0	0	0	0	0	0	0	0	0	0	0	0	0	0	0	0	0	0	0	0	0	0	0	0	0	0	1542	1535	1517	1517	1517	1517	1517	1529	1535	1542	1548	1561	1587	1601	1608	1622	1629	1636	1636	1650	1665	1672	1680	1695	1711	1726	1726	1742	1750	1759	1767	1767	1775	1775	1767	1767	1759	1759	1742	1742	1734	1726	1718	1718	1703	1703	1703	1695	1695	1695	1695	1695	1695	1695	1695	1695	1695	1695	1695	1695	1695	1687	1687	1687	1695	1703	1703	1718	1718	1726	1734	1742	1750	1767	1775	1775	1784	1792	1801	1810	1810	1818	1818	1827	1836	1836	1854	1864	1873	1902	1951	2014	2070	2116	2178	2217	2217	2217	2153	2081	2003	1941	1873	1818	1767	1734	1718	1703	1703	1695	1695	1687	1687	1687	1687	1687	1695	1695	1703	1703	1703	1711	1711	1711	1703	1703	1703	1703	1703	1695	1687	1680	1672	1672	1665	1665	1665	1665	1672	1695	1703	1718	1726	1726	1726	1734	1726	1718	1711	1711	1711	1711	1703	1703	1703	1703	1703	1703	1711	1711	1718	1726	1726	1734	1734	1734	1726	1726	1718	1711	1703	1703	1703	1695	1695	1695	1695	1695	1695	1687	1687	1687	1680	1672	1672	1665	1650	1643	1643	1636	1636	1636	1629	1629	1629	1629	0	0	0	0	0	0	1941	1941	1961	1961	1972	1972	1961	1941	1921	1921	0	0	0	0	0	0	0	0	0	0	0	0	0	0	0	0	0	0	0	0	0	0	0	0	0	0	0	0	0	0	0	0	0	0	2676	2676	2676	2676	2695	2714	2714	2754	2775	2817	2860	2904	0	0	0	0	0	0	0	0	0	0	0	0	0	0	0	0	0	0	0	0	0	0	0	0	0	0	0	0	0	0	0	0	0	0	0	0	0	0	0	0	0	0	0	0	0	0	0	0	0	0	0	0	0	0	0	0	0	0	2371	2356	2356	2371	2386	2371	2312	2257	2204	2204	2104	2070	2014	1993	1982	1982	1982	1972	1972	1961	1961	1951	1951	1941	1941	1941	1911	1902	1882	1854	1827	1810	1784	1759	1734	1711	1695	1680	1665	1658	1650	1643	1643	1643	1672	0	0	0	0	0	0	0	0	0	0	0	0	0	0	2257	2243	2230	2204	2204	2178	2104	2003	1961	1961	1827	1687	1636	1615	1601	1601	1601	1608	1636	1636	1665	1726	0	2081	2081	2270	2401	2432	2371	2371	0	0	2165	2093	2081	2081	2081	2058	2047	2047	2058	2047	2036	2036	2025	2003	1982	1961	1941	1921	1892	1873	1845	1836	1818	1818	1818	1818	1854	1902	1993	2025	2070	2153	2217	2284	2312	2312	0	0	0	0	0	0	0	1836	1836	0	0	0	0	0	0	0	0	0	0	0	0	0	0	0	0	0	0	0	0	0	1818	1818	0	1836	1836	1845	1864	0	0	2128	2128	2243	2284	2284	2298	2312	2341	2371	2401	2448	2497	2548	2638	2775	2927	3021	3122	3202	3229	3229	3257	3257	3202	3202	0	0	0	0	1742	1695	1687	1687	1703	1703
1517	1504	1498	1487	1475	1475	1475	1481	1523	0	0	0	0	0	1601	1601	1601	1601	1615	1608	1608	1601	1601	1601	1594	1594	1587	1587	1587	1581	1581	1574	1574	1574	1581	1587	1587	1601	1601	1608	1615	1629	1636	1636	1643	1629	1629	1629	1622	1622	1629	1643	1672	1718	1767	1902	0	0	0	2386	2386	2386	2386	2371	2371	2371	2356	2356	2356	2341	2341	2341	2327	2204	2070	2070	0	1587	1487	1441	1441	1441	1435	1430	1424	1419	1419	1419	1419	1419	1424	1424	1430	1430	1441	1441	1441	1452	1458	1463	1469	1475	1481	1487	1487	1498	1504	1504	1517	1517	1529	1542	1554	1561	1574	1581	1581	1587	1594	1601	1601	1608	1608	1615	1615	1615	1622	1622	1615	1608	1608	1601	1594	1587	1574	1554	1542	1523	1510	1492	1475	1463	1446	1430	1424	1414	1408	1408	1408	1419	1430	0	0	0	0	0	0	0	0	0	0	0	0	0	0	0	0	1993	1982	1972	1951	1931	1902	1873	1854	1836	1818	1810	1792	1767	1742	1718	1687	1665	1643	1629	1615	1608	1608	1608	1608	1615	1622	1622	1629	1629	1629	1629	1615	1615	1608	1608	1601	1594	1594	1594	1594	1594	1594	1594	1594	1594	1601	1601	1608	1615	1615	1622	1636	1643	1643	0	0	143	143	143	142	142	143	143	143	143	143	143	143	143	143	143	143	143	143	143	143	143	143	0	0	0	0	0	0	0	0	0	0	0	0	0	0	0	0	0	0	0	0	0	0	0	0	0	0	0	0	0	0	0	0	0	0	0	0	0	1535	1535	1529	1517	1510	1510	1510	1517	1517	1523	1529	1535	1561	1574	1594	1601	1615	1622	1629	1636	1643	1658	1672	1687	1703	1718	1726	1734	1750	1759	1767	1775	1784	1792	1792	1792	1792	1775	1767	1759	1750	1742	1734	1726	1718	1711	1711	1703	1703	1695	1695	1695	1695	1695	1695	1695	1695	1703	1703	1695	1695	1695	1695	1695	1695	1703	1711	1718	1726	1734	1750	1750	1767	1775	1784	1792	1801	1810	1810	1818	1827	1827	1836	1836	1836	1854	1854	1864	1873	1892	1921	1982	2047	2104	2153	2204	2243	2243	2230	2165	2081	2003	1931	1864	1810	1759	1734	1718	1711	1703	1703	1695	1687	1687	1680	1680	1680	1687	1687	1687	1687	1687	1695	1695	1695	1687	1687	1687	1687	1687	1687	1680	1680	1672	1672	1680	1672	1672	1680	1680	1711	1726	1734	1742	1742	1742	1742	1742	1734	1718	1718	1711	1711	1711	1703	1703	1703	1703	1703	1711	1711	1718	1718	1726	1734	1734	1734	1734	1726	1718	1718	1711	1703	1703	1695	1695	1695	1695	1695	1695	1687	1687	1680	1680	1672	1665	1658	1650	1643	1636	1636	1629	1629	1622	1622	1622	1622	1622	0	0	0	0	1726	1726	1750	1759	1775	1792	1792	1784	1784	1921	1921	0	0	0	0	0	0	0	0	0	0	0	0	0	0	0	0	0	0	0	0	0	0	0	0	0	0	0	0	0	0	0	0	0	0	2676	2676	2676	2676	2695	0	0	0	0	0	0	0	0	0	0	0	0	0	0	0	0	0	0	0	0	0	0	0	0	0	0	0	0	0	0	0	0	0	0	0	0	0	0	0	0	0	0	0	0	0	0	0	0	0	0	0	0	0	0	0	0	0	0	0	0	0	0	0	0	0	2417	2371	2371	2371	2386	2371	2312	2257	2217	2165	2104	2070	2014	1993	1982	1982	1982	1972	1961	1961	1951	1941	1931	1921	1911	1902	1882	1882	1854	1827	1801	1775	1750	1726	1703	1680	1672	1658	1650	1643	1636	1629	1629	1643	0	0	0	0	0	0	0	0	0	0	0	0	0	0	0	2257	2230	2230	2204	2191	2141	2058	1931	1931	0	1658	1601	1567	1548	1535	1535	1535	1548	1554	1554	1581	1636	0	2081	1931	1931	2025	2464	2371	2371	0	0	0	2093	2081	2081	2058	2047	2047	2047	2047	2058	2047	2047	2036	2014	1993	1972	1941	1911	1873	1836	1810	1775	1750	1742	1742	1750	1792	1854	0	2047	2047	2128	2217	2284	2312	2312	0	0	0	0	0	0	0	0	0	0	0	0	0	0	0	0	0	0	0	0	0	0	0	0	0	0	0	1784	1784	1792	1792	1792	1792	1792	1792	1792	1810	0	0	2128	2128	2243	2312	2341	2356	2371	2386	2448	2481	2548	2601	2657	2796	2950	3096	3229	3345	3405	3501	3534	3501	3375	3202	3202	2950	2950	0	0	1810	1695	1687	1687	1687	1687
1510	1492	1487	1475	1463	1463	1463	1469	1487	1492	0	0	1581	1581	0	0	1601	1601	1608	1608	1601	1594	1594	1587	1581	1581	1581	1581	1581	1581	1574	1574	1574	1574	1581	1581	1587	1601	1608	1608	1622	1636	1650	1658	1665	1658	1658	1665	1665	1672	1680	1703	1742	1775	1827	1902	2025	2128	2230	2312	2341	2356	2356	2356	2356	2356	2356	2356	2341	2341	2356	2356	2356	2257	2070	2070	0	0	1517	1458	1446	1446	1441	1441	1430	1430	1424	1424	1424	1430	1435	1435	1435	1441	1441	1446	1452	1452	1458	1463	1469	1475	1481	1481	1487	1492	1498	1504	1510	1517	1529	1548	1561	1581	1594	1608	1615	1622	1629	1629	1636	1636	1636	1643	1643	1643	1643	1636	1629	1622	1615	1608	1601	1587	1567	1554	1535	1523	1504	1492	1481	1463	1452	1441	1430	1424	1424	1424	0	0	0	0	0	0	0	0	0	0	0	0	0	0	0	0	0	0	0	0	1982	1972	1951	1931	1902	1873	1854	1836	1818	1810	1792	1784	1750	1726	1695	1672	1643	1636	1622	1615	1615	1608	1608	1615	1622	1622	1629	1629	1629	1629	1615	1615	1608	1608	1601	1601	1601	1594	1594	1594	1594	1594	1594	1594	1594	1601	1601	1615	1615	1622	0	0	143	143	143	143	143	143	143	143	143	143	143	143	143	143	143	143	143	143	143	143	143	143	143	143	143	143	143	143	0	0	0	0	0	0	0	0	0	0	0	0	0	0	0	0	0	0	0	0	0	0	0	0	0	0	0	0	0	0	0	0	0	0	1535	1535	1523	1517	1510	1504	1504	1504	1510	1510	1523	1535	1542	1561	1574	1594	1601	1615	1629	1636	1643	1658	1672	1687	1703	1718	1734	1742	1759	1767	1784	1792	1801	1801	1801	1810	1801	1801	1784	1775	1767	1759	1742	1734	1726	1718	1711	1711	1703	1695	1687	1687	1687	1687	1687	1695	1703	1703	1703	1703	1703	1703	1703	1703	1711	1718	1726	1734	1742	1759	1767	1775	1784	1792	1801	1801	1810	1818	1827	1836	1845	1845	1845	1854	1864	1864	1873	1892	1902	1921	1961	2025	2093	2153	2204	2257	2284	2298	2257	2165	2081	1993	1921	1854	1792	1750	1726	1711	1703	1703	1703	1695	1687	1680	1680	1672	1672	1680	1680	1680	1680	1680	1680	1680	1672	1672	1672	1672	1672	1672	1672	1672	1665	1665	1672	1680	1680	1687	1687	1695	1718	1734	1742	1750	1759	1750	1750	1742	1734	1726	1718	1711	1711	1711	1703	1703	1703	1703	1703	1711	1711	1718	1718	1726	1734	1742	1742	1734	1734	1726	1718	1711	1703	1703	1703	1703	1695	1695	1695	1695	1687	1687	1680	1680	1672	1665	1658	1650	1643	1636	1636	1629	1629	1622	1622	1622	1622	1622	1629	1636	1650	1650	1658	1665	1665	1672	1672	1680	1680	1680	1767	1767	1750	1750	1750	1759	0	0	0	0	0	0	0	0	0	0	0	0	0	0	0	0	0	0	0	0	0	0	0	0	0	0	0	0	0	0	0	0	0	0	0	0	0	0	0	0	0	0	0	0	0	0	0	0	0	0	0	0	0	0	0	0	0	0	0	0	0	0	0	0	0	0	0	0	0	0	0	0	0	0	0	0	0	0	0	0	0	0	0	0	0	0	0	0	0	0	0	0	0	0	0	0	0	0	0	0	0	2417	2401	2386	2386	2401	2386	2327	2270	2217	2165	2128	2093	2047	2014	1993	1993	1982	1972	1961	1951	1941	1931	1921	1911	1902	1882	1864	1845	1827	1801	1767	1742	1718	1695	1672	1658	1650	1636	1636	1636	1629	1629	1629	0	0	0	0	0	0	0	0	0	0	0	0	0	0	0	0	2257	2230	2230	2178	2141	2081	1972	1845	1734	1734	1658	1529	1492	1481	1481	1475	1475	1475	1475	1504	1504	1542	1601	1650	1810	1810	1892	0	0	0	0	2128	2128	2093	2081	2081	2058	2047	2047	2047	2047	2058	2058	2047	2036	2025	2014	1972	1931	1892	1854	1818	1784	1750	1718	1711	1711	1718	1759	1818	1882	1951	2025	2116	2204	2270	2284	2257	2257	0	0	0	0	0	0	0	0	0	0	0	0	0	0	0	0	0	0	0	0	0	0	0	0	0	0	1775	1775	1792	1792	1792	1792	1792	1792	1792	1810	0	0	2165	2165	2341	2464	2464	2464	2481	2531	2583	2620	2676	2734	2796	2950	3096	3229	3375	3501	3568	3637	3673	3673	3673	3602	3375	2950	2860	2860	0	1810	1810	1695	1687	1687	1680
1504	1492	1487	1475	1463	1463	1463	1469	1487	1492	0	0	1581	1581	0	0	0	1608	1608	1608	1594	1594	1594	1581	1581	1581	1581	1581	1581	1574	1574	1574	1574	1574	1581	1581	1587	1601	1608	1615	1629	1643	1665	1672	1680	1695	1703	1703	1711	1718	1726	1759	1784	1827	1873	1931	2025	2128	2204	2270	2298	2298	2312	2312	2327	2327	2327	2341	2341	2341	2341	2341	2356	2284	2116	2116	0	0	1554	1481	1458	1458	1452	1452	1441	1441	1430	1430	1430	1435	1441	1441	1441	1441	1452	1452	1458	1458	1463	1463	1469	1475	1475	1481	1487	1487	1487	1498	1504	1510	1529	1542	1567	1587	1608	1629	1643	1643	1658	1658	1665	1665	1665	1665	1665	1658	1658	1650	1636	1629	1622	1615	1601	1587	1567	1548	1529	1517	1504	1492	1481	1463	1452	1441	1435	1435	0	0	0	0	0	0	0	0	0	0	0	0	0	0	0	0	0	0	0	0	0	0	0	0	0	0	0	0	0	0	0	0	0	0	0	0	0	0	0	0	0	0	0	1615	1615	1622	1622	1629	1636	1636	1636	1629	1622	1615	1615	1608	1608	1601	1601	1594	1594	1594	1594	1594	1594	1594	1594	1601	1601	0	0	0	0	143	143	143	143	143	143	143	143	143	143	143	143	143	143	143	143	143	143	143	143	143	143	143	143	143	143	143	143	143	143	0	0	0	0	0	0	0	0	0	0	0	0	0	0	0	0	0	0	0	0	0	0	0	0	0	0	0	0	0	0	0	0	0	1535	1535	1523	1517	1510	1504	1504	1504	1510	1510	1523	1529	1542	1554	1574	1587	1601	1615	1629	1636	1650	1665	1680	1695	1711	1726	1742	1750	1767	1775	1792	1792	1810	1810	1810	1810	1810	1801	1792	1775	1775	1767	1750	1742	1726	1718	1718	1711	1703	1695	1687	1687	1687	1687	1687	1695	1695	1703	1711	1711	1718	1718	1718	1726	1726	1734	1750	1759	1767	1775	1784	1792	1801	1810	1818	1818	1827	1836	1845	1854	1864	1864	1873	1873	1882	1892	1902	1911	1931	1951	2014	2081	2141	2204	2270	2298	2312	2312	2257	2165	2081	1982	1902	1836	1784	1734	1718	1711	1703	1703	1703	1687	1687	1680	1672	1672	1665	1665	1665	1665	1665	1658	1658	1658	1658	1658	1650	1650	1650	1658	1658	1658	1658	1658	1665	1680	1680	1680	1687	1695	1718	1734	1742	1750	1750	1750	1750	1742	1734	1726	1718	1718	1711	1711	1711	1711	1711	1711	1711	1711	1711	1718	1726	1726	1734	1742	1742	1734	1734	1734	1726	1718	1711	1711	1703	1703	1703	1703	1695	1695	1695	1687	1680	1680	1672	1665	1658	1650	1643	1643	1636	1636	1629	1629	1629	1622	1622	1629	1629	1629	1636	1636	1636	1636	1636	1643	1643	1680	1680	1665	1665	1658	1658	1672	1687	1703	1711	1703	1703	0	0	0	0	0	0	0	0	0	0	0	0	0	0	14408	14408	13874	13874	0	0	0	0	0	0	0	0	0	0	0	0	0	0	0	0	0	0	0	0	0	0	0	0	0	0	0	0	0	0	0	0	0	0	0	0	0	0	0	0	0	0	0	0	0	0	0	0	0	0	0	0	0	0	0	0	0	0	0	0	0	0	0	0	0	0	0	0	0	0	0	0	0	0	0	0	0	0	0	0	2432	2417	2417	2417	2417	2386	2341	2298	2243	2191	2153	2116	2081	2047	2025	2014	2003	1993	1972	1951	1941	1931	1921	1902	1873	1854	1836	1810	1792	1767	1742	1711	1687	1665	1650	1636	1629	1622	1622	1615	1615	1629	0	0	0	0	0	0	0	0	0	0	0	0	0	0	0	0	0	2243	2230	2230	2165	2116	2025	1902	1767	1734	1734	1517	1469	1441	1435	1435	1430	1424	1419	1419	1435	1435	1458	1452	1452	1452	1810	1892	0	0	0	0	2128	2070	2036	2036	2036	2036	2025	2025	2025	2047	2058	2058	2058	2047	2036	2014	1972	1911	1864	1827	1784	1750	1718	1687	1672	1672	1680	1726	1792	1882	1931	2014	2093	2165	2230	2230	2204	2165	2104	2104	0	0	0	0	0	0	0	0	0	0	0	0	0	0	0	0	0	0	0	0	0	0	0	0	1775	1775	0	0	0	0	0	0	0	0	0	0	0	0	0	0	2566	2566	2620	2676	0	0	2904	2904	2973	3070	3202	3286	3375	3469	3534	3602	3637	3673	3673	3673	3637	3257	2860	2860	0	1864	1864	0	1687	1680	1672
