4306	4356	4407	4460	4568	4568	4625	4625	4683	4683	4683	4742	4742	4683	4683	4683	4625	4625	4568	4568	4568	4568	4568	4568	4625	4460	4407	4356	4356	4306	4306	4306	4209	4209	4209	4209	4209	4162	4162	4116	4072	4072	4072	4116	4162	4209	4209	4209	4209	4257	4306	4356	4356	4209	4209	4257	4257	4116	4072	3985	3902	3822	3746	3673	3602	3568	3534	3469	3469	3469	3469	3501	3534	3602	3637	3709	3784	3862	3902	3985	4072	4116	4209	4306	4356	4407	4460	4513	4460	4460	4356	4257	4209	4209	4162	4162	4116	4116	4072	4028	4028	3985	3943	3902	3822	3822	3784	3784	3784	3673	3673	3673	3673	3673	3637	3637	3673	3673	3746	3746	3709	3709	3709	3673	3673	3637	3602	3568	3534	3534	3501	3501	3437	3405	3405	3375	3315	3315	3286	3257	3257	3257	3286	3315	3375	3437	3501	3602	3709	3784	3862	3902	3943	3985	4072	4072	4072	4072	4072	4072	4072	4072	4116	4116	4072	4072	4072	4072	4028	4028	3985	3943	3943	3902	3862	3862	3862	3862	3862	3862	3902	3902	3943	3985	4116	4162	4162	4306	4407	4407	4513	4407	4356	4356	4257	4162	4028	3943	3862	3784	3709	3673	3602	3534	3437	3375	3315	3257	3202	3202	3229	3229	3257	3257	3405	3602	3822	3985	4116	4209	4209	4257	4306	4356	4407	4513	4625	4625	4625	4683	4683	4683	4625	4625	4568	4513	4460	4407	4356	4356	4356	4356	4356	4356	4306	4306	4356	4356	4356	4356	4356	4356	4356	4356	4257	4209	4116	3985	3902	3784	3709	3602	3501	3437	3315	3257	3175	3096	3046	2950	2882	2882	3070	3096	0	0	0	0	0	0	0	0	0	0	0	0	0	0	0	0	3148	3148	3345	3534	4162	4162	4513	4995	5351	5676	5509	5276	4995	4865	4257	4162	4072	3943	3943	3943	3943	3943	4028	4072	4116	4072	4072	4116	4162	4209	4257	4209	4209	4257	4306	4356	4356	4306	4257	4209	4209	4162	4116	4072	4028	3943	3902	3822	3746	3709	3637	3602	3602	3602	3602	3637	3673	3673	3709	3709	3746	3746	3746	3709	3673	3673	3637	3568	3469	3405	3315	3229	3175	3096	3070	3046	3046	3046	3046	3046	3070	3096	3122	3148	3122	3096	3070	3070	3046	3046	0	2950	2927	2927	3046	3257	3501	3784	3943	4356	4742	5276	5946	5946	5853	5763	5763	5676	5591	5591	5591	5591	5429	5276	5203	5132	4995	4929	4803	4742	4625	4513	4460	4460	4407	4356	4356	4306	4306	4356	4356	4407	4407	4460	4460	4513	4568	4683	4742	4742	4865	4929	4995	5062	5132	5132	5203	5203	5351	5351	5429	5429	5509	5591	5591	5591	5676	5676	5676	5676	5591	5591	5591	5591	5591	5509	5429	5429	5429	5509	5509	5591	5591	5591	5591	5676	5676	5676	5676	5676	5676	5676	5676	5676	5676	5676	5676	5509	5509	5351	5203	5062	4865	4683	4513	4306	4116	3985	3822	3784	3709	3673	3673	3673	3673	3746	3822	3862	3985	3985	4072	4116	4162	4162	4162	4162	4116	4116	4116	4116	4209	4306	4407	4625	4803	4995	5276	5509	5676	5763	5853	6042	6141	6141	6042	5853	5676	5591	5351	5203	5062	4929	4865	4803	4742	4742	4742	4742	4742	4742	4742	4742	4683	4625	4568	4513	4513	4513	4513	4513	4513	4568	4568	4742	4742	4865	4803	4803	4742	4625	4460	4356	4209	4072	3985	3943	3784	3746	3709	3709	3746	3746	3822	3902	4072	4072	4162	4257	4356	4407	4407	4407	4407	4356	4356	4356	4356	4306	4306	4306	4257	4257	4209	4162	4116	4072	4028	3985	3943	3902	3822	3746	3709	3637	3602	3568	3501	3469	3437	3437	3375	3375	3375	3375	3375	3405	3437	3469	3534	3673	3784	3943	4162	4407	4625	4803	4929	5062	5062	5062	4995	4865	4803	4683	4568	4460	4407	4356	4306	4257	4257	4257	4257	4257	4257	4257	4257	4257	4257	4257	4209	4209	4162	4162	4162	4162	4162	4209	4209	4257	4306	4356	4460	4568	4568	4683	4683	4683	4683	4683	4625	4513	4460	4407	4407	4407	4356	4306	4257	4257	4257	4209	4116	4072	4072	3943	3902	3822	3822	3784	3784	3784	3822	3822	3862	3902	3985	4028	4257	4356	4460	4568	4625	4742	4742	4742	4803	4803	4803	0
4306	4356	4407	4460	4460	4513	4568	4568	4625	4625	4683	4683	4683	4683	4683	4683	4683	4625	4625	4625	4625	4625	4625	4625	4625	4568	4513	4513	4407	4407	4407	4356	4306	4306	4306	4257	4257	4257	4209	4162	4116	4072	4072	4116	4162	4209	4209	4209	4209	4257	4306	4356	4356	4306	4306	4306	4306	4209	4162	4072	3943	3862	3822	3746	3673	3602	3568	3534	3501	3501	3501	3501	3534	3568	3637	3709	3746	3822	3902	3943	4028	4116	4209	4257	4306	4356	4460	4513	4513	4460	4407	4306	4257	4257	4209	4209	4209	4162	4162	4116	4116	4072	3985	3943	3902	3862	3784	3784	3784	3673	3673	3673	3673	3673	3637	3637	3673	3673	3746	3709	3709	3709	3709	3709	3673	3637	3602	3568	3534	3534	3501	3501	3437	3405	3375	3345	3315	3286	3257	3229	3229	3257	3257	3315	3375	3405	3501	3602	3709	3822	3902	3985	4028	4072	4116	4116	4116	4116	4116	4116	4116	4116	4116	4116	4116	4116	4116	4116	4072	4072	4028	4028	4028	3985	3985	3943	3943	3943	3943	3943	3943	3943	3985	3985	4072	4116	4162	4209	4257	4257	4257	4209	4116	4116	4072	3943	3902	3822	3822	3822	3784	3784	3709	3673	3602	3534	3469	3375	3345	3345	3345	3345	3345	3405	3501	3673	3862	3943	3985	4028	4028	4028	4072	4116	4209	4306	4356	4460	4568	4625	4625	4625	4625	4568	4513	4513	4460	4407	4356	4356	4306	4306	4306	4306	4306	4306	4306	4306	4306	4356	4356	4356	4356	4306	4257	4162	4116	3985	3902	3784	3709	3602	3534	3437	3375	3315	3229	3202	3175	3122	3070	3070	3070	3096	3315	3602	3602	0	0	0	0	0	0	0	0	0	0	0	0	3021	3021	3148	3315	3534	0	0	0	0	0	0	0	0	0	0	4257	3746	3709	3637	3637	3637	3637	3673	3709	3822	3822	3902	3902	3943	4028	4116	4162	4162	4209	4257	4306	4356	4356	4356	4306	4257	4257	4209	4162	4116	4028	3985	3902	3862	3784	3709	3637	3602	3568	3568	3568	3602	3602	3673	3673	3709	3709	3709	3673	3637	3637	3602	3602	3501	3437	3315	3286	3202	3148	3070	3070	3046	3046	3046	3046	3070	3070	3096	3148	3148	3148	3148	3096	3096	3046	3046	3021	2950	2927	2927	2997	3148	3315	3534	3602	3943	4209	4683	5429	5429	5429	5429	5429	5509	5509	5429	5429	5351	5276	5203	5132	5062	4995	4865	4803	4742	4625	4568	4513	4460	4460	4407	4407	4356	4356	4356	4407	4407	4460	4513	4568	4625	4683	4742	4865	4929	4929	4995	5062	5062	5132	5203	5203	5276	5203	5203	5276	5276	5351	5351	5351	5351	5351	5351	5429	5509	5509	5509	5509	5509	5591	5591	5509	5509	5509	5591	5591	5676	5676	5676	5676	5676	5763	5763	5763	5763	5676	5676	5676	5676	5676	5676	5591	5509	5509	5351	5203	4995	4803	4625	4407	4209	4028	3902	3784	3709	3709	3673	3673	3673	3709	3784	3822	3862	3985	4028	4116	4162	4162	4209	4162	4162	4162	4162	4162	4209	4306	4407	4513	4683	4929	5132	5351	5676	5763	5853	5946	6042	6141	6042	5946	5763	5591	5429	5276	5132	4995	4929	4865	4803	4742	4742	4742	4742	4742	4742	4742	4742	4683	4625	4568	4513	4513	4513	4513	4513	4513	4513	4513	4683	4742	4803	4742	4683	4625	4513	4407	4209	4072	3985	3862	3784	3784	3673	3637	3637	3746	3746	3862	3902	4072	4072	4209	4306	4356	4407	4407	4407	4407	4407	4407	4356	4356	4356	4306	4306	4257	4257	4209	4209	4116	4072	4028	3985	3902	3862	3784	3709	3637	3568	3501	3469	3437	3405	3345	3315	3286	3257	3257	3257	3257	3286	3315	3315	3375	3501	3568	3746	3902	4162	4407	4568	4803	4929	4929	4929	4865	4803	4742	4683	4568	4513	4460	4407	4356	4306	4306	4257	4257	4257	4257	4257	4257	4257	4257	4257	4209	4209	4162	4162	4162	4162	4162	4209	4209	4257	4306	4356	4407	4513	4568	4568	4625	4625	4568	4513	4460	4407	4356	4306	4306	4257	4257	4209	4162	4162	4162	4116	4072	4028	3985	3902	3822	3784	3746	3709	3709	3709	3746	3746	3746	3784	3822	3902	0	0	0	4625	4625	4568	4568	4568	4625	4625	4625	4625
4306	4356	4356	4407	4460	4460	4460	4513	4513	4513	4568	4568	4625	4625	4625	4683	4683	4683	4683	4683	4683	4683	4742	4683	4683	4683	4625	4568	4513	4513	4460	4460	4407	4407	4356	4306	4306	4306	4257	4209	4162	4072	4072	4116	4162	4209	4209	4209	4209	4257	4356	4407	4407	4356	4356	4356	4356	4257	4209	4116	4028	3943	3862	3784	3746	3673	3637	3568	3534	3534	3534	3534	3534	3568	3637	3673	3746	3784	3862	3943	3985	4072	4162	4257	4306	4356	4407	4407	4513	4513	4407	4356	4306	4306	4257	4257	4257	4257	4209	4209	4209	4162	4072	4028	3985	3902	3862	3822	3784	3673	3673	3673	3673	3673	3673	3673	3673	3709	3746	3709	3709	3709	3709	3709	3709	3637	3602	3602	3534	3534	3501	3501	3437	3405	3375	3345	3315	3286	3257	3229	3229	3229	3257	3315	3345	3405	3501	3602	3746	3862	3943	4028	4072	4116	4162	4209	4162	4162	4162	4162	4162	4162	4162	4162	4162	4162	4162	4116	4116	4116	4116	4116	4116	4116	4072	4072	4072	4028	4028	3985	3985	3985	3985	3985	4028	4028	4028	4028	4028	4028	4257	3943	3943	3822	3822	3784	3709	3709	3709	3746	3746	3746	3784	3784	3673	3602	3568	3501	3469	3437	3437	3437	3469	3469	3568	3709	3862	3862	3902	3862	3862	3902	3943	3985	4072	4116	4162	4306	4407	4513	4513	4568	4568	4513	4460	4460	4407	4356	4306	4306	4257	4257	4257	4257	4257	4257	4257	4257	4306	4306	4306	4306	4306	4257	4209	4162	4072	3985	3902	3822	3709	3637	3568	3469	3437	3375	3345	3315	3315	3286	3257	3257	3257	3286	3315	3602	3602	0	0	0	0	0	0	0	0	0	0	0	0	3021	3021	3148	3315	3469	3602	3784	3985	0	0	0	0	0	0	0	3673	3534	3501	3469	3437	3437	3469	3469	3501	3568	3602	3709	3709	3746	3862	3943	4072	4116	4209	4257	4306	4356	4407	4356	4356	4306	4257	4257	4209	4162	4072	3985	3943	3862	3784	3709	3637	3602	3568	3568	3568	3602	3602	3637	3673	3673	3673	3673	3637	3602	3568	3568	3534	3437	3315	3257	3175	3096	3046	2997	2997	2973	2973	2973	2997	3021	3046	3070	3096	3122	3122	3122	3122	3070	3070	3046	3021	2997	2950	2950	2973	3046	3148	3315	3375	3602	4209	4257	4929	4929	4995	5062	5132	5276	5276	5276	5203	5203	5132	5132	5062	4995	4929	4865	4742	4683	4625	4568	4568	4513	4513	4460	4407	4407	4407	4407	4460	4460	4568	4568	4683	4742	4803	4929	4929	4995	4995	4995	5132	5132	5132	5203	5132	5132	5132	5132	5132	5132	5132	5132	5203	5203	5276	5276	5351	5429	5429	5429	5429	5509	5591	5591	5591	5509	5509	5591	5591	5591	5591	5676	5676	5676	5853	5763	5763	5763	5763	5676	5676	5591	5591	5591	5591	5429	5429	5276	5062	4865	4683	4513	4306	4116	3943	3862	3746	3709	3709	3673	3673	3673	3709	3784	3862	3943	4028	4072	4116	4162	4209	4257	4209	4209	4209	4209	4257	4306	4407	4513	4625	4995	4995	5429	5509	5763	5853	5946	6042	6141	6141	5946	5853	5676	5509	5351	5203	5062	4995	4865	4865	4803	4742	4742	4742	4742	4742	4742	4742	4742	4683	4625	4568	4513	4513	4513	4513	4513	4513	4513	4513	4568	4683	4742	4683	4683	4568	4460	4306	4162	4028	3943	3822	3746	3709	3673	3637	3637	3784	3784	3902	3985	4162	4162	4257	4356	4460	4460	4460	4460	4460	4407	4407	4407	4407	4356	4356	4306	4306	4306	4257	4209	4162	4116	4028	3943	3862	3784	3709	3637	3568	3501	3405	3345	3345	3286	3257	3229	3175	3148	3148	3175	3175	3175	3202	3202	3257	3345	3469	3568	3746	3985	4162	4407	4625	4742	4803	4803	4803	4803	4742	4683	4625	4513	4460	4460	4407	4356	4356	4306	4306	4306	4306	4257	4257	4257	4257	4209	4162	4162	4162	4162	4162	4162	4162	4162	4209	4257	4257	4306	4356	4407	4460	4513	4513	4460	4460	4407	4356	4306	4209	4162	4162	4116	4116	4116	4072	4072	4072	4072	3985	3943	3902	3862	3784	3746	3709	3637	3637	3637	3637	3637	3673	3673	3709	3709	3746	0	0	0	0	4306	4306	4306	4356	4407	4407	4460
4306	4306	4356	4356	4407	4407	4407	4407	4460	4460	4460	4513	4513	4568	4568	4625	4683	4683	4683	4683	4742	4742	4803	4803	4803	4742	4742	4683	4625	4568	4568	4513	4460	4460	4407	4407	4356	4306	4306	4209	4162	4116	4116	4116	4162	4209	4209	4162	4162	4257	4356	4460	4460	4407	4407	4356	4356	4306	4257	4162	4116	3985	3943	3862	3822	3746	3709	3637	3602	3602	3568	3568	3568	3602	3637	3673	3709	3784	3822	3902	3985	4072	4116	4209	4257	4306	4356	4407	4460	4513	4460	4407	4356	4356	4356	4306	4306	4257	4257	4257	4257	4209	4162	4116	4072	3985	3902	3862	3784	3746	3673	3673	3673	3673	3673	3673	3709	3746	3746	3746	3746	3746	3746	3746	3709	3673	3602	3602	3534	3534	3501	3501	3437	3405	3375	3345	3345	3315	3286	3257	3229	3229	3257	3315	3345	3405	3501	3602	3709	3822	3902	3985	4072	4116	4162	4162	4209	4209	4209	4162	4162	4209	4209	4209	4209	4209	4162	4162	4162	4162	4162	4209	4209	4209	4209	4162	4162	4162	4072	4072	4028	3985	3943	3943	3943	3902	3862	3822	3784	3709	3709	3637	3602	3534	3501	3501	3534	3501	3501	3568	3637	3637	3746	3746	3746	3673	3637	3602	3568	3568	3568	3568	3568	3568	3602	3637	3709	3746	3746	3709	3709	3746	3784	3822	3862	3943	4028	4072	4162	4306	4407	4460	4460	4460	4407	4407	4356	4257	4209	4209	4162	4162	4162	4162	4162	4162	4162	4209	4209	4209	4257	4257	4257	4209	4162	4116	4072	3985	3902	3822	3709	3637	3568	3501	3469	3437	3437	3437	3437	3437	3469	3469	3501	3534	3568	3746	3822	0	0	0	0	0	0	0	0	0	0	0	2973	2973	3070	3175	3286	3469	3534	3784	3985	0	0	0	0	0	0	3501	3469	3405	3375	3375	3375	3375	3375	3375	3405	3437	3469	3501	3501	3568	3637	3746	3902	4028	4116	4209	4306	4407	4407	4407	4407	4356	4306	4257	4257	4209	4116	4072	3985	3862	3784	3709	3637	3602	3568	3568	3568	3602	3602	3602	3637	3673	3673	3637	3637	3568	3501	3469	3405	3345	3175	3096	3046	2997	2950	2904	2882	2882	2882	2882	2927	2927	2950	2973	2973	2997	3021	3021	3021	3021	2997	2997	2973	2950	2927	2927	2927	2997	3070	3175	3202	3405	3602	3902	4460	4460	4625	4803	4803	4995	4995	5062	5062	5062	4995	4929	4929	4865	4803	4803	4683	4683	4625	4568	4568	4513	4513	4513	4460	4460	4460	4460	4513	4568	4568	4683	4742	4803	4865	4995	5062	5062	5062	5062	5062	5062	5132	5132	5132	5062	4995	4995	4995	4995	5062	5062	5062	5062	5132	5203	5203	5276	5351	5351	5429	5509	5591	5591	5591	5509	5509	5591	5591	5591	5591	5676	5676	5763	5763	5853	5853	5763	5763	5591	5591	5509	5509	5509	5429	5351	5276	5132	4929	4742	4568	4356	4209	3985	3902	3862	3746	3709	3673	3673	3673	3673	3746	3862	3943	3985	4072	4162	4162	4209	4257	4257	4257	4257	4306	4306	4356	4460	4568	4683	4803	4995	5203	5429	5676	5853	6042	6042	6141	6141	6042	5946	5763	5509	5429	5276	5132	4995	4929	4865	4803	4742	4742	4742	4742	4742	4742	4742	4742	4742	4742	4683	4568	4513	4513	4513	4513	4513	4513	4513	4513	4568	4683	4742	4683	4683	4568	4460	4209	4072	4028	3902	3746	3746	3709	3709	3746	3784	3822	3902	3985	4116	4209	4306	4356	4460	4513	4513	4513	4460	4460	4460	4460	4460	4460	4407	4407	4407	4356	4306	4257	4209	4162	4116	3985	3943	3822	3746	3673	3602	3501	3405	3345	3286	3257	3202	3175	3148	3096	3096	3122	3096	3096	3096	3122	3148	3175	3257	3345	3501	3637	3862	4028	4257	4460	4568	4683	4742	4742	4742	4742	4683	4683	4625	4568	4568	4568	4513	4513	4460	4460	4407	4356	4306	4306	4306	4257	4209	4162	4162	4162	4162	4162	4162	4162	4162	4209	4257	4257	4306	4356	4356	4407	4407	4356	4356	4306	4257	4162	4162	4116	4072	4072	4028	4028	4028	4028	4028	4028	3985	3943	3902	3862	3784	3709	3673	3637	3602	3568	3568	3568	3568	3568	3568	3568	3568	3568	0	0	0	3985	3985	4028	4072	4116	4257	4306	4356
4306	4306	4356	4356	4356	4356	4356	4356	4356	4356	4407	4407	4460	4460	4513	4625	4625	4683	4683	4683	4803	4803	4865	4803	4803	4865	4803	4803	4742	4683	4625	4568	4568	4513	4460	4460	4407	4356	4356	4257	4162	4116	4116	4116	4162	4209	4209	4162	4162	4257	4356	4460	4513	4407	4407	4460	4460	4407	4407	4306	4162	4116	4072	3943	3902	3862	3784	3746	3709	3673	3637	3602	3602	3637	3637	3673	3709	3746	3822	3862	3943	4028	4072	4116	4209	4257	4306	4356	4407	4407	4407	4407	4356	4356	4356	4356	4356	4306	4306	4306	4306	4257	4209	4162	4162	4072	3985	3943	3862	3784	3709	3709	3673	3673	3709	3709	3709	3746	3746	3746	3784	3746	3746	3746	3746	3673	3637	3602	3568	3534	3534	3501	3437	3437	3375	3375	3345	3345	3286	3286	3257	3257	3286	3315	3375	3405	3501	3602	3709	3784	3902	3985	4072	4072	4116	4162	4209	4209	4209	4209	4209	4209	4209	4209	4209	4209	4209	4209	4209	4209	4209	4257	4257	4257	4257	4257	4257	4162	4162	4116	4028	3943	3862	3822	3784	3709	3673	3602	3534	3469	3405	3345	3315	3286	3286	3286	3315	3315	3315	3375	3469	3534	3568	3673	3673	3709	3673	3673	3637	3602	3602	3602	3568	3534	3534	3568	3568	3602	3602	3602	3602	3602	3637	3709	3784	3784	3862	3943	4028	4116	4257	4306	4356	4356	4306	4306	4257	4209	4162	4116	4116	4072	4072	4072	4072	4072	4072	4072	4116	4116	4162	4162	4162	4162	4162	4116	4028	3985	3902	3822	3746	3673	3602	3534	3501	3501	3501	3501	3534	3568	3568	3568	3602	3637	3637	3746	3822	3985	0	0	0	0	0	0	0	0	0	0	2973	2973	3070	3175	3286	3375	3469	3568	3673	3822	3822	0	0	0	0	3315	3315	3286	3257	3257	3257	3286	3286	3286	3315	3315	3315	3345	3405	3437	3534	3637	3822	3943	4072	4209	4306	4407	4460	4460	4407	4356	4356	4306	4257	4209	4116	4072	3985	3902	3822	3746	3637	3602	3602	3568	3568	3602	3602	3602	3602	3602	3602	3602	3568	3534	3405	3375	3315	3202	3070	2997	2950	2882	2838	2817	2796	2796	2796	2817	2817	2817	2860	2860	2860	2882	2927	2950	2950	2950	2950	2950	2950	2927	2904	2904	2904	2950	2997	3070	3070	3202	3437	3673	4209	4209	4356	4513	4568	4803	4803	4865	4865	4929	4865	4865	4803	4803	4742	4742	4683	4625	4625	4568	4568	4568	4568	4513	4513	4513	4513	4513	4568	4568	4625	4683	4803	4803	4865	4929	5062	5132	5132	5062	5062	5062	5062	5062	4995	4929	4929	4865	4865	4865	4865	4865	4865	4865	4865	4929	4995	5062	5132	5203	5276	5429	5591	5591	5591	5509	5509	5591	5591	5591	5591	5591	5591	5676	5763	5853	5853	5763	5676	5509	5429	5351	5351	5351	5276	5132	5062	4929	4803	4625	4407	4257	4209	3985	3902	3784	3673	3673	3673	3673	3673	3709	3822	3902	3985	4072	4162	4209	4209	4209	4209	4257	4306	4306	4356	4407	4513	4625	4742	4865	4995	5132	5351	5591	5853	6042	6141	6243	6141	6141	5946	5853	5591	5429	5276	5132	5062	4995	4929	4865	4803	4742	4742	4742	4742	4742	4742	4742	4742	4742	4683	4683	4625	4568	4568	4568	4568	4568	4568	4513	4513	4625	4683	4742	4742	4683	4568	4407	4209	4072	3943	3822	3746	3746	3709	3709	3746	3784	3902	4028	4116	4209	4306	4356	4460	4513	4625	4625	4568	4568	4568	4568	4568	4568	4513	4513	4460	4460	4407	4407	4356	4257	4162	4116	3985	3902	3822	3709	3637	3568	3469	3375	3315	3257	3202	3175	3122	3122	3070	3070	3046	3046	3046	3070	3070	3096	3122	3202	3257	3437	3534	3709	3902	4116	4306	4407	4513	4625	4625	4683	4683	4742	4742	4742	4742	4742	4683	4683	4683	4625	4568	4513	4460	4407	4356	4306	4306	4209	4209	4209	4162	4162	4162	4162	4162	4209	4209	4257	4257	4306	4306	4306	4306	4306	4257	4257	4209	4116	4072	4028	3985	3943	3943	3943	3943	3902	3902	3902	3902	3902	3902	3862	3822	3784	3709	3673	3637	3568	3568	3534	3534	3501	3501	3469	3469	3469	3469	0	3637	3637	3746	3822	3943	3985	4028	4162	4209	4306
4356	4356	4356	4306	4306	4306	4306	4306	4306	4306	4356	4356	4407	4407	4513	4568	4625	4683	4742	4803	4803	4865	4929	4929	4929	4929	4865	4865	4803	4742	4742	4683	4625	4568	4568	4513	4460	4407	4356	4257	4162	4116	4116	4162	4162	4209	4209	4209	4209	4257	4407	4460	4513	4460	4460	4513	4513	4513	4460	4356	4257	4209	4116	4028	3985	3943	3902	3822	3784	3746	3709	3709	3673	3673	3673	3709	3709	3746	3784	3822	3902	3943	4028	4072	4116	4209	4257	4306	4356	4356	4407	4407	4407	4407	4407	4407	4356	4356	4356	4356	4356	4306	4257	4209	4209	4116	4028	3985	3902	3822	3784	3746	3709	3709	3709	3709	3709	3746	3784	3784	3784	3784	3784	3784	3746	3709	3637	3637	3602	3568	3534	3501	3437	3437	3405	3405	3375	3345	3345	3315	3315	3315	3315	3345	3405	3437	3534	3602	3709	3784	3862	3943	4028	4072	4116	4116	4162	4162	4209	4209	4209	4209	4209	4209	4209	4209	4209	4209	4209	4209	4209	4257	4257	4257	4306	4257	4257	4209	4162	4072	3985	3822	3746	3709	3673	3568	3501	3405	3315	3286	3202	3175	3122	3122	3122	3122	3122	3148	3148	3229	3286	3345	3405	3501	3534	3568	3568	3602	3602	3602	3602	3568	3534	3501	3501	3501	3501	3501	3501	3534	3534	3534	3568	3637	3673	3709	3746	3822	3943	3985	4116	4162	4209	4257	4209	4209	4209	4116	4072	4028	3985	3985	3985	3985	3985	3985	3985	4028	4028	4072	4072	4072	4072	4116	4072	4072	4028	3943	3902	3822	3746	3673	3637	3602	3568	3568	3568	3602	3637	3746	3746	3746	3822	3862	3862	3985	3985	3985	0	0	0	0	0	0	0	0	0	3315	3070	3070	3122	3202	3286	3375	3469	3568	3673	3746	3637	3534	3534	0	3286	3257	3229	3202	3202	3202	3175	3175	3202	3202	3229	3229	3257	3286	3315	3375	3469	3602	3784	3943	4072	4209	4306	4407	4513	4513	4460	4407	4407	4356	4306	4257	4162	4072	4028	3985	3862	3784	3709	3637	3637	3637	3637	3602	3602	3602	3602	3568	3534	3534	3501	3469	3345	3315	3229	3122	2997	2927	2860	2817	2775	2754	2734	2734	2734	2734	2754	2754	2775	2775	2796	2817	2838	2860	2904	2904	2927	2950	2927	2927	2882	2882	2882	2904	2927	2950	2950	3070	3286	3534	3784	4028	4209	4356	4407	4683	4683	4742	4742	4742	4742	4742	4742	4742	4683	4683	4625	4625	4625	4568	4568	4568	4568	4568	4568	4513	4513	4513	4568	4625	4625	4683	4803	4803	4865	4929	5062	5062	5062	5062	5062	5062	5062	4995	4929	4803	4803	4742	4742	4742	4683	4625	4625	4625	4683	4742	4803	4803	4929	5062	5132	5276	5429	5509	5429	5429	5429	5429	5509	5509	5509	5509	5591	5591	5763	5763	5763	5676	5591	5429	5351	5276	5203	5203	5203	5062	4995	4803	4683	4625	4407	4257	4072	3943	3822	3746	3673	3673	3673	3673	3709	3784	3862	3943	4072	4116	4209	4162	4162	4209	4209	4257	4306	4356	4460	4513	4683	4865	4995	5132	5276	5429	5676	5853	6141	6243	6243	6243	6141	5946	5853	5676	5509	5276	5203	5062	4995	4929	4929	4865	4803	4742	4742	4742	4742	4742	4742	4742	4742	4742	4683	4683	4625	4568	4568	4568	4625	4568	4568	4568	4568	4625	4742	4803	4742	4683	4568	4407	4209	4072	3943	3822	3784	3746	3746	3746	3784	3862	3985	4162	4257	4356	4460	4513	4625	4625	4683	4683	4683	4683	4683	4683	4683	4683	4625	4625	4568	4568	4513	4460	4356	4306	4209	4116	3985	3902	3822	3709	3637	3568	3437	3345	3286	3257	3202	3148	3122	3070	3070	3046	3046	3046	3046	3046	3046	3070	3096	3148	3229	3345	3469	3637	3784	3985	4162	4306	4407	4513	4568	4625	4683	4742	4803	4865	4865	4865	4865	4865	4803	4742	4683	4625	4513	4460	4356	4356	4306	4257	4209	4209	4209	4209	4209	4209	4209	4209	4209	4257	4257	4257	4306	4257	4257	4209	4209	4162	4116	4028	3985	3943	3902	3902	3862	3862	3862	3862	3822	3822	3862	3822	3822	3822	3784	3709	3673	3637	3602	3568	3568	3501	3501	3501	3501	3469	3437	3437	3437	3437	3469	3534	3637	3709	3822	3862	3943	4072	4162	4209
4356	4356	4356	4306	4306	4306	4306	4306	4306	4306	4306	4356	4407	4407	4513	4568	4683	4742	4803	4865	4929	4995	5062	5062	5062	4995	4995	4929	4865	4803	4742	4742	4683	4625	4625	4568	4513	4407	4356	4306	4209	4162	4162	4162	4209	4209	4209	4257	4257	4306	4460	4568	4568	4513	4513	4568	4568	4568	4568	4460	4356	4257	4209	4116	4072	4028	3985	3943	3862	3822	3784	3784	3746	3746	3746	3746	3746	3746	3746	3784	3862	3902	3943	3985	4072	4116	4162	4209	4306	4356	4356	4407	4407	4407	4407	4407	4407	4356	4356	4356	4356	4356	4306	4257	4209	4162	4116	4028	3943	3862	3822	3746	3709	3709	3709	3709	3709	3709	3746	3746	3746	3784	3784	3784	3784	3746	3709	3673	3637	3602	3568	3534	3501	3437	3437	3437	3405	3405	3375	3345	3345	3345	3345	3405	3437	3469	3534	3637	3709	3784	3822	3943	3985	4028	4072	4116	4116	4162	4209	4209	4209	4209	4209	4209	4209	4209	4209	4209	4209	4209	4209	4209	4257	4257	4257	4257	4257	4162	4116	4028	3902	3784	3673	3602	3534	3469	3375	3315	3202	3148	3070	3046	3021	2973	2973	2997	3021	3021	3070	3070	3122	3202	3229	3286	3345	3405	3437	3469	3501	3534	3568	3534	3501	3437	3437	3437	3437	3469	3469	3469	3469	3469	3501	3568	3602	3637	3709	3784	3822	3943	4028	4072	4209	4209	4209	4209	4162	4072	4028	3985	3943	3902	3902	3902	3902	3902	3902	3943	3943	3985	3985	4028	4028	4028	4028	4028	4028	3943	3902	3862	3784	3746	3709	3673	3673	3709	3784	3822	3985	4072	4116	4209	4257	4306	4306	4356	4460	0	0	0	0	0	0	0	0	0	0	3315	3315	3286	3286	3375	3437	3501	3602	3673	3709	3637	3534	3469	3345	3257	3229	3202	3175	3175	3175	3148	3148	3148	3148	3148	3148	3148	3175	3175	3202	3257	3405	3534	3784	3943	4072	4209	4356	4460	4513	4513	4513	4460	4407	4356	4306	4257	4209	4116	4072	4028	3902	3862	3784	3784	3709	3709	3673	3637	3602	3534	3534	3501	3437	3437	3405	3345	3257	3202	3122	3021	2950	2860	2817	2734	2695	2695	2676	2657	2657	2657	2676	2695	2714	2734	2734	2754	2775	2817	2838	2882	2904	2904	2904	2904	2860	2860	2860	2860	2860	2860	2860	2927	3122	3534	3637	3822	3985	4257	4257	4568	4625	4625	4683	4683	4683	4683	4683	4683	4683	4625	4625	4625	4568	4568	4568	4568	4568	4568	4568	4568	4568	4568	4568	4625	4683	4683	4742	4803	4865	4929	4995	5062	5062	5062	5062	4995	4995	4995	4929	4803	4683	4683	4625	4568	4513	4460	4460	4460	4460	4513	4568	4683	4803	4865	4995	5203	5351	5429	5429	5351	5351	5351	5429	5429	5429	5429	5429	5509	5591	5676	5676	5591	5509	5276	5276	5203	5132	5062	5062	4929	4929	4803	4683	4513	4306	4162	3985	3862	3784	3709	3673	3673	3673	3709	3746	3822	3902	4028	4072	4162	4209	4162	4162	4209	4257	4306	4356	4460	4568	4742	4865	5062	5276	5429	5591	5763	5946	6141	6243	6349	6349	6243	6042	5853	5763	5591	5351	5203	5062	4995	4929	4929	4865	4865	4803	4742	4742	4742	4742	4803	4803	4803	4742	4742	4742	4742	4683	4683	4683	4683	4683	4683	4625	4625	4625	4683	4742	4742	4683	4625	4513	4407	4209	4072	3985	3902	3862	3862	3862	3902	3902	4028	4162	4306	4460	4513	4625	4683	4742	4803	4865	4865	4865	4803	4803	4803	4803	4803	4803	4742	4742	4683	4625	4568	4460	4356	4257	4162	4028	3902	3822	3709	3637	3534	3437	3345	3286	3229	3202	3122	3096	3070	3070	3046	3046	3046	3046	3046	3046	3046	3070	3122	3202	3286	3405	3568	3709	3862	4028	4162	4306	4407	4460	4568	4683	4803	4865	4929	4929	4995	4929	4929	4929	4865	4803	4683	4625	4513	4460	4356	4356	4306	4306	4209	4209	4209	4257	4257	4257	4257	4257	4257	4257	4257	4257	4209	4209	4162	4116	4072	4028	3985	3902	3862	3862	3822	3784	3784	3784	3784	3784	3784	3784	3784	3784	3746	3709	3709	3673	3637	3602	3602	0	3501	3469	3469	3437	3437	3437	3437	3437	3437	3469	3534	3637	3709	3822	3862	3943	4028	4116	4209
4407	4356	4356	4356	4356	4306	4306	4306	4306	4306	4306	4356	4407	4407	4513	4625	4683	4742	4865	4929	4995	5062	5132	5132	5132	5062	5062	4995	4929	4929	4865	4803	4742	4683	4683	4568	4513	4460	4407	4306	4257	4209	4209	4209	4257	4257	4257	4257	4306	4356	4513	4625	4625	4625	4625	4625	4625	4625	4625	4513	4407	4356	4257	4209	4162	4116	4072	4028	3985	3943	3902	3862	3822	3822	3784	3746	3746	3746	3746	3784	3822	3862	3902	3943	3985	4072	4116	4162	4257	4306	4356	4407	4460	4460	4460	4460	4407	4407	4407	4356	4356	4356	4306	4257	4209	4209	4116	4072	3985	3902	3822	3822	3784	3746	3746	3746	3709	3709	3746	3746	3746	3746	3784	3784	3784	3784	3709	3709	3637	3602	3568	3568	3501	3469	3469	3469	3437	3437	3405	3405	3405	3405	3405	3437	3501	3534	3602	3637	3709	3784	3822	3902	3943	3985	4028	4028	4072	4116	4162	4162	4209	4162	4162	4162	4162	4162	4162	4162	4162	4162	4162	4209	4209	4209	4257	4257	4209	4116	4072	3943	3862	3709	3602	3568	3469	3405	3315	3229	3175	3070	3021	2973	2973	2927	2927	2950	2950	2950	2973	2997	2997	3046	3046	3096	3175	3257	3315	3345	3375	3437	3501	3501	3469	3437	3437	3437	3437	3469	3437	3437	3437	3437	3501	3534	3568	3602	3637	3709	3784	3862	3985	4072	4162	4209	4209	4209	4162	4072	4028	3985	3943	3902	3862	3862	3822	3822	3822	3862	3902	3902	3943	3943	3985	3985	3985	3985	3985	3985	3943	3902	3862	3822	3822	3822	3822	3862	3943	4072	4257	4407	4513	4568	4568	4625	0	0	0	0	0	0	0	0	0	0	0	0	0	0	0	0	0	3637	3637	3673	3709	3673	3637	3534	3469	3375	3286	3257	3229	3202	3175	3175	3175	3148	3148	3148	3148	3148	3148	3148	3175	3175	3202	3257	3375	3534	3784	3943	4072	4257	4407	4513	4568	4568	4513	4513	4460	4407	4356	4257	4257	4162	4116	4072	3985	3943	3862	3862	3784	3746	3673	3602	3534	3469	3437	3375	3345	3286	3286	3229	3122	3096	3021	2927	2860	2775	2734	2676	2657	2638	2638	2638	2638	2638	2638	2676	2676	2695	2695	2695	2734	2775	2817	2838	2882	2882	2904	2882	2860	2838	2817	2817	2817	2796	2796	2882	3046	3501	3501	3709	3902	4116	4162	4460	4513	4568	4568	4568	4625	4625	4625	4625	4625	4568	4568	4568	4568	4568	4568	4568	4568	4568	4568	4568	4568	4568	4625	4625	4683	4683	4742	4803	4865	4865	4929	4995	5062	5062	5062	4995	4995	4995	4929	4803	4683	4683	4625	4568	4513	4460	4407	4407	4460	4513	4568	4625	4742	4803	4929	5132	5351	5351	5351	5276	5276	5276	5351	5351	5351	5276	5276	5351	5509	5676	5591	5591	5351	5276	5203	5132	5132	5062	5062	4929	4865	4683	4513	4407	4257	4072	3943	3822	3784	3709	3673	3673	3673	3746	3822	3902	3985	4072	4116	4162	4209	4209	4209	4209	4306	4407	4460	4568	4742	4865	5132	5351	5509	5676	5853	5946	6141	6243	6459	6459	6349	6243	5946	5763	5591	5429	5276	5132	4995	4995	4929	4865	4865	4865	4803	4803	4803	4803	4803	4803	4803	4803	4803	4742	4742	4742	4742	4742	4742	4742	4742	4742	4742	4742	4742	4742	4683	4625	4568	4513	4407	4356	4209	4116	4072	4028	3943	3943	3985	3985	4072	4162	4356	4513	4568	4683	4742	4865	4865	4929	4995	4995	4995	4995	4995	4995	4995	4995	4929	4929	4865	4803	4742	4625	4568	4460	4306	4162	4072	3943	3822	3746	3637	3534	3469	3375	3286	3229	3202	3122	3096	3070	3070	3046	3046	3046	3046	3046	3046	3046	3070	3122	3202	3286	3375	3501	3637	3784	3943	4072	4209	4306	4407	4568	4625	4803	4929	4929	4995	4995	5062	4995	4995	4995	4865	4803	4742	4625	4568	4460	4407	4407	4356	4306	4306	4306	4306	4306	4306	4257	4257	4257	4257	4257	4209	4209	4162	4116	4072	4028	3943	3902	3862	3822	3746	3746	3746	3746	3709	3709	3709	3709	3709	3746	3709	3709	3709	3709	3673	3637	3637	3637	3602	3501	3469	3469	3437	3437	3437	3437	3437	3469	3501	3568	3673	3746	3822	3902	3985	4028	4116	4209
4407	4407	4356	4356	4356	4306	4306	4306	4306	4306	4306	4356	4407	4407	4513	4625	4742	4803	4865	4995	5062	5132	5276	5203	5203	5203	5132	5062	5062	4995	4929	4803	4803	4683	4683	4625	4568	4513	4407	4356	4306	4257	4257	4257	4257	4257	4306	4306	4356	4407	4568	4625	4625	4683	4742	4742	4683	4683	4683	4568	4460	4407	4356	4257	4257	4209	4209	4162	4116	4072	4028	3985	3902	3862	3822	3784	3746	3746	3746	3746	3784	3822	3862	3902	3943	4028	4072	4162	4257	4306	4356	4407	4460	4513	4513	4513	4460	4407	4407	4407	4356	4356	4356	4306	4306	4209	4162	4116	4028	3985	3902	3862	3784	3746	3746	3746	3746	3709	3709	3709	3746	3746	3784	3784	3822	3784	3746	3709	3673	3637	3602	3568	3534	3501	3501	3469	3469	3469	3469	3469	3469	3501	3501	3501	3534	3602	3673	3709	3746	3746	3784	3862	3902	3902	3943	3985	4028	4072	4116	4116	4116	4162	4162	4162	4162	4162	4162	4162	4162	4162	4116	4116	4162	4162	4162	4162	4162	4116	4028	3902	3784	3673	3568	3501	3437	3345	3286	3175	3096	3021	2997	2950	2927	2904	2904	2904	2904	2927	2927	2950	2973	2973	2997	3021	3070	3148	3202	3229	3286	3405	3501	3501	3469	3437	3437	3437	3437	3469	3437	3437	3437	3437	3501	3534	3568	3602	3637	3709	3746	3862	3985	4072	4162	4209	4209	4209	4162	4072	4028	3985	3902	3862	3822	3822	3784	3784	3784	3822	3822	3862	3862	3862	3902	3902	3943	3943	3943	3943	3943	3943	3902	3902	3902	3985	3985	4072	4209	4407	4625	4865	4865	4929	4929	4995	0	0	0	0	7204	7204	8143	0	0	0	8919	8919	0	0	0	0	0	3985	3862	3784	3673	3602	3568	3469	3375	3315	3257	3229	3202	3202	3175	3175	3175	3175	3175	3148	3148	3148	3148	3148	3148	3148	3202	3257	3375	3568	3784	3985	4162	4356	4513	4568	4625	4625	4568	4513	4460	4407	4356	4306	4257	4209	4162	4116	4072	3985	3943	3902	3822	3746	3673	3602	3501	3405	3405	3345	3286	3257	3257	3202	3122	3070	2997	2927	2860	2775	2734	2676	2657	2638	2638	2638	2638	2638	2638	2657	2657	2676	2676	2695	2734	2775	2817	2838	2882	2882	2904	2882	2860	2838	2817	2817	2817	2796	2796	2882	3046	3501	3501	3709	3902	4072	4116	4407	4460	4460	4513	4513	4513	4568	4568	4568	4568	4568	4513	4513	4513	4513	4513	4513	4568	4568	4568	4568	4625	4625	4625	4625	4683	4683	4683	4742	4803	4803	4929	4995	5062	5062	5062	5062	5062	4995	4929	4803	4742	4683	4625	4568	4568	4460	4407	4407	4460	4513	4568	4625	4742	4803	4865	5132	5203	5351	5276	5276	5203	5203	5276	5276	5276	5276	5276	5351	5509	5591	5591	5591	5351	5276	5203	5132	5062	4995	4995	4865	4742	4568	4407	4257	4162	4028	3902	3822	3784	3746	3709	3709	3746	3784	3902	3943	4028	4116	4162	4209	4257	4257	4257	4257	4407	4460	4568	4742	4865	5062	5276	5509	5676	5853	6042	6243	6349	6572	6572	6572	6459	6243	5946	5763	5591	5351	5203	5062	4995	4929	4929	4865	4865	4865	4865	4865	4803	4803	4803	4803	4803	4803	4803	4803	4803	4803	4803	4803	4803	4803	4803	4803	4803	4742	4742	4742	4683	4625	4568	4460	4407	4356	4209	4162	4072	4072	4072	4072	4116	4162	4257	4306	4460	4625	4742	4803	4929	5062	5062	5132	5132	5203	5203	5203	5203	5132	5132	5132	5132	5062	4995	4929	4865	4742	4683	4513	4356	4257	4072	3985	3902	3746	3673	3568	3469	3405	3286	3257	3202	3148	3122	3096	3070	3070	3046	3046	3046	3046	3070	3070	3096	3148	3202	3286	3375	3469	3568	3709	3862	3985	4116	4209	4306	4460	4568	4742	4865	4929	5062	5132	5062	5062	5062	4995	4995	4929	4803	4742	4683	4625	4568	4513	4460	4407	4407	4356	4356	4306	4306	4306	4306	4306	4257	4209	4209	4162	4116	4072	4028	3985	3902	3862	3784	3746	3709	3709	3673	3673	3673	3673	3673	3673	3673	3709	3709	3709	3709	3709	3673	3637	3637	3637	3602	3568	3534	3534	3501	3501	3501	3534	3568	3602	3602	3673	3746	3862	3902	3943	3985	4072	4116	4209
4460	4407	4407	4356	4356	4306	4306	4306	4306	4306	4306	4356	4407	4407	4513	4625	4683	4803	4929	4995	5132	5203	5351	5276	5276	5276	5132	5132	5062	4995	4929	4803	4803	4742	4683	4625	4568	4513	4460	4356	4306	4257	4257	4306	4306	4356	4356	4356	4356	4460	4568	4625	4625	4683	4803	4803	4683	4683	4683	4625	4513	4460	4407	4356	4356	4356	4356	4306	4257	4209	4116	4072	3985	3943	3902	3784	3746	3746	3746	3746	3746	3784	3822	3862	3943	3985	4072	4162	4257	4306	4407	4460	4513	4568	4568	4568	4513	4460	4460	4407	4407	4356	4356	4356	4306	4257	4209	4162	4072	4028	3943	3902	3822	3784	3746	3746	3746	3709	3709	3709	3746	3746	3784	3784	3822	3784	3746	3709	3673	3637	3637	3602	3568	3534	3534	3534	3534	3534	3534	3534	3534	3534	3534	3568	3602	3637	3709	3709	3746	3746	3784	3822	3862	3862	3902	3902	3943	3985	4028	4072	4072	4116	4116	4116	4116	4116	4116	4072	4072	4072	4072	4116	4116	4116	4116	4116	4072	4028	3943	3822	3746	3602	3501	3469	3405	3286	3229	3148	3070	3021	2973	2927	2904	2882	2860	2860	2860	2882	2882	2904	2927	2927	2927	2950	2997	3070	3122	3202	3286	3405	3501	3602	3602	3568	3568	3568	3602	3602	3568	3501	3501	3501	3534	3602	3637	3673	3709	3709	3746	3862	3985	4072	4162	4209	4257	4257	4162	4116	4028	3985	3902	3862	3822	3784	3784	3784	3784	3784	3784	3822	3822	3862	3862	3862	3902	3902	3943	3943	3943	3943	3985	3985	4072	4116	4209	4356	4568	4803	5203	5591	5676	5676	5763	5853	0	0	0	0	7204	7204	8143	11706	11706	12487	8919	8919	11352	11352	0	6459	6459	4257	3985	3784	3673	3602	3534	3437	3375	3286	3257	3229	3202	3202	3175	3175	3202	3175	3175	3175	3148	3148	3148	3175	3148	3148	3202	3257	3405	3637	3862	4072	4257	4460	4625	4742	4742	4683	4625	4625	4568	4513	4407	4356	4306	4306	4257	4209	4162	4072	4028	3943	3862	3784	3673	3602	3501	3405	3405	3345	3286	3257	3202	3202	3122	3070	2997	2927	2860	2796	2754	2714	2676	2657	2638	2638	2657	2638	2638	2657	2657	2676	2676	2714	2734	2775	2817	2860	2882	2904	2904	2904	2860	2838	2838	2817	2817	2817	2817	2882	3070	3534	3534	3902	3902	4072	4116	4356	4407	4407	4460	4460	4460	4513	4513	4513	4513	4513	4513	4513	4513	4513	4513	4513	4568	4568	4568	4625	4625	4625	4625	4625	4625	4625	4625	4683	4683	4742	4865	4995	4995	5062	5062	5062	5132	5062	4995	4865	4803	4742	4683	4683	4625	4513	4513	4460	4460	4513	4568	4625	4742	4803	4865	5132	5203	5351	5276	5276	5203	5203	5276	5276	5276	5276	5276	5351	5509	5509	5591	5591	5351	5276	5203	4995	4929	4865	4742	4742	4568	4460	4306	4162	4072	3943	3862	3784	3784	3746	3746	3746	3784	3862	3943	4028	4116	4162	4209	4257	4306	4306	4306	4356	4460	4568	4742	4865	4995	5203	5429	5591	5853	6042	6243	6349	6572	6689	6811	6689	6572	6243	5946	5676	5509	5351	5203	5062	4995	4929	4929	4865	4865	4865	4865	4865	4865	4865	4865	4865	4865	4865	4865	4865	4865	4865	4803	4803	4803	4865	4865	4865	4803	4742	4742	4742	4683	4625	4568	4460	4407	4356	4209	4209	4209	4162	4162	4209	4209	4306	4356	4460	4625	4803	4865	4929	5062	5132	5203	5276	5351	5351	5351	5351	5351	5351	5351	5276	5276	5203	5062	4995	4929	4803	4683	4568	4407	4257	4116	3985	3902	3746	3673	3602	3534	3437	3345	3257	3229	3202	3175	3122	3122	3096	3070	3070	3070	3070	3070	3070	3122	3175	3202	3286	3375	3469	3568	3709	3822	3943	4072	4162	4306	4460	4568	4742	4865	4929	5062	5132	5132	5132	5132	5062	5062	4995	4929	4803	4742	4742	4683	4625	4568	4513	4513	4460	4407	4356	4356	4356	4306	4257	4257	4209	4209	4116	4072	4028	3985	3902	3862	3784	3746	3709	3673	3637	3637	3637	3637	3637	3637	3637	3673	3673	3709	3709	3709	3709	3709	3673	3673	3673	3673	3673	3637	3637	3709	3746	3746	3784	3784	3784	3822	3822	3902	3943	3985	4028	4028	4072	4162	4209
4513	4460	4407	4356	4356	4356	4306	4306	4306	4306	4306	4356	4356	4407	4513	4568	4683	4742	4865	4995	5062	5203	5276	5276	5276	5276	5132	5132	5062	4995	4929	4865	4803	4742	4683	4625	4568	4513	4407	4356	4306	4306	4306	4306	4356	4407	4407	4460	4513	4513	4683	4742	4742	4742	4803	4803	4683	4683	4683	4625	4513	4460	4460	4407	4407	4407	4460	4407	4356	4306	4209	4162	4072	3985	3943	3822	3784	3746	3709	3709	3709	3709	3746	3822	3862	3943	4028	4162	4257	4356	4407	4513	4568	4625	4683	4625	4568	4568	4513	4460	4460	4407	4407	4407	4356	4306	4257	4209	4162	4116	4028	3943	3862	3822	3784	3746	3746	3709	3709	3709	3746	3784	3784	3784	3784	3822	3784	3746	3709	3673	3673	3637	3602	3602	3602	3602	3602	3602	3602	3602	3602	3602	3602	3602	3673	3673	3709	3709	3709	3709	3746	3746	3784	3822	3822	3862	3862	3943	3985	4028	4028	4072	4072	4072	4072	4072	4072	4072	4072	4072	4028	4028	4072	4072	4072	4072	4028	3985	3902	3784	3709	3602	3501	3437	3375	3286	3229	3148	3070	3021	2973	2927	2904	2882	2860	2860	2860	2882	2882	2882	2882	2904	2904	2904	2950	2997	3021	3122	3315	3469	3637	3746	3822	3822	3822	3822	3822	3784	3709	3637	3602	3602	3602	3673	3709	3709	3709	3746	3822	3902	4028	4116	4162	4257	4257	4257	4209	4116	4072	3985	3943	3862	3822	3784	3784	3784	3784	3784	3784	3822	3822	3822	3822	3862	3862	3902	3943	3943	3985	3985	3985	4072	4209	4306	4513	4742	5062	5429	5946	6459	6689	6689	6937	7068	0	0	0	13379	9858	9858	11018	11706	11706	12487	12487	12487	11352	11352	14984	6459	6459	8143	0	3943	3746	3746	3534	3437	3375	3286	3257	3202	3202	3202	3202	3202	3202	3202	3202	3202	3175	3175	3175	3175	3175	3175	3229	3315	3501	3746	3985	4209	4460	4625	4742	4929	4865	4803	4742	4683	4625	4568	4513	4460	4356	4356	4306	4257	4209	4162	4116	4028	3943	3822	3709	3602	3501	3437	3405	3345	3286	3257	3202	3202	3122	3070	3021	2927	2882	2817	2754	2714	2695	2676	2676	2657	2657	2657	2657	2676	2676	2676	2695	2714	2734	2775	2817	2860	2882	2904	2927	2904	2904	2860	2860	2860	2860	2860	2860	2973	3148	3568	3568	3902	3902	4072	4116	4356	4356	4407	4407	4407	4407	4407	4460	4460	4460	4460	4460	4460	4460	4460	4513	4513	4568	4568	4568	4568	4625	4625	4625	4568	4568	4625	4625	4625	4683	4742	4865	4929	4995	5132	5132	5132	5203	5132	5062	4929	4865	4803	4742	4742	4683	4625	4625	4625	4625	4683	4683	4683	4803	4865	4929	5132	5276	5351	5276	5276	5276	5351	5276	5276	5276	5276	5351	5351	5509	5509	5591	5509	5351	5203	5132	4995	4865	4742	4683	4683	4513	4407	4257	4116	4028	3943	3862	3784	3784	3784	3784	3822	3862	3943	3985	4072	4209	4209	4257	4306	4356	4356	4407	4460	4568	4742	4865	4995	5203	5351	5591	5763	5946	6141	6349	6572	6689	6937	6937	6811	6572	6243	5946	5676	5509	5351	5203	4995	4929	4929	4929	4929	4929	4929	4929	4929	4929	4929	4929	4929	4929	4929	4865	4865	4865	4865	4865	4865	4865	4865	4865	4865	4865	4742	4742	4683	4683	4568	4513	4513	4407	4356	4257	4257	4257	4257	4257	4306	4356	4407	4513	4568	4742	4865	4929	5062	5132	5203	5276	5351	5429	5429	5429	5429	5509	5429	5429	5429	5351	5276	5203	5132	4995	4865	4683	4568	4407	4257	4116	4028	3902	3784	3709	3602	3534	3469	3375	3315	3286	3229	3202	3202	3175	3148	3148	3148	3148	3175	3175	3175	3175	3202	3286	3345	3405	3469	3568	3709	3822	3902	4028	4162	4257	4460	4568	4742	4865	4995	5062	5132	5132	5203	5203	5132	5062	5062	4995	4929	4865	4865	4803	4742	4683	4625	4568	4513	4460	4407	4407	4356	4306	4257	4257	4209	4162	4116	4072	4028	3943	3862	3822	3746	3673	3673	3637	3602	3602	3602	3602	3602	3602	3602	3568	3568	3637	3637	3637	3673	3709	3709	3709	3746	3746	3746	3862	3902	3902	3943	3985	4028	4028	4028	4028	4028	4028	4072	4072	4116	4116	4162	4209	4257
4568	4513	4460	4407	4356	4356	4306	4306	4306	4306	4306	4356	4356	4407	4460	4568	4625	4683	4803	4865	4995	5062	5203	5203	5203	5203	5132	5132	5062	5062	4929	4865	4803	4742	4625	4568	4513	4460	4407	4356	4306	4306	4306	4356	4407	4460	4513	4568	4625	4625	4683	4803	4803	4803	4865	4803	4683	4683	4683	4625	4568	4513	4460	4460	4460	4460	4513	4513	4460	4407	4306	4209	4162	4072	3985	3862	3784	3746	3709	3673	3673	3709	3709	3746	3822	3902	4028	4162	4257	4356	4460	4568	4683	4683	4742	4742	4683	4625	4568	4513	4513	4460	4407	4407	4407	4356	4306	4257	4209	4162	4072	4028	3943	3902	3822	3784	3746	3709	3709	3709	3746	3746	3746	3746	3784	3822	3784	3784	3746	3709	3709	3709	3673	3673	3673	3637	3637	3673	3673	3673	3673	3637	3637	3673	3673	3709	3709	3709	3709	3709	3709	3709	3746	3746	3784	3784	3822	3862	3902	3943	3985	3985	4028	4028	4028	4028	4028	4028	4028	4028	4028	4028	4028	4028	4028	4028	4028	3943	3862	3784	3673	3602	3501	3437	3375	3286	3229	3175	3070	3021	2973	2927	2904	2904	2882	2860	2860	2860	2860	2882	2882	2882	2904	2904	2927	2950	3021	3122	3315	3534	3746	3902	4072	4072	4072	4072	4028	3985	3902	3784	3746	3746	3746	3784	3784	3784	3784	3822	3862	3943	4028	4116	4209	4257	4257	4306	4257	4162	4116	4028	3985	3902	3862	3822	3784	3784	3784	3784	3784	3822	3822	3822	3822	3822	3862	3902	3943	3943	3985	4028	4072	4209	4356	4568	4803	5276	5676	6243	6937	7492	8143	8324	8919	9605	0	0	0	13379	13379	13379	13379	13379	13379	13874	14984	16287	17027	14984	14984	16287	8143	8143	0	0	0	0	3534	3437	3375	3229	3202	3175	3175	3175	3175	3175	3202	3202	3202	3202	3202	3202	3202	3202	3202	3229	3286	3405	3637	3902	4116	4356	4568	4803	4929	5062	4995	4929	4865	4803	4683	4625	4568	4513	4460	4407	4356	4306	4306	4257	4162	4116	3985	3902	3746	3637	3501	3437	3375	3315	3286	3229	3175	3122	3122	3096	3021	2950	2882	2817	2796	2754	2734	2734	2714	2714	2714	2714	2714	2695	2695	2714	2714	2734	2775	2817	2817	2860	2882	2904	2927	2950	2950	2950	2950	2997	3021	3046	3046	3148	3286	3637	3637	3902	3902	4116	4116	4356	4356	4356	4356	4407	4356	4356	4407	4407	4407	4407	4407	4407	4460	4460	4460	4513	4513	4568	4568	4568	4568	4625	4625	4568	4568	4568	4568	4568	4568	4625	4742	4865	4995	5062	5132	5203	5276	5203	5132	5062	4995	4929	4929	4865	4865	4865	4803	4803	4803	4865	4865	4865	4929	4929	4995	5203	5351	5351	5351	5351	5351	5351	5351	5351	5351	5351	5351	5351	5509	5509	5509	5429	5351	5203	5062	4865	4803	4625	4513	4356	4356	4257	4162	4072	3985	3902	3822	3784	3784	3822	3822	3862	3943	4028	4116	4162	4257	4306	4306	4356	4407	4407	4460	4568	4683	4865	4995	5132	5276	5429	5676	5853	6042	6349	6572	6811	6937	7068	7068	6811	6459	6141	5853	5591	5429	5276	5203	4995	4929	4929	4865	4865	4929	4929	4929	4929	4929	4865	4865	4929	4929	4865	4865	4865	4865	4865	4865	4865	4865	4865	4865	4865	4865	4742	4742	4683	4683	4568	4513	4460	4407	4356	4306	4306	4306	4306	4356	4407	4407	4460	4568	4625	4803	4865	4995	5062	5132	5203	5351	5429	5429	5509	5591	5591	5591	5591	5509	5509	5429	5429	5276	5203	4995	4865	4683	4568	4407	4306	4162	4028	3902	3822	3709	3637	3568	3469	3375	3345	3315	3286	3257	3257	3229	3229	3229	3257	3257	3286	3286	3286	3315	3345	3375	3437	3501	3568	3637	3709	3822	3902	4028	4162	4257	4460	4568	4742	4865	4995	5062	5132	5132	5203	5203	5203	5203	5132	5062	4995	4995	4995	4929	4865	4803	4742	4625	4568	4513	4460	4407	4356	4356	4306	4257	4209	4162	4162	4072	4028	3943	3862	3822	3746	3673	3673	3637	3602	3534	3501	3469	3437	3405	3375	3375	3405	3405	3437	3437	3501	3637	3673	3709	3784	3822	3902	4028	4072	4116	4209	4257	4257	4257	4209	4162	4162	4209	4162	4162	4162	4209	4257	4257	4306
4568	4513	4513	4407	4407	4407	4356	4356	4356	4306	4306	4356	4356	4407	4460	4513	4568	4625	4683	4803	4865	4929	5062	5132	5132	5203	5132	5062	5062	4995	4865	4803	4742	4683	4568	4568	4513	4460	4407	4356	4306	4306	4306	4407	4460	4513	4568	4568	4625	4683	4742	4803	4803	4803	4803	4803	4683	4683	4683	4625	4568	4568	4513	4460	4460	4513	4568	4625	4513	4460	4407	4257	4162	4116	4028	3902	3822	3746	3709	3673	3673	3673	3709	3746	3822	3902	4028	4162	4257	4407	4568	4625	4742	4803	4865	4803	4803	4683	4625	4568	4568	4513	4460	4460	4407	4356	4306	4306	4257	4209	4116	4072	4028	3943	3902	3822	3746	3709	3673	3673	3709	3709	3709	3709	3784	3822	3784	3784	3784	3784	3746	3709	3709	3709	3709	3709	3709	3709	3709	3709	3673	3673	3673	3673	3709	3709	3709	3709	3673	3673	3673	3673	3709	3709	3746	3746	3784	3784	3862	3902	3902	3943	3985	3985	3985	4028	4028	4028	3985	3985	4028	4028	4028	4028	4028	4028	3985	3943	3822	3746	3673	3568	3501	3437	3375	3286	3229	3175	3096	3046	2997	2973	2927	2904	2904	2904	2882	2860	2860	2882	2882	2882	2904	2904	2927	2950	2997	3122	3345	3602	3862	4162	4460	4460	4460	4513	4995	4995	4356	4162	4072	4072	4072	4072	3985	3943	3943	3943	3943	4028	4116	4209	4257	4306	4356	4356	4306	4257	4162	4072	4028	3943	3902	3862	3822	3784	3784	3784	3784	3822	3822	3822	3822	3822	3862	3902	3943	3943	3985	4072	4116	4257	4460	4742	5132	5591	6349	7068	8143	8919	9605	9858	10703	14984	0	0	0	15608	14984	14984	14984	14984	14984	15608	16287	17838	18730	17838	16287	16287	0	0	0	0	0	0	3709	3469	3375	3229	3202	3175	3175	3122	3122	3148	3175	3175	3175	3175	3202	3202	3202	3229	3229	3257	3345	3501	3746	4028	4306	4513	4742	4929	5132	5203	5062	4995	4929	4865	4803	4683	4625	4625	4568	4513	4460	4407	4356	4356	4257	4162	4028	3943	3784	3637	3501	3437	3375	3315	3286	3229	3175	3122	3122	3096	3021	2997	2927	2904	2860	2838	2838	2817	2817	2817	2838	2817	2796	2775	2775	2754	2754	2796	2838	2860	2882	2904	2950	2973	3021	3070	3070	3122	3175	3202	3202	3286	3286	3375	3501	3784	3784	3902	4028	4162	4162	4356	4356	4356	4356	4356	4356	4356	4356	4356	4356	4356	4356	4407	4407	4407	4460	4513	4513	4513	4568	4568	4568	4625	4625	4625	4568	4568	4568	4568	4568	4625	4742	4865	4995	5062	5132	5203	5276	5276	5203	5132	5062	5062	5062	5062	5062	4995	4995	4995	4995	4995	4995	4995	4995	4995	5062	5276	5351	5429	5351	5351	5429	5429	5429	5351	5351	5351	5351	5429	5509	5509	5509	5429	5276	5062	4929	4865	4683	4568	4460	4306	4306	4209	4072	4028	3943	3862	3822	3822	3822	3862	3902	3985	4028	4116	4162	4209	4306	4306	4306	4356	4407	4460	4513	4625	4803	4995	5132	5276	5429	5591	5853	6042	6243	6459	6689	6937	7068	7068	6937	6689	6349	6042	5763	5509	5351	5203	5062	4995	4865	4865	4865	4865	4929	4929	4929	4929	4929	4865	4865	4929	4929	4865	4865	4865	4865	4865	4865	4865	4865	4865	4865	4865	4803	4742	4683	4683	4625	4568	4513	4460	4407	4407	4407	4407	4407	4407	4407	4460	4460	4513	4625	4683	4803	4865	4995	5062	5203	5276	5351	5429	5509	5591	5676	5676	5763	5676	5591	5591	5591	5429	5351	5203	5062	4865	4683	4568	4407	4306	4162	4072	3943	3862	3746	3673	3602	3501	3437	3405	3375	3345	3345	3315	3315	3375	3375	3405	3437	3437	3469	3469	3469	3501	3534	3534	3568	3602	3673	3746	3862	3943	4072	4162	4257	4460	4568	4742	4865	4995	5062	5132	5132	5203	5203	5203	5203	5203	5203	5132	5132	5132	5062	4995	4929	4803	4742	4625	4625	4513	4460	4407	4407	4356	4306	4257	4257	4162	4162	4072	3985	3943	3902	3822	3746	3709	3637	3602	3534	3469	3375	3315	3257	3229	3229	3229	3257	3315	3315	3437	3602	3673	3784	3862	4028	4116	4209	4306	4407	4513	4513	4568	4460	4407	4356	4356	4356	4356	4306	4306	4306	4356	4356	4407
4568	4568	4513	4460	4407	4407	4407	4356	4356	4356	4356	4356	4356	4356	4356	4407	4460	4513	4568	4625	4683	4742	4865	5132	5132	5132	5062	5062	4995	4929	4865	4742	4683	4625	4568	4513	4513	4460	4356	4356	4306	4306	4306	4407	4460	4513	4568	4568	4625	4683	4742	4803	4865	4865	4803	4742	4683	4683	4625	4568	4568	4513	4513	4513	4513	4513	4625	4625	4568	4513	4407	4306	4209	4116	4028	3943	3822	3784	3746	3709	3673	3673	3709	3746	3784	3862	4028	4162	4306	4460	4625	4742	4865	4929	4929	4929	4865	4742	4683	4625	4568	4513	4460	4460	4407	4407	4356	4306	4306	4257	4209	4116	4028	3985	3943	3862	3784	3746	3673	3673	3673	3673	3673	3709	3746	3746	3784	3784	3784	3784	3784	3784	3784	3746	3746	3746	3709	3709	3709	3709	3746	3709	3673	3673	3709	3709	3709	3673	3637	3637	3637	3637	3637	3673	3673	3673	3709	3746	3784	3822	3862	3902	3902	3943	3985	3985	3985	3985	3985	3985	4028	4028	4028	4028	3985	3985	3985	3902	3822	3746	3673	3568	3501	3469	3375	3315	3257	3202	3122	3070	3046	2997	2973	2950	2927	2927	2904	2904	2904	2904	2904	2904	2904	2904	2927	2950	2997	3148	3375	0	4513	4513	4865	4865	4865	4929	4995	4995	4929	4683	4513	4460	4407	4356	4306	4209	4116	4116	4116	4162	4257	4257	4306	4356	4356	4407	4356	4257	4209	4162	4072	4028	3985	3943	3862	3822	3822	3822	3822	3822	3822	3822	3822	3822	3862	3902	3943	3985	3985	4072	4116	4356	4625	4995	5591	6349	7345	8514	10124	11352	12084	12917	13874	14984	0	19716	19716	17838	17027	17027	16287	16287	16287	17027	17838	19716	20811	20811	20811	20811	23413	0	0	0	0	0	4162	3709	3501	3375	3257	3202	3175	3122	3122	3148	3175	3175	3175	3175	3202	3202	3202	3229	3257	3315	3437	3637	3902	4209	4513	4742	4865	5062	5203	5203	5132	5062	4995	4929	4865	4803	4742	4683	4625	4568	4513	4513	4460	4407	4356	4209	4072	3943	3784	3637	3501	3405	3345	3315	3257	3202	3175	3148	3148	3122	3070	3046	2997	2997	2997	2997	2997	2997	3021	3021	3021	3021	3021	2973	2950	2950	2950	2950	2950	2997	3021	3046	3070	3122	3175	3229	3257	3315	3375	3469	3469	3534	3637	3637	3746	3862	3985	4072	4116	4209	4209	4356	4306	4306	4306	4306	4306	4306	4306	4306	4306	4306	4306	4356	4356	4407	4407	4460	4460	4513	4568	4568	4625	4625	4625	4625	4625	4625	4625	4625	4625	4683	4742	4865	4995	5062	5132	5203	5276	5351	5276	5276	5203	5203	5203	5203	5203	5203	5132	5132	5132	5132	5132	5132	5132	5132	5203	5351	5429	5429	5429	5429	5429	5429	5429	5429	5429	5429	5429	5509	5509	5509	5429	5351	5276	5062	4929	4803	4625	4513	4356	4209	4209	4116	4028	3985	3943	3862	3822	3822	3862	3902	3985	4072	4116	4162	4257	4257	4306	4306	4306	4356	4407	4460	4568	4742	4929	5132	5276	5429	5591	5763	5946	6141	6349	6572	6811	6937	6937	6937	6811	6572	6243	5946	5676	5351	5276	5203	5062	4929	4865	4865	4865	4865	4865	4929	4929	4929	4865	4865	4865	4865	4929	4865	4865	4865	4865	4865	4865	4865	4865	4865	4865	4803	4742	4742	4683	4625	4625	4625	4460	4460	4460	4460	4460	4407	4407	4460	4513	4513	4568	4625	4683	4742	4865	4929	4995	5062	5203	5276	5351	5429	5591	5676	5676	5763	5853	5763	5763	5676	5676	5591	5429	5276	5132	4865	4742	4625	4460	4306	4209	4116	4028	3943	3862	3746	3673	3602	3534	3501	3469	3437	3437	3469	3469	3501	3501	3568	3568	3602	3602	3637	3637	3637	3637	3637	3709	3709	3746	3822	3902	4028	4116	4209	4306	4460	4625	4803	4929	5062	5062	5132	5203	5203	5276	5276	5276	5276	5276	5276	5276	5203	5203	5132	4995	4865	4803	4683	4625	4568	4513	4460	4407	4407	4356	4306	4257	4257	4209	4162	4072	4028	3985	3943	3862	3784	3746	3602	3534	3437	3375	3286	3202	3175	3175	3175	3229	3286	3315	3437	3602	3709	3862	4028	4257	4407	4513	4625	4683	4742	4803	4803	4742	4683	4625	4625	4568	4513	4513	4460	4460	4460	4460	4460
4625	4568	4513	4460	4460	4407	4356	4306	4306	4306	4257	4257	4257	4257	4257	4306	4306	4356	4356	4407	4460	4513	4865	4929	4929	4929	4929	4929	4929	4865	4803	4742	4683	4625	4513	4460	4460	4407	4356	4306	4257	4257	4306	4407	4460	4460	4568	4568	4625	4683	4742	4865	4865	4803	4742	4683	4625	4625	4625	4513	4513	4513	4513	4513	4513	4513	4625	4625	4568	4513	4407	4306	4257	4162	4072	3985	3862	3822	3746	3709	3673	3673	3709	3709	3784	3862	3985	4162	4306	4513	4683	4865	4995	5062	5062	4995	4929	4865	4742	4625	4568	4568	4513	4513	4460	4407	4407	4407	4356	4306	4257	4209	4116	4028	4028	3943	3862	3746	3673	3673	3673	3673	3673	3673	3709	3746	3746	3746	3784	3784	3784	3822	3822	3822	3784	3784	3746	3746	3746	3746	3746	3709	3673	3673	3673	3673	3673	3673	3637	3637	3637	3637	3602	3602	3637	3637	3637	3673	3709	3746	3784	3822	3862	3902	3943	3985	3985	3985	3985	3985	4028	4028	4028	4028	3985	3985	3985	3902	3862	3746	3673	3602	3534	3469	3405	3345	3286	3229	3175	3122	3096	3046	3021	2973	2973	2973	2973	2950	2950	2927	2927	2927	2950	2950	2950	2973	3021	3148	3405	0	4513	4513	4929	5276	5351	5429	5429	5429	5351	5276	5062	4865	4865	4683	4568	4407	4257	4257	4257	4257	4306	4356	4407	4407	4460	4460	4407	4306	4257	4209	4162	4072	4028	3985	3902	3902	3902	3902	3902	3862	3862	3822	3822	3862	3862	3902	3943	3985	4028	4072	4162	4356	4742	5276	7068	7068	8514	10124	12487	13874	14984	16287	17027	17838	20811	19716	19716	19716	18730	18730	17838	17838	17838	18730	19716	20811	20811	22035	23413	23413	23413	24973	24973	0	0	0	0	0	0	3673	3437	3437	3257	3175	3175	3175	3202	3202	3202	3202	3202	3229	3257	3286	3345	3437	3602	3822	4072	4356	4625	4865	4995	5132	5203	5276	5203	5132	5062	4995	4865	4803	4803	4742	4683	4683	4625	4568	4513	4460	4306	4162	3985	3862	3709	3534	3437	3345	3315	3286	3257	3202	3175	3175	3148	3148	3148	3096	3096	3096	3096	3148	3175	3202	3202	3229	3257	3286	3286	3229	3229	3229	3202	3202	3229	3257	3257	3257	3315	3345	3375	3437	3469	3534	3602	3673	3673	3746	3784	3862	3985	4028	4116	4162	4209	4257	4257	4306	4306	4306	4306	4257	4257	4257	4257	4257	4257	4257	4257	4306	4306	4356	4356	4407	4407	4460	4513	4568	4568	4625	4625	4625	4625	4625	4625	4625	4683	4742	4803	4865	4995	5132	5132	5203	5276	5351	5351	5351	5351	5351	5429	5429	5429	5429	5429	5429	5429	5429	5351	5351	5276	5276	5429	5509	5509	5429	5429	5429	5509	5509	5509	5509	5429	5429	5429	5509	5509	5509	5429	5351	5203	4995	4865	4742	4568	4407	4306	4162	4072	4072	3985	3985	3943	3902	3862	3862	3902	3985	4072	4116	4209	4257	4257	4257	4306	4306	4356	4407	4460	4568	4683	4865	5062	5351	5429	5591	5763	5946	6042	6243	6459	6689	6811	6937	6811	6689	6572	6349	6141	5763	5591	5351	5203	5132	4995	4929	4865	4865	4865	4865	4865	4865	4865	4865	4865	4865	4865	4865	4929	4865	4865	4865	4865	4865	4865	4865	4865	4865	4865	4803	4742	4683	4683	4625	4625	4513	4460	4460	4460	4460	4513	4513	4513	4513	4568	4568	4683	4683	4683	4742	4865	4929	4995	5062	5203	5276	5351	5509	5591	5676	5763	5853	5946	5853	5763	5676	5676	5591	5509	5276	5132	4865	4742	4625	4513	4407	4306	4257	4162	4072	3943	3862	3784	3709	3637	3602	3568	3534	3534	3568	3568	3637	3673	3709	3709	3784	3784	3784	3784	3784	3822	3862	3902	3943	3943	3985	4072	4257	4356	4356	4407	4568	4742	4929	4995	5132	5132	5132	5203	5203	5351	5351	5351	5351	5429	5429	5351	5351	5276	5203	5062	4929	4803	4742	4625	4568	4513	4460	4460	4407	4407	4356	4306	4306	4257	4257	4209	4162	4116	4028	3985	3943	3902	3709	3534	3437	3375	3286	3202	3175	3175	3175	3229	3286	3501	3501	3746	3862	4028	4257	4513	4683	4865	4865	4929	5062	5132	5062	4995	4995	4865	4803	4742	4742	4683	4625	4568	4568	4513	4513
4625	4513	4513	4460	4407	4356	4306	4257	4209	4209	4162	4162	4162	4116	4116	4116	4162	4162	4162	4209	4460	4513	4625	4683	4742	4742	4742	4803	4803	4742	4683	4625	4625	4568	4513	4460	4460	4356	4356	4306	4257	4257	4306	4407	4460	4460	4568	4625	4625	4625	4683	4683	4683	4683	4625	4625	4568	4568	4513	4460	4460	4460	4513	4513	4513	4568	4625	4625	4568	4513	4407	4306	4257	4162	4072	4028	3902	3822	3784	3784	3709	3709	3709	3709	3784	3862	3985	4116	4257	4460	4683	4865	5062	5132	5132	5062	4995	4865	4803	4742	4683	4625	4568	4568	4513	4460	4460	4460	4460	4407	4356	4306	4209	4162	4072	4028	3902	3784	3709	3709	3673	3673	3673	3673	3673	3673	3709	3746	3784	3784	3822	3822	3862	3862	3822	3822	3784	3784	3746	3746	3709	3709	3673	3673	3673	3673	3673	3673	3637	3602	3602	3602	3602	3602	3602	3602	3602	3637	3637	3673	3746	3784	3822	3862	3902	3943	3985	3985	3985	4028	4028	4028	4028	4028	4028	3985	3985	3902	3862	3784	3709	3637	3568	3501	3437	3375	3315	3257	3202	3175	3148	3122	3070	3046	3046	3021	3021	2997	2997	2973	2973	2973	2973	2997	2997	2997	3021	3175	3469	4257	4257	4625	5276	5591	5763	5763	5763	5763	5763	5591	5429	5203	5203	4995	4865	4683	4513	4407	4407	4407	4407	4407	4407	4460	4460	4460	4407	4356	4306	4257	4209	4162	4116	4072	4028	3985	3943	3943	3943	3902	3902	3862	3862	3862	3902	3902	3943	4028	4028	4116	4162	4460	4865	5509	0	9137	9137	11352	14408	16287	17838	17838	19716	19716	20811	22035	22035	22035	22035	20811	20811	20811	20811	22035	22035	23413	23413	23413	24973	24973	23413	22035	17838	17027	11352	11352	0	0	0	0	0	0	0	3315	3257	3229	3229	3257	3257	3257	3286	3286	3315	3345	3437	3568	3746	3985	4306	4513	4742	4929	5062	5203	5276	5203	5203	5132	5062	4995	4929	4865	4803	4803	4742	4742	4683	4625	4568	4460	4306	4116	3902	3784	3637	3501	3405	3345	3315	3286	3229	3229	3202	3175	3175	3175	3148	3148	3148	3148	3202	3286	3315	3375	3437	3437	3501	3568	3602	3534	3501	3501	3469	3469	3501	3469	3405	3405	3437	3501	3534	3602	3673	3709	3784	3862	3902	3943	3943	4028	4116	4162	4209	4257	4257	4306	4306	4306	4306	4306	4257	4209	4209	4209	4209	4209	4209	4209	4209	4257	4257	4306	4306	4356	4407	4460	4460	4513	4568	4625	4625	4625	4683	4683	4683	4683	4742	4803	4865	4995	5062	5203	5203	5276	5351	5351	5429	5429	5509	5509	5591	5591	5676	5676	5676	5676	5676	5591	5509	5429	5429	5429	5429	5429	5429	5429	5429	5429	5591	5591	5591	5591	5591	5509	5509	5509	5509	5509	5509	5351	5203	4995	4865	4683	4513	4356	4209	4072	4028	4028	3985	3985	3985	3943	3943	3943	3985	4028	4116	4209	4306	4306	4257	4257	4306	4306	4356	4460	4513	4625	4803	4995	5276	5509	5591	5763	5946	6042	6141	6349	6459	6689	6811	6689	6572	6459	6349	6243	5946	5676	5509	5276	5203	5132	4995	4929	4865	4865	4865	4865	4865	4865	4865	4865	4865	4865	4865	4929	4929	4929	4865	4865	4865	4865	4803	4803	4803	4742	4742	4683	4625	4625	4625	4625	0	4513	4460	4460	4460	4513	4513	4513	4568	4568	4625	4625	4683	4683	4742	4803	4865	4929	5062	5132	5203	5276	5351	5509	5591	5676	5763	5853	5853	5853	5853	5763	5591	5591	5509	5276	5062	4865	4742	4683	4568	4513	4460	4356	4257	4162	4116	4028	3943	3862	3822	3784	3784	3746	3746	3784	3784	3822	3862	3862	3902	3902	3943	3943	3943	3943	3985	3985	4028	4072	4116	4162	4257	4356	4460	4513	4568	4742	4929	5062	5132	5203	5203	5276	5276	5351	5351	5429	5429	5509	5509	5509	5509	5429	5351	5203	5062	4929	4803	4742	4625	4625	4568	4513	4460	4460	4460	4407	4407	4356	4356	4356	4306	4257	4209	4116	4116	4072	3943	3784	3602	3469	3375	3315	3257	3229	3229	3257	3345	3345	3637	3637	0	0	4742	4742	4865	4995	5132	5132	5203	5276	5351	5351	5276	5203	5132	5062	4995	4929	4865	4803	4742	4683	4625	4625
4568	4513	4460	4407	4356	4306	4257	4162	4116	4072	4072	4028	4028	3985	3985	3985	3985	3985	4162	4209	4257	4306	4356	4460	4460	4460	4460	4460	4513	4460	4460	4460	4460	4460	4407	4306	4306	4356	4356	4306	4257	4257	4257	4407	4460	4460	4513	4460	4460	4568	4625	4568	4568	4568	4513	4513	4513	4513	4513	4460	4407	4407	4460	4513	4513	4568	4568	4568	4513	4513	4407	4306	4257	4209	4116	4028	3943	3862	3822	3822	3784	3709	3709	3709	3784	3822	3943	4072	4209	4407	4625	4865	4995	5132	5203	5203	5132	4995	4865	4803	4742	4742	4683	4683	4625	4568	4568	4568	4568	4513	4407	4356	4306	4209	4162	4072	3985	3862	3746	3709	3673	3673	3673	3673	3673	3673	3709	3709	3784	3822	3862	3862	3902	3902	3862	3862	3822	3784	3746	3746	3709	3673	3637	3637	3637	3637	3637	3637	3637	3602	3602	3568	3568	3568	3568	3568	3568	3602	3637	3673	3709	3746	3784	3822	3902	3943	3985	3985	4028	4028	4028	4028	4028	4028	4028	3985	3985	3943	3902	3822	3746	3673	3637	3568	3501	3437	3405	3315	3286	3257	3229	3148	3122	3122	3096	3070	3070	3046	3046	3021	3021	3021	3021	3021	3021	3021	3070	3229	0	4257	4257	4803	5429	5853	6042	6042	6042	6042	6042	5853	5676	5509	5351	5203	4995	4803	4625	4513	4513	4460	4460	4460	4460	4460	4460	4460	4460	4356	4306	4257	4209	4209	4162	4116	4072	4028	4028	4028	3985	3985	3943	3902	3902	3902	3943	3943	3985	4072	4072	4162	4209	4460	4995	5591	7645	7645	9605	12487	17027	18730	19716	22035	23413	23413	23413	24973	24973	24973	24973	24973	24973	23413	23413	24973	24973	24973	24973	24973	23413	22035	20811	19716	17027	14408	11352	11018	9365	8324	7204	7204	0	0	0	0	3345	3315	3315	3345	3315	3315	3345	3345	3375	3437	3568	3709	3902	4162	4407	4625	4803	4929	5062	5132	5132	5132	5132	5062	5062	4995	4929	4865	4865	4865	4803	4742	4683	4568	4460	4306	4209	3985	3822	3709	3568	3469	3375	3315	3315	3286	3229	3229	3229	3229	3229	3257	3286	3286	3286	3315	3375	3469	3534	3568	3637	3673	3709	3822	3862	3746	3709	3709	3673	3673	3637	3602	3602	3602	3602	3637	3709	3709	3784	3822	3902	3985	4028	4072	4162	4209	4257	4306	4356	4356	4356	4356	4356	4306	4306	4257	4209	4209	4209	4162	4162	4162	4162	4162	4162	4209	4209	4257	4306	4306	4356	4407	4460	4513	4568	4625	4625	4625	4683	4742	4742	4803	4803	4865	4995	5062	5203	5203	5203	5276	5276	5276	5276	5351	5429	5509	5591	5676	5763	5853	5853	5946	5853	5676	5591	5509	5429	5429	5429	5429	5429	5429	5429	5509	5676	5676	5676	5591	5591	5591	5591	5676	5591	5591	5591	5351	5203	4995	4865	4625	4460	4356	4209	4072	4028	3985	3985	3985	3985	3985	3985	3985	4072	4116	4209	4257	4356	4356	4306	4306	4356	4356	4460	4568	4683	4803	4995	5203	5429	5676	5763	5946	6042	6141	6243	6459	6572	6572	6572	6459	6349	6243	6141	5946	5763	5509	5429	5203	5132	5062	5062	4929	4865	4865	4803	4803	4865	4865	4865	4865	4865	4865	4865	4929	4929	4929	4865	4865	4865	4803	4742	4742	4803	4683	4625	4568	4568	4513	4513	4625	4625	4625	4513	4513	4568	4568	4568	4568	4568	4625	4683	4683	4683	4683	4742	4803	4865	4995	5062	5132	5203	5203	5351	5429	5509	5591	5676	5763	5853	5853	5763	5676	5591	5591	5351	5203	5062	4865	4742	4742	4683	4625	4568	4513	4407	4356	4257	4257	4162	4072	4072	4028	4028	4028	4028	4028	4028	4028	4072	4072	4116	4116	4116	4116	4116	4116	4116	4162	4209	4257	4306	4356	4460	4568	4683	4742	4803	4929	5132	5351	5351	5351	5351	5429	5429	5429	5509	5509	5591	5591	5676	5591	5591	5429	5276	5132	5062	4929	4803	4742	4683	4625	4568	4568	4513	4460	4460	4460	4460	4460	4407	4407	4407	4356	4356	4306	4257	4162	4028	3902	3709	3568	3437	3345	3257	3229	3229	3257	3345	3437	3746	3746	0	4513	4513	4742	5062	5132	5276	5351	5429	5429	5509	5509	5509	5429	5351	5203	5132	5132	5062	4929	4865	4865	4742	4742
4568	4513	4460	4407	4356	4306	4209	4162	4072	4028	3985	3943	3902	3902	3862	3862	3985	3985	3985	4028	4028	4072	4116	4162	4162	4209	4209	4209	4257	4257	4257	4257	4257	4306	4306	4306	4306	0	4356	4306	4257	4257	4257	4356	4407	4460	4460	4460	4460	4460	4513	4513	4513	4513	4460	4460	4460	4460	4460	4407	4407	4407	4460	4513	4513	4568	4568	4568	4513	4513	4407	4306	4257	4209	4116	4072	3985	3902	3862	3822	3784	3746	3746	3746	3784	3822	3902	4028	4162	4356	4513	4742	4929	5132	5276	5276	5203	5062	4995	4929	4865	4865	4803	4742	4683	4625	4625	4625	4625	4568	4513	4460	4356	4306	4257	4162	4028	3862	3784	3746	3673	3673	3673	3637	3637	3673	3673	3709	3784	3822	3862	3902	3943	3985	3943	3902	3862	3822	3746	3709	3673	3673	3637	3637	3637	3637	3637	3602	3602	3602	3568	3568	3568	3568	3568	3568	3568	3568	3602	3637	3673	3746	3784	3822	3862	3902	3985	3985	4028	4072	4072	4072	4072	4072	4072	4028	4028	3985	3902	3862	3784	3746	3709	3673	3568	3534	3469	3405	3375	3315	3257	3229	3175	3175	3148	3122	3122	3122	3096	3096	3096	3096	3096	3096	3096	3148	3148	3315	0	0	4929	4929	5351	5763	5946	5946	5946	5946	6042	5853	5676	5509	5429	5276	5062	4865	4742	4568	4513	4513	4460	4407	4407	4407	4407	4407	4356	4306	4257	4209	4209	4209	4162	4162	4116	4072	4072	4072	4028	3985	3985	3943	3943	3943	3985	3985	4028	4072	4116	4162	4162	4460	4865	5429	7492	7492	9137	12487	17027	18730	20811	20811	23413	23413	23413	24973	24973	24973	24973	24973	23413	23413	23413	23413	23413	23413	23413	22035	20811	20811	18730	17838	15608	13874	12917	11018	9365	8324	7204	6141	6141	0	0	0	3534	3501	3405	3405	3405	3405	3405	3437	3469	3534	3673	3784	4028	4209	4407	4568	4683	4865	4929	4995	5062	5062	5062	4995	4995	4929	4929	4865	4865	4865	4803	4683	4568	4513	4356	4209	4116	3902	3709	3602	3534	3437	3375	3315	3286	3286	3257	3257	3257	3257	3257	3286	3315	3345	3345	3375	3469	3602	3673	3709	3784	3822	3862	3985	4028	3943	3902	3862	3862	3822	3784	3784	3746	3746	3746	3746	3822	3822	3902	3943	4028	4072	4116	4162	4209	4257	4306	4356	4407	4407	4356	4356	4306	4306	4257	4209	4209	4162	4162	4162	4162	4162	4162	4162	4162	4162	4209	4257	4306	4306	4356	4407	4460	4513	4568	4625	4625	4683	4683	4742	4803	4865	4865	4995	5062	5132	5203	5203	5203	5203	5203	5203	5203	5203	5351	5351	5509	5591	5676	5763	5853	5946	5853	5676	5591	5509	5429	5429	5429	5429	5429	5429	5429	5509	5591	5676	5676	5676	5676	5676	5676	5763	5676	5676	5509	5276	5203	4929	4803	4625	4407	4306	4162	4072	4028	3985	3985	3985	4028	4028	4028	4072	4162	4209	4306	4356	4407	4407	4356	4356	4356	4460	4568	4683	4803	4929	5132	5276	5509	5763	5946	6042	6141	6243	6349	6459	6459	6459	6349	6243	6141	5946	5853	5763	5591	5429	5276	5132	5132	5062	4995	4929	4865	4803	4803	4803	4803	4865	4865	4865	4865	4929	4929	4929	4929	4929	4929	4865	4865	4803	4683	4683	0	4683	4513	4513	4568	4513	4513	4568	4568	4683	4683	4625	4625	4683	4683	4683	4683	4683	4683	4683	4683	4742	4803	4865	4929	4929	4995	5062	5132	5203	5276	5351	5429	5509	5591	5676	5763	5763	5676	5676	5591	5429	5351	5203	5062	4865	4803	4803	4742	4683	4625	4568	4513	4460	4407	4356	4306	4306	4257	4257	4209	4209	4257	4257	4257	4257	4257	4257	4257	4257	4257	4257	4257	4257	4306	4306	4407	4460	4513	4625	4742	4865	4995	5062	5132	5203	5429	5509	5591	5591	5591	5591	5676	5676	5676	5676	5676	5763	5676	5509	5429	5351	5276	5132	4995	4865	4803	4683	4683	4625	4568	4568	4513	4513	4513	4513	4513	4513	4513	4513	4513	4460	4460	4407	4356	4306	4257	4028	3822	3673	3501	3437	3315	3286	3286	3345	3375	3568	3822	3822	4306	4513	4513	4865	5203	5203	5351	5429	5429	5509	5591	5591	5591	5509	5509	5429	5351	5351	5203	5132	5062	4995	4929	4929
4625	4568	4513	4407	4356	4306	4209	4162	4072	3985	3943	3902	3862	3862	3862	3862	3862	3862	3862	3862	3862	3902	3943	3985	3985	3985	4028	4072	4072	4116	4116	4116	4162	4209	4257	4257	0	0	0	0	4257	4257	4257	4356	4356	4356	4407	4407	4407	4407	4460	4460	4460	4460	4460	4460	4460	4460	4460	4407	4407	4407	4460	4460	4513	4513	4513	4513	4513	0	4407	4306	4257	4209	4116	4072	4028	3943	3902	3862	3822	3784	3784	3784	3784	3822	3902	3985	4116	4257	4407	4625	4742	4929	5132	5276	5276	5203	5132	5062	4995	4929	4929	4865	4803	4742	4683	4683	4683	4683	4568	4513	4407	4356	4306	4162	4072	3943	3862	3746	3746	3673	3673	3637	3637	3673	3673	3709	3784	3862	3902	3943	3943	3985	3985	3985	3902	3822	3784	3709	3673	3673	3637	3637	3637	3637	3637	3602	3602	3602	3568	3568	3568	3568	3568	3568	3568	3568	3602	3637	3673	3746	3784	3822	3862	3902	3985	3985	4028	4072	4072	4072	4116	4072	4072	4072	4028	4028	3985	3902	3862	3822	3784	3709	3673	3602	3568	3501	3437	3375	3345	3286	3229	3202	3202	3175	3175	3148	3148	3148	3148	3148	3148	3148	3175	3257	3257	3405	3746	4028	4742	4742	5132	5429	5591	5763	5763	5853	5853	5763	5591	5509	5351	5203	5062	4803	4742	4513	4513	4460	4407	4407	4356	4356	4356	4356	4306	4257	4209	4162	4162	4162	4116	4116	4116	4116	4116	4072	4072	4072	4028	3985	3985	3985	3985	4028	4072	4116	4162	4162	4162	4407	4803	5276	6811	6811	8143	10406	13874	15608	17838	18730	19716	19716	19716	20811	20811	20811	20811	22035	20811	20811	20811	20811	22035	20811	18730	17027	15608	14408	13379	12084	10703	10124	9605	9137	8712	7970	6811	5946	5203	5203	0	3784	3534	3501	3469	3469	3469	3469	3469	3469	3501	3602	3709	3822	4028	4162	4306	4460	4568	4683	4742	4865	4865	4929	4929	4929	4865	4865	4865	4803	4803	4803	4742	4625	4513	4407	4257	4116	3943	3746	3568	3469	3375	3315	3257	3202	3175	3175	3175	3175	3175	3175	3175	3202	3229	3229	3257	3257	3375	3501	3568	3637	3709	3822	3862	4028	4116	3985	3985	3985	3943	3943	3902	3822	3784	3784	3784	3822	3862	3902	3902	3943	3985	4028	4072	4116	4116	4162	4209	4257	4306	4306	4306	4306	4257	4257	4209	4209	4162	4116	4116	4116	4116	4116	4116	4116	4162	4162	4162	4209	4257	4306	4356	4407	4460	4513	4568	4625	4683	4683	4742	4803	4865	4929	4995	5062	5132	5203	5203	5203	5132	5132	5132	5132	5132	5132	5203	5276	5351	5509	5591	5763	5853	5853	5853	5763	5676	5591	5429	5429	5429	5351	5351	5351	5351	5351	5509	5509	5591	5591	5591	5591	5676	5763	5676	5591	5429	5203	5062	4865	4742	4625	4407	4257	4116	4072	4028	4028	4028	4028	4028	4072	4116	4162	4209	4306	4356	4407	4407	4460	4407	4407	4460	4513	4625	4803	4929	5062	5203	5429	5676	5946	6042	6141	6243	6349	6459	6459	6459	6349	6243	6141	5946	5853	5676	5591	5509	5276	5203	5062	4995	4995	4995	4929	4865	4803	4803	4803	4803	4865	4865	4865	4865	4929	4929	4929	4929	4929	4929	4865	4865	4803	4683	4683	0	0	4513	4513	0	4407	4407	4460	4568	4683	4683	4683	4683	4683	4683	4742	4742	4742	4742	4742	4742	4742	4803	4865	4929	4929	4995	5062	5132	5203	5276	5351	5429	5509	5591	5676	5763	5763	5676	5676	5509	5351	5351	5203	5062	4929	4865	4803	4803	4742	4742	4683	4625	4568	4513	4513	4460	4460	4460	4460	4460	4460	4460	4407	4407	4460	4407	4407	4407	4407	4407	4407	4407	4407	4407	4513	4568	4568	4683	4865	4995	5132	5203	5276	5351	5509	5676	5763	5763	5763	5763	5763	5763	5763	5676	5591	5591	5591	5509	5429	5351	5203	5132	4995	4929	4803	4742	4683	4625	4625	4568	4568	4568	4568	4568	4568	4568	4568	4568	4568	4513	4513	4568	4568	4460	4407	4356	4162	3943	3784	3637	3568	3501	3469	3469	0	0	4209	4209	4306	4306	4513	4683	4929	5203	5276	5351	5429	5429	5509	5591	5591	5591	5591	5591	5591	5509	5509	5351	5276	5203	5132	5062	5062
4742	4683	4568	4513	4407	4306	4257	4162	4072	3985	3943	3902	3862	3822	3784	3784	3784	3746	3746	3746	3746	3784	3822	3862	3862	3902	3902	3985	4028	4028	4116	4116	4162	4209	4257	4257	0	0	0	0	0	4257	4257	4356	4356	4356	4407	4407	4407	4407	4460	4460	4460	4460	4460	4460	4460	4460	4407	4407	4407	4407	4460	4407	4407	4513	4460	4460	4460	0	0	0	0	0	4162	4072	4028	3985	3943	3943	3902	3822	3784	3784	3822	3822	3902	3943	4028	4116	4306	4460	4568	4803	4995	5132	5276	5276	5203	5132	5132	5062	4995	4929	4865	4803	4803	4742	4742	4742	4625	4568	4460	4407	4356	4209	4116	3985	3862	3822	3784	3709	3673	3637	3637	3673	3673	3709	3784	3862	3902	3985	3985	3985	4028	3985	3902	3822	3746	3709	3673	3673	3637	3637	3637	3637	3637	3602	3602	3602	3602	3602	3568	3568	3568	3568	3568	3568	3602	3637	3673	3709	3784	3822	3862	3902	3985	3985	4072	4072	4072	4116	4116	4116	4116	4116	4072	4072	4028	3985	3943	3902	3862	3822	3784	3709	3673	3602	3534	3501	3405	3345	3286	3257	3257	3229	3229	3229	3229	3229	3229	3229	3257	3257	3286	3375	3534	3534	3746	4028	4460	4742	5132	5429	5591	5676	5763	5763	5763	5676	5509	5509	5351	5203	5062	4803	4742	4513	4460	4460	4407	4407	4356	4356	4306	4257	4257	4209	4162	4116	4116	4116	4116	4116	4116	4072	4072	4116	4072	4072	4072	4028	4028	4028	4028	4028	4072	4116	4162	4162	4162	4356	4625	5062	6349	6349	7204	8712	11018	12917	14408	15608	16287	16287	17027	17027	17027	17838	17838	17838	17027	17027	16287	15608	14408	12917	11706	10703	9858	9365	8919	8514	8143	7804	7804	7492	7068	6811	5946	5946	5203	5203	4072	3784	3602	3534	3534	3501	3501	3501	3501	3501	3534	3602	3673	3746	3902	4028	4162	4257	4356	4460	4568	4625	4683	4742	4742	4803	4803	4803	4803	4742	4742	4742	4683	4568	4460	4306	4162	4028	3784	3602	3405	3315	3257	3175	3122	3096	3070	3070	3070	3070	3070	3070	3096	3122	3148	3175	3175	3175	3257	3405	3437	3534	3602	3709	3784	3943	4028	4028	4028	4028	4028	3985	3943	3902	3822	3822	3862	3862	3862	3862	3902	3902	3902	3943	3985	3985	4028	4072	4116	4162	4209	4209	4257	4209	4209	4209	4162	4162	4116	4116	4116	4116	4116	4116	4116	4116	4116	4162	4162	4209	4257	4306	4356	4407	4460	4513	4625	4625	4742	4742	4803	4865	4995	4995	5062	5062	5132	5203	5203	5203	5132	5062	5062	5062	5062	5132	5132	5203	5351	5509	5591	5676	5763	5853	5853	5763	5591	5509	5429	5429	5429	5351	5276	5276	5276	5276	5429	5509	5509	5509	5509	5509	5591	5676	5676	5591	5429	5203	4995	4865	4683	4568	4356	4257	4116	4072	4028	4028	4028	4072	4072	4116	4162	4209	4306	4356	4407	4460	4460	4460	4460	4460	4513	4568	4742	4929	5062	5203	5351	5509	5763	6042	6141	6243	6349	6459	6572	6459	6349	6243	6141	5946	5763	5676	5509	5429	5351	5203	5062	4995	4929	4929	4995	4929	4865	4803	4803	4803	4803	4865	4865	4929	4929	4929	4929	4929	4995	4929	4929	4865	4865	4803	4625	4513	4460	4460	4407	4356	4356	4407	4407	4460	4568	4683	4683	4742	4742	4742	4742	4803	4803	4803	4742	4742	4803	4803	4803	4865	4929	4995	5062	5132	5132	5203	5276	5276	5351	5429	5509	5591	5676	5676	5676	5676	5509	5351	5351	5203	5062	4995	4929	4929	4865	4865	4803	4742	4742	4683	4683	4683	4683	4683	4625	4625	4625	4625	4625	4568	4568	4568	4568	4568	4513	4513	4513	4460	4460	4513	4513	4568	4683	4742	4865	4995	5132	5276	5351	5429	5509	5676	5853	5853	5853	5853	5853	5763	5763	5763	5591	5591	5509	5509	5351	5276	5203	5132	4995	4865	4803	4742	4683	4625	4568	4568	4568	4513	4513	4513	4513	4513	4568	4513	4513	4513	4513	4513	4513	4513	4513	4407	4407	4209	4028	3902	3784	3709	3709	3784	3822	3862	3943	4116	4209	4460	4460	4625	4803	5062	5203	5276	5276	5351	5429	5429	5509	5591	5676	5676	5676	5676	5676	5591	5509	5429	5351	5276	5203	5203
5203	4995	4929	4803	4625	4513	4407	4257	4116	4028	3943	3862	3822	3784	3784	3746	3746	3709	3709	3709	3709	3709	3746	3784	3822	3862	3862	3943	3985	4028	4116	4116	4162	4209	4257	4257	0	0	0	0	0	0	0	4929	4625	4625	4568	4513	4513	4568	4568	4568	4460	4460	4460	4460	4460	4460	4407	4407	4407	4407	4407	4407	4407	4460	4460	4460	4460	0	0	0	0	0	0	4162	4116	4116	4072	4028	3985	3902	3862	3862	3862	3862	3902	3943	3985	4072	4209	4306	4460	4625	4803	4995	5276	5276	5276	5276	5203	5203	5132	5062	4929	4929	4865	4803	4803	4803	4683	4568	4513	4460	4356	4257	4162	3985	3902	3822	3822	3746	3673	3637	3637	3673	3673	3673	3784	3862	3902	3985	3985	3985	4028	3985	3902	3822	3746	3673	3673	3673	3637	3637	3637	3637	3637	3637	3637	3637	3637	3637	3602	3602	3602	3602	3602	3602	3637	3673	3709	3709	3784	3822	3862	3902	3985	4028	4072	4072	4116	4116	4116	4116	4116	4116	4116	4116	4072	4028	3985	3985	3943	3943	3862	3822	3746	3673	3637	3568	3501	3437	3375	3345	3315	3315	3315	3315	3315	3315	3315	3345	3375	3375	3437	3534	3709	3709	3943	4209	4460	4865	5203	5429	5591	5676	5676	5676	5591	5509	5351	5276	5203	5132	4995	4803	4683	4513	4460	4407	4356	4356	4306	4257	4257	4257	4209	4162	4072	4072	4028	4028	4028	4072	4072	4072	4072	4072	4072	4072	4072	4072	4028	4028	4072	4072	4072	4116	4116	4116	4116	4257	4513	4803	6349	6349	6459	7492	8919	10406	11706	12084	12917	12917	12917	13874	13874	14408	14408	14984	14984	14984	13379	12084	11018	9605	8514	8514	9858	9365	6572	6349	6349	6349	6349	6243	6042	5763	5763	5946	0	0	4028	3746	3637	3568	3568	3534	3534	3534	3501	3501	3501	3534	3602	3673	3784	3862	3985	4072	4162	4257	4356	4460	4513	4568	4625	4625	4683	4683	4683	4683	4683	4683	4625	4513	4356	4162	3985	3822	3637	3405	3257	3175	3096	3046	2997	2973	2973	2973	2973	2973	2973	2997	2997	3021	3046	3046	3096	3148	3148	3257	3315	3405	3469	3568	3673	3822	3985	4028	4028	4028	4028	4028	4028	3943	3902	3862	3862	3862	3822	3822	3822	3822	3822	3862	3862	3902	3902	3943	3985	4028	4116	4116	4162	4162	4162	4162	4116	4116	4116	4116	4116	4116	4116	4116	4116	4116	4116	4162	4162	4209	4306	4356	4407	4460	4513	4568	4683	4683	4803	4803	4865	4929	4995	5062	5062	5132	5203	5203	5203	5203	5132	5062	5062	5062	5062	5132	5132	5203	5276	5429	5509	5591	5763	5763	5763	5676	5591	5509	5429	5429	5351	5351	5276	5203	5203	5276	5351	5429	5429	5429	5429	5429	5509	5676	5676	5591	5429	5203	4995	4803	4683	4513	4356	4209	4116	4072	4028	4028	4072	4116	4116	4162	4257	4306	4356	4356	4407	4460	4513	4513	4513	4513	4568	4683	4803	4995	5132	5276	5429	5676	5853	6141	6243	6349	6459	6572	6459	6459	6243	6141	6042	5853	5676	5509	5429	5351	5203	5132	4995	4995	4929	4929	4929	4865	4865	4803	4803	4803	4803	4865	4929	4995	4995	5062	5062	5062	5062	5062	4929	4929	4865	4803	4625	4513	4460	4460	4407	4356	4356	4407	4407	4460	4625	4742	4742	4742	4742	4742	4803	4803	4803	4865	4803	4803	4803	4865	4865	4929	4929	4995	5062	5132	5132	5132	5132	5276	5351	5429	5509	5509	5591	5591	5591	5591	5509	5429	5351	5276	5276	5132	5062	5062	4995	4995	4929	4929	4803	4803	4803	4803	4865	4803	4803	4742	4742	4742	4742	4742	4683	4683	4683	4625	4625	4625	4625	4625	4625	4625	4625	4683	4803	4929	4995	5132	5276	5429	5509	5509	5676	5763	5946	5853	5853	5853	5763	5763	5763	5591	5509	5429	5351	5276	5203	5132	4995	4929	4865	4742	4683	4625	4568	4513	4513	4513	4460	4460	4460	4407	4407	4356	4356	4356	4356	4356	4356	4356	4356	4356	4407	4356	4306	4306	4116	3985	3862	3784	3784	3784	3822	3862	3943	4116	4407	4625	4625	4803	4929	5062	5132	5203	5276	5351	5351	5429	5509	5676	5676	5676	5763	5763	5763	5763	5676	5591	5509	5429	5351	5351
5676	5676	5429	5276	5062	4865	4742	4513	4356	4028	3943	3862	3822	3784	3784	3746	3746	3709	3709	3673	3673	3709	3746	3784	3784	3822	3862	3943	3985	4072	4162	4162	4257	4356	4356	4460	4742	4803	4929	4995	5062	5062	5203	4929	4929	5203	4803	4803	4742	4742	4683	4683	4625	4568	4513	4513	4513	4460	4460	4407	4407	4407	4407	4407	4407	4407	4407	4407	4407	0	4407	4407	4568	4568	4460	4257	4257	4209	4209	4116	4072	3985	3902	3902	3902	3902	3902	3902	3943	3985	4072	4162	4257	4460	4568	4865	5276	5276	5429	5351	5351	5276	5203	5132	5062	4995	4929	4929	4865	4803	4742	4683	4568	4460	4407	4306	4209	4072	3985	3943	3862	3784	3709	3673	3673	3673	3673	3673	3784	3862	3902	4028	3985	3985	4028	3985	3902	3822	3784	3673	3673	3673	3637	3637	3637	3637	3673	3673	3673	3673	3673	3673	3673	3637	3637	3637	3637	3673	3673	3709	3709	3746	3784	3822	3862	3943	3985	4028	4072	4116	4162	4162	4162	4162	4162	4162	4162	4116	4116	4116	4072	4028	4028	3985	3985	3902	3862	3784	3709	3673	3602	3501	3469	3437	3437	3437	3437	3568	3602	3637	3784	3822	3943	3985	4028	4209	4407	4407	4568	4803	4995	5276	5509	5676	5676	5676	5591	5509	5429	5351	5203	5132	5062	4995	4865	4742	4683	4513	4460	4407	4356	4306	4257	4257	4209	4162	4162	4116	4028	3985	3985	3985	3985	3985	4028	4028	4028	4028	4028	4028	4028	4028	4028	4072	4072	4072	4072	4116	4116	4072	4072	4162	4356	4568	4865	5203	6459	6459	7492	8514	9365	9858	10124	10703	11018	11352	11352	11706	12487	12917	13379	13379	11352	9605	8324	7204	7204	8514	0	0	6572	5062	5062	5132	5276	5276	5132	4929	4742	4568	4306	4116	3902	3709	3602	3568	3534	3534	3534	3501	3469	3437	3437	3469	3501	3568	3673	3746	3822	3902	3985	4116	4162	4257	4356	4407	4460	4513	4568	4568	4625	4625	4625	4625	4568	4460	4306	4162	3943	3746	3469	3286	3148	3070	2997	2950	2904	2882	2882	2882	2904	2904	2904	2904	2927	2950	2973	2997	3021	3070	3070	3148	3202	3286	3375	3437	3568	3746	3862	3943	3985	4028	4028	4028	4072	3985	3902	3862	3862	3862	3822	3822	3822	3784	3784	3822	3822	3862	3862	3902	3902	3943	4028	4028	4072	4072	4072	4116	4116	4116	4116	4116	4116	4116	4116	4116	4116	4162	4162	4162	4209	4257	4306	4356	4407	4513	4568	4625	4742	4803	4865	4929	4995	5062	5132	5203	5203	5203	5276	5276	5276	5203	5132	5132	5132	5062	5062	5132	5132	5203	5203	5351	5429	5591	5676	5763	5763	5676	5591	5509	5509	5429	5351	5276	5203	5203	5203	5203	5276	5276	5276	5351	5351	5351	5429	5591	5591	5509	5276	5062	4929	4742	4625	4460	4306	4162	4116	4072	4072	4116	4116	4209	4257	4257	4306	4356	4356	4407	4407	4460	4513	4513	4513	4568	4683	4803	4995	5132	5276	5429	5591	5763	5946	6243	6349	6459	6459	6572	6459	6349	6141	6042	5853	5763	5591	5429	5276	5276	5203	5132	4995	4995	4929	4929	4929	4865	4865	4803	4803	4803	4803	4865	4995	5062	5062	5062	5132	5132	5132	5132	4995	4929	4865	4803	4625	4513	4460	4460	4407	4356	4356	4460	4460	4568	4625	4742	4742	4803	4803	4803	4803	4865	4865	4865	4865	4865	4865	4865	4929	4929	4929	5062	5062	5062	5062	5062	5132	5203	5276	5351	5351	5351	5429	5429	5429	5429	5429	5276	5276	5351	5276	5276	5276	5276	5203	5132	5062	5062	5062	4929	4929	4929	4929	4929	4865	4865	4865	4865	4865	4803	4742	4742	4683	4683	4683	4683	4683	4683	4683	4742	4742	4803	4929	4995	5132	5203	5351	5509	5591	5591	5676	5763	5853	5853	5763	5763	5676	5591	5591	5429	5351	5276	5203	5132	5062	4995	4865	4803	4742	4625	4568	4513	4460	4460	4407	4407	4356	4306	4306	4257	4257	4209	4209	4209	4162	4162	4162	4162	4209	4257	4257	4257	4257	4306	4209	4116	4116	4116	4116	4116	4162	4209	4306	4460	4683	4803	4803	4929	4929	4995	5062	5062	5132	5276	5351	5429	5591	5676	5676	5763	5853	5946	5853	5853	5763	5763	5676	5591	5591	5509
6459	6349	6141	5946	5676	5351	5132	4513	4356	4209	4072	3943	3902	3822	3784	3746	3709	3673	3673	3673	3673	3709	3746	3784	3784	3822	3902	3943	4028	4072	4209	4306	4356	4460	4513	4625	4742	4803	4929	4995	5062	5062	5203	5276	5276	5203	5132	5062	4995	4995	4865	4803	4742	4625	4568	4568	4568	4513	4513	4460	4460	4460	4460	4407	4407	4407	4407	4407	4407	0	4407	4407	4568	4568	4460	4407	4356	4356	4356	4257	4116	4028	3985	3985	3943	3943	3902	3902	3902	3943	4028	4072	4116	4257	4407	4865	5276	5276	5429	5509	5509	5429	5351	5276	5132	5062	4995	4995	4929	4865	4803	4683	4625	4568	4460	4356	4209	4116	4028	3985	3943	3822	3784	3709	3709	3709	3709	3709	3822	3862	3902	3985	3985	3985	3985	3943	3862	3822	3709	3673	3673	3673	3673	3637	3637	3673	3673	3709	3709	3709	3709	3709	3709	3673	3637	3637	3673	3673	3709	3709	3746	3746	3822	3862	3902	3943	3985	4028	4072	4116	4162	4162	4162	4162	4162	4162	4162	4162	4162	4162	4162	4116	4072	4072	4072	4028	3985	3902	3822	3746	3709	3673	3568	3534	3534	3568	3602	3746	3943	4072	4162	4257	4460	4460	4625	4742	4865	4865	4995	5132	5351	5509	5676	5763	5676	5676	5509	5429	5351	5203	5132	4995	4929	4865	4742	4625	4513	4460	4407	4356	4306	4306	4257	4209	4162	4116	4116	4072	3985	3985	3943	3943	3943	3943	3943	3985	3985	3985	3985	4028	4028	4028	4028	4028	4072	4072	4072	4116	4116	4072	4072	4116	4209	4356	4625	4865	5203	5763	6459	7204	7804	7804	8324	8712	8919	9365	9365	9858	10406	11018	12917	13379	11352	9605	6459	6459	7204	0	0	4306	4209	4209	4257	4356	4460	4513	4513	4407	4257	4162	4028	3902	3784	3673	3602	3534	3534	3501	3501	3469	3437	3405	3405	3405	3437	3469	3534	3602	3673	3746	3862	3943	4028	4116	4209	4306	4356	4407	4460	4513	4568	4568	4625	4568	4513	4407	4306	4162	3943	3709	3437	3229	3096	2997	2904	2860	2838	2817	2817	2817	2838	2838	2838	2860	2904	2927	2950	2973	2997	3070	3070	3096	3175	3229	3315	3405	3501	3673	3746	3862	3943	3985	4028	4072	4072	3985	3943	3943	3902	3862	3862	3822	3746	3746	3746	3746	3784	3784	3784	3822	3862	3862	3943	3943	4028	4028	4072	4072	4072	4072	4116	4116	4116	4116	4116	4116	4162	4162	4162	4209	4209	4257	4306	4407	4460	4513	4625	4683	4803	4865	4995	4995	5062	5203	5203	5276	5276	5351	5351	5351	5429	5276	5276	5132	5132	5062	5062	5132	5132	5203	5203	5351	5429	5591	5676	5763	5763	5676	5591	5509	5509	5429	5351	5276	5203	5203	5203	5203	5276	5276	5276	5276	5276	5351	5351	5509	5591	5429	5203	4995	4803	4683	4568	4460	4306	4162	4162	4116	4116	4162	4209	4257	4306	4306	4356	4407	4407	4407	4407	4460	4513	4513	4568	4683	4742	4929	5132	5351	5509	5676	5763	5946	6141	6349	6459	6459	6572	6572	6349	6141	6042	5853	5763	5591	5509	5276	5203	5132	5132	5132	4995	4995	4929	4929	4929	4865	4865	4803	4803	4803	4929	4929	4995	5132	5203	5203	5203	5203	5203	5132	4995	4929	4865	4803	4625	4513	4513	4460	4407	4407	4407	4460	4513	4568	4683	4803	4803	4803	4865	4865	4865	4929	4929	4865	4865	4929	4929	4929	4929	4995	4995	5062	5062	5062	5062	5062	5132	5132	5203	5203	5276	5276	5276	5276	5351	5351	5351	5276	5276	5351	5351	5276	5276	5276	5203	5203	5132	5132	5062	4995	4995	4995	4995	4995	4929	4865	4865	4865	4865	4742	4742	4742	4742	4742	4742	4742	4683	4683	4742	4803	4803	4865	4995	5062	5132	5276	5429	5509	5591	5676	5763	5763	5763	5763	5676	5591	5591	5509	5429	5351	5203	5132	5062	4995	4929	4803	4742	4683	4625	4568	4460	4460	4407	4356	4356	4356	4257	4209	4209	4162	4116	4116	4116	4028	4028	3985	3985	4028	4028	4116	4116	4162	4162	4209	4257	4306	4306	4306	4356	4407	4460	4513	4625	4742	4803	4865	4865	4865	4929	4929	4929	5062	5132	5276	5351	5429	5591	5676	5763	5853	5946	5946	5946	5946	5946	5946	5853	5763	5763	5763
7345	7204	6811	6572	6349	5351	5132	4865	4625	4460	4257	4116	3985	3902	3822	3746	3709	3673	3673	3673	3673	3709	3746	3822	3862	3902	3943	4028	4072	4209	4306	4356	4460	4568	4683	4803	4929	4995	5062	5276	5276	5276	5429	5509	5509	5509	5429	5276	5276	5203	5062	4995	4865	4742	4683	4683	4625	4568	4568	4460	4460	4460	4460	4407	4407	4460	4460	4460	4460	4460	4460	4460	4742	5203	4742	4683	4683	4625	4568	4460	4306	4162	4072	4028	3985	3985	3902	3902	3902	3902	3943	3985	4028	4116	4257	0	0	5276	5276	5509	5591	5509	5429	5276	5203	5132	5062	4995	4929	4865	4803	4742	4625	4568	4513	4407	4306	4209	4116	4116	4072	3943	3862	3784	3746	3746	3746	3746	3784	3822	3862	3943	3943	3943	3943	3902	3822	3784	3709	3673	3673	3673	3673	3637	3637	3709	3709	3709	3746	3746	3746	3746	3746	3709	3709	3709	3709	3709	3746	3746	3784	3822	3822	3862	3902	3943	3985	4028	4072	4116	4162	4162	4162	4162	4162	4162	4209	4209	4209	4162	4162	4209	4162	4162	4162	4116	4072	4028	3943	3902	3862	3784	3709	3637	3637	3673	3746	3943	4116	4306	4513	4625	4803	4995	4995	5132	5203	5763	5429	5429	5591	5676	5763	5853	5763	5676	5429	5351	5203	5062	4929	4803	4742	4683	4625	4568	4513	4460	4407	4356	4306	4257	4257	4209	4162	4116	4072	4072	3985	3902	3902	3902	3902	3902	3902	3943	3943	3943	3985	3985	4028	4028	4028	4028	4072	4072	4116	4116	4116	4072	4072	4072	4116	4209	4356	4513	4803	5203	5853	6572	7068	7068	7345	8712	8919	9365	8324	8324	8514	9365	11352	0	0	0	5132	4513	4116	3862	3746	3637	3568	3568	3637	3746	3902	3985	4028	4028	3943	3862	3822	3746	3673	3602	3568	3534	3534	3501	3501	3469	3405	3375	3345	3345	3345	3375	3437	3469	3568	3637	3746	3862	3943	4028	4162	4209	4306	4356	4407	4460	4513	4568	4568	4568	4513	4407	4306	4116	3943	3673	3437	3229	3070	2950	2838	2817	2775	2775	2775	2796	2796	2796	2817	2860	2882	2927	2950	2973	2997	3070	3096	3096	3175	3229	3315	3405	3501	3637	3746	3862	3902	3943	3985	4028	4072	4028	3985	3943	3902	3862	3822	3784	3746	3709	3709	3709	3709	3709	3746	3746	3784	3822	3862	3943	3985	3985	4028	4028	4072	4072	4116	4116	4116	4116	4116	4162	4162	4209	4209	4257	4257	4306	4356	4460	4513	4625	4683	4742	4865	4995	5062	5062	5132	5203	5203	5276	5276	5351	5429	5429	5429	5276	5276	5203	5132	5132	5132	5132	5132	5203	5203	5351	5429	5591	5676	5763	5763	5676	5591	5591	5509	5429	5351	5276	5203	5203	5203	5203	5276	5276	5276	5276	5276	5276	5276	5276	5351	5276	5062	4929	4742	4683	4568	4460	4306	4209	4209	4162	4162	4257	4306	4356	4356	4407	4407	4460	4460	4460	4460	4513	4513	4625	4683	4803	4929	5132	5351	5509	5676	5853	5946	6141	6349	6459	6459	6572	6572	6459	6243	6042	5853	5763	5591	5509	5351	5276	5132	5132	5132	5132	5062	4995	4929	4929	4929	4865	4865	4865	4865	4929	4929	5062	5132	5203	5203	5276	5276	5203	5203	5132	4995	4929	4865	4742	4625	4513	4513	4513	4460	4460	4513	4513	4568	4625	4742	4865	4865	4865	4929	4929	4929	4995	4995	4995	4995	4995	5062	5062	5062	5062	5132	5132	5132	5062	5062	5062	5062	5062	5132	5132	5132	5132	5132	5203	5203	5276	5351	5276	5276	5351	5351	5276	5276	5276	5203	5203	5132	5132	5062	4995	4995	4995	4929	4929	4929	4865	4865	4865	4865	4742	4742	4742	4742	4742	4742	4742	4742	4803	4803	4865	4865	4929	4995	5062	5132	5276	5429	5509	5591	5676	5676	5676	5676	5591	5509	5509	5429	5351	5276	5203	5062	4995	4929	4865	4803	4683	4625	4568	4513	4460	4407	4356	4306	4257	4257	4257	4162	4116	4072	4028	3985	3985	3943	3943	3902	3902	3902	3943	3985	4028	4072	4116	4162	4209	4257	4356	4407	4407	4460	4568	4625	4683	4683	4742	4742	4803	4803	4803	4865	4865	4929	4995	5132	5276	5351	5429	5591	5763	5853	5946	6042	6141	6141	6141	6042	6042	6042	5946	5853	5853
8712	8514	8324	6572	6349	6042	5763	5429	5203	4929	4742	4568	4407	4209	4116	4028	3985	3902	3862	3784	3784	3822	3862	3985	4028	4116	4162	4257	4306	4460	4568	4625	4683	4865	4929	5062	5132	5203	5203	5276	5276	5276	5276	5509	5591	5676	5591	5591	5509	5509	5429	5276	5132	4995	4929	4865	4742	4683	4568	4568	4460	4460	4460	4460	4460	4460	4460	4460	4460	4460	4513	4513	4929	5203	5132	5132	5062	4995	4865	4742	4460	4306	4162	4072	4028	3985	3943	3902	3902	3902	3943	3985	3985	4028	4116	4306	4803	4803	5062	5351	5591	5591	5429	5351	5276	5132	5062	4995	4995	4929	4865	4742	4683	4625	4568	4460	4356	4306	4257	4209	4162	4028	3943	3822	3784	3746	3746	3746	3784	3822	3822	3902	3902	3902	3902	3902	3822	3784	3709	3673	3673	3673	3673	3673	3673	3746	3784	3746	3746	3784	3784	3784	3784	3746	3746	3746	3746	3784	3784	3784	3784	3822	3822	3862	3902	3943	3985	4028	4072	4116	4162	4162	4162	4162	4162	4209	4209	4209	4209	4209	4209	4209	4209	4209	4209	4162	4116	4072	4028	3985	3943	3902	3862	3862	3902	3943	4028	4209	4460	4865	5062	5276	5351	5351	5509	5509	5676	5763	5763	5853	5853	5946	5946	5946	5763	5591	5429	5203	5132	4995	4803	4683	4683	4625	4568	4568	4513	4460	4407	4356	4306	4257	4209	4162	4162	4116	4072	4028	3943	3902	3862	3862	3862	3862	3902	3902	3943	3943	3943	3985	4028	4028	4028	4072	4072	4072	4116	4116	4116	4072	4028	3985	3985	4116	4257	4407	4742	5132	5676	6141	6689	6689	6811	6811	6937	7068	8324	7204	7204	7492	9137	0	0	0	5132	4513	3345	3229	3175	3148	3148	3148	3202	3345	3501	3602	3709	3784	3784	3746	3746	3673	3637	3602	3568	3568	3534	3501	3501	3469	3405	3345	3286	3286	3286	3286	3345	3405	3469	3568	3637	3746	3902	4028	4116	4162	4257	4306	4356	4460	4513	4513	4513	4513	4513	4407	4306	4116	3943	3673	3437	3229	3070	2950	2817	2775	2754	2754	2754	2775	2796	2796	2817	2860	2882	2927	2973	2973	3021	3096	3122	3122	3175	3257	3315	3437	3534	3637	3784	3862	3902	3943	3985	4028	4072	4028	3985	3943	3943	3862	3822	3784	3746	3709	3709	3673	3673	3673	3709	3709	3709	3746	3822	3862	3902	3985	4028	4028	4072	4072	4116	4116	4116	4116	4162	4162	4209	4209	4257	4306	4306	4356	4407	4513	4568	4683	4742	4803	4929	5062	5132	5132	5132	5203	5203	5276	5351	5429	5429	5429	5429	5351	5351	5276	5203	5203	5203	5203	5203	5203	5203	5351	5509	5591	5763	5763	5763	5676	5676	5591	5591	5509	5351	5351	5276	5276	5203	5203	5276	5276	5203	5203	5203	5203	5203	5203	5203	5132	4995	4803	4683	4625	4568	4460	4356	4306	4306	4306	4306	4356	4407	4407	4460	4513	4460	4460	4460	4460	4513	4513	4625	4683	4865	4995	5132	5351	5591	5763	5946	6042	6243	6349	6459	6572	6459	6459	6349	6243	6141	5853	5763	5591	5509	5429	5276	5203	5132	5132	5132	5132	5132	4995	4929	4929	4929	4865	4865	4865	4865	4929	4995	5062	5132	5203	5276	5276	5276	5203	5203	5062	4929	4865	4803	4683	4568	4513	4513	4513	4513	4513	4568	4568	4625	4683	4803	4865	4929	4929	4995	4995	5062	5062	5062	5062	5062	5132	5132	5132	5132	5132	5132	5132	5132	5132	5062	5062	5062	5062	5132	5132	5132	5132	5132	5132	5203	5276	5351	5276	5276	5351	5351	5276	5276	5276	5203	5203	5132	5132	5062	4995	4995	4995	4865	4865	4803	4803	4742	4742	4742	4742	4683	4683	4742	4742	4742	4742	4742	4803	4803	4865	4865	4929	4995	5062	5203	5276	5429	5509	5591	5591	5676	5591	5591	5509	5429	5351	5276	5203	5203	5062	4995	4929	4803	4742	4683	4625	4513	4460	4407	4356	4306	4306	4209	4209	4162	4116	4072	3985	3943	3902	3862	3822	3822	3784	3746	3746	3746	3784	3862	3902	3985	4028	4072	4162	4257	4306	4407	4460	4513	4568	4568	4625	4625	4683	4683	4742	4742	4803	4803	4865	4865	4995	5132	5276	5351	5429	5591	5853	5853	6042	6141	6141	6243	6243	6243	6243	6141	6141	6042	5946
10703	8514	8324	7970	7492	7068	6689	6349	6042	5676	5429	5203	4995	4803	4683	4513	4407	4306	4209	4162	4116	4116	4162	4306	4356	4356	4460	4513	4625	4742	4803	4803	4865	4995	4995	5132	5132	5132	5132	5132	5132	5203	5203	5351	5429	5591	5676	5763	5763	5763	5853	5591	5591	5276	5132	5062	4929	4742	4742	4625	4513	4513	4460	4460	4460	4460	4460	4513	0	0	4568	4568	4995	5276	5429	5429	5429	5351	5203	5203	4865	4460	4257	4162	4116	4072	3985	3943	3943	3943	3985	3985	3985	4028	4072	4209	4356	4625	5062	5132	5429	5591	5509	5351	5276	5132	5062	5062	4995	4929	4865	4803	4742	4683	4683	4568	4460	4407	4356	4306	4257	4116	4028	3902	3862	3822	3784	3784	3822	3822	3822	3902	3902	3902	3902	3862	3822	3746	3709	3673	3673	3673	3709	3673	3673	3746	3784	3784	3784	3784	3784	3784	3822	3784	3746	3746	3784	3822	3822	3822	3822	3822	3862	3902	3943	3943	3985	4028	4072	4116	4162	4162	4162	4209	4209	4209	4209	4209	4209	4209	4257	4257	4209	4209	4257	4209	4162	4162	4116	4028	4028	3985	3985	4028	4028	4116	4209	4407	4865	4865	5062	5276	5509	5676	5763	5946	5946	5946	6042	6042	6042	6042	6042	5946	5763	5591	5509	5203	5062	4929	4803	4683	4625	4625	4568	4568	4513	4513	0	0	4306	4257	4209	4162	4116	4072	4072	4028	3943	3862	3862	3862	3862	3862	3902	3902	3902	3902	3943	3985	4028	4028	4072	4072	4116	4116	4116	4162	4116	4072	4028	3985	3985	4116	4257	4407	4742	5132	5676	6141	6459	6459	6572	6459	6349	6349	0	7204	7204	7492	9137	0	0	0	0	0	3096	2997	2973	2927	2927	2950	3046	3148	3257	3345	3501	3602	3673	3673	3673	3673	3637	3637	3602	3602	3568	3534	3501	3469	3405	3345	3286	3257	3257	3257	3286	3345	3437	3534	3602	3709	3862	3985	4072	4162	4257	4306	4356	4407	4460	4513	4513	4513	4513	4407	4306	4162	3943	3709	3469	3286	3096	2950	2817	2775	2754	2754	2754	2775	2796	2817	2860	2904	2927	2973	3021	3046	3096	3122	3175	3257	3257	3315	3405	3501	3568	3709	3822	3902	3943	4028	4072	4116	4116	4028	4028	3985	3943	3902	3822	3784	3746	3709	3673	3637	3637	3673	3673	3673	3709	3709	3784	3822	3902	3943	3985	4028	4072	4072	4116	4116	4162	4162	4162	4209	4257	4257	4306	4356	4356	4407	4460	4568	4625	4683	4803	4865	4929	5062	5132	5132	5132	5203	5203	5276	5276	5351	5429	5429	5509	5509	5429	5351	5351	5276	5276	5351	5276	5276	5351	5429	5591	5763	5853	5853	5853	5763	5763	5763	5676	5591	5509	5429	5351	5351	5276	5276	5276	5276	5203	5203	5132	5062	5062	5132	5132	4995	4865	4742	4625	4625	4568	4460	4356	4356	4356	4407	4407	4460	4460	4513	4513	4568	4568	4568	4513	4513	4568	4625	4742	4865	4995	5132	5276	5509	5676	5946	6042	6243	6349	6459	6572	6459	6459	6349	6243	6042	5946	5763	5591	5509	5429	5351	5203	5203	5132	5132	5132	5132	5132	4995	4929	4929	4929	4865	4865	4865	4865	4929	4995	5062	5132	5203	5276	5276	5276	5132	5062	4929	4803	4742	4683	4568	4513	4460	4460	4513	4513	4568	4625	4625	4683	4742	4865	4929	4995	4995	5062	5062	5062	5132	5203	5203	5203	5203	5276	5276	5203	5203	5203	5132	5132	5132	5062	5062	5062	5062	5132	5132	5132	5132	5132	5132	5203	5276	5351	5276	5276	5351	5351	5276	5276	5276	5203	5203	5132	5132	5062	4995	4995	4995	4865	4803	4803	4742	4742	4742	4742	4742	4683	4625	4625	4683	4683	4742	4742	4803	4865	4865	4865	4929	5062	5132	5203	5276	5429	5509	5591	5509	5509	5509	5509	5351	5276	5203	5132	5062	4995	4929	4865	4803	4742	4683	4568	4513	4460	4407	4306	4257	4209	4162	4116	4116	4072	4028	3985	3943	3862	3822	3784	3746	3709	3673	3673	3673	3673	3746	3784	3862	3902	3943	4028	4116	4209	4306	4407	4460	4460	4568	4568	4625	4625	4683	4683	4742	4742	4803	4803	4865	4865	4995	5132	5276	5351	5509	5676	5853	5946	6042	6141	6141	6243	6243	6349	6243	6243	6141	6141	6042
10703	10406	9858	9605	8919	8514	8143	7645	7345	6937	6572	6243	5946	5676	5429	5276	5132	4929	4803	4683	4683	4683	4683	4803	4803	4865	4865	4929	5062	5062	5132	5062	5062	5062	5062	5132	5132	5132	5132	5132	5062	5062	5203	5203	5351	5509	5676	5763	5763	5853	5853	5763	5676	5676	5351	5203	4995	4865	4803	4625	4513	4513	4460	4460	4460	4460	4460	4513	4513	4513	4568	0	0	0	5509	5509	5591	5763	5591	5351	4865	4568	4356	4209	4162	4116	4028	3985	3985	3985	3985	3985	3985	3985	4028	4116	4209	4625	5132	5132	5429	5591	5429	5429	5276	5203	5132	5062	5062	4995	4995	4929	4865	4803	4742	4683	4568	4513	4460	4407	4407	4257	4162	4028	3943	3902	3862	3822	3822	3822	3822	3862	3862	3862	3862	3822	3784	3746	3709	3673	3673	3673	3709	3709	3709	3784	3822	3822	3822	3822	3822	3822	3822	3822	3784	3784	3822	3822	3822	3822	3862	3862	3902	3902	3943	3943	3985	4072	4072	4116	4162	4162	4162	4209	4209	4209	4209	4209	4257	4257	4257	4257	4209	4209	4257	4209	4209	4162	4116	4072	4072	4072	4072	4162	4162	4257	4407	4568	4865	5132	5351	5591	5763	5946	5946	6141	6141	6141	6141	6141	6141	6141	6042	5946	5763	5591	5509	5203	5062	4929	4803	4683	4625	4625	4568	4568	4513	4513	4460	4407	4356	4306	4209	4162	4116	4072	4072	4028	3943	3862	3862	3822	3822	3822	3862	3902	3902	3902	3943	4028	4028	4072	4116	4116	4162	4162	4209	4162	4116	4116	4028	4028	4028	4162	4306	4513	4803	5276	5763	6243	6459	6459	6459	6243	5946	5946	0	0	0	0	0	0	0	0	0	0	3096	2997	2973	2927	2927	2950	3046	3148	3257	3345	3501	3602	3673	3673	3673	3673	3673	3709	3673	3673	3673	3637	3602	3568	3501	3405	3315	3257	3257	3257	3286	3345	3437	3534	3602	3709	3862	3985	4072	4162	4257	4306	4356	4407	4460	4513	4513	4568	4513	4460	4407	4306	4306	4162	4162	0	3286	3122	2973	2973	3096	2838	2838	2882	2904	2927	2950	2973	3021	3070	3096	3122	3148	3229	3286	3345	3345	3405	3501	3568	3673	3784	3902	3943	4028	4072	4072	4072	4116	4072	4028	3985	3943	3902	3822	3784	3746	3709	3673	3637	3637	3673	3673	3673	3709	3709	3784	3822	3902	3943	3985	4028	4072	4116	4162	4162	4162	4209	4209	4257	4306	4306	4356	4407	4407	4460	4513	4568	4683	4742	4803	4865	4995	5062	5132	5132	5132	5203	5203	5276	5276	5276	5351	5351	5509	5509	5509	5509	5429	5429	5429	5429	5429	5429	5429	5591	5676	5853	5946	5946	5946	5946	5853	5853	5853	5763	5676	5591	5591	5509	5509	5429	5351	5351	5276	5203	5132	5062	5062	5062	4995	4865	4803	4625	4568	4568	4568	4513	4460	4460	4460	4513	4513	4568	4625	4625	4625	4625	4625	4625	4625	4625	4625	4683	4803	4995	5132	5276	5429	5676	5853	6042	6243	6349	6459	6459	6459	6459	6349	6243	6042	5946	5763	5591	5509	5429	5351	5351	5203	5132	5062	5062	5062	5132	5132	4995	4929	4929	4929	4865	4865	4865	4865	4995	5062	5132	5203	5276	5276	5276	5203	4995	4929	4865	4683	4625	4568	4513	4513	4460	4460	4568	4568	4683	4683	4742	4742	4865	4929	4995	5062	5062	5132	5132	5203	5276	5351	5351	5351	5429	5429	5351	5351	5351	5276	5276	5203	5203	5132	5132	5132	5132	5132	5132	5132	5132	5132	5132	5276	5351	5351	5351	5351	5351	5351	5351	5351	5276	5203	5203	5132	5132	5062	4995	4995	4995	4865	4803	4803	4683	4683	4683	4683	4683	4625	4625	4625	4683	4683	4742	4742	4803	4865	4865	4929	4995	5062	5132	5203	5276	5509	5591	5591	5509	5509	5429	5351	5276	5132	5062	5062	4995	4929	4865	4803	4742	4683	4625	4513	4460	4356	4306	4257	4209	4162	4116	4072	4028	3985	3985	3943	3902	3862	3822	3746	3709	3673	3673	3637	3637	3673	3709	3784	3822	3862	3943	4028	4116	4209	4306	4407	4407	4460	4513	4568	4625	4625	4683	4742	4742	4803	4865	4865	4929	4995	5062	5276	5429	5591	5591	5763	5946	5946	6042	6042	6141	6141	6243	6243	6243	6243	6141	6141	6141
