852	852	852	853	853	853	855	855	855	855	857	857	858	858	858	859	859	859	860	860	860	862	863	863	871	871	878	878	883	887	893	900	900	906	906	916	916	920	922	923	924	924	926	926	925	925	925	925	926	926	925	925	925	925	924	924	924	924	923	923	922	922	922	922	922	922	922	922	922	922	922	922	922	922	922	922	922	923	923	924	924	924	924	926	926	926	927	927	927	928	928	928	928	928	928	928	928	928	929	929	929	930	930	930	930	930	930	930	931	931	930	930	930	930	930	930	930	930	929	929	929	929	929	929	929	929	929	929	929	930	930	931	932	932	932	933	933	934	935	935	935	935	935	936	936	936	936	936	935	935	935	934	934	933	933	933	933	933	933	932	932	932	932	932	932	932	932	932	932	932	932	932	932	932	932	932	932	933	933	933	933	933	933	934	934	934	934	934	934	935	935	935	936	936	936	936	936	936	937	938	938	938	938	938	938	938	938	938	937	937	937	937	937	937	936	936	936	936	936	935	934	934	932	931	929	929	927	926	926	925	924	924	924	923	922	922	922	922	922	921	921	921	921	921	921	921	921	921	921	921	921	921	922	923	923	924	924	924	926	928	928	930	932	932	933	933	934	936	936	0	0	0	0	0	0	0	0	0	0	0	0	0	0	0	0	0	0	0	0	0	0	0	0	0	0	0	0	0	0	0	0	0	0	0	0	0	0	0	0	0	0	794	793	793	793	792	792	790	789	787	787	786	783	781	781	780	779	779	779	778	778	777	776	774	774	772	771	771	769	768	767	767	766	766	766	766	766	766	766	767	767	767	769	770	770	771	774	774	776	776	0	0	0	0	0	0	0	0	0	0	0	0	0	0	0	0	0	0	0	0	0	0	0	0	0	0	0	0	0	0	0	0	0	0	0	0	0	2104	2101	2101	2097	2097	2097	2097	2094	2094	2091	2087	2087	2081	2077	2071	2071	2061	2055	2055	2048	2042	2042	2042	2039	2039	2039	2039	2039	2039	2039	2039	2039	2039	2039	2039	2039	2039	2039	2039	2039	2039	2032	2032	2039	2039	2032	2032	2032	2039	2039	2039	2042	2042	2042	2051	2055	2055	2061	2064	2064	2071	2071	2074	2074	2074	2077	2077	2077	2074	2071	2071	2064	2061	2061	2055	2051	2051	2048	2042	2042	2039	2032	2029	2029	2029	2029	2029	2023	2023	2023	2023	2023	2023	2023	2023	2023	2023	2023	2023	2023	2029	2029	2029	2029	2029	2029	2023	2023	2023	2023	2023	2023	2023	2023	2023	2029	2029	2029	2029	2029	2029	2029	2029	2029	2023	2023	2023	2023	2023	2029	2029	2029	2029	2032	2032	2032	2032	2039	2039	2042	2042	2042	2042	2048	2048	2048	2048	2048	2048	2051	2051	2051	2051	2051	2051	2051	2051	2051	2051	2051	2051	2051	2051	2051	2051	2051	2051	2051	2055	2055	2055	2055	2055	2051	2051	2051	2051	2051	2051	2051	2051	2051	2051	2051	2051	2051	2051	2048	2048	2048	2048	2048	2048	2042	2039	2039	2039	2042	2042	2042	2039	2039	2039	2039	2039	2039	2039	2039	2039	2039	2039	2039	2039	2039	2042	2042	2048	2048	2051	2055	2055	2061	2064	2064	2074	2077	2077	2081	2084	2084	2087	2091	2087	2087	2087	2087	2087	2087	2087	2084	2084	2084	2084	2084	2084	2084	2084	2084	2084	2084	2084	2087	2087	2087	2091	2091	2091	2094	2094	2094	2094	2094	2094	2097	2097	2097	2097	2097	2097	2097	2097	2097	2097	2097	2097	2097	2097	2097	2097	2097	2097	2094	2094	2094	2091	2081	2081	2077	2077	2077	2077	2077	2077	2077	2081	2081	2081	2081	2084	2084	2087	2087	2084	2084	2084	2084	2081	2081	2074	2071	2071	2061	2055	2048	2048	2042	2039	2039	2032	2032	2032	2029	2029	2032	2032	2032	2039	2039	2042	2048	2048	2055	2055	2055	2061	2064	2064	2064	2064	2061	2055	2055	2051	2048	2048	2039	2029	2023	2023	2017	2014	2014	2010	2007	2007	2004	2001	2001	1998	1995	1995	1992	1992	1992	1989	1986	1983	1983	1980	1977	1977	1977	1974	1974	1971	1971	1971	1965	1965	1965	1965	1965	1971	1971	1971	1974	1974	1974	1974	1974	1974	1974	1974	1974	1974
852	852	852	853	853	853	855	855	855	855	857	857	858	858	858	859	859	859	860	860	860	862	863	863	871	871	878	878	883	893	893	900	900	906	906	912	912	918	921	921	922	922	923	924	923	923	923	924	924	924	924	923	923	923	922	922	922	922	921	921	921	921	921	920	920	920	920	920	920	920	920	921	921	921	921	921	921	922	922	922	922	923	923	924	924	924	924	925	925	925	926	926	926	926	926	926	926	926	926	927	927	927	927	927	927	928	928	928	928	928	928	928	928	928	928	928	928	928	928	928	928	928	927	927	927	927	928	927	927	928	928	929	929	929	930	930	930	931	932	932	932	933	933	933	933	932	932	932	932	931	931	931	931	930	930	930	930	930	930	929	929	929	929	929	929	929	929	929	929	929	929	929	930	930	930	930	930	930	930	930	930	931	931	931	931	931	931	932	932	932	933	933	933	933	934	934	935	935	935	936	936	936	936	936	936	936	936	936	935	935	935	935	935	934	933	933	933	932	932	932	931	930	930	928	927	927	925	924	924	924	923	923	923	922	922	922	922	921	921	921	921	921	920	920	921	921	921	921	921	921	921	921	922	923	923	924	924	924	926	928	928	930	932	932	933	933	934	936	936	0	0	0	0	0	0	0	0	0	0	0	0	0	0	0	0	0	0	0	0	0	0	0	0	0	0	0	0	0	0	0	0	0	0	0	0	0	0	0	0	0	0	0	794	794	793	793	793	790	789	787	787	786	783	783	782	780	779	779	779	778	778	777	776	774	774	773	771	771	770	769	768	768	767	766	766	766	766	767	767	767	769	769	771	771	772	774	774	776	780	780	0	0	0	0	0	0	0	0	0	0	0	0	0	0	0	0	0	0	0	0	0	0	0	0	0	0	0	0	0	0	0	0	0	0	0	0	0	0	2101	2101	2097	2097	2097	2097	2094	2094	2091	2087	2087	2081	2077	2071	2071	2061	2055	2055	2048	2042	2042	2029	2029	2029	2029	2029	2029	2029	2029	2029	2029	2029	2029	2032	2032	2032	2032	2029	2029	2029	2029	2023	2023	2023	2029	2029	2023	2023	2029	2029	2029	2032	2032	2039	2042	2042	2048	2048	2048	2055	2055	2055	2061	2064	2064	2064	2064	2061	2061	2061	2055	2051	2051	2048	2042	2042	2039	2032	2029	2029	2023	2023	2023	2020	2020	2020	2020	2017	2017	2017	2017	2017	2017	2020	2020	2020	2020	2020	2020	2020	2020	2020	2020	2020	2020	2020	2020	2017	2017	2017	2017	2017	2017	2017	2020	2020	2020	2020	2020	2020	2020	2020	2020	2020	2020	2020	2020	2020	2020	2020	2023	2023	2023	2029	2029	2029	2029	2032	2032	2032	2032	2032	2032	2032	2032	2039	2039	2039	2039	2039	2039	2039	2039	2039	2039	2039	2039	2042	2042	2042	2042	2048	2048	2048	2051	2051	2051	2051	2051	2051	2051	2051	2048	2048	2048	2048	2048	2048	2048	2048	2048	2048	2048	2042	2039	2039	2039	2039	2039	2039	2039	2039	2032	2032	2032	2032	2032	2032	2032	2032	2032	2032	2029	2029	2029	2029	2029	2029	2029	2029	2029	2029	2032	2032	2032	2039	2039	2039	2048	2048	2051	2055	2055	2064	2074	2074	2074	2081	2081	2084	2087	2087	2087	2087	2087	2087	2087	2087	2084	2084	2084	2084	2084	2084	2084	2084	2084	2084	2084	2084	2087	2087	2087	2091	2091	2091	2091	2091	2091	2091	2091	2091	2091	2091	2091	2091	2091	2091	2091	2091	2091	2091	2094	2094	2094	2094	2094	2091	2091	2091	2087	2084	2084	2081	2081	2081	2077	2077	2077	2077	2077	2077	2077	2081	2081	2081	2081	2084	2084	2087	2087	2084	2084	2084	2084	2081	2081	2074	2071	2071	2061	2055	2048	2048	2042	2039	2039	2032	2032	2032	2029	2029	2032	2032	2032	2039	2039	2042	2048	2048	2055	2061	2061	2064	2064	2064	2071	2071	2064	2064	2064	2055	2051	2051	2042	2039	2039	2029	2020	2017	2017	2014	2007	2007	2004	2001	2001	1998	1995	1995	1992	1992	1992	1989	1986	1983	1983	1980	1977	1977	1977	1977	1977	1974	1974	1974	1974	1974	1974	1974	1974	1974	1974	1977	1977	1977	1977	1977	1977	1977	1980	1980	1980	1980
851	851	851	851	852	852	852	853	853	853	854	854	855	857	857	857	858	858	859	860	860	861	862	862	869	869	877	877	881	890	890	898	898	903	903	912	912	918	921	921	922	922	923	924	923	923	923	924	924	924	924	923	923	923	922	922	922	922	921	921	921	921	921	920	920	920	920	920	920	920	920	921	921	921	921	921	921	922	922	922	922	923	923	924	924	924	924	925	925	925	926	926	926	926	926	926	926	926	926	927	927	927	927	927	927	928	928	928	928	928	928	928	928	928	928	928	928	928	928	928	928	928	927	927	927	927	928	927	927	928	928	929	929	929	930	930	930	931	932	932	932	933	933	933	933	932	932	932	932	931	931	931	931	930	930	930	930	930	930	929	929	927	927	927	927	927	927	927	927	927	927	927	927	927	927	927	927	927	927	927	927	928	928	928	928	928	928	928	929	929	929	930	930	930	931	931	932	932	932	932	933	933	933	933	933	932	932	932	932	932	931	931	931	930	930	929	929	929	929	929	928	927	927	926	925	925	924	924	924	923	922	922	922	922	922	922	921	921	921	921	921	921	920	920	921	920	920	920	920	921	921	921	922	923	923	924	924	924	926	927	927	930	932	932	933	933	934	936	936	0	0	0	0	0	0	0	0	0	0	0	0	0	0	0	0	0	0	0	0	0	0	0	0	0	0	0	0	0	0	0	0	0	0	0	0	0	0	0	0	0	800	800	794	794	793	793	793	790	789	787	787	786	783	783	782	780	779	779	779	778	778	777	776	774	774	773	771	771	770	769	768	768	767	766	766	766	766	767	767	767	769	769	771	771	772	774	774	776	780	780	0	0	0	0	0	0	0	0	0	0	0	0	0	0	0	0	0	0	0	0	0	0	0	0	0	0	0	0	0	0	0	0	0	0	0	0	0	0	2101	2101	2097	2097	2097	2094	2091	2091	2087	2081	2081	2074	2064	2061	2061	2055	2048	2048	2039	2032	2032	2029	2029	2029	2029	2029	2029	2029	2029	2029	2029	2029	2029	2032	2032	2032	2032	2029	2029	2029	2029	2023	2023	2023	2029	2029	2023	2023	2029	2029	2029	2032	2032	2039	2042	2042	2048	2048	2048	2055	2055	2055	2061	2064	2064	2064	2064	2061	2061	2061	2055	2051	2051	2048	2042	2042	2039	2032	2029	2029	2023	2023	2023	2020	2020	2020	2020	2017	2017	2017	2017	2017	2017	2020	2020	2020	2020	2020	2020	2020	2020	2020	2020	2020	2020	2020	2020	2017	2017	2017	2017	2017	2017	2017	2020	2020	2020	2020	2020	2020	2020	2020	2020	2020	2020	2020	2020	2020	2020	2020	2023	2023	2023	2029	2029	2029	2029	2032	2032	2032	2032	2032	2032	2032	2032	2039	2039	2039	2023	2023	2023	2023	2029	2029	2029	2029	2029	2029	2032	2032	2039	2039	2039	2042	2048	2048	2048	2048	2048	2048	2048	2048	2042	2042	2042	2039	2039	2039	2039	2039	2039	2039	2039	2032	2032	2032	2032	2032	2032	2032	2029	2029	2029	2029	2029	2029	2029	2029	2029	2029	2029	2029	2023	2023	2023	2023	2023	2023	2023	2020	2020	2020	2023	2029	2029	2029	2032	2032	2039	2042	2042	2051	2051	2055	2064	2064	2074	2077	2077	2081	2084	2084	2087	2087	2087	2087	2087	2087	2087	2087	2087	2087	2087	2087	2087	2087	2087	2087	2087	2087	2087	2087	2087	2087	2087	2087	2087	2087	2087	2084	2084	2084	2087	2087	2084	2084	2084	2084	2084	2084	2087	2087	2087	2087	2087	2087	2087	2084	2084	2084	2077	2077	2077	2077	2071	2071	2064	2064	2064	2064	2071	2071	2071	2071	2074	2074	2077	2077	2077	2081	2081	2081	2077	2077	2077	2071	2071	2064	2055	2051	2051	2042	2039	2039	2029	2029	2029	2023	2023	2023	2023	2023	2023	2023	2029	2032	2032	2039	2048	2048	2051	2061	2061	2064	2064	2064	2071	2071	2064	2064	2064	2055	2051	2051	2042	2039	2039	2029	2020	2017	2017	2014	2007	2007	2004	2001	2001	1998	1995	1995	1992	1989	1989	1989	1983	1983	1983	1980	1977	1977	1977	1977	1977	1974	1974	1974	1974	1974	1974	1974	1974	1974	1974	1977	1977	1977	1977	1977	1977	1977	1980	1980	1980	1980
850	850	850	850	850	850	850	851	851	851	852	852	853	854	854	855	857	857	858	860	860	861	862	862	866	866	875	875	880	887	887	898	898	900	900	908	912	916	919	919	920	921	921	921	922	922	922	922	921	921	921	921	921	921	921	920	920	920	920	920	920	919	919	919	919	919	919	919	919	920	920	920	920	920	920	920	920	920	921	921	921	922	922	922	923	923	923	924	924	924	924	924	924	924	924	924	924	924	924	924	924	924	925	925	925	925	925	925	925	925	925	925	925	925	925	925	925	925	925	925	925	925	925	925	925	925	925	925	925	926	926	926	927	927	927	928	928	928	929	929	929	929	930	929	929	929	929	929	929	928	928	928	928	927	927	927	927	927	927	927	927	927	927	927	927	927	927	927	927	927	927	927	927	927	927	927	927	927	927	927	927	928	928	928	928	928	928	928	929	929	929	930	930	930	931	931	932	932	932	932	933	933	933	933	933	932	932	932	932	932	931	931	931	930	930	929	929	929	929	929	928	927	927	926	925	925	924	924	924	923	922	922	922	922	922	922	921	921	921	921	921	921	921	921	921	920	920	920	920	921	921	921	922	923	923	924	924	924	926	927	927	930	932	932	933	933	935	936	936	0	0	0	0	0	0	0	0	0	0	0	0	0	0	0	0	0	0	0	0	0	0	0	0	0	0	0	0	0	0	0	0	0	0	0	0	0	0	0	0	0	800	800	795	795	794	793	793	791	789	787	787	786	783	783	782	780	780	780	779	778	778	778	776	775	775	774	772	772	771	769	768	768	767	767	767	767	767	768	768	768	770	770	771	771	773	774	774	0	0	0	0	0	0	0	0	0	0	0	0	0	0	0	0	0	0	0	0	0	0	0	0	0	0	0	0	0	0	0	0	0	0	0	0	0	0	0	0	0	0	0	2097	2097	2097	2094	2091	2091	2084	2081	2071	2071	2064	2051	2051	2048	2039	2039	2032	2029	2023	2023	2023	2023	2023	2023	2023	2023	2023	2023	2023	2023	2023	2023	2023	2023	2023	2023	2020	2020	2020	2020	2020	2020	2020	2020	2020	2020	2020	2020	2020	2023	2023	2029	2032	2032	2032	2039	2039	2042	2042	2042	2048	2048	2048	2051	2051	2048	2042	2042	2042	2039	2039	2032	2029	2023	2023	2020	2020	2020	2017	2017	2017	2017	2014	2014	2014	2014	2014	2014	2014	2014	2014	2014	2014	2014	2014	2014	2014	2014	2017	2017	2017	2017	2014	2014	2014	2010	2010	2010	2010	2010	2010	2010	2010	2010	2014	2014	2014	2014	2014	2014	2014	2014	2014	2014	2014	2014	2014	2014	2017	2020	2020	2020	2020	2020	2020	2023	2023	2023	2023	2023	2023	2023	2023	2023	2023	2023	2023	2023	2023	2023	2029	2029	2029	2029	2029	2029	2032	2032	2039	2039	2039	2042	2048	2048	2048	2048	2048	2048	2048	2048	2042	2042	2042	2039	2039	2039	2039	2039	2039	2039	2039	2032	2032	2032	2032	2032	2032	2032	2029	2029	2029	2029	2029	2029	2029	2029	2029	2029	2029	2029	2023	2023	2023	2023	2023	2023	2023	2020	2020	2020	2023	2029	2029	2029	2032	2032	2039	2042	2042	2051	2051	2055	2064	2064	2074	2077	2077	2081	2084	2084	2087	2087	2087	2087	2087	2087	2087	2087	2087	2087	2087	2087	2087	2087	2087	2087	2087	2087	2087	2087	2087	2087	2087	2087	2087	2087	2087	2084	2084	2084	2087	2087	2084	2084	2084	2084	2084	2084	2087	2087	2087	2087	2087	2081	2081	2081	2077	2077	2074	2074	2074	2071	2064	2064	2061	2061	2061	2061	2061	2061	2061	2061	2064	2064	2071	2071	2071	2071	2074	2074	2071	2071	2064	2061	2061	2055	2048	2039	2039	2032	2029	2029	2023	2020	2020	2017	2017	2017	2017	2017	2020	2020	2023	2029	2029	2039	2042	2042	2051	2061	2061	2064	2071	2071	2074	2074	2071	2071	2071	2064	2061	2061	2051	2042	2042	2039	2029	2020	2020	2017	2010	2010	2004	2001	2001	1995	1992	1992	1992	1989	1989	1986	1983	1980	1980	1980	1980	1980	1977	1977	1980	1980	1977	1977	1977	1980	1980	1980	1980	1980	1980	1983	1983	1983	1983	1986	1983	1983	1983	1983	1983	1983
850	850	850	850	850	850	850	851	851	851	852	852	853	854	854	855	857	857	858	860	860	861	863	863	866	866	875	875	880	886	886	895	895	900	900	904	914	914	918	918	919	920	920	920	920	920	920	920	920	920	920	920	920	920	920	919	919	919	919	919	918	918	918	918	918	918	918	918	918	918	918	918	918	918	919	919	919	920	920	920	920	920	920	921	921	921	922	922	922	922	922	922	922	922	922	922	922	922	922	922	922	922	923	923	923	923	923	923	923	923	923	923	923	923	923	923	923	923	924	924	924	924	924	924	924	924	924	924	924	924	924	924	925	925	925	926	926	926	926	926	926	927	927	926	926	926	926	926	926	925	925	925	925	925	925	924	924	924	924	924	924	924	924	924	924	924	924	924	924	924	924	924	924	925	925	925	925	925	924	924	924	925	925	925	925	926	926	926	926	926	926	927	927	927	928	928	929	929	929	929	929	929	929	929	929	928	928	928	928	928	928	927	927	927	927	927	927	926	925	925	924	924	924	923	922	922	922	922	922	922	922	921	921	921	921	921	921	921	921	921	921	921	920	920	921	920	920	920	920	921	921	921	922	923	923	924	924	924	926	926	926	929	931	931	932	932	933	934	934	0	0	0	0	0	0	0	0	0	0	0	0	0	0	0	0	922	921	921	921	0	0	0	0	0	0	0	0	0	0	0	0	0	0	0	0	0	0	0	0	0	0	0	0	0	795	793	793	791	789	787	787	786	783	783	782	780	780	780	779	779	779	778	776	776	776	774	772	772	771	770	770	769	768	767	767	767	767	768	768	768	771	771	773	773	774	775	775	0	0	0	0	0	0	0	0	0	0	0	0	0	0	0	0	0	0	0	0	0	0	0	0	0	0	0	0	0	0	0	0	0	0	0	0	0	0	0	0	0	0	0	0	2097	2097	2094	2091	2091	2084	2081	2064	2064	2061	2048	2048	2042	2039	2039	2029	2020	2020	2020	2020	2020	2020	2020	2020	2023	2020	2020	2020	2020	2020	2020	2020	2020	2020	2020	2017	2017	2017	2017	2017	2017	2017	2017	2017	2017	2017	2017	2017	2017	2017	2020	2020	2020	2023	2023	2023	2029	2029	2029	2032	2032	2032	2032	2032	2032	2029	2029	2029	2023	2020	2020	2020	2017	2017	2014	2014	2014	2014	2010	2010	2010	2010	2010	2010	2010	2010	2010	2010	2010	2010	2010	2010	2010	2010	2010	2010	2010	2010	2010	2010	2010	2010	2007	2007	2007	2004	2004	2004	2004	2004	2004	2004	2004	2004	2004	2007	2007	2007	2007	2007	2007	2007	2007	2007	2007	2010	2010	2014	2014	2014	2014	2014	2014	2014	2014	2014	2014	2014	2014	2014	2014	2014	2014	2014	2014	2014	2014	2014	2014	2017	2017	2017	2020	2020	2020	2023	2023	2029	2032	2032	2032	2039	2039	2042	2042	2042	2042	2042	2039	2032	2032	2032	2032	2032	2032	2029	2029	2029	2029	2029	2023	2023	2023	2023	2023	2023	2023	2023	2020	2020	2020	2020	2023	2023	2023	2023	2023	2020	2020	2020	2020	2020	2017	2017	2017	2017	2017	2017	2017	2017	2020	2020	2020	2023	2023	2029	2032	2032	2042	2051	2051	2055	2055	2064	2074	2074	2077	2081	2081	2084	2087	2087	2087	2087	2087	2087	2087	2087	2087	2087	2087	2087	2087	2087	2084	2084	2084	2084	2084	2084	2081	2081	2081	2081	2081	2077	2077	2074	2074	2074	2074	2074	2074	2074	2074	2074	2074	2077	2077	2081	2081	2081	2081	2081	2081	2077	2077	2074	2074	2074	2071	2064	2064	2061	2061	2061	2061	2061	2061	2061	2061	2064	2064	2071	2071	2071	2071	2074	2074	2071	2071	2064	2061	2061	2055	2048	2039	2039	2032	2029	2029	2023	2020	2020	2017	2017	2017	2017	2017	2020	2020	2023	2029	2029	2039	2042	2042	2051	2061	2061	2064	2074	2074	2074	2074	2074	2074	2074	2071	2064	2064	2055	2051	2051	2042	2032	2032	2029	2017	2010	2010	2004	2001	2001	1995	1992	1992	1992	1989	1989	1986	1983	1980	1980	1980	1980	1980	1980	1980	1980	1980	1983	1983	1983	1983	1986	1986	1986	1986	1986	1986	1989	1989	1989	1989	1989	1989	1989	1989	1989	1989
849	848	848	848	848	849	849	849	849	849	851	851	852	853	853	855	857	857	858	860	860	861	862	862	867	867	875	875	880	886	886	895	895	900	900	904	914	914	918	918	919	920	920	920	920	920	920	920	920	920	920	920	920	920	920	919	919	919	919	919	918	918	918	918	918	918	918	918	918	918	918	918	918	918	919	919	919	920	920	920	920	920	920	921	921	921	922	922	922	922	922	922	922	922	922	922	922	922	922	922	922	922	923	923	923	923	923	923	923	923	923	923	923	923	923	923	923	923	924	924	924	924	924	924	924	924	924	924	924	924	924	924	925	925	925	926	926	926	926	926	926	927	927	926	926	926	926	926	926	925	923	923	923	923	923	923	923	923	923	923	923	923	923	923	923	923	923	923	923	923	923	923	923	923	923	923	923	923	923	923	923	923	923	923	923	924	924	924	924	924	924	924	924	924	925	925	925	925	925	925	925	925	925	925	925	925	924	924	924	924	924	924	924	924	923	923	923	923	922	922	921	921	921	921	921	921	921	921	921	921	921	921	921	921	921	921	921	921	921	921	921	921	920	920	921	921	921	921	921	921	921	921	922	923	923	924	924	924	925	926	926	928	929	929	931	931	932	934	934	0	0	0	0	930	930	930	0	0	924	924	0	0	0	0	0	922	920	920	920	920	921	921	0	0	0	0	0	0	0	0	0	0	0	0	0	0	0	0	0	0	809	809	806	800	795	793	793	791	789	787	787	786	783	781	781	780	780	780	779	779	779	778	776	776	776	774	772	772	771	770	770	769	768	767	767	767	767	768	768	768	771	771	773	773	774	775	775	0	0	0	0	0	0	0	0	0	0	0	0	0	0	0	0	0	0	0	0	0	0	0	0	0	0	0	0	0	0	0	0	0	0	0	0	0	0	0	0	0	0	0	0	2094	2094	2094	2091	2091	2084	2077	2064	2064	2061	2048	2048	2042	2039	2039	2029	2020	2020	2020	2020	2020	2020	2020	2020	2023	2020	2020	2020	2020	2020	2020	2020	2020	2020	2020	2017	2017	2017	2017	2017	2017	2017	2017	2017	2017	2017	2017	2017	2017	2017	2020	2020	2020	2023	2023	2023	2029	2029	2029	2032	2032	2032	2032	2032	2032	2029	2029	2029	2023	2020	2020	2020	2017	2017	2014	2014	2014	2014	2010	2010	2010	2010	2010	2010	2010	2010	2010	2010	2010	2010	2010	2010	2010	2010	2010	2010	2010	2010	2010	2010	2010	2010	2007	2007	2007	2004	2004	2004	2004	2004	2004	2004	2004	2004	2004	2007	2007	2007	2007	2007	2007	2007	2007	2007	2007	2010	2010	2014	2014	2014	2014	2014	2014	2014	2014	2014	2007	2007	2007	2007	2007	2004	2004	2004	2004	2004	2004	2004	2004	2007	2007	2007	2010	2010	2014	2017	2017	2020	2023	2023	2029	2032	2032	2032	2032	2032	2032	2032	2032	2029	2029	2029	2023	2023	2023	2020	2020	2020	2020	2020	2020	2020	2017	2017	2017	2017	2017	2017	2017	2017	2017	2017	2017	2017	2017	2017	2017	2017	2017	2017	2014	2014	2014	2014	2014	2014	2014	2014	2014	2014	2014	2014	2017	2020	2020	2020	2029	2029	2032	2039	2039	2051	2051	2061	2064	2064	2071	2077	2077	2081	2084	2084	2084	2087	2087	2087	2087	2087	2084	2084	2084	2084	2084	2084	2081	2081	2081	2077	2077	2077	2074	2074	2074	2071	2071	2071	2064	2061	2061	2061	2061	2061	2061	2061	2064	2064	2064	2064	2064	2071	2074	2074	2074	2074	2074	2074	2074	2064	2064	2064	2061	2055	2055	2055	2051	2051	2051	2051	2055	2051	2051	2055	2055	2055	2061	2061	2061	2061	2061	2061	2061	2055	2051	2042	2042	2039	2032	2032	2023	2017	2017	2014	2014	2014	2014	2010	2010	2010	2014	2014	2014	2017	2023	2023	2032	2039	2039	2048	2055	2055	2064	2071	2071	2074	2074	2074	2074	2074	2071	2064	2064	2055	2051	2051	2042	2032	2032	2029	2017	2010	2010	2004	2001	2001	1995	1992	1992	1989	1986	1986	1983	1980	1977	1977	1977	1980	1980	1980	1980	1980	1980	1983	1983	1983	1983	1986	1986	1986	1986	1986	1986	1989	1989	1989	1989	1989	1989	1989	1989	1989	1989
848	848	848	848	848	848	848	848	848	848	850	851	851	853	853	855	857	857	858	860	860	860	862	862	867	867	875	875	880	884	884	893	893	898	898	903	910	910	916	916	918	918	918	918	918	918	918	919	919	918	918	918	918	918	918	918	918	918	918	918	918	918	917	917	917	917	917	917	917	918	918	918	918	918	918	918	918	918	919	919	919	920	920	920	920	920	920	920	920	920	920	920	920	920	920	920	920	920	920	920	920	921	921	921	921	921	921	921	921	921	921	921	921	921	921	921	921	922	922	922	922	922	922	922	922	922	922	922	922	923	923	923	923	924	924	924	924	924	924	924	924	924	924	924	924	924	924	924	924	924	923	923	923	923	923	923	923	923	923	923	923	923	923	923	923	923	923	923	923	923	923	923	923	923	923	923	923	923	923	923	923	923	923	923	923	924	924	924	924	924	924	924	924	924	925	925	925	925	925	925	925	925	925	925	925	925	924	924	924	924	924	924	924	924	923	923	923	923	922	922	921	921	921	921	921	921	921	921	921	921	921	921	921	921	921	921	921	921	921	921	921	921	921	921	921	921	921	921	921	922	922	922	923	924	924	924	924	924	925	926	926	928	929	929	931	931	932	934	934	0	0	0	0	930	930	930	0	0	924	922	922	922	922	0	0	0	920	920	920	920	920	920	920	920	920	920	0	0	0	0	0	0	0	0	0	0	0	826	826	0	809	809	806	800	796	794	794	792	789	788	788	786	783	781	781	780	780	780	779	779	779	778	777	777	776	774	773	773	771	771	771	770	768	768	768	768	768	0	0	0	0	0	0	0	0	0	0	0	0	0	0	0	0	0	0	0	0	0	0	0	0	0	0	0	0	0	0	0	0	0	0	0	0	0	0	0	0	0	0	0	0	0	0	0	0	0	0	0	0	0	0	2094	2094	2094	2091	2091	2081	2077	2064	2064	2051	2048	2048	2039	2032	2032	2023	2020	2017	2017	2014	2014	2017	2017	2017	2017	2017	2017	2017	2017	2017	2017	2017	2017	2017	2017	2014	2014	2014	2014	2014	2014	2014	2014	2014	2014	2014	2014	2014	2014	2014	2014	2017	2017	2017	2017	2017	2017	2020	2020	2020	2020	2020	2020	2020	2020	2017	2017	2017	2014	2014	2014	2010	2010	2010	2007	2007	2007	2007	2007	2007	2004	2004	2004	2004	2004	2004	2004	2004	2004	2004	2007	2007	2007	2007	2007	2007	2004	2004	2004	2004	2004	2004	2004	2004	2004	2001	2001	2001	2001	2001	2001	2001	2001	2001	2001	2001	2001	2001	2004	2004	2004	2004	2004	2004	2004	2004	2004	2007	2007	2007	2007	2007	2007	2007	2007	2007	2007	2007	2007	2007	2007	2004	2004	2004	2004	2004	2004	2004	2004	2007	2007	2007	2010	2010	2014	2017	2017	2020	2023	2023	2029	2032	2032	2032	2032	2032	2032	2032	2032	2029	2029	2029	2023	2023	2023	2020	2020	2020	2020	2020	2020	2020	2017	2017	2017	2017	2017	2017	2017	2017	2017	2017	2017	2017	2017	2017	2017	2017	2017	2017	2014	2014	2014	2014	2014	2014	2014	2014	2014	2014	2014	2014	2017	2020	2020	2020	2029	2029	2032	2039	2039	2051	2051	2061	2064	2064	2071	2077	2077	2081	2084	2084	2084	2087	2087	2087	2087	2087	2084	2084	2084	2084	2084	2084	2081	2081	2081	2077	2077	2077	2074	2074	2074	2071	2071	2071	2064	2061	2061	2061	2061	2061	2061	2061	2064	2055	2055	2055	2055	2061	2064	2064	2071	2071	2071	2071	2071	2064	2061	2061	2055	2051	2051	2051	2048	2048	2048	2048	2048	2048	2048	2048	2048	2048	2051	2051	2051	2051	2051	2048	2042	2042	2039	2032	2032	2023	2020	2020	2014	2010	2010	2007	2007	2007	2007	2007	2007	2007	2007	2010	2010	2014	2017	2017	2023	2032	2032	2042	2051	2051	2061	2071	2071	2074	2074	2077	2077	2077	2074	2071	2071	2064	2055	2055	2048	2039	2039	2029	2020	2010	2010	2004	2001	2001	1995	1992	1992	1989	1986	1980	1980	1980	1977	1977	1977	1977	1980	1980	1980	1983	1983	1983	1986	1986	1986	1989	1989	1989	1989	1989	1989	1992	1992	1992	1992	1989	1989	1989	1989	1989	1989
848	848	848	848	848	848	848	848	848	848	850	851	851	853	853	854	857	857	858	860	860	860	863	863	867	867	875	875	880	884	884	892	892	898	898	901	908	908	913	913	915	917	917	917	918	918	918	918	918	918	918	918	918	918	918	917	917	917	917	917	917	916	916	916	915	915	916	916	916	916	916	917	917	917	917	918	918	918	918	918	918	918	918	919	919	919	919	919	919	920	920	919	919	919	919	919	919	919	919	919	919	920	920	920	920	920	920	920	920	920	920	920	920	920	920	920	920	920	920	920	920	920	920	920	921	921	921	921	921	921	922	922	922	922	922	922	922	922	922	922	922	922	922	922	922	922	922	922	922	922	922	921	921	921	921	921	921	921	921	921	921	921	921	921	921	921	921	921	921	921	921	921	921	921	921	921	921	921	921	922	921	921	921	921	921	922	922	922	922	922	922	922	922	922	922	922	922	922	922	922	922	922	922	922	922	922	922	922	922	921	921	921	921	921	921	920	920	920	920	920	919	919	919	919	919	919	920	920	920	920	920	920	920	920	920	920	920	920	921	921	921	921	921	921	921	921	921	921	921	922	922	922	923	924	924	924	924	924	925	925	925	927	928	928	929	931	931	931	932	932	931	931	930	929	929	928	925	925	924	922	922	922	922	0	0	0	0	0	920	920	920	920	920	920	920	920	0	0	0	0	0	0	0	0	0	0	0	826	826	0	811	811	809	809	798	795	795	792	790	790	789	786	783	783	782	781	780	780	779	779	779	778	777	777	776	775	774	774	774	0	0	770	768	768	768	768	0	0	0	0	0	0	0	0	0	0	0	0	0	0	0	0	0	0	0	0	0	0	0	0	0	0	0	0	0	0	0	0	0	0	0	0	0	0	0	0	0	0	0	0	0	0	0	0	0	0	0	0	0	0	0	2094	2094	2094	2091	2091	2081	2077	2061	2061	2048	2039	2039	2032	2023	2020	2020	2017	2014	2014	2014	2014	2014	2014	2014	2014	2014	2014	2014	2014	2014	2014	2014	2014	2014	2010	2010	2010	2010	2010	2010	2010	2010	2010	2010	2010	2010	2007	2007	2007	2007	2010	2010	2010	2010	2010	2010	2010	2010	2010	2010	2010	2010	2010	2010	2010	2010	2007	2007	2007	2004	2004	2004	2004	2004	2004	2004	2004	2004	2004	2004	2004	2004	2004	2004	2004	2004	2004	2004	2004	2004	2004	2004	2004	2004	2004	2004	2004	2004	2001	2001	2001	2001	2001	2001	2001	1998	1998	1998	1998	1998	1998	1998	1998	1998	1998	1998	1998	1998	1998	2001	2001	2001	2001	2001	2001	2004	2004	2004	2004	2004	2004	2004	2004	2004	2004	2004	2004	2004	2004	2004	2004	2001	2001	2001	2001	2001	2001	2001	2001	2001	2001	2001	2004	2004	2004	2010	2010	2014	2017	2017	2020	2023	2023	2023	2029	2029	2023	2023	2023	2023	2023	2020	2017	2017	2017	2014	2014	2014	2014	2014	2014	2010	2010	2010	2010	2010	2010	2010	2010	2010	2010	2010	2010	2010	2014	2014	2014	2014	2014	2010	2010	2010	2010	2010	2010	2007	2007	2007	2007	2010	2010	2010	2010	2014	2014	2017	2017	2017	2023	2029	2029	2039	2048	2048	2055	2055	2061	2071	2071	2077	2077	2077	2081	2081	2081	2084	2084	2084	2084	2084	2081	2081	2081	2081	2077	2077	2077	2074	2074	2071	2064	2064	2064	2061	2055	2055	2051	2051	2051	2051	2048	2048	2048	2048	2051	2051	2055	2055	2055	2061	2064	2064	2071	2071	2071	2071	2071	2064	2061	2061	2055	2051	2051	2051	2048	2048	2048	2048	2048	2048	2048	2048	2048	2048	2051	2051	2051	2051	2051	2048	2042	2042	2039	2032	2032	2023	2020	2020	2014	2010	2010	2007	2007	2007	2007	2007	2007	2007	2007	2010	2010	2014	2017	2017	2023	2032	2032	2042	2051	2051	2061	2071	2071	2074	2074	2077	2077	2077	2077	2074	2074	2071	2061	2061	2051	2042	2042	2032	2023	2014	2014	2004	2001	2001	1995	1992	1992	1989	1986	1980	1980	1980	1977	1977	1977	1977	1980	1980	1980	1983	1983	1986	1986	1989	1989	1989	1989	1989	1989	1992	1992	1992	1992	1992	1992	1992	1992	1992	1992	1992	1992
848	848	848	848	848	848	848	848	848	848	849	851	851	853	853	854	857	857	858	860	860	861	863	863	868	868	875	875	880	884	884	892	892	898	898	901	908	908	913	913	915	917	917	917	918	918	918	918	918	918	918	918	918	918	918	917	917	917	917	917	917	916	916	916	915	915	916	916	916	916	916	917	917	917	917	918	918	918	918	918	918	918	918	919	919	919	919	919	919	920	920	919	919	919	919	919	919	919	919	919	919	920	920	920	920	920	920	920	920	920	920	920	920	920	920	920	920	920	920	920	920	920	920	920	921	921	921	921	921	921	922	922	922	922	922	922	922	922	922	922	921	921	921	921	921	921	921	921	920	920	920	920	920	920	920	920	920	920	920	920	920	920	920	920	920	920	920	920	920	920	920	920	920	920	920	920	920	920	920	920	920	920	920	920	920	920	920	920	920	920	920	920	920	920	920	920	920	920	920	920	920	920	920	920	920	920	920	920	920	919	919	919	919	919	918	918	918	918	917	917	917	917	917	917	917	917	918	918	918	918	918	919	919	919	920	920	920	920	920	920	920	921	921	921	921	921	922	922	922	923	924	924	924	924	924	924	924	924	924	924	924	925	926	926	926	928	928	929	930	930	930	930	929	928	928	926	923	922	922	921	920	920	920	919	919	918	918	0	918	918	919	919	919	920	919	919	919	919	0	0	0	0	0	0	0	0	0	825	824	817	811	811	809	809	798	795	795	792	790	790	789	786	783	783	782	781	780	780	779	779	779	778	777	777	776	775	774	774	774	0	0	770	768	768	768	768	0	0	0	0	0	0	0	0	0	0	0	0	0	0	0	0	0	0	0	0	0	0	0	0	0	0	0	0	0	0	0	0	0	0	0	0	0	0	0	0	0	0	0	0	0	0	0	0	0	0	0	0	0	0	0	0	0	0	0	0	2081	2081	2061	2061	2048	2039	2039	2032	2023	2020	2020	2017	2014	2014	2014	2014	2014	2014	2014	2014	2014	2014	2014	2014	2014	2014	2014	2014	2014	2010	2010	2010	2010	2010	2010	2010	2010	2010	2010	2010	2010	2007	2007	2007	2007	2010	2010	2010	2010	2010	2010	2010	2010	2010	2010	2010	2010	2010	2010	2010	2010	2007	2007	2007	2004	2004	2004	2004	2004	2004	2004	2004	2004	2004	2004	2004	2004	2004	2004	2004	2004	2004	2004	2004	2004	2004	2004	2004	2004	2004	2004	2004	2004	2001	2001	2001	2001	2001	2001	2001	1998	1998	1998	1998	1998	1998	1998	1998	1998	1998	1998	1998	1998	1998	2001	2001	2001	2001	2001	2001	2004	2004	2001	2001	2001	2001	2001	2001	2001	2001	2001	2001	2001	2001	2001	2001	1998	1998	1998	1995	1995	1998	1998	1998	1998	1998	1998	2001	2001	2001	2004	2004	2007	2010	2010	2014	2014	2014	2017	2020	2020	2017	2017	2017	2017	2017	2014	2010	2010	2010	2010	2010	2010	2007	2007	2007	2004	2004	2004	2004	2004	2004	2004	2004	2007	2007	2007	2007	2007	2007	2007	2007	2007	2007	2007	2007	2007	2007	2004	2004	2004	2004	2004	2004	2004	2004	2004	2007	2007	2007	2010	2010	2010	2017	2020	2020	2029	2039	2039	2048	2048	2051	2061	2061	2064	2071	2071	2074	2077	2077	2077	2077	2077	2077	2081	2077	2077	2077	2074	2074	2074	2071	2064	2061	2061	2061	2051	2051	2051	2048	2048	2042	2039	2039	2039	2039	2039	2039	2039	2042	2042	2042	2048	2048	2051	2055	2055	2061	2064	2064	2064	2064	2061	2055	2055	2055	2051	2051	2048	2042	2042	2042	2039	2039	2039	2039	2039	2039	2039	2039	2039	2039	2039	2039	2032	2029	2029	2023	2020	2020	2017	2014	2014	2007	2004	2004	2004	2004	2004	2004	2004	2004	2004	2004	2004	2010	2010	2014	2014	2020	2023	2023	2039	2048	2048	2051	2061	2061	2071	2071	2071	2074	2074	2071	2071	2071	2064	2061	2061	2048	2042	2042	2032	2020	2014	2014	2004	2001	2001	1995	1989	1989	1989	1983	1980	1980	1977	1977	1977	1977	1977	1977	1977	1980	1983	1983	1986	1986	1986	1989	1989	1989	1989	1989	1992	1992	1992	1992	1992	1992	1992	1992	1992	1992	1992	1992
848	848	848	848	847	847	847	848	848	848	849	851	851	853	853	854	857	857	858	860	860	861	863	863	868	868	875	875	880	884	884	892	892	898	898	901	904	904	910	910	912	914	914	915	915	915	915	916	916	916	916	916	916	916	916	915	915	915	915	915	915	914	914	914	914	914	914	914	915	915	915	915	915	915	916	916	916	917	917	917	918	918	918	918	918	918	918	918	918	918	918	918	918	918	918	918	918	918	918	918	918	918	918	918	918	918	918	918	918	918	918	919	919	919	919	919	919	919	919	919	919	919	919	919	920	920	920	920	920	920	920	920	920	920	920	921	921	921	921	921	921	921	921	921	921	921	921	921	920	920	920	920	920	920	920	920	920	920	920	920	920	920	920	920	920	920	920	920	920	920	920	920	920	920	920	920	920	920	920	920	920	920	920	920	920	920	920	920	920	920	920	920	920	920	920	920	920	920	920	920	920	920	920	920	920	920	920	920	920	919	919	919	919	919	918	918	918	918	917	917	917	917	917	917	917	917	918	918	918	918	918	919	919	919	920	920	920	920	920	920	920	921	921	921	922	922	922	923	923	924	924	924	924	925	925	924	924	924	924	924	924	925	926	926	926	928	928	929	930	928	928	928	927	926	926	924	922	920	920	920	919	919	919	918	918	918	918	918	918	918	918	918	919	919	918	918	919	919	0	0	0	0	0	0	0	0	0	825	824	817	817	812	809	809	800	800	796	793	791	791	789	787	784	784	783	781	780	780	779	779	779	778	778	0	0	0	0	0	710	709	709	707	704	704	0	0	0	0	0	0	0	0	0	0	0	0	0	0	0	0	0	0	0	0	0	0	0	0	0	0	0	0	0	0	0	0	0	0	0	0	0	0	0	0	0	0	0	0	0	0	0	0	0	0	0	0	0	0	0	0	0	0	0	0	0	0	2081	2081	2055	2055	2048	2032	2032	2029	2023	2017	2017	2014	2010	2010	2010	2007	2007	2007	2010	2010	2010	2010	2010	2010	2010	2010	2010	2010	2010	2010	2007	2007	2007	2007	2007	2007	2007	2007	2007	2004	2004	2004	2004	2004	2004	2007	2007	2007	2007	2004	2004	2004	2004	2004	2004	2004	2004	2004	2004	2004	2004	2001	2001	2001	2001	2001	2001	2001	2001	2001	2001	2001	2001	2001	2001	2001	2001	2001	2001	2001	2001	2001	2001	2001	2001	2001	2001	2001	2001	2001	2001	2001	2001	2001	1998	1998	1998	1995	1995	1995	1995	1995	1995	1992	1992	1992	1992	1992	1992	1992	1995	1995	1995	1995	1995	1995	1998	1998	1998	2001	2001	2001	2001	2001	2001	2001	2001	2001	2001	2001	2001	2001	2001	2001	2001	2001	1998	1998	1998	1995	1995	1998	1998	1998	1998	1998	1998	2001	2001	2001	2004	2004	2007	2010	2010	2014	2014	2014	2017	2020	2020	2017	2017	2017	2017	2017	2014	2010	2010	2010	2010	2010	2010	2007	2007	2007	2004	2004	2004	2004	2004	2004	2004	2004	2007	2007	2007	2007	2007	2007	2007	2007	2007	2007	2007	2007	2007	2007	2004	2004	2004	2004	2004	2004	2004	2004	2004	2007	2007	2007	2010	2010	2010	2017	2020	2020	2029	2039	2039	2048	2048	2051	2061	2061	2064	2071	2071	2074	2077	2077	2077	2077	2077	2077	2081	2077	2077	2077	2074	2074	2074	2071	2064	2061	2061	2061	2051	2051	2051	2048	2048	2042	2029	2029	2029	2023	2023	2023	2029	2029	2029	2032	2039	2039	2042	2048	2048	2051	2055	2055	2055	2055	2055	2051	2051	2048	2048	2048	2042	2039	2032	2032	2032	2032	2032	2029	2029	2029	2029	2029	2029	2029	2023	2023	2023	2020	2020	2017	2014	2014	2010	2007	2007	2004	2004	2004	2001	2001	2001	2001	2001	2001	2004	2004	2004	2004	2004	2010	2010	2014	2020	2020	2029	2032	2032	2042	2051	2051	2055	2061	2061	2061	2061	2061	2061	2061	2055	2051	2051	2042	2032	2032	2029	2017	2010	2010	2004	2001	2001	1995	1989	1989	1989	1983	1983	1980	1977	1974	1974	1974	1974	1977	1977	1980	1983	1983	1986	1986	1986	1989	1989	1989	1989	1989	1989	1992	1992	1992	1992	1992	1992	1992	1992	1992	1992	1992
849	849	848	848	847	847	847	848	848	848	849	851	851	853	853	855	857	857	859	860	860	862	864	864	869	869	876	876	880	884	884	891	891	897	898	900	903	903	906	910	910	910	911	911	912	912	912	913	913	913	913	914	914	914	914	913	913	913	913	912	912	912	911	911	911	912	912	912	913	913	913	913	914	914	915	915	915	915	916	916	917	917	917	917	918	918	918	918	918	918	918	918	918	918	918	918	918	918	918	918	918	918	918	918	918	918	918	918	918	918	917	917	918	918	918	918	918	918	918	918	918	918	918	918	918	918	918	918	918	919	919	919	919	920	920	920	920	920	920	920	920	920	920	920	920	920	920	920	920	920	920	919	919	919	919	919	919	919	919	919	919	919	919	919	919	919	919	919	919	919	919	919	919	919	919	919	919	919	919	919	919	919	919	919	919	919	919	919	919	919	919	919	919	919	919	919	919	919	919	918	918	918	918	918	918	918	918	918	918	918	918	918	917	915	915	915	914	914	912	912	912	912	912	912	912	914	915	915	916	917	917	918	918	918	918	919	919	920	920	920	920	921	921	921	922	922	922	923	923	924	924	924	924	924	924	923	923	923	923	923	923	923	924	924	925	926	926	927	928	928	928	928	927	926	926	924	922	920	920	920	919	919	919	918	918	918	918	918	918	918	918	918	919	919	918	918	919	919	0	0	0	0	0	0	0	0	0	825	824	820	820	814	814	0	802	802	797	794	793	793	791	787	786	786	783	781	780	780	780	780	0	0	0	0	0	0	0	0	710	709	709	707	704	704	0	0	0	0	0	0	0	0	0	0	0	0	0	0	0	0	0	0	0	0	0	0	0	0	0	0	0	0	0	0	0	0	0	0	0	0	0	0	0	0	0	0	0	0	0	0	0	0	0	0	0	0	0	0	0	0	0	0	0	0	0	0	0	0	2055	2055	2048	2032	2032	2029	2020	2014	2014	2010	2007	2007	2007	2007	2007	2007	2007	2007	2007	2007	2007	2007	2007	2007	2007	2007	2007	2007	2007	2007	2004	2004	2004	2004	2004	2004	2004	2004	2004	2004	2004	2004	2004	2004	2004	2004	2004	2001	2001	2001	2001	2001	2001	2001	2001	2001	1998	1998	1998	1998	1998	1998	1995	1995	1995	1995	1995	1995	1995	1995	1995	1995	1995	1995	1995	1995	1995	1995	1995	1995	1995	1995	1995	1998	1998	1998	1995	1995	1995	1995	1995	1995	1995	1992	1992	1992	1992	1992	1992	1989	1989	1989	1989	1989	1989	1989	1989	1989	1992	1992	1992	1992	1992	1992	1995	1995	1995	1995	1998	1998	1998	1998	1998	1998	1998	1998	1998	1998	1998	1998	1998	1995	1995	1995	1995	1995	1995	1995	1995	1995	1995	1995	1995	1995	1995	1995	1995	1998	2001	2001	2004	2004	2004	2007	2010	2010	2010	2010	2010	2010	2010	2010	2010	2010	2007	2004	2004	2004	2004	2004	2004	2004	2004	2004	2004	2001	2001	2001	2001	2004	2004	2004	2004	2004	2004	2004	2004	2004	2004	2004	2004	2004	2004	2004	2004	2004	2004	2004	2001	2001	2001	2001	2001	2001	2001	2004	2004	2004	2004	2004	2004	2007	2014	2014	2020	2023	2023	2032	2042	2042	2048	2048	2055	2061	2061	2064	2064	2064	2071	2074	2074	2074	2074	2071	2071	2071	2071	2064	2061	2061	2055	2055	2055	2048	2048	2048	2039	2032	2032	2032	2029	2029	2029	2023	2023	2023	2029	2029	2029	2032	2039	2039	2042	2048	2048	2051	2055	2055	2055	2055	2055	2051	2051	2048	2048	2048	2042	2039	2032	2032	2032	2032	2032	2029	2029	2029	2029	2029	2029	2029	2023	2023	2023	2020	2020	2017	2014	2014	2010	2007	2007	2004	2004	2004	2001	2001	2001	2001	2001	2001	2004	2004	2004	2004	2004	2010	2010	2014	2020	2020	2029	2032	2032	2042	2051	2051	2055	2061	2061	2061	2061	2061	2061	2061	2055	2051	2051	2042	2032	2032	2029	2017	2010	2010	2004	2001	2001	1995	1989	1989	1989	1983	1983	1980	1977	1974	1974	1974	1974	1977	1977	1980	1983	1983	1986	1986	1986	1989	1989	1989	1989	1989	1989	1992	1992	1992	1992	1992	1992	1992	1992	1992	1992	1992
848	848	848	848	848	848	848	848	848	848	849	851	851	853	853	855	857	857	859	860	860	862	865	865	871	871	877	877	880	884	884	891	891	897	900	900	903	903	906	910	910	910	911	911	912	912	912	913	913	913	913	914	914	914	914	913	913	913	913	912	912	912	911	911	911	912	912	912	913	913	913	913	914	914	915	915	915	915	916	916	917	917	917	917	918	918	918	918	918	918	918	918	918	918	918	918	918	918	918	918	918	918	918	918	918	918	918	918	918	918	917	917	918	918	918	918	918	918	918	918	918	918	918	918	918	918	918	918	918	918	918	918	918	918	918	918	919	919	919	919	919	919	919	919	919	919	919	919	919	919	919	919	919	919	918	918	918	918	918	918	918	918	918	918	918	918	918	918	918	918	918	918	918	918	918	918	918	918	918	918	918	918	918	918	918	918	918	918	918	918	918	918	918	918	918	918	917	917	917	917	917	917	917	917	917	917	917	917	916	915	914	914	912	910	910	910	908	906	906	906	904	904	904	906	908	908	910	910	912	914	914	915	917	917	918	918	918	918	919	919	920	920	920	921	921	921	922	922	922	923	924	923	923	923	922	922	922	922	922	922	921	921	922	922	924	925	925	925	925	924	924	924	924	924	924	922	920	919	919	918	918	918	918	917	917	916	916	918	917	917	918	918	918	918	918	918	919	919	920	0	0	0	0	0	0	826	826	825	823	819	819	814	811	809	802	802	797	794	793	793	791	787	786	786	783	781	780	780	780	780	0	0	0	0	0	710	710	710	709	707	707	704	701	701	0	0	0	0	0	0	0	0	0	0	0	0	0	0	0	0	0	0	0	0	0	0	0	0	0	0	0	0	0	0	0	0	0	0	0	0	0	0	0	0	0	0	0	0	0	0	0	0	0	0	0	0	0	0	0	0	0	0	0	0	0	0	0	0	0	0	0	0	0	0	2020	2014	2014	2010	2007	2007	2007	2007	2007	2007	2007	2007	2007	2007	2007	2007	2007	2007	2007	2007	2007	2007	2007	2007	2004	2004	2004	2004	2004	2004	2004	2004	2004	2004	2004	2004	2004	2004	2004	2004	2004	2001	2001	2001	2001	2001	2001	2001	2001	2001	1998	1998	1998	1998	1998	1998	1995	1995	1995	1995	1995	1995	1995	1995	1995	1995	1995	1995	1995	1995	1995	1995	1995	1995	1995	1995	1995	1998	1998	1998	1995	1995	1995	1995	1995	1995	1995	1992	1992	1992	1992	1992	1992	1989	1989	1989	1989	1989	1989	1989	1989	1989	1992	1992	1992	1992	1992	1992	1992	1992	1992	1995	1995	1995	1995	1995	1995	1995	1995	1995	1995	1995	1995	1995	1995	1992	1992	1992	1992	1992	1992	1992	1992	1992	1992	1992	1992	1992	1992	1995	1995	1995	1998	1998	2001	2001	2001	2004	2004	2004	2004	2004	2004	2004	2004	2004	2004	2004	2004	2004	2001	2001	2001	2001	2001	2001	2001	2001	2001	2001	2001	2001	2001	2001	2001	2001	2001	2001	2001	2001	2001	2001	2001	2001	2001	2001	2001	2001	2001	2001	2001	2001	1998	1998	1998	1998	1998	1998	1998	1998	2001	2001	2001	2001	2001	2004	2007	2007	2010	2017	2017	2023	2029	2029	2039	2042	2042	2051	2051	2055	2055	2055	2061	2061	2061	2061	2064	2061	2061	2061	2061	2055	2051	2051	2051	2042	2042	2042	2032	2032	2029	2023	2023	2023	2020	2020	2020	2020	2020	2020	2020	2020	2020	2023	2029	2029	2032	2039	2039	2042	2048	2048	2048	2051	2048	2048	2048	2042	2039	2039	2039	2032	2032	2032	2029	2029	2029	2023	2023	2023	2023	2020	2020	2020	2017	2017	2014	2014	2014	2010	2007	2007	2004	2004	2004	2004	2001	2001	2001	2001	2001	2001	2001	2001	2001	2001	2001	2004	2004	2004	2010	2010	2014	2014	2020	2029	2029	2032	2042	2042	2048	2048	2048	2051	2051	2051	2048	2048	2048	2042	2042	2039	2029	2020	2020	2014	2007	2007	2004	1998	1998	1995	1989	1989	1986	1983	1983	1980	1977	1974	1974	1974	1974	1977	1977	1977	1980	1980	1983	1983	1986	1986	1986	1989	1989	1989	1989	1992	1992	1992	1992	1992	1992	1992	1992	1992	1992	1992
848	848	848	848	848	848	848	848	848	848	849	851	851	853	853	855	857	857	859	860	860	862	863	865	871	871	877	877	880	884	884	891	891	896	899	899	901	901	903	904	904	906	906	906	908	910	910	910	910	910	910	910	910	911	911	911	911	911	910	910	910	910	910	910	910	910	910	910	910	910	910	911	912	912	913	913	913	914	914	914	915	915	915	915	916	916	916	916	916	916	916	916	917	917	917	916	916	917	916	916	916	916	916	916	916	916	916	915	915	915	915	915	915	915	915	916	916	916	916	916	916	917	917	917	917	917	917	918	918	918	918	918	918	918	918	918	919	919	919	919	919	919	919	919	919	919	919	919	919	919	919	919	919	919	918	918	918	918	918	918	918	918	918	918	918	918	918	918	918	918	918	918	918	918	918	918	918	918	918	918	918	918	918	918	918	918	918	918	918	918	918	918	918	918	918	918	917	917	917	917	917	917	917	917	917	917	917	917	916	915	914	914	912	910	910	910	908	906	906	906	904	904	904	906	908	908	910	910	912	914	914	915	917	917	918	918	918	918	919	919	920	920	920	921	921	921	922	922	922	923	924	923	923	923	922	922	922	922	920	920	920	920	921	921	922	923	923	924	924	922	921	921	921	921	920	920	918	916	916	916	915	915	914	913	912	912	912	913	915	915	917	917	918	918	918	918	919	919	920	0	0	0	0	0	825	825	825	824	823	819	819	814	811	809	809	804	800	795	794	794	792	789	787	787	786	783	781	781	781	0	0	0	709	709	709	709	708	708	707	703	701	701	699	695	695	0	0	0	668	668	668	665	665	665	664	663	663	663	0	0	0	0	0	0	0	0	0	0	0	0	0	0	0	0	0	0	0	0	0	0	0	0	0	0	0	0	0	0	0	0	0	0	0	0	0	0	0	0	0	0	0	0	0	0	0	0	0	0	0	0	0	0	0	0	2020	2014	2014	2004	2004	2004	2004	2004	2004	2004	2004	2004	2004	2004	2004	2004	2004	2004	2004	2004	2007	2004	2004	2004	2004	2004	2004	2004	2004	2004	2004	2004	2004	2001	2001	2001	2001	2001	2001	2001	2001	1998	1998	1998	1995	1995	1995	1995	1995	1995	1995	1995	1995	1995	1995	1995	1992	1992	1992	1992	1992	1992	1992	1992	1992	1992	1992	1992	1992	1992	1992	1992	1992	1992	1992	1992	1992	1995	1995	1995	1992	1992	1992	1992	1992	1992	1992	1989	1989	1989	1989	1989	1986	1986	1986	1986	1986	1986	1986	1986	1986	1986	1989	1989	1989	1989	1989	1989	1992	1992	1992	1995	1995	1995	1995	1995	1995	1995	1995	1995	1995	1995	1995	1995	1995	1992	1992	1992	1992	1992	1992	1992	1992	1992	1992	1992	1992	1992	1992	1995	1995	1995	1998	1998	2001	2001	2001	2004	2004	2004	2004	2004	2004	2004	2004	2004	2004	2004	2004	2004	2001	2001	2001	2001	2001	2001	2001	2001	2001	2001	2001	2001	2001	2001	2001	2001	2001	2001	2001	2001	2001	2001	2001	2001	2001	2001	2001	2001	2001	2001	2001	2001	1998	1998	1998	1998	1998	1998	1998	1998	2001	2001	2001	2001	2001	2004	2007	2007	2010	2017	2017	2023	2029	2029	2039	2042	2042	2051	2051	2055	2055	2055	2061	2061	2061	2061	2064	2061	2061	2061	2061	2055	2051	2051	2051	2042	2042	2032	2029	2029	2023	2020	2020	2017	2014	2014	2014	2014	2014	2014	2014	2017	2017	2017	2020	2023	2023	2029	2029	2032	2032	2032	2039	2042	2039	2039	2039	2039	2032	2029	2029	2029	2023	2023	2023	2020	2020	2020	2020	2020	2020	2017	2017	2014	2014	2014	2010	2010	2010	2004	2004	2004	2004	2001	2001	2001	2001	2001	2001	2001	2001	2001	2001	2001	2001	2001	2001	2001	2001	2004	2004	2004	2010	2010	2014	2017	2017	2020	2029	2029	2032	2039	2039	2039	2039	2039	2039	2039	2032	2032	2032	2023	2020	2014	2014	2010	2004	2004	2001	1995	1995	1992	1989	1989	1986	1983	1983	1980	1977	1974	1974	1974	1974	1974	1974	1977	1980	1980	1980	1983	1983	1983	1983	1986	1989	1989	1989	1989	1989	1989	1992	1992	1992	1992	1992	1992	1992	1992
849	849	848	848	848	848	848	848	848	848	849	851	852	853	853	855	858	858	860	861	861	863	863	866	873	873	878	878	881	884	884	892	892	896	899	899	900	900	902	903	903	903	904	904	904	906	906	906	906	906	906	906	906	906	908	908	908	908	908	908	908	908	908	908	908	908	908	908	908	910	910	910	910	910	911	911	911	911	912	912	912	913	913	914	914	914	914	914	914	915	915	915	915	915	915	915	915	915	914	914	914	914	914	914	914	913	913	912	912	912	912	912	912	912	912	913	913	913	913	913	913	914	914	914	915	915	915	915	915	916	916	916	917	917	917	917	918	918	918	918	918	918	918	918	918	918	918	918	918	918	918	918	918	918	918	918	917	917	917	917	917	917	917	917	917	917	917	917	917	917	917	917	917	917	917	917	917	917	917	917	917	917	917	917	916	916	916	916	916	916	915	915	915	915	915	915	915	914	914	914	914	914	914	914	915	914	913	912	912	910	908	908	906	904	903	903	902	901	901	901	901	901	901	901	903	903	906	908	908	910	910	912	915	915	916	917	917	918	918	918	919	919	919	920	920	920	921	921	921	922	922	922	921	921	921	921	921	921	920	920	920	920	921	921	922	923	923	924	924	922	921	921	921	921	920	920	918	916	916	916	915	915	914	913	912	912	912	913	915	915	917	917	918	918	918	918	919	919	0	0	0	0	0	0	825	825	825	824	823	823	820	815	812	809	809	807	802	797	795	795	794	792	792	790	788	786	786	786	0	0	0	0	709	709	709	709	708	708	707	703	701	701	699	695	695	0	0	0	668	668	668	665	665	665	664	663	663	663	0	0	0	0	0	0	0	0	0	0	0	0	0	0	0	0	0	0	0	0	0	0	0	0	0	0	0	0	0	0	0	0	0	0	0	0	0	0	0	0	0	0	0	0	0	0	0	0	0	0	0	0	0	0	0	0	0	0	0	2004	2004	2004	2004	2004	2004	2004	2004	2004	2001	2001	2001	2001	2004	2004	2004	2004	2004	2004	2001	2001	2001	2001	2001	2001	2001	2001	2001	2001	2001	2001	2001	2001	2001	2001	1998	1998	1995	1995	1995	1995	1992	1992	1992	1992	1992	1989	1989	1989	1989	1989	1989	1989	1989	1989	1989	1989	1989	1989	1989	1989	1989	1989	1989	1989	1989	1989	1989	1989	1989	1989	1989	1989	1989	1992	1992	1992	1989	1989	1989	1989	1989	1989	1989	1986	1986	1983	1980	1980	1980	1980	1980	1980	1980	1980	1980	1980	1980	1980	1983	1983	1983	1986	1989	1989	1989	1989	1989	1992	1992	1992	1992	1992	1992	1992	1992	1992	1992	1992	1992	1992	1992	1989	1989	1989	1989	1989	1989	1989	1989	1989	1989	1989	1989	1989	1992	1992	1992	1995	1995	1995	1995	1998	1998	2001	2001	2001	2001	2001	2001	2001	2001	2001	2001	2001	2001	2001	2001	2001	1998	1998	1998	1998	1998	1998	1995	1995	1995	1995	1995	1995	1995	1998	1998	1998	1998	1998	1998	1998	1998	1998	1998	1998	1998	1995	1995	1995	1995	1995	1995	1995	1995	1995	1995	1995	1995	1995	1995	1995	1995	1998	1998	2001	2001	2001	2004	2010	2010	2014	2020	2020	2023	2032	2032	2039	2042	2042	2048	2048	2048	2051	2055	2051	2051	2055	2051	2051	2051	2048	2042	2042	2042	2032	2032	2032	2029	2029	2023	2020	2020	2017	2014	2014	2014	2014	2014	2014	2014	2017	2017	2017	2020	2023	2023	2029	2029	2032	2032	2032	2039	2042	2039	2039	2039	2039	2032	2029	2029	2029	2023	2023	2023	2020	2020	2020	2020	2020	2020	2017	2017	2014	2014	2014	2010	2010	2010	2004	2004	2004	2004	2001	2001	2001	2001	2001	2001	2001	2001	2001	2001	2001	2001	2001	2001	2001	2001	2004	2004	2004	2010	2010	2014	2017	2017	2020	2029	2029	2032	2039	2039	2039	2039	2039	2039	2039	2032	2032	2032	2023	2020	2014	2014	2010	2004	2004	2001	1995	1995	1992	1989	1989	1986	1983	1983	1980	1977	1974	1974	1974	1974	1974	1974	1977	1980	1980	1980	1983	1983	1983	1983	1986	1989	1989	1989	1989	1989	1989	1989	1989	1989	1989	1989	1989	1989	1989
850	850	849	848	848	848	848	848	850	850	851	851	853	855	855	857	859	859	860	862	862	864	864	868	875	875	879	879	881	886	886	892	892	896	899	899	900	900	902	903	903	903	904	904	904	906	906	906	906	906	906	906	906	906	908	908	908	908	908	908	908	908	908	908	908	908	908	908	908	910	910	910	910	910	911	911	911	911	912	912	912	913	913	914	914	914	914	914	914	915	915	915	915	915	915	915	915	915	914	914	914	914	914	914	914	913	913	912	912	912	912	912	912	912	912	913	913	913	913	913	910	910	910	910	910	910	910	911	911	911	912	913	913	914	915	915	915	915	915	916	916	916	916	917	917	916	916	916	915	915	915	915	915	915	915	915	915	915	915	915	915	915	915	914	914	914	915	915	915	915	915	915	915	915	915	915	915	915	915	914	914	914	914	914	914	913	913	913	913	913	912	912	912	912	911	910	910	910	910	910	910	910	910	910	910	910	908	906	906	904	903	901	901	901	900	900	899	899	899	899	899	899	899	900	901	901	902	904	904	906	908	908	911	911	914	915	915	917	918	918	918	919	919	919	920	920	920	920	920	920	920	920	920	920	920	919	919	919	919	919	919	919	920	920	921	922	922	921	921	920	920	920	920	920	918	918	916	912	912	912	910	910	910	910	910	910	910	910	913	913	915	915	917	917	917	918	918	918	0	0	0	0	0	0	825	824	824	823	822	819	819	815	812	809	809	807	802	797	795	795	794	792	792	790	788	786	786	786	0	0	0	709	709	709	709	707	706	706	704	701	699	697	690	690	690	0	0	674	668	666	666	665	665	665	664	663	663	663	0	0	0	0	0	0	0	0	0	0	0	0	0	0	0	0	0	0	0	0	0	0	0	0	0	0	0	0	0	0	0	0	0	0	0	0	0	0	0	0	0	0	0	0	0	0	0	0	0	0	0	0	0	0	0	0	0	0	0	0	2004	2004	2004	2004	2004	2004	2004	2004	2001	2001	2001	2001	2004	2004	2004	2004	2004	2004	2001	2001	2001	2001	2001	2001	2001	2001	2001	2001	2001	2001	2001	2001	2001	2001	1998	1998	1995	1995	1995	1995	1992	1992	1992	1992	1992	1989	1989	1989	1989	1989	1989	1989	1989	1989	1989	1989	1989	1989	1989	1989	1989	1989	1989	1989	1989	1989	1989	1989	1989	1989	1989	1989	1989	1992	1992	1992	1989	1989	1989	1989	1989	1989	1989	1986	1986	1983	1980	1980	1980	1980	1980	1980	1980	1980	1974	1974	1974	1974	1977	1980	1980	1980	1983	1983	1986	1989	1989	1989	1989	1989	1989	1989	1989	1989	1989	1989	1989	1989	1989	1989	1989	1989	1986	1986	1986	1986	1986	1986	1986	1989	1989	1989	1989	1989	1989	1992	1992	1992	1992	1992	1995	1995	1995	1998	1998	1998	2001	2001	2001	2001	2001	1998	1998	1998	1998	1995	1995	1995	1995	1995	1995	1995	1995	1995	1995	1995	1995	1995	1995	1995	1995	1995	1995	1995	1995	1995	1995	1995	1995	1995	1995	1995	1995	1992	1992	1992	1992	1992	1992	1992	1992	1992	1992	1992	1992	1992	1992	1992	1992	1995	1995	1995	1998	1998	2001	2004	2004	2007	2010	2010	2017	2020	2020	2029	2032	2032	2032	2039	2039	2039	2042	2042	2042	2042	2039	2039	2039	2039	2032	2032	2029	2029	2029	2020	2020	2020	2017	2014	2014	2014	2010	2010	2010	2007	2007	2010	2010	2010	2010	2010	2014	2014	2014	2020	2023	2023	2023	2029	2029	2029	2029	2029	2029	2029	2023	2023	2023	2020	2020	2020	2020	2017	2017	2014	2014	2014	2014	2014	2014	2010	2007	2007	2004	2004	2004	2004	2001	2001	2001	2001	2001	1998	1998	1995	1995	1995	1995	1998	1998	1998	1998	1998	1998	2001	2001	2001	2004	2004	2004	2007	2007	2010	2010	2014	2017	2017	2020	2023	2023	2023	2023	2023	2023	2023	2020	2020	2020	2017	2014	2007	2007	2004	2004	2004	2001	1995	1995	1992	1989	1989	1986	1983	1983	1980	1977	1974	1974	1974	1974	1974	1974	1977	1977	1977	1977	1980	1980	1983	1983	1983	1983	1983	1986	1986	1986	1989	1989	1989	1989	1989	1989	1989	1989	1989
850	850	849	848	848	848	848	848	850	850	851	851	853	855	855	857	859	859	860	862	862	864	864	868	875	875	879	879	881	886	886	892	892	896	898	898	900	900	901	901	901	901	901	901	902	902	902	903	903	903	904	904	904	904	904	904	906	906	906	906	906	906	906	906	906	906	906	906	906	908	908	908	908	908	908	910	910	910	910	910	910	911	911	911	911	912	912	912	912	912	913	913	913	913	913	913	913	913	913	912	912	912	911	911	911	910	910	910	910	910	910	910	910	910	910	910	910	910	910	910	910	910	910	910	910	910	910	911	911	911	912	913	913	914	915	915	915	915	915	916	916	916	916	917	917	916	916	916	915	915	915	915	915	915	915	915	915	915	915	915	915	915	915	914	914	914	915	915	915	915	915	915	915	915	915	915	915	915	915	914	914	914	914	914	914	913	913	913	913	913	912	912	912	912	911	910	910	910	910	910	910	910	910	910	910	910	908	906	906	904	903	901	901	901	900	900	899	899	899	899	899	899	899	900	901	901	902	904	904	906	908	908	911	911	914	915	915	917	918	918	918	919	919	919	920	920	920	920	920	918	918	918	918	918	918	918	918	918	918	918	918	918	919	919	920	922	921	920	919	919	918	918	918	917	916	916	911	908	908	912	906	906	906	906	910	910	910	910	910	910	913	915	915	917	917	918	918	918	0	0	0	0	825	825	825	824	824	823	821	819	819	815	812	810	810	809	805	800	800	796	795	794	794	793	793	793	793	0	0	707	707	707	707	706	706	706	703	701	701	700	698	697	690	685	685	680	676	673	668	666	666	665	665	665	664	663	661	661	661	0	0	0	0	0	0	0	0	0	0	0	0	0	0	0	0	0	0	720	720	720	720	720	720	720	0	0	0	0	0	0	0	0	0	0	0	0	0	0	0	0	0	0	0	0	0	0	0	0	0	0	0	0	0	0	0	0	0	0	2004	2004	2004	2004	2004	2004	2004	2004	2001	2001	2001	2001	2001	2001	2001	2001	2001	2001	2001	2001	2001	2001	2001	2001	2001	2001	2001	2001	2001	1998	1998	1998	1998	1998	1995	1995	1995	1992	1992	1992	1989	1989	1989	1989	1989	1986	1983	1983	1983	1983	1983	1983	1983	1983	1983	1983	1983	1983	1983	1983	1983	1983	1986	1986	1986	1986	1986	1989	1989	1989	1989	1989	1989	1989	1989	1989	1989	1989	1989	1986	1986	1986	1983	1980	1980	1977	1974	1974	1974	1974	1974	1974	1974	1974	1974	1974	1974	1974	1977	1980	1980	1980	1983	1983	1986	1989	1989	1989	1989	1989	1989	1989	1989	1989	1989	1989	1989	1989	1989	1989	1989	1989	1986	1986	1986	1986	1986	1986	1986	1989	1989	1989	1989	1989	1989	1992	1992	1992	1992	1992	1995	1995	1995	1998	1998	1998	2001	2001	2001	2001	2001	1998	1998	1998	1998	1995	1995	1995	1995	1995	1995	1995	1995	1995	1995	1995	1995	1995	1995	1995	1995	1995	1995	1995	1995	1995	1995	1995	1995	1995	1995	1995	1995	1992	1992	1992	1992	1992	1992	1992	1992	1992	1992	1992	1992	1992	1992	1992	1992	1995	1995	1995	1998	1998	2001	2004	2004	2007	2010	2010	2017	2020	2020	2029	2032	2032	2032	2039	2039	2039	2042	2042	2042	2042	2029	2029	2029	2029	2023	2023	2020	2020	2020	2017	2014	2014	2014	2010	2007	2007	2004	2004	2004	2004	2004	2004	2004	2004	2007	2007	2007	2007	2007	2010	2014	2014	2014	2017	2017	2017	2020	2017	2017	2017	2017	2017	2017	2014	2014	2014	2014	2014	2014	2010	2010	2010	2010	2010	2010	2007	2004	2004	2004	2004	2004	2001	2001	2001	2001	1998	1998	1995	1995	1995	1995	1995	1995	1995	1995	1995	1995	1995	1995	1995	1995	1998	2001	2001	2001	2004	2004	2004	2007	2007	2010	2010	2010	2014	2014	2014	2014	2014	2014	2014	2014	2010	2007	2007	2004	2004	2004	2001	2001	2001	1998	1995	1995	1992	1989	1989	1986	1983	1983	1980	1977	1974	1974	1974	1974	1974	1974	1974	1974	1974	1977	1977	1977	1980	1980	1980	1980	1983	1983	1983	1983	1986	1986	1986	1986	1986	1986	1986	1986	1986
851	851	850	850	850	850	850	851	851	851	853	853	855	857	857	858	860	860	861	863	863	866	866	871	875	876	880	880	882	887	887	893	893	896	898	898	898	898	899	900	900	900	900	900	900	901	901	901	901	901	901	902	903	903	903	903	903	904	904	904	904	904	904	904	904	904	906	906	906	906	906	906	908	908	908	908	908	908	908	910	910	910	910	910	910	910	910	910	911	911	911	912	912	912	912	912	912	912	912	911	911	910	910	910	910	910	910	908	908	906	906	906	906	906	906	906	906	904	904	906	906	906	906	906	906	906	906	908	908	908	908	908	908	910	910	910	911	911	911	912	912	912	913	913	913	913	913	913	912	912	912	912	912	912	912	913	912	912	912	912	912	912	912	911	911	911	911	912	912	912	912	912	912	912	912	912	911	911	911	911	911	910	910	910	910	910	910	910	908	908	908	908	908	908	908	906	906	906	906	906	906	904	904	904	904	903	903	902	901	901	900	899	899	898	898	898	898	897	897	897	897	898	898	898	899	899	900	901	901	903	906	906	908	910	910	913	913	915	917	917	918	918	918	918	919	919	919	919	919	918	918	918	918	918	918	918	918	918	918	918	918	918	919	919	920	0	921	920	919	919	918	918	918	917	916	916	911	908	908	0	906	906	906	906	0	0	0	910	910	910	913	915	915	0	918	918	918	918	0	0	0	0	825	825	825	824	824	823	821	819	819	815	812	810	810	809	807	802	802	799	797	795	795	794	793	793	793	0	0	707	707	707	707	706	706	706	703	701	701	700	698	698	698	685	685	680	676	673	668	666	666	665	665	665	664	663	661	661	661	0	0	0	0	0	0	0	0	0	0	0	0	0	0	0	0	0	0	720	720	720	720	720	718	718	718	718	0	0	0	0	0	0	0	0	0	0	0	0	0	0	0	0	0	0	0	0	0	0	0	0	0	0	0	0	0	0	0	0	0	0	2004	2001	2001	2001	2001	2001	1998	1998	1998	1998	2001	2001	2001	2001	2001	2001	2001	2001	2001	2001	2001	2001	2001	2001	2001	2001	2001	1998	1998	1995	1995	1995	1995	1995	1992	1992	1992	1989	1986	1986	1983	1980	1980	1977	1977	1977	1977	1977	1977	1977	1977	1977	1977	1977	1977	1977	1977	1977	1977	1977	1977	1977	1980	1980	1980	1983	1986	1986	1986	1986	1986	1986	1986	1986	1986	1983	1983	1983	1980	1980	1977	1977	1977	1974	1971	1971	1965	1965	1965	1965	1965	1965	1965	1965	1965	1965	1971	1974	1974	1974	1977	1977	1980	1983	1983	1983	1986	1986	1983	1983	1983	1986	1986	1986	1983	1983	1983	1983	1983	1980	1980	1980	1980	1980	1980	1980	1983	1983	1983	1986	1986	1986	1989	1989	1989	1989	1992	1992	1992	1995	1995	1995	1995	1995	1995	1995	1995	1995	1995	1995	1995	1995	1995	1992	1992	1992	1992	1992	1992	1992	1992	1992	1992	1992	1992	1992	1992	1992	1992	1992	1992	1992	1992	1992	1992	1992	1992	1992	1992	1992	1992	1992	1992	1989	1989	1989	1989	1989	1989	1989	1989	1989	1989	1989	1989	1989	1989	1992	1992	1992	1995	1995	1998	2001	2001	2004	2004	2004	2007	2014	2014	2017	2020	2020	2023	2023	2023	2029	2029	2029	2032	2032	2029	2029	2029	2029	2023	2023	2020	2020	2020	2017	2014	2014	2014	2010	2007	2007	2004	2004	2004	2004	2004	2004	2004	2004	2007	2007	2007	2007	2007	2010	2014	2014	2014	2017	2017	2017	2020	2017	2017	2017	2017	2017	2017	2014	2014	2014	2014	2014	2014	2010	2010	2010	2010	2010	2010	2007	2004	2004	2004	2004	2004	2001	2001	2001	2001	1998	1998	1995	1995	1995	1995	1995	1995	1995	1995	1995	1995	1995	1995	1995	1995	1998	2001	2001	2001	2004	2004	2004	2007	2007	2010	2010	2010	2014	2014	2014	2014	2014	2014	2014	2014	2010	2007	2007	2004	2004	2004	2001	2001	2001	1998	1995	1995	1992	1989	1989	1986	1983	1983	1980	1977	1977	1974	1974	1974	1974	1974	1974	1974	1974	1977	1977	1974	1974	1977	1977	1977	1977	1977	1980	1980	1980	1980	1980	1980	1980	1980	1980	1980	1980
854	854	853	853	853	853	854	854	854	855	857	857	858	859	859	860	862	862	863	863	866	870	870	875	875	878	881	881	883	888	888	893	893	896	898	898	898	898	899	900	900	900	900	900	900	901	901	901	901	901	901	902	903	903	903	903	903	904	904	904	904	904	904	904	904	904	906	906	906	906	906	906	908	908	908	908	908	908	908	910	910	910	910	910	910	910	910	910	911	911	911	912	912	912	912	912	912	912	912	911	911	910	910	910	910	910	910	908	908	904	904	904	904	904	903	903	903	903	903	903	903	903	903	903	903	903	903	903	903	904	904	904	904	904	906	906	906	906	906	908	908	908	908	910	910	910	908	908	908	908	910	910	908	908	908	910	910	908	908	908	908	908	908	908	908	908	908	908	908	908	910	910	910	908	908	908	908	908	908	908	908	908	906	906	906	906	906	906	904	904	904	904	904	904	903	903	903	903	902	902	902	901	901	901	901	900	900	900	899	899	898	898	898	896	896	896	895	895	895	895	895	896	897	897	898	898	899	900	900	901	903	903	904	908	908	910	913	913	915	915	917	918	918	918	918	918	919	919	919	918	918	918	917	917	917	916	916	916	917	917	917	918	918	918	918	919	919	918	918	918	916	915	915	914	911	906	906	903	903	0	902	902	903	903	903	903	903	904	906	906	910	915	915	0	917	917	918	918	0	0	0	0	825	825	825	824	824	823	821	819	819	815	812	810	810	809	807	802	802	799	797	795	795	794	793	793	793	0	0	707	706	706	705	704	704	703	701	700	700	700	698	698	687	681	677	677	675	672	668	666	666	665	665	665	664	663	661	661	658	658	656	656	655	655	0	0	0	0	0	0	0	0	0	0	0	0	719	719	719	718	718	718	718	718	718	718	0	0	0	0	0	0	0	0	0	0	0	0	0	0	0	0	0	0	0	0	0	0	0	0	0	0	0	0	0	0	0	0	0	0	0	2001	2001	2001	2001	2001	1998	1998	1998	1998	2001	2001	2001	2001	2001	2001	2001	2001	2001	2001	2001	2001	2001	2001	2001	2001	2001	1998	1998	1995	1995	1995	1995	1995	1992	1992	1992	1989	1986	1986	1983	1980	1980	1977	1977	1977	1977	1977	1977	1977	1977	1977	1977	1977	1977	1977	1977	1977	1977	1977	1977	1977	1980	1980	1980	1983	1986	1986	1986	1986	1986	1986	1986	1986	1986	1983	1983	1983	1980	1980	1977	1977	1977	1965	1962	1962	1962	1956	1956	1956	1956	1956	1956	1956	1962	1962	1965	1965	1965	1971	1971	1971	1974	1977	1977	1977	1980	1980	1980	1980	1980	1980	1980	1977	1977	1977	1977	1974	1974	1974	1974	1974	1974	1974	1977	1977	1977	1980	1980	1980	1983	1983	1983	1989	1989	1989	1989	1989	1989	1989	1989	1989	1992	1992	1992	1992	1992	1992	1992	1992	1992	1992	1992	1992	1992	1992	1992	1989	1989	1989	1989	1989	1989	1989	1989	1989	1989	1992	1992	1992	1992	1992	1992	1992	1992	1992	1992	1989	1989	1989	1989	1989	1989	1989	1989	1989	1986	1986	1986	1986	1986	1986	1986	1986	1986	1986	1986	1989	1989	1989	1992	1992	1995	1995	1995	2001	2001	2001	2004	2004	2004	2007	2010	2010	2014	2017	2017	2017	2020	2020	2020	2020	2020	2020	2020	2020	2017	2017	2017	2014	2014	2010	2010	2007	2007	2007	2004	2004	2004	2004	2004	2001	2001	2001	2001	2001	2004	2004	2004	2004	2004	2004	2004	2004	2007	2007	2007	2007	2010	2010	2010	2010	2010	2010	2010	2010	2010	2010	2007	2007	2007	2007	2007	2010	2007	2007	2007	2004	2004	2004	2004	2001	2001	2001	2001	2001	1998	1995	1995	1995	1995	1995	1995	1995	1995	1995	1995	1995	1995	1995	1995	1995	1995	1995	1998	1998	1998	2001	2001	2001	2001	2001	2004	2004	2004	2004	2004	2004	2004	2004	2004	2004	2004	2004	2001	2001	2001	2001	2001	1998	1995	1995	1995	1992	1992	1992	1989	1989	1986	1983	1983	1980	1977	1977	1974	1974	1974	1974	1971	1971	1974	1974	1974	1974	1974	1974	1977	1977	1977	1977	1977	1980	1980	1980	1980	1980	1980	1980	1980	1980	1980	1980
854	854	853	853	853	853	854	854	854	855	857	857	858	859	859	860	862	862	863	863	866	870	870	875	875	878	881	881	883	888	888	893	893	895	897	897	898	898	898	898	899	899	899	899	899	899	900	900	900	900	900	901	901	901	901	902	902	903	903	903	903	903	903	904	904	904	904	904	904	904	906	906	906	906	906	906	906	906	908	908	908	908	908	908	908	910	910	910	910	910	910	911	911	911	911	911	911	911	911	910	910	910	910	910	908	908	906	906	906	904	904	904	904	904	903	903	903	903	903	903	903	903	903	903	903	903	903	903	903	904	904	904	904	904	906	906	906	906	906	908	908	908	908	910	910	910	908	908	908	908	910	910	908	908	908	910	910	908	908	908	908	908	908	908	908	908	908	908	908	908	910	910	910	908	908	908	908	908	908	908	908	908	906	906	906	906	906	906	904	904	904	904	904	904	903	903	903	903	902	902	902	901	901	901	901	900	900	900	899	899	898	898	898	896	896	896	895	895	895	895	895	896	897	897	898	898	899	900	900	901	903	903	904	908	908	910	913	913	915	915	916	917	917	918	918	918	918	918	918	918	918	917	916	915	915	915	915	915	915	915	915	915	917	918	918	918	918	918	915	915	914	912	912	910	908	903	903	901	901	901	901	901	901	901	901	901	902	902	904	904	908	0	0	0	917	917	0	0	0	0	0	0	0	0	825	824	824	823	821	819	819	816	813	811	811	810	808	808	805	802	799	799	797	796	794	794	794	0	0	0	704	704	704	702	701	701	700	698	698	698	691	688	685	679	676	676	675	672	668	666	666	665	665	665	664	662	661	661	658	657	656	656	655	655	655	655	0	0	0	0	0	0	0	0	0	0	718	718	718	717	717	718	717	717	715	715	714	714	0	0	0	0	0	0	0	0	0	0	0	0	0	0	0	0	0	0	0	0	0	0	0	0	0	0	0	0	0	0	0	0	0	2001	2001	2001	2001	2001	1998	1995	1995	1995	1995	1998	1998	1998	1998	1998	1998	1998	1998	1998	1998	1998	1998	1998	1998	1998	1998	1995	1995	1995	1995	1992	1992	1992	1989	1989	1989	1986	1983	1983	1977	1974	1974	1971	1971	1971	1971	1971	1971	1965	1965	1965	1965	1965	1971	1971	1971	1971	1971	1971	1974	1974	1974	1977	1977	1980	1980	1980	1983	1983	1983	1986	1986	1983	1983	1983	1983	1980	1977	1977	1974	1971	1971	1965	1962	1962	1962	1956	1956	1956	1956	1956	1956	1956	1962	1962	1965	1965	1965	1971	1971	1971	1974	1977	1977	1977	1980	1980	1980	1980	1980	1980	1980	1977	1977	1977	1977	1974	1974	1974	1974	1974	1974	1974	1977	1977	1977	1980	1980	1980	1983	1983	1983	1989	1989	1989	1989	1989	1989	1989	1989	1989	1992	1992	1992	1992	1992	1992	1992	1992	1992	1992	1992	1992	1992	1992	1992	1989	1989	1989	1989	1989	1989	1989	1989	1989	1989	1992	1992	1992	1992	1992	1992	1992	1992	1992	1992	1989	1989	1989	1989	1989	1989	1989	1989	1989	1986	1986	1986	1986	1986	1986	1986	1986	1986	1986	1986	1989	1989	1989	1992	1992	1995	1995	1995	2001	2001	2001	2004	2004	2004	2007	2010	2010	2010	2010	2010	2010	2014	2014	2014	2014	2014	2014	2014	2010	2010	2010	2010	2007	2004	2004	2004	2004	2004	2004	2001	2001	2001	2001	2001	1998	1998	1998	1998	1998	1998	1998	2001	2001	2001	2001	2001	2001	2001	2004	2004	2004	2004	2004	2004	2004	2004	2007	2007	2007	2007	2007	2004	2004	2004	2004	2004	2004	2004	2004	2004	2004	2004	2004	2001	2001	2001	2001	1995	1995	1995	1995	1995	1992	1992	1992	1992	1992	1992	1992	1992	1992	1992	1992	1992	1995	1995	1995	1995	1995	1995	1995	1995	1998	1998	1998	1998	2001	2001	2001	2001	2001	2001	2001	2001	2001	2001	1998	1998	1998	1995	1995	1995	1995	1995	1995	1992	1992	1992	1989	1989	1989	1986	1983	1983	1980	1977	1977	1974	1971	1971	1971	1971	1971	1971	1971	1971	1971	1971	1971	1974	1974	1974	1974	1974	1974	1974	1974	1974	1974	1974	1974	1974	1974	1974	1974
857	857	857	857	857	857	857	858	858	858	859	859	860	861	861	862	862	863	866	866	869	873	873	877	877	879	881	881	884	885	889	893	893	895	896	896	897	898	898	898	898	898	898	898	898	898	899	899	899	899	899	900	900	900	901	901	901	901	902	902	902	903	903	903	903	903	903	903	903	904	904	904	904	904	904	904	906	906	906	906	906	906	906	906	908	908	908	908	910	910	910	910	910	910	910	910	911	911	910	910	910	908	908	906	906	906	906	906	904	904	904	903	902	902	901	901	901	901	901	901	901	901	901	901	901	901	901	901	901	901	901	901	902	902	902	903	903	903	903	903	904	904	904	904	904	904	904	904	904	904	904	904	904	904	904	904	906	904	904	904	904	904	904	904	906	906	906	906	906	906	906	906	906	906	904	904	904	904	904	904	904	904	903	903	903	903	902	902	901	901	901	901	901	901	901	900	900	900	900	900	900	900	899	899	899	898	898	898	897	897	896	895	895	894	894	893	893	893	893	894	894	895	896	896	898	898	898	899	899	900	901	901	903	906	906	908	910	910	914	914	916	917	917	918	918	918	918	918	918	918	918	917	916	915	915	915	915	915	915	915	915	915	917	918	918	918	918	918	915	915	914	912	912	910	908	903	903	901	901	901	901	901	901	901	901	901	902	902	904	904	908	0	0	0	0	0	0	0	0	0	0	0	0	0	0	824	824	823	821	819	819	816	813	813	812	810	809	809	807	804	802	802	800	800	0	0	0	0	0	0	704	704	704	702	701	701	700	698	698	698	691	688	685	679	676	676	675	673	668	666	666	665	665	665	664	662	661	661	659	657	656	656	656	655	655	655	0	0	0	0	0	0	0	0	0	0	717	717	717	717	716	715	715	714	714	714	713	712	712	712	712	0	0	0	0	0	0	0	0	0	0	0	0	0	0	0	0	0	0	0	0	0	0	0	0	0	0	0	0	0	0	0	0	0	2001	2001	1998	1995	1995	1995	1995	1995	1995	1995	1998	1995	1995	1995	1995	1995	1995	1995	1995	1995	1995	1995	1995	1995	1995	1992	1992	1992	1989	1989	1989	1983	1983	1980	1974	1974	1971	1965	1965	1956	1956	1956	1956	1956	1956	1956	1956	1956	1956	1956	1956	1962	1962	1962	1962	1962	1965	1971	1971	1974	1974	1974	1977	1977	1980	1980	1980	1983	1980	1980	1980	1980	1980	1977	1974	1974	1971	1965	1965	1962	1956	1956	1953	1953	1953	1953	1953	1953	1953	1953	1953	1953	1956	1962	1962	1962	1965	1965	1971	1971	1971	1974	1974	1974	1974	1974	1974	1974	1974	1974	1971	1971	1971	1971	1971	1971	1971	1971	1971	1971	1971	1971	1971	1974	1974	1974	1977	1980	1980	1980	1983	1983	1983	1983	1983	1983	1986	1986	1986	1986	1986	1986	1986	1986	1986	1989	1989	1989	1989	1989	1986	1986	1986	1989	1989	1989	1989	1989	1989	1989	1989	1989	1989	1989	1989	1989	1989	1989	1989	1989	1989	1989	1989	1989	1986	1986	1986	1983	1983	1983	1983	1983	1983	1983	1983	1980	1980	1980	1980	1980	1980	1980	1983	1986	1986	1989	1989	1989	1992	1992	1992	1995	1998	1998	2001	2001	2001	2004	2004	2004	2007	2010	2010	2010	2014	2014	2014	2014	2014	2014	2014	2010	2010	2010	2010	2007	2004	2004	2004	2004	2004	2004	2001	2001	2001	2001	2001	1998	1998	1998	1998	1998	1998	1998	2001	2001	2001	2001	2001	2001	2001	2004	2004	2004	2004	2004	2004	2004	2004	2007	2007	2007	2007	2007	2004	2004	2004	2004	2004	2004	2004	2004	2004	2004	2004	2004	2001	2001	2001	2001	1995	1995	1995	1995	1995	1992	1992	1992	1992	1992	1992	1992	1992	1992	1992	1992	1992	1995	1995	1995	1995	1995	1995	1995	1995	1998	1998	1998	1998	2001	2001	2001	2001	2001	2001	2001	2001	2001	2001	1998	1998	1998	1995	1995	1995	1995	1995	1995	1992	1992	1992	1989	1989	1989	1986	1986	1986	1980	1977	1977	1974	1971	1971	1971	1971	1965	1965	1965	1965	1965	1965	1965	1965	1965	1965	1965	1965	1965	1965	1965	1965	1965	1962	1962	1965	1962	1962	1962
859	859	859	859	859	860	860	860	860	860	860	861	862	862	863	864	864	866	869	869	873	873	876	878	878	880	882	882	885	885	890	893	893	895	896	896	897	898	898	898	898	898	898	898	898	898	899	899	899	899	899	900	900	900	901	901	901	901	902	902	902	903	903	903	903	903	903	903	903	904	904	904	904	904	904	904	906	906	906	906	906	906	906	906	908	908	908	908	910	910	910	910	910	910	910	910	911	911	910	910	910	908	908	906	906	906	904	904	903	903	903	901	901	901	901	900	900	900	900	900	900	900	900	900	900	900	900	900	900	900	900	900	900	900	900	900	900	901	901	901	901	901	901	901	901	901	901	901	901	901	902	901	901	902	902	902	902	902	902	903	903	903	903	903	903	903	903	903	903	903	903	903	903	903	903	903	902	902	902	901	901	901	901	901	901	901	900	900	900	900	900	900	899	899	899	898	898	898	898	898	898	898	898	898	897	896	896	895	894	893	893	892	891	891	891	891	891	891	891	892	892	894	896	896	897	897	898	898	898	900	900	900	901	903	903	906	908	908	911	911	914	915	915	917	917	917	917	917	917	917	918	915	914	913	913	911	911	913	913	911	911	911	913	915	915	916	918	914	911	908	908	908	906	906	903	901	901	900	900	899	899	899	900	900	900	900	900	900	901	904	904	0	0	0	0	0	0	0	0	0	0	0	0	0	0	824	824	823	821	819	819	816	813	813	812	810	809	809	807	804	802	802	800	800	0	0	0	0	0	703	703	702	702	701	700	700	699	698	692	688	688	686	681	677	676	676	674	672	668	666	666	665	665	665	664	662	661	661	659	657	656	656	656	655	655	655	656	0	0	0	0	0	0	0	0	0	717	717	717	717	716	715	715	714	714	714	713	712	712	712	712	0	0	0	0	0	0	0	0	0	0	0	0	0	0	0	0	0	0	0	0	0	0	0	0	0	0	0	0	0	0	0	0	0	0	0	0	1995	1995	1995	1995	1995	1995	1995	1998	1995	1995	1995	1995	1995	1995	1995	1995	1995	1995	1995	1995	1995	1995	1992	1992	1992	1989	1989	1989	1983	1983	1980	1974	1974	1971	1965	1965	1956	1956	1956	1956	1956	1956	1956	1956	1956	1956	1956	1956	1962	1962	1962	1962	1962	1965	1971	1971	1974	1974	1974	1977	1977	1980	1980	1980	1983	1980	1980	1980	1977	1977	1977	1974	1974	1965	1965	1965	1956	1953	1953	1953	1951	1951	1951	1951	1951	1951	1951	1953	1953	1953	1956	1956	1956	1962	1962	1965	1965	1965	1965	1971	1971	1965	1965	1965	1965	1965	1965	1965	1962	1962	1962	1956	1956	1956	1962	1962	1962	1962	1962	1962	1965	1965	1965	1971	1971	1971	1974	1974	1974	1974	1977	1977	1977	1977	1977	1977	1977	1977	1977	1977	1977	1977	1977	1977	1977	1977	1977	1977	1977	1977	1980	1980	1980	1980	1983	1983	1983	1983	1983	1986	1989	1989	1989	1989	1989	1989	1989	1986	1986	1986	1986	1983	1983	1980	1980	1980	1977	1977	1977	1977	1977	1977	1977	1977	1977	1977	1977	1977	1977	1977	1980	1980	1983	1989	1989	1989	1992	1992	1995	1995	1995	1998	2001	2001	2001	2001	2001	2004	2004	2004	2004	2007	2007	2007	2007	2007	2007	2007	2007	2004	2004	2004	2004	2004	2004	2001	2001	2001	2001	1998	1998	1998	1995	1995	1995	1995	1995	1995	1995	1995	1995	1995	1995	1995	1995	1998	1998	1998	2001	2001	2001	2001	2001	2001	2004	2004	2004	2004	2004	2004	2004	2004	2004	2004	2004	2004	2004	2004	2004	2004	2001	2001	2001	2001	2001	2001	1998	1995	1995	1995	1992	1992	1992	1992	1992	1992	1992	1992	1992	1992	1992	1992	1992	1992	1992	1992	1992	1992	1992	1992	1992	1992	1995	1995	1995	1995	1995	1995	1995	1995	1995	1995	1995	1995	1995	1995	1995	1995	1995	1992	1992	1992	1992	1992	1992	1992	1992	1992	1989	1989	1989	1986	1983	1983	1980	1977	1977	1974	1974	1971	1971	1971	1965	1965	1965	1965	1965	1965	1965	1965	1965	1965	1965	1965	1965	1965	1965	1965	1965	1962	1962	1965	1962	1962	1962
859	859	859	859	859	860	860	860	860	860	860	861	862	862	863	864	864	866	869	869	873	873	876	878	878	880	882	882	885	885	890	892	892	894	895	895	896	896	896	896	896	896	897	898	898	898	898	898	898	898	898	899	900	900	900	901	901	901	901	901	901	901	901	902	902	902	903	903	903	903	903	903	904	904	904	904	904	904	904	906	906	906	906	906	906	908	908	908	910	910	910	910	910	910	910	910	910	910	910	910	910	908	908	906	906	906	904	904	903	903	903	901	901	901	901	900	900	900	900	900	900	900	900	900	900	900	900	900	900	900	900	900	900	900	900	900	900	901	901	901	901	901	901	901	901	901	901	901	901	901	902	901	901	902	902	902	902	902	902	903	903	903	903	903	903	903	903	903	903	903	903	903	903	903	903	903	902	902	902	901	901	901	901	901	901	901	900	900	900	900	900	900	899	899	899	898	898	898	898	898	898	898	898	898	897	896	896	895	894	893	893	892	891	891	891	891	891	891	891	892	892	894	896	896	897	897	898	898	898	900	900	900	901	902	902	904	906	906	910	911	912	912	912	915	915	915	915	915	915	912	910	910	910	908	908	908	908	908	908	908	908	908	910	910	910	916	0	914	906	904	904	903	902	902	901	900	898	898	898	898	898	898	898	898	898	898	899	899	901	904	904	0	0	0	0	0	0	0	0	0	0	0	826	826	826	824	824	823	821	819	819	816	813	813	812	811	810	810	809	806	806	806	806	0	0	0	0	701	701	701	701	701	701	700	699	699	697	694	689	687	683	678	678	676	675	675	674	672	669	666	666	665	665	665	664	663	661	661	659	658	657	657	656	656	656	656	656	0	0	0	0	0	0	0	715	715	715	715	714	714	714	714	714	713	712	712	712	711	711	711	711	711	711	0	0	0	0	0	0	0	0	0	0	0	0	0	0	0	0	0	0	0	0	0	0	0	0	0	0	0	0	0	0	0	0	0	0	1995	1995	1995	1995	1995	1995	1995	1995	1995	1995	1995	1995	1995	1995	1995	1995	1995	1995	1995	1995	1995	1992	1992	1992	1989	1989	1989	1986	1980	1980	1974	1965	1965	1962	1953	1951	1951	1951	1945	1945	1945	1945	1945	1945	1945	1951	1951	1951	1951	1951	1953	1953	1953	1956	1962	1962	1965	1971	1971	1971	1974	1974	1977	1977	1977	1980	1980	1980	1977	1977	1977	1974	1974	1965	1965	1965	1956	1953	1953	1953	1951	1951	1951	1951	1951	1951	1951	1953	1953	1953	1956	1956	1956	1962	1962	1965	1965	1965	1965	1971	1971	1965	1965	1965	1965	1965	1965	1965	1962	1962	1962	1956	1956	1956	1962	1962	1962	1962	1962	1962	1965	1965	1965	1971	1971	1971	1974	1974	1974	1974	1977	1977	1977	1977	1977	1977	1977	1977	1977	1977	1977	1977	1977	1977	1977	1977	1977	1977	1977	1977	1980	1980	1980	1980	1983	1983	1983	1983	1983	1986	1989	1989	1989	1989	1989	1989	1989	1986	1986	1986	1986	1983	1983	1980	1980	1980	1977	1977	1977	1977	1977	1977	1977	1977	1977	1977	1977	1977	1977	1977	1980	1980	1983	1989	1989	1989	1992	1992	1995	1995	1995	1995	1995	1995	1998	1998	1998	2001	2001	2001	2001	2004	2004	2004	2004	2004	2004	2004	2001	2001	2001	2001	2001	1998	1998	1995	1995	1995	1995	1995	1995	1992	1992	1992	1992	1992	1992	1992	1992	1992	1992	1992	1992	1992	1992	1995	1995	1995	1995	1995	1995	1998	1998	1998	2001	2001	2001	2001	2001	2001	2001	2001	2001	2001	2001	2001	2004	2004	2004	2004	2001	2001	2001	1998	1998	1998	1995	1995	1995	1992	1992	1992	1989	1989	1989	1989	1989	1989	1989	1989	1989	1989	1989	1989	1989	1989	1992	1992	1992	1992	1992	1992	1992	1992	1992	1992	1992	1992	1992	1992	1992	1992	1992	1992	1992	1992	1992	1992	1992	1992	1992	1992	1992	1992	1992	1992	1989	1989	1989	1989	1989	1986	1983	1983	1980	1977	1977	1974	1971	1971	1971	1965	1965	1965	1962	1962	1962	1962	1956	1956	1956	1956	1956	1956	1956	1956	1956	1953	1953	1953	1953	1956	1953	1951	1951
860	860	861	861	861	861	862	862	862	863	863	863	864	864	866	868	868	870	873	873	876	876	878	880	880	881	883	883	886	886	888	890	890	893	893	893	895	895	895	895	895	895	895	896	896	896	898	898	898	898	898	898	899	899	900	900	900	900	901	901	901	901	901	902	902	902	903	903	903	903	903	903	904	904	904	904	904	904	904	906	906	680	680	680	680	680	680	680	680	680	680	910	910	910	910	910	910	910	910	910	910	908	908	906	906	906	904	904	902	901	901	901	900	900	900	899	899	899	898	898	899	898	898	898	898	898	898	898	898	898	898	898	899	899	899	899	899	899	899	899	899	900	900	900	900	900	900	900	900	900	900	900	900	900	900	900	900	900	900	901	901	901	901	901	901	901	901	901	901	901	901	901	901	901	901	901	901	900	900	900	900	900	900	899	899	899	898	898	898	898	898	898	898	897	897	896	896	896	896	896	896	895	895	895	895	893	892	892	891	890	890	890	890	890	890	890	890	890	891	892	892	894	896	896	897	897	898	898	898	899	900	900	901	902	902	904	906	906	910	912	912	912	912	915	915	915	915	915	915	912	910	910	910	908	908	908	908	908	908	908	908	908	910	910	910	0	0	0	906	904	904	903	902	902	901	900	898	898	898	898	898	898	898	898	898	898	899	899	0	0	0	0	0	0	0	0	0	0	0	0	0	0	826	826	826	824	824	823	821	819	819	817	814	814	813	812	811	811	809	809	809	809	0	0	0	0	0	701	701	701	701	701	701	700	699	699	697	694	689	687	683	678	678	676	675	675	674	672	669	667	667	666	665	665	664	663	662	662	659	658	657	657	657	656	656	656	656	656	656	0	0	0	0	0	715	715	715	715	713	713	712	712	712	712	712	712	711	711	711	711	710	709	709	709	0	0	0	0	0	0	0	0	0	0	0	0	0	0	0	0	0	0	0	0	0	0	0	0	0	0	0	0	0	0	0	0	0	0	0	0	1995	1995	1995	1995	1995	1995	1995	1995	1995	1995	1995	1995	1995	1995	1995	1995	1995	1992	1992	1989	1989	1989	1983	1983	1980	1974	1974	1965	1956	1956	1953	1945	1942	1942	1942	1936	1936	1936	1936	1936	1936	1936	1936	1936	1942	1942	1942	1945	1945	1945	1953	1953	1953	1956	1962	1962	1971	1971	1971	1974	1977	1977	1977	1977	1977	1977	1977	1974	1971	1971	1965	1962	1962	1956	1953	1953	1951	1951	1951	1945	1945	1945	1945	1945	1951	1951	1951	1953	1953	1953	1956	1956	1956	1962	1962	1962	1962	1962	1962	1956	1956	1956	1956	1956	1956	1953	1953	1953	1953	1953	1953	1953	1953	1953	1953	1953	1953	1956	1956	1956	1956	1962	1962	1962	1962	1962	1962	1962	1962	1962	1962	1962	1962	1962	1962	1962	1962	1962	1962	1962	1962	1965	1965	1965	1965	1971	1971	1971	1974	1974	1974	1974	1974	1977	1980	1980	1983	1983	1983	1983	1986	1986	1983	1983	1983	1980	1980	1980	1980	1980	1977	1974	1974	1974	1974	1974	1974	1971	1971	1971	1971	1971	1971	1971	1974	1974	1974	1977	1977	1980	1983	1983	1989	1989	1989	1992	1992	1992	1995	1995	1995	1998	1998	1998	2001	2001	2001	2001	2004	2004	2004	2004	2004	2004	2004	2001	2001	2001	2001	2001	1998	1998	1995	1995	1995	1995	1995	1995	1992	1992	1992	1992	1992	1992	1992	1992	1992	1992	1992	1992	1992	1992	1995	1995	1995	1995	1995	1995	1998	1998	1998	2001	2001	2001	2001	2001	2001	2001	2001	2001	2001	2001	2001	2004	2004	2004	2004	2001	2001	2001	1998	1998	1998	1995	1995	1995	1992	1992	1992	1989	1989	1989	1989	1989	1989	1989	1989	1989	1989	1989	1989	1989	1989	1992	1992	1992	1992	1992	1992	1992	1992	1992	1992	1992	1992	1992	1992	1992	1992	1992	1992	1992	1992	1992	1992	1992	1992	1992	1992	1992	1992	1992	1992	1989	1989	1989	1989	1989	1986	1983	1983	1980	1977	1977	1974	1971	1965	1965	1965	1962	1962	1962	1956	1956	1956	1953	1953	1953	1951	1951	1951	1951	1951	1945	1945	1945	1942	1942	1942	1942	1942	1942
862	862	863	863	863	863	864	864	865	866	866	867	869	869	871	871	873	874	874	876	878	878	879	880	880	881	883	883	886	886	888	890	890	893	893	893	895	895	895	895	895	895	895	896	896	896	898	898	898	898	898	898	899	899	900	900	900	900	901	901	0	0	0	0	0	0	0	0	0	0	0	0	0	0	0	0	0	0	0	0	0	680	680	680	680	680	680	680	680	680	680	681	681	681	0	0	0	0	0	0	0	0	0	0	0	0	904	904	902	901	901	900	900	900	899	898	898	898	898	898	898	896	896	896	896	896	896	896	896	896	896	897	897	897	898	898	898	898	898	898	898	898	898	898	898	898	898	898	898	898	898	898	898	898	899	899	899	899	899	899	899	899	900	900	900	900	900	900	900	900	900	899	899	899	899	899	899	898	898	898	898	898	898	898	898	898	897	896	896	896	895	895	895	895	895	894	893	893	892	892	892	891	891	890	890	890	889	889	888	888	889	889	889	890	890	890	890	890	891	893	893	895	896	896	897	897	898	898	898	898	899	899	900	901	901	903	904	904	906	910	910	910	912	912	912	915	915	910	910	908	906	906	906	904	903	903	903	904	904	903	903	903	903	904	910	906	904	904	902	902	904	900	900	900	900	898	898	898	898	897	897	897	898	898	898	898	899	899	0	0	0	0	0	0	0	0	0	0	0	0	0	0	826	826	825	824	824	823	821	819	819	817	814	814	813	812	811	811	809	809	809	809	0	0	0	700	700	700	700	700	700	700	700	699	698	695	695	692	688	687	683	678	678	676	675	675	674	672	669	667	667	666	665	665	664	663	662	662	659	658	657	657	657	657	657	657	656	656	656	0	0	0	0	0	0	0	0	0	713	713	712	712	712	712	712	712	711	711	711	711	710	709	709	709	0	0	0	0	0	0	0	0	0	0	0	0	0	0	0	0	0	0	0	0	0	0	0	0	0	0	0	0	0	0	0	0	0	0	0	0	0	0	1995	1995	1995	1995	1995	1995	1995	1995	1995	1995	1995	1995	1995	1995	1995	1992	1992	1989	1989	1989	1983	1983	1980	1974	1974	1965	1956	1956	1953	1945	1942	1942	1942	1936	1936	1936	1936	1936	1936	1936	1936	1936	1942	1942	1942	1945	1945	1945	1953	1953	1953	1956	1962	1962	1965	1965	1965	1965	1971	1971	1974	1974	1974	1971	1971	1971	1971	1971	1962	1962	1962	1956	1951	1951	1951	1951	1951	1945	1945	1945	1945	1945	1951	1951	1951	1951	1951	1951	1953	1953	1953	1956	1956	1956	1956	1956	1953	1953	1953	1953	1953	1953	1951	1945	1945	1945	1945	1945	1945	1945	1945	1945	1945	1945	1945	1945	1945	1945	1945	1951	1951	1951	1951	1945	1945	1945	1945	1945	1945	1945	1945	1945	1945	1945	1945	1945	1951	1951	1951	1951	1951	1951	1951	1953	1953	1956	1962	1962	1962	1965	1965	1971	1974	1974	1977	1977	1977	1980	1980	1980	1980	1980	1977	1977	1977	1974	1974	1974	1974	1971	1971	1971	1971	1965	1965	1965	1965	1965	1965	1965	1965	1965	1965	1971	1971	1974	1974	1974	1980	1980	1983	1986	1986	1989	1992	1992	1992	1995	1995	1995	1995	1995	1998	1998	1998	1998	2001	2001	2001	2001	2001	2001	2001	1998	1998	1995	1995	1995	1995	1995	1992	1992	1992	1992	1992	1992	1989	1989	1989	1989	1989	1989	1989	1989	1989	1989	1989	1989	1989	1992	1992	1992	1992	1992	1992	1995	1995	1995	1995	1995	1995	1998	1998	1998	1998	1998	1998	1998	2001	2001	2001	2001	2001	2001	2001	2001	1998	1998	1995	1995	1995	1992	1992	1992	1989	1989	1986	1986	1986	1986	1986	1986	1986	1986	1986	1986	1986	1986	1986	1989	1989	1989	1989	1989	1989	1989	1989	1989	1989	1989	1989	1989	1989	1989	1989	1989	1989	1989	1989	1989	1989	1989	1989	1989	1989	1989	1989	1989	1989	1989	1989	1989	1989	1989	1986	1986	1986	1983	1983	1980	1977	1977	1974	1971	1965	1965	1965	1962	1962	1962	1956	1956	1956	1953	1953	1953	1951	1951	1951	1951	1951	1945	1945	1945	1942	1942	1942	1942	1942	1942
862	862	863	863	863	863	864	864	865	866	866	867	869	869	871	871	873	874	874	876	878	878	879	880	880	881	883	883	885	885	888	889	889	890	891	891	892	893	893	893	893	893	894	895	895	895	896	896	897	897	897	898	898	898	900	900	900	900	901	901	0	0	0	0	0	0	0	0	0	0	0	0	0	0	0	0	0	0	680	680	680	679	679	679	679	679	679	679	679	679	679	680	681	681	0	0	0	0	0	0	0	0	0	0	0	0	0	0	0	0	0	900	900	900	899	898	898	898	898	898	898	896	896	896	896	896	896	896	896	896	896	897	897	897	898	898	898	898	898	898	898	898	898	898	898	898	898	898	898	898	898	898	898	898	899	899	899	899	899	899	899	899	900	900	900	900	900	900	900	900	900	899	899	899	899	899	899	898	898	898	898	898	898	898	898	898	897	896	896	896	895	895	895	895	895	894	893	893	892	892	892	891	891	890	890	890	889	889	888	888	889	889	889	890	890	890	890	890	892	894	894	895	896	896	896	897	897	898	898	898	898	898	899	900	900	901	901	901	903	906	906	906	906	906	908	908	908	906	906	904	903	902	902	901	901	901	901	901	901	900	900	900	900	901	0	906	904	904	902	902	0	900	900	900	898	898	898	898	898	897	897	897	898	898	898	898	0	0	0	0	0	0	0	0	0	0	0	0	0	0	0	0	826	826	825	825	825	824	823	823	821	819	815	815	814	813	813	812	811	811	0	0	0	0	699	699	700	700	700	700	700	699	699	699	697	693	693	690	688	686	682	678	678	676	675	675	674	672	670	667	667	666	665	665	665	664	664	663	660	659	659	658	658	657	657	657	656	656	656	663	663	0	0	0	0	0	0	0	713	713	711	711	711	711	711	711	711	710	709	709	709	707	707	706	705	705	704	704	0	0	0	0	0	0	0	0	0	0	0	0	0	0	0	0	0	0	0	0	0	0	0	0	0	0	0	0	0	0	0	0	0	0	1995	1995	1995	1995	1992	1992	1992	1992	1992	1992	1992	1992	1992	1992	1992	1989	1989	1986	1986	1983	1977	1977	1974	1965	1965	1956	1953	1945	1945	1936	1933	1933	1933	1928	1928	1928	1928	1928	1928	1928	1928	1928	1933	1936	1936	1942	1942	1942	1945	1951	1951	1953	1956	1956	1962	1965	1965	1965	1971	1971	1974	1974	1974	1971	1971	1971	1971	1971	1962	1962	1962	1956	1951	1951	1951	1951	1951	1945	1945	1945	1945	1951	1951	1951	1951	1951	1951	1951	1953	1953	1953	1956	1956	1956	1956	1956	1953	1953	1953	1953	1953	1953	1951	1945	1945	1945	1945	1945	1945	1945	1945	1945	1945	1945	1945	1945	1945	1945	1945	1951	1951	1951	1951	1945	1945	1945	1945	1945	1945	1945	1945	1945	1945	1945	1945	1945	1951	1951	1951	1951	1951	1951	1951	1953	1953	1956	1962	1962	1962	1965	1965	1971	1974	1974	1977	1977	1977	1980	1980	1980	1980	1980	1977	1977	1977	1974	1974	1974	1974	1971	1971	1971	1971	1965	1965	1965	1965	1965	1965	1965	1965	1965	1965	1971	1971	1974	1974	1974	1974	1977	1977	1980	1980	1986	1989	1989	1989	1992	1992	1992	1992	1992	1995	1995	1995	1995	1995	1995	1995	1995	1995	1995	1995	1995	1995	1992	1992	1992	1992	1992	1989	1989	1989	1989	1986	1986	1986	1986	1986	1986	1983	1983	1983	1983	1983	1983	1986	1986	1986	1989	1989	1989	1989	1992	1992	1992	1992	1992	1995	1995	1995	1995	1995	1995	1995	1995	1995	1995	1995	1995	1995	1998	1998	1995	1995	1995	1995	1995	1995	1992	1992	1992	1989	1989	1986	1986	1983	1983	1980	1980	1980	1980	1980	1980	1980	1983	1983	1983	1983	1983	1983	1983	1986	1986	1986	1986	1986	1986	1986	1986	1989	1989	1989	1989	1989	1986	1986	1986	1986	1986	1986	1986	1986	1986	1986	1989	1989	1989	1989	1989	1989	1989	1989	1986	1986	1986	1983	1980	1980	1980	1977	1977	1974	1965	1965	1965	1962	1956	1956	1956	1953	1953	1951	1945	1945	1945	1942	1942	1942	1942	1942	1936	1936	1936	1928	1928	1928	1928	1925	1925
864	864	865	865	865	867	868	868	869	869	870	871	871	873	875	875	876	877	877	878	879	879	880	881	881	882	883	883	884	885	886	887	887	889	889	889	890	890	890	890	891	891	892	893	893	895	895	895	896	897	897	898	898	898	0	0	0	0	0	0	0	0	0	0	0	0	0	0	0	0	0	0	0	0	0	0	680	680	680	679	679	679	679	679	679	679	679	678	678	678	678	678	679	679	679	679	679	679	679	679	0	0	0	0	0	0	0	0	0	0	0	900	900	898	898	897	896	896	896	896	896	895	894	894	894	893	893	893	894	894	894	894	895	895	895	895	895	895	895	895	896	896	896	896	896	896	896	896	896	896	897	897	897	897	897	897	898	898	898	898	898	898	898	898	898	898	898	898	898	898	898	898	898	898	898	898	898	897	897	896	896	896	896	895	895	895	893	893	893	892	891	891	890	890	890	890	889	889	889	888	888	888	887	886	886	886	886	886	886	886	886	886	888	889	889	890	890	890	892	894	894	895	896	896	896	897	897	898	898	898	898	898	899	900	900	901	901	901	903	906	906	906	906	906	908	908	908	906	906	904	903	902	902	901	901	901	901	901	901	900	900	900	900	901	0	0	0	0	0	0	0	0	0	0	898	898	0	0	0	0	0	0	0	0	0	0	0	0	0	0	0	0	0	0	0	0	0	0	0	0	0	0	826	826	826	825	825	825	824	824	822	819	817	817	816	815	815	813	813	0	0	0	0	0	699	699	700	700	700	700	700	699	699	699	697	693	693	690	688	686	682	678	678	676	675	675	674	673	670	670	668	667	665	665	665	664	664	663	662	661	661	660	659	659	659	659	660	660	661	663	663	0	0	0	0	0	0	0	0	0	710	710	710	709	709	709	709	707	707	708	707	707	707	705	703	703	703	703	703	0	0	0	0	0	0	0	0	0	0	0	0	0	0	0	0	0	0	0	0	0	0	0	0	0	0	0	0	0	0	0	0	0	0	1995	1995	1995	1992	1992	1992	1992	1992	1992	1992	1992	1989	1989	1986	1986	1983	1983	1983	1977	1974	1974	1965	1956	1956	1953	1945	1942	1942	1933	1928	1928	1928	1925	1925	1925	1925	1925	1925	1925	1925	1925	1928	1928	1928	1933	1933	1933	1936	1942	1942	1945	1951	1951	1953	1956	1956	1962	1962	1962	1965	1965	1965	1965	1965	1965	1962	1962	1962	1956	1956	1953	1951	1951	1945	1945	1945	1945	1945	1945	1945	1945	1945	1945	1945	1951	1951	1951	1951	1951	1951	1953	1953	1953	1951	1951	1951	1945	1945	1945	1945	1945	1942	1942	1942	1936	1936	1936	1936	1936	1936	1936	1933	1933	1933	1933	1933	1933	1936	1936	1936	1936	1936	1933	1933	1933	1933	1933	1933	1933	1933	1928	1928	1928	1928	1928	1928	1933	1933	1933	1933	1936	1936	1942	1945	1945	1951	1951	1953	1956	1956	1962	1965	1965	1971	1974	1974	1974	1974	1974	1974	1974	1974	1974	1974	1971	1965	1965	1965	1965	1962	1962	1962	1962	1962	1962	1962	1962	1962	1956	1956	1956	1962	1965	1965	1965	1971	1971	1974	1977	1977	1980	1980	1986	1989	1989	1989	1992	1992	1992	1992	1992	1995	1995	1995	1995	1995	1995	1995	1995	1995	1995	1995	1995	1995	1992	1992	1992	1992	1992	1989	1989	1989	1989	1986	1986	1986	1986	1986	1986	1983	1983	1983	1983	1983	1983	1986	1986	1986	1989	1989	1989	1989	1992	1992	1992	1992	1992	1995	1995	1995	1995	1995	1995	1995	1995	1995	1995	1995	1995	1995	1998	1998	1995	1995	1995	1995	1995	1995	1992	1992	1992	1989	1989	1986	1986	1983	1983	1980	1980	1980	1980	1980	1980	1980	1983	1983	1983	1983	1983	1983	1983	1986	1986	1986	1986	1986	1986	1986	1986	1989	1989	1989	1989	1989	1986	1986	1986	1986	1986	1986	1986	1986	1986	1986	1989	1989	1989	1989	1989	1986	1986	1986	1983	1983	1983	1980	1980	1980	1977	1974	1974	1971	1965	1962	1962	1956	1953	1953	1951	1945	1945	1942	1942	1942	1936	1936	1936	1933	1933	1933	1928	1925	1922	1922	1922	1922	1922	1916	1916
867	867	869	869	871	871	871	873	873	873	874	875	875	877	878	878	878	879	879	880	880	880	881	881	881	883	883	883	884	886	886	887	887	889	889	889	890	890	890	890	891	891	892	893	893	895	895	895	896	0	0	0	0	0	0	0	0	0	0	0	0	0	0	0	0	0	0	0	0	0	0	0	0	0	0	0	680	680	680	679	679	679	678	678	678	678	678	678	678	678	678	678	678	678	678	677	677	677	677	677	677	0	0	0	0	0	0	0	0	0	0	0	0	898	898	896	895	895	894	893	893	892	890	890	891	891	890	890	890	891	891	891	891	891	891	891	892	892	892	893	893	893	893	893	894	894	894	894	895	895	895	895	895	895	895	895	895	896	896	896	896	896	896	896	896	897	897	897	896	896	896	896	896	896	896	896	895	895	894	894	893	893	893	891	890	890	890	889	889	888	887	886	886	886	885	885	885	884	884	884	884	884	884	884	884	883	883	884	884	884	885	885	886	888	888	890	890	890	892	894	894	895	895	895	896	896	896	896	897	897	898	898	898	898	899	899	900	900	900	901	901	901	901	901	901	901	901	901	900	900	900	899	899	899	899	899	899	898	898	898	898	898	898	899	899	899	898	898	898	898	898	898	898	898	898	896	896	896	895	894	894	894	0	0	0	0	0	0	0	0	0	0	0	0	0	0	0	0	0	0	0	0	826	826	826	825	825	825	824	824	822	819	817	817	816	815	815	813	813	0	0	0	0	0	699	699	699	699	699	699	699	699	699	698	696	693	693	690	688	686	682	678	678	676	675	675	674	673	670	670	668	667	666	666	665	665	665	664	663	662	662	661	659	659	659	661	662	662	664	664	665	0	0	0	0	0	0	0	0	0	710	710	710	709	709	709	709	707	707	708	707	707	707	705	703	703	703	703	703	0	0	0	0	0	0	0	0	0	0	0	0	0	0	0	0	0	0	0	0	0	0	0	0	0	0	0	0	0	0	0	0	0	0	0	0	0	1992	1992	1992	1992	1992	1992	1992	1992	1989	1989	1986	1986	1983	1983	1983	1977	1974	1974	1965	1956	1956	1953	1945	1942	1942	1933	1928	1928	1928	1925	1925	1925	1925	1925	1925	1925	1925	1925	1928	1928	1928	1928	1928	1928	1933	1936	1936	1936	1942	1942	1945	1951	1951	1953	1953	1953	1953	1956	1956	1956	1956	1956	1956	1956	1953	1951	1951	1951	1951	1951	1945	1942	1942	1942	1942	1942	1942	1942	1942	1945	1945	1945	1945	1945	1945	1945	1945	1945	1945	1945	1945	1945	1942	1942	1942	1942	1942	1942	1936	1933	1933	1933	1928	1928	1928	1928	1928	1928	1925	1925	1925	1925	1925	1925	1925	1925	1925	1922	1922	1922	1922	1922	1922	1922	1922	1922	1919	1919	1919	1919	1919	1919	1919	1919	1922	1922	1922	1925	1925	1928	1933	1933	1936	1942	1942	1945	1951	1951	1953	1953	1962	1965	1965	1965	1965	1965	1965	1965	1965	1965	1965	1962	1956	1956	1956	1956	1956	1956	1953	1953	1953	1953	1953	1953	1953	1953	1953	1953	1953	1956	1956	1956	1962	1962	1965	1971	1971	1974	1980	1980	1983	1983	1986	1986	1986	1989	1989	1989	1992	1992	1992	1992	1995	1995	1995	1995	1992	1992	1992	1992	1992	1989	1989	1989	1989	1989	1986	1983	1983	1980	1980	1980	1980	1977	1977	1977	1977	1977	1977	1977	1977	1977	1980	1983	1983	1986	1986	1986	1989	1989	1989	1992	1992	1992	1992	1992	1992	1992	1995	1995	1995	1995	1995	1995	1995	1995	1995	1995	1995	1995	1995	1995	1992	1992	1992	1992	1992	1989	1986	1986	1983	1980	1977	1977	1974	1974	1974	1974	1974	1974	1974	1974	1977	1977	1977	1980	1980	1980	1980	1980	1980	1983	1983	1983	1983	1983	1983	1983	1983	1983	1983	1983	1983	1983	1980	1980	1983	1983	1983	1983	1983	1983	1983	1983	1986	1986	1986	1986	1986	1983	1983	1983	1980	1980	1980	1977	1974	1974	1971	1965	1962	1962	1956	1953	1953	1951	1945	1945	1942	1942	1942	1936	1936	1936	1933	1933	1933	1928	1925	1922	1922	1922	1922	1922	1916	1916
867	867	869	869	871	871	871	873	873	873	874	875	875	877	878	878	878	879	879	880	880	880	881	881	881	883	883	883	884	884	884	884	886	886	886	886	887	888	888	888	889	889	890	890	890	892	894	894	896	0	0	0	0	0	0	0	670	670	669	668	668	668	0	0	0	0	0	0	0	0	0	0	0	679	679	679	680	680	680	679	679	679	678	678	678	678	678	678	678	678	678	678	678	678	678	677	677	677	677	677	677	0	0	0	0	0	0	0	0	0	0	0	0	0	0	896	895	895	894	893	893	892	890	890	891	891	890	890	890	891	891	891	891	891	891	891	892	892	892	893	893	893	893	893	894	894	894	894	895	895	895	895	895	895	895	895	895	896	896	896	896	896	896	896	896	897	897	897	896	896	896	896	896	896	896	896	895	895	894	894	893	893	893	891	890	890	890	889	889	888	887	886	886	886	885	885	885	884	884	884	884	884	884	884	884	883	883	884	884	884	884	884	885	887	887	889	890	890	891	893	893	894	895	895	895	895	895	895	896	896	896	897	897	897	898	898	898	898	898	898	898	898	898	898	898	898	898	898	898	898	898	897	897	897	897	898	898	896	896	896	896	896	896	896	897	897	897	897	897	897	897	897	898	898	898	896	896	896	895	894	894	894	0	0	0	0	0	0	0	0	0	0	0	0	0	0	0	0	0	0	0	0	0	827	826	826	826	825	825	825	823	820	819	819	817	816	816	814	814	0	0	0	698	698	698	699	699	699	699	699	699	699	699	697	695	692	689	689	687	686	682	678	678	676	676	676	675	673	671	671	669	667	666	666	665	665	665	664	663	662	662	661	659	659	659	661	662	662	664	664	665	0	0	0	0	0	0	0	0	707	707	707	707	707	707	707	707	707	706	706	704	704	704	704	703	702	702	702	701	701	701	701	0	0	0	0	0	0	0	0	0	0	0	0	0	0	0	0	0	0	0	0	0	0	0	0	0	0	0	0	0	0	0	0	0	0	1992	1992	1989	1989	1989	1989	1989	1989	1986	1986	1980	1980	1980	1974	1974	1971	1965	1965	1956	1951	1951	1945	1936	1933	1933	1928	1922	1922	1922	1922	1922	1919	1919	1919	1919	1919	1922	1922	1922	1922	1922	1925	1928	1928	1933	1936	1936	1936	1942	1942	1945	1951	1951	1953	1953	1953	1953	1956	1956	1956	1956	1956	1956	1956	1953	1951	1951	1951	1951	1951	1945	1942	1942	1942	1942	1942	1942	1942	1942	1945	1945	1945	1945	1945	1945	1945	1945	1945	1945	1945	1945	1945	1942	1942	1942	1942	1942	1942	1936	1933	1933	1933	1928	1928	1928	1928	1928	1928	1925	1925	1925	1925	1925	1925	1925	1925	1925	1922	1922	1922	1922	1922	1922	1922	1922	1922	1919	1919	1919	1919	1919	1919	1919	1919	1922	1922	1922	1925	1925	1928	1933	1933	1936	1942	1942	1945	1951	1951	1953	1953	1962	1965	1965	1965	1965	1965	1965	1965	1965	1965	1965	1962	1956	1956	1956	1956	1956	1956	1953	1953	1953	1953	1953	1953	1945	1945	1951	1951	1951	1951	1951	1953	1953	1953	1956	1962	1962	1965	1974	1974	1977	1980	1980	1980	1983	1983	1986	1986	1989	1989	1989	1989	1989	1989	1992	1992	1992	1989	1989	1989	1989	1986	1986	1983	1980	1980	1980	1977	1977	1974	1974	1974	1971	1971	1971	1971	1974	1974	1974	1974	1974	1974	1977	1980	1980	1983	1986	1986	1989	1989	1989	1989	1989	1989	1992	1992	1992	1992	1992	1992	1992	1992	1992	1992	1992	1992	1992	1992	1992	1992	1992	1992	1992	1992	1989	1989	1989	1986	1983	1980	1980	1977	1974	1974	1971	1971	1971	1971	1965	1965	1965	1971	1971	1971	1971	1971	1971	1974	1974	1974	1974	1974	1974	1977	1977	1977	1977	1977	1977	1977	1977	1974	1974	1974	1974	1974	1974	1974	1974	1977	1977	1977	1977	1977	1980	1980	1980	1980	1983	1980	1980	1980	1977	1974	1974	1974	1971	1971	1965	1962	1956	1956	1953	1951	1951	1945	1942	1942	1936	1936	1936	1933	1928	1928	1928	1925	1922	1922	1919	1913	1913	1913	1913	1913	1911	1911
