562	560	559	553	550	547	542	540	537	534	533	532	530	530	529	529	529	530	530	532	534	535	536	538	541	542	544	547	548	549	551	552	553	555	555	556	559	560	561	563	563	564	565	566	567	568	568	569	569	569	569	570	570	570	570	570	570	570	570	571	571	572	573	574	574	576	577	577	577	578	578	580	581	582	584	584	585	586	586	586	588	588	588	588	588	588	588	588	588	588	588	588	588	588	588	588	588	588	589	590	590	590	590	590	590	589	588	588	588	588	587	586	586	585	584	584	583	583	583	581	581	581	581	580	580	580	580	580	579	579	579	580	580	580	580	580	580	580	581	581	582	583	584	585	586	588	588	589	590	590	591	592	592	592	592	592	591	590	590	590	588	588	588	588	588	588	588	588	588	586	586	586	587	587	586	586	586	586	586	586	586	586	585	584	584	584	584	584	584	584	584	585	586	587	587	588	588	588	588	588	588	588	590	590	590	590	590	590	590	590	590	590	590	590	589	588	588	587	587	585	584	584	584	583	583	581	581	580	580	580	580	580	580	580	580	580	581	581	581	581	581	581	581	581	581	581	581	582	582	582	582	582	582	582	582	581	580	580	580	581	582	582	582	582	583	584	584	584	584	584	586	586	586	587	588	588	589	589	590	590	590	590	591	592	592	592	592	592	592	592	593	593	593	594	594	594	594	594	594	594	594	594	594	595	595	595	595	595	594	594	594	594	594	595	596	596	596	596	596	596	596	595	594	594	594	594	594	594	594	594	594	594	593	593	592	592	592	592	592	591	590	590	590	590	589	589	589	589	589	589	590	590	591	591	591	592	594	594	595	597	598	599	601	602	603	605	606	608	610	611	612	613	614	615	616	617	618	618	618	619	619	620	620	620	620	620	620	620	621	622	622	622	622	622	622	622	622	622	621	621	621	620	620	620	619	618	618	617	616	616	616	616	616	616	616	616	616	616	616	617	618	618	618	619	619	619	619	618	618	618	619	618	617	617	616	616	616	616	616	616	616	616	616	616	616	616	616	616	616	616	616	616	616	616	616	616	616	618	617	615	616	617	619	618	618	618	619	620	623	625	626	627	629	630	632	632	633	636	636	637	638	638	638	639	640	640	641	641	640	640	640	640	639	639	638	636	635	634	632	631	630	630	630	630	630	630	630	628	628	628	628	627	627	627	626	625	624	624	624	624	624	625	627	627	628	629	631	632	634	635	637	638	639	638	637	636	635	632	630	628	626	625	623	621	619	617	617	616	616	616	616	616	616	616	616	615	615	615	614	613	612	612	612	612	610	610	610	609	608	608	607	606	606	605	604	604	605	606	606	606	606	606	607	608	609	611	612	615	616	618	619	620	621	624	624	625	626	626	627	626	626	626	626	626	626	625	625	624	624	624	622	621	621	620	619	618	618	617	616	616	615	615	614	614	613	613	612	611	611	611	611	610	610	610	610	610	610	610	610	610	610	610	610	609	609	609	608	607	607	605	605	605	604	603	602	602	601	600	600	600	600	600	600	600	600	600	600	600	601	602	602	602	602	603	603	603	603	604	604	604	605	605	605	605	605	605	605	605	605	605	604	604	604	604	603	603	603	603	603	603	603	603	603	603	603	603	603	602	602	601	600	600	598	597	594	593	592	590	589	587	584	583	582	580	579	577	576	576	576	576	575	575	575	575	576	576	576	577	577	578	578	579	580	582	583	584	584	584	585	587	588	589	591
563	561	559	553	550	548	543	540	538	535	535	534	531	531	530	530	530	530	531	532	534	536	537	538	541	542	544	547	548	549	551	552	553	555	555	556	558	560	561	563	563	564	565	566	567	568	568	569	569	569	569	569	569	569	569	569	569	569	569	571	571	571	573	574	574	576	577	577	577	578	578	580	582	583	584	585	585	587	587	587	588	588	588	588	588	588	588	588	588	588	588	588	588	588	588	588	588	588	588	588	589	589	589	589	588	588	588	588	588	587	585	585	585	584	584	584	583	583	583	581	581	581	581	581	580	580	580	580	578	578	578	579	580	580	580	580	580	581	581	581	582	583	584	585	585	587	588	588	589	589	589	591	591	591	591	591	591	589	589	589	588	588	588	588	588	588	587	587	587	585	585	585	587	586	585	585	585	584	584	584	584	584	584	584	584	584	584	584	584	584	584	584	585	587	587	587	588	588	588	588	588	588	589	589	589	589	589	589	589	589	589	589	589	589	588	588	587	587	587	585	584	584	584	583	583	581	581	581	581	581	581	581	581	581	581	581	581	581	581	581	581	581	581	581	581	581	581	581	581	580	580	580	580	580	580	580	580	580	580	580	581	581	581	581	583	583	583	584	584	584	585	585	585	587	587	588	589	589	589	589	589	589	591	591	592	592	592	592	592	592	594	594	594	595	595	595	595	595	595	595	595	595	595	595	595	595	595	595	594	594	594	594	594	594	594	594	594	594	594	594	594	593	592	592	592	592	592	592	592	592	592	592	592	592	591	591	591	591	591	590	589	589	589	589	589	589	589	589	589	589	589	590	591	591	591	592	594	594	595	597	598	599	601	602	604	605	606	608	610	611	613	614	614	616	617	617	619	619	619	619	620	620	620	620	620	620	620	620	622	622	622	622	622	622	622	622	622	622	621	620	620	619	619	619	618	617	616	616	616	616	616	616	616	616	616	616	616	616	616	616	617	617	618	619	619	619	619	619	619	619	619	618	617	616	616	616	616	616	616	616	616	616	616	616	616	617	617	617	617	617	617	617	617	617	617	617	619	621	621	616	616	617	619	619	619	620	621	623	627	629	630	630	632	633	635	636	636	638	638	638	640	640	640	640	640	640	641	640	640	638	638	638	638	637	636	635	634	633	631	631	630	628	628	628	630	630	630	628	628	628	627	627	627	627	626	625	624	624	624	624	624	625	627	627	628	630	631	633	635	636	638	639	640	638	637	636	635	632	630	628	626	624	622	620	619	617	616	616	616	616	616	616	616	616	616	615	614	614	613	613	611	610	610	610	609	608	608	607	607	607	606	604	604	603	602	602	603	604	604	604	605	605	606	607	608	609	611	614	615	617	619	619	620	623	624	625	627	627	627	627	627	627	627	627	627	625	625	624	624	623	620	620	620	619	618	617	617	616	616	614	614	614	614	613	613	613	612	611	611	611	611	610	610	610	610	610	610	610	610	610	610	610	610	608	608	608	607	607	607	605	605	605	604	603	602	602	602	601	601	601	601	601	601	601	601	601	601	602	602	602	602	603	604	604	604	604	605	605	605	605	605	605	605	605	605	605	605	605	605	605	604	604	604	604	603	602	602	602	602	602	602	602	602	602	602	602	601	601	601	600	599	598	597	597	594	593	592	589	588	588	585	584	583	581	579	578	577	577	577	577	577	576	576	576	577	577	577	578	578	579	580	580	581	583	584	584	584	585	586	587	589	590	591
563	561	559	555	552	550	545	543	541	538	537	536	535	535	534	534	534	534	535	536	537	538	539	541	543	544	545	549	549	550	553	553	554	555	556	558	559	560	561	563	563	564	565	566	567	568	568	568	568	568	568	568	568	569	569	569	568	568	569	571	571	571	573	574	574	576	577	577	580	580	580	580	582	583	584	585	585	587	587	587	587	588	588	587	587	587	587	587	587	587	587	587	587	587	587	587	587	587	587	587	587	587	587	587	587	586	585	585	585	585	585	585	584	583	583	583	581	581	581	581	581	580	580	580	580	580	580	580	578	578	578	579	580	580	580	580	580	580	580	581	581	581	583	584	584	585	585	585	587	587	587	588	588	588	588	588	588	587	587	587	587	587	587	587	587	587	585	585	585	585	585	584	584	584	584	583	583	583	583	583	583	583	583	583	583	583	583	583	583	583	583	583	584	585	585	585	587	587	587	587	587	587	587	587	588	588	588	587	587	587	587	587	587	587	587	587	585	585	585	584	584	584	584	583	583	581	581	581	581	581	581	581	581	581	581	581	581	581	581	581	580	580	580	580	580	580	580	580	580	578	578	578	580	580	580	578	578	578	578	579	580	580	580	580	581	581	581	583	583	583	584	584	584	585	586	587	588	588	588	588	588	589	591	591	591	592	593	594	594	594	594	595	595	595	595	595	597	597	597	597	597	597	595	595	595	594	594	594	594	593	592	592	592	592	591	591	591	591	590	589	589	589	589	588	588	588	588	588	588	588	588	588	588	588	588	589	589	589	588	588	588	588	588	588	588	588	588	588	588	589	589	589	589	591	591	592	594	594	595	597	598	599	601	602	604	606	608	610	611	612	614	614	614	616	617	617	619	619	619	619	619	619	619	619	619	619	619	619	619	619	619	619	620	620	620	619	619	619	618	617	617	616	616	616	615	614	613	612	611	611	611	611	613	613	613	613	613	614	614	615	616	616	616	617	617	617	617	617	617	617	617	617	616	614	614	613	613	613	613	614	614	614	614	615	616	617	618	619	620	620	620	620	619	617	617	617	619	621	623	625	627	629	633	634	635	638	639	640	643	643	643	641	641	641	643	643	643	643	643	643	641	641	641	641	641	641	641	639	638	638	638	638	638	637	636	635	633	631	630	629	628	628	628	628	628	628	628	628	628	628	627	627	627	627	627	627	625	624	624	625	626	627	628	629	630	631	632	633	635	636	638	639	640	640	637	635	633	632	630	627	625	623	620	619	619	616	615	614	614	614	614	614	614	614	614	613	613	613	612	611	610	609	608	607	607	607	605	604	604	602	602	601	601	601	601	601	601	601	602	603	604	604	604	605	607	608	610	613	614	616	617	618	620	622	623	624	625	625	625	625	625	625	625	625	624	622	621	620	620	620	619	618	617	617	616	616	614	614	614	613	613	613	613	612	611	611	611	611	610	610	610	610	610	610	608	608	608	608	608	608	608	608	608	608	607	607	607	607	607	605	605	605	604	604	604	602	602	602	602	602	602	602	603	604	604	604	604	604	604	605	605	605	605	605	606	607	607	607	607	607	607	607	607	607	607	605	605	605	605	605	604	604	604	602	602	602	602	601	601	601	601	601	601	601	601	601	600	599	599	598	598	597	596	595	592	591	591	589	588	588	585	584	584	583	582	581	580	580	580	580	580	580	580	580	580	580	580	581	581	582	583	584	584	584	585	586	587	587	587	588	589	590	591
564	562	560	556	553	551	547	545	543	540	539	538	538	537	536	536	536	536	537	538	539	540	542	543	545	546	548	551	552	552	554	554	555	556	557	559	560	561	562	563	563	564	566	566	568	568	568	568	568	568	568	568	568	568	569	569	568	568	568	570	571	571	572	573	574	576	577	578	580	580	580	580	582	584	584	585	586	587	587	587	587	587	586	586	586	586	586	586	586	586	586	586	586	586	586	586	586	586	586	586	586	586	586	586	586	585	584	584	584	584	584	584	584	583	583	582	581	581	581	581	581	580	580	580	580	579	579	579	578	578	579	580	580	580	580	580	580	580	580	580	581	581	582	583	584	584	584	585	586	586	586	586	586	586	586	586	586	586	586	586	586	586	586	586	586	585	584	584	584	584	584	584	583	582	582	582	582	582	582	582	582	582	582	582	582	582	582	583	583	583	583	583	584	584	584	584	586	586	586	586	586	586	586	586	588	588	587	586	586	586	586	586	586	586	586	586	584	584	584	584	584	584	584	583	583	581	581	581	581	581	581	581	581	581	581	581	581	580	580	580	580	580	580	580	580	580	579	579	579	578	578	578	579	579	579	578	578	578	578	579	580	580	580	580	581	581	581	582	582	582	583	584	584	584	585	586	587	588	588	588	588	588	590	590	591	591	592	593	594	594	594	595	595	596	596	596	597	597	597	597	597	597	596	595	595	594	594	594	593	592	592	592	591	590	590	590	589	589	588	588	587	587	586	586	586	586	586	586	586	586	586	586	586	586	586	588	588	588	588	588	588	588	588	588	588	588	588	588	588	588	589	589	589	591	591	592	594	594	595	597	598	599	601	602	604	606	608	609	611	612	614	614	614	616	617	617	619	619	619	619	618	618	618	618	618	618	618	618	618	618	618	618	618	618	618	618	618	618	616	615	615	615	614	614	613	612	612	611	610	610	610	610	611	612	612	612	612	612	612	613	614	614	615	616	616	616	616	616	616	616	616	615	614	613	612	612	612	612	612	612	613	614	614	614	615	617	618	619	621	621	620	620	620	618	618	619	622	624	626	629	631	633	637	639	641	644	646	648	650	649	649	647	646	646	646	646	646	646	645	644	643	643	643	642	641	641	641	639	638	638	638	638	638	637	636	635	633	631	630	629	628	628	628	628	628	628	628	628	628	628	627	627	627	627	628	628	625	624	624	625	626	627	628	629	630	632	633	634	636	636	638	639	640	640	637	635	633	631	630	627	625	623	620	619	618	616	615	614	614	614	614	614	614	614	614	613	612	612	611	610	609	608	607	606	606	605	604	603	603	602	601	600	600	600	600	600	600	600	600	601	602	602	603	604	606	607	609	612	613	615	616	618	620	621	622	623	623	624	624	624	624	624	623	622	622	620	619	618	618	618	616	615	615	615	615	614	612	612	612	612	612	612	612	611	610	610	610	609	609	609	609	609	609	609	608	608	608	608	608	608	608	608	608	608	607	607	606	606	606	605	605	605	605	604	604	603	603	603	603	603	603	603	604	604	604	604	604	605	606	606	606	606	606	606	607	608	608	607	607	607	607	607	607	607	607	605	605	605	605	605	604	603	603	602	602	602	602	601	601	601	600	600	600	600	600	600	599	598	597	597	596	596	594	593	592	591	590	589	588	588	586	585	584	584	583	582	582	582	582	582	582	582	582	582	582	582	582	583	583	584	585	585	586	586	586	587	588	588	588	588	589	590	591
565	563	561	556	554	553	549	547	545	542	542	541	540	539	538	538	538	538	540	540	541	543	544	545	548	549	550	553	554	555	555	555	556	558	559	560	561	562	563	563	563	564	566	567	568	569	569	568	568	568	568	568	568	568	569	569	568	568	568	569	570	571	572	573	573	576	577	578	580	580	580	581	583	584	584	586	587	587	587	587	587	586	585	585	585	585	585	585	585	585	585	585	584	584	584	584	584	584	584	584	584	584	584	584	584	584	584	584	584	584	584	584	583	583	582	581	581	581	581	581	581	580	580	580	580	578	578	578	578	578	580	580	580	580	580	580	580	580	580	580	581	581	581	582	583	583	584	584	584	584	584	584	585	585	585	584	584	584	584	584	584	584	584	584	584	584	584	583	583	583	583	583	581	581	581	581	581	581	580	580	580	580	580	581	581	581	581	583	583	583	583	583	583	584	584	584	585	585	585	585	585	585	585	586	587	587	586	585	585	585	585	585	585	585	585	585	584	584	584	583	583	583	583	583	583	581	581	581	581	581	581	581	581	581	581	581	581	580	580	580	580	580	580	580	580	580	578	578	578	578	578	578	578	578	578	578	578	578	578	579	580	580	580	580	581	581	581	581	581	581	583	583	583	584	584	585	587	587	587	588	588	588	589	590	591	591	591	592	594	594	595	595	595	597	597	597	597	597	597	597	597	597	597	596	595	594	594	594	592	591	591	591	590	589	588	588	588	587	587	587	585	584	584	584	584	584	584	584	584	584	584	585	585	585	585	587	587	587	587	587	587	587	587	587	587	587	588	588	588	588	589	589	589	591	591	592	594	594	595	597	598	599	601	602	604	606	607	608	610	612	614	614	614	616	617	617	619	619	619	619	618	617	617	617	617	617	617	617	617	617	617	617	617	617	617	616	616	616	615	614	613	613	613	611	611	611	610	610	610	610	610	610	610	610	610	610	610	611	611	612	613	613	613	614	614	615	616	616	615	614	614	614	613	611	611	610	610	610	610	611	612	613	613	613	614	616	618	619	621	622	620	620	620	620	620	621	624	627	629	633	635	637	641	644	647	651	654	655	657	656	655	653	652	651	650	650	650	648	647	646	645	645	645	643	642	641	641	639	638	638	638	638	638	637	636	635	633	631	630	629	628	628	628	628	628	628	628	628	628	628	627	627	627	628	628	628	626	625	625	625	626	627	628	629	630	632	634	635	636	636	638	639	640	640	637	635	633	631	629	627	625	623	620	618	617	616	615	614	614	613	613	613	613	613	613	612	611	610	610	610	608	607	607	605	604	604	602	602	602	601	600	599	598	598	598	599	599	599	599	600	601	601	601	602	605	606	608	611	612	614	616	617	619	620	621	622	622	622	622	622	622	622	620	620	620	618	617	617	616	616	614	613	613	613	613	613	611	611	611	610	610	610	610	610	610	610	609	608	608	608	608	608	608	608	607	607	607	607	607	607	607	607	607	607	607	607	605	605	605	605	605	605	605	605	604	604	604	604	604	604	604	605	605	605	605	605	605	607	607	607	607	607	607	608	608	608	608	608	607	607	607	607	607	607	607	605	605	605	605	605	604	603	602	602	601	601	601	601	601	601	600	599	599	599	599	598	597	597	595	595	595	594	593	592	591	590	589	589	588	588	587	586	585	585	584	584	583	583	583	583	583	583	583	583	584	584	584	585	585	586	587	587	587	587	587	587	588	588	588	589	589	590	591
567	565	563	559	557	555	551	550	549	547	546	544	543	543	543	543	543	543	544	544	545	548	548	549	551	552	554	556	558	560	560	560	560	561	562	563	564	564	564	565	566	567	568	568	569	569	569	569	568	568	568	568	568	568	568	568	567	567	567	568	569	570	572	573	573	576	577	577	578	578	578	580	582	583	584	585	585	585	585	585	585	585	585	584	584	584	584	583	583	583	583	583	583	583	583	583	582	581	581	582	583	583	583	583	583	583	583	583	583	583	583	583	583	581	581	581	581	581	581	581	581	580	580	580	580	578	578	578	578	578	578	578	578	580	580	580	580	580	580	580	580	580	580	580	580	581	581	581	581	581	581	581	581	581	581	581	581	581	581	581	581	581	581	581	581	581	581	581	581	580	580	580	578	578	578	578	578	577	577	577	577	577	577	578	578	578	578	580	580	580	580	580	581	583	583	584	584	584	584	584	584	585	585	585	585	585	585	585	585	585	585	584	584	584	584	584	584	583	583	583	583	583	583	583	583	583	583	583	583	583	583	583	582	581	581	581	581	580	580	580	580	579	578	578	578	578	578	578	578	577	577	577	578	578	578	578	578	578	580	580	580	580	580	580	581	581	581	581	581	581	583	583	583	584	584	585	585	586	587	587	587	588	588	588	589	591	591	592	592	592	594	595	595	597	598	598	598	598	598	598	598	598	597	596	595	594	594	594	592	591	591	589	588	588	587	586	585	584	583	583	581	581	581	580	580	580	580	580	580	580	580	580	581	582	583	584	584	584	584	584	585	585	586	587	587	587	587	588	588	588	589	589	589	591	591	592	594	594	595	597	597	598	600	601	602	604	606	608	610	611	613	614	614	616	617	617	617	617	617	617	616	616	616	616	616	616	616	616	616	615	614	614	614	614	614	613	613	613	612	611	611	610	610	610	609	608	607	607	607	607	607	607	607	607	608	608	608	608	610	610	611	611	612	613	613	613	613	611	611	611	610	609	608	608	608	607	607	607	607	609	611	613	613	613	614	616	617	619	621	622	624	624	624	624	626	628	630	634	637	643	646	650	657	659	661	665	666	667	669	667	665	662	660	658	657	656	655	653	651	650	646	645	645	643	643	643	641	640	640	638	638	638	638	638	638	635	634	633	630	630	630	628	628	628	630	630	630	630	630	630	630	630	630	630	630	631	628	627	627	627	627	628	630	630	631	633	634	636	636	636	638	639	640	638	636	634	631	629	627	625	623	621	619	617	616	614	613	613	611	611	611	611	611	611	611	609	608	608	607	607	605	605	605	602	601	601	601	600	599	598	598	598	597	597	597	598	598	598	599	600	601	601	601	602	604	605	607	610	611	613	616	616	617	619	619	620	620	620	620	619	619	619	617	617	616	614	614	613	611	611	610	610	610	610	610	610	610	609	608	608	608	608	608	608	608	608	608	608	607	607	607	607	607	607	607	607	607	605	605	605	605	605	605	605	605	605	605	605	605	605	605	605	605	605	604	604	604	604	604	604	604	605	605	605	605	605	605	605	606	607	607	607	607	607	607	607	607	607	607	607	607	607	607	607	607	605	605	604	604	604	604	603	602	602	601	601	601	600	599	599	598	598	597	597	597	595	594	594	594	593	592	591	590	589	588	588	588	588	587	587	587	587	587	587	587	587	587	587	587	587	587	587	588	588	588	588	588	589	589	589	589	589	589	589	589	590	591	591	591	591	591	591	591
568	566	564	560	558	557	553	552	551	548	548	546	546	545	545	545	545	546	546	547	548	549	550	552	553	554	556	558	559	562	562	562	562	563	563	564	565	566	566	566	567	568	568	569	569	570	570	569	568	568	568	568	568	568	568	568	567	567	567	568	569	569	572	572	573	576	577	577	578	578	578	580	581	582	584	584	584	584	584	584	584	584	584	584	583	582	582	582	582	582	582	582	582	582	582	582	581	580	580	581	582	582	582	582	582	582	582	582	582	583	583	583	583	581	581	581	581	581	581	581	581	580	580	580	580	579	579	578	578	578	578	578	578	579	579	579	579	579	579	579	579	579	579	579	579	580	579	579	579	579	579	579	579	579	579	579	580	580	580	580	580	580	580	580	580	580	580	580	580	578	578	578	577	577	577	576	576	576	576	576	576	576	576	577	577	577	578	578	579	579	579	580	580	582	583	584	584	584	584	584	584	584	584	584	584	584	584	584	584	584	584	584	584	584	584	584	584	583	583	583	583	583	583	583	583	583	583	583	583	583	583	583	582	582	581	581	581	580	580	580	579	578	578	578	578	578	578	578	578	577	577	577	578	578	578	578	578	578	580	580	580	580	580	580	581	581	581	582	582	582	583	583	584	584	584	585	585	585	586	587	587	588	588	588	588	590	590	592	592	592	594	595	595	597	597	598	598	598	598	598	598	598	597	596	595	594	594	594	592	591	590	588	588	587	586	585	584	582	582	581	580	579	579	578	578	578	578	578	578	578	578	578	579	580	582	582	583	584	584	584	584	584	585	586	586	586	586	587	588	588	588	589	589	590	591	592	594	594	594	597	597	598	600	601	602	604	605	608	609	610	612	613	614	615	615	616	616	616	616	616	615	615	615	615	615	615	615	615	614	614	614	614	614	614	614	613	612	612	611	610	610	609	608	608	607	606	606	606	606	606	606	606	606	606	606	607	608	608	609	609	610	610	611	612	612	612	612	610	610	610	608	607	606	606	607	607	607	607	607	609	610	612	613	613	614	615	617	618	620	622	624	625	626	626	628	630	633	638	642	647	659	665	668	671	674	677	675	675	676	672	669	666	663	661	660	658	656	654	652	650	647	646	645	644	643	643	642	641	640	640	640	640	639	639	639	637	635	634	632	631	630	630	630	630	630	630	630	630	630	630	630	630	630	631	632	632	629	628	628	628	629	629	630	631	632	633	634	636	636	636	637	638	638	636	635	633	630	628	626	624	622	620	618	617	616	614	613	613	611	611	610	610	610	609	609	608	607	606	606	605	604	604	603	602	601	600	600	599	598	598	598	598	597	597	597	597	598	598	599	600	601	601	602	602	604	605	607	610	611	613	616	616	616	619	619	620	620	620	620	618	618	618	616	615	614	613	612	612	610	609	608	608	608	608	608	608	608	608	608	608	608	608	608	608	608	608	608	607	607	607	607	607	606	606	606	606	606	605	605	605	605	605	605	605	605	605	605	605	605	605	605	605	605	605	604	604	604	604	604	604	604	604	604	604	604	604	604	604	605	606	606	606	606	607	607	607	607	607	607	607	607	607	606	606	606	605	605	604	604	604	604	603	602	602	601	601	600	599	599	598	598	597	596	596	596	594	593	593	592	591	590	590	589	588	588	588	587	586	586	586	587	587	587	588	588	588	588	588	588	588	588	589	589	590	590	590	590	590	590	590	590	591	591	590	590	591	592	591	591	591	591	591	591
568	566	565	561	560	559	555	554	553	550	550	549	548	548	547	547	547	548	549	549	550	551	552	554	555	556	558	560	561	563	563	563	564	565	565	565	567	567	568	568	568	568	569	569	569	571	570	569	568	568	568	568	568	568	568	568	567	567	567	568	569	569	571	572	573	576	577	577	578	578	578	580	581	581	583	583	583	584	584	584	583	583	583	583	582	581	581	581	581	581	581	581	580	580	580	580	580	580	580	580	580	581	581	581	581	581	581	581	582	583	583	583	583	581	581	581	581	581	581	581	581	580	580	580	580	580	579	578	578	578	578	578	578	578	578	578	578	578	578	578	578	578	578	578	578	578	577	577	577	577	577	577	577	577	577	578	578	578	578	578	578	579	580	580	580	580	578	578	578	577	577	577	576	576	576	574	574	574	574	574	574	574	575	576	576	576	577	577	577	578	578	579	580	581	582	583	583	583	583	584	584	584	584	584	584	584	584	584	584	584	584	584	584	584	583	583	583	583	583	583	583	583	583	583	583	583	583	583	583	583	583	583	583	583	581	581	581	580	580	580	578	578	578	578	578	578	577	577	577	577	577	577	578	578	578	578	578	578	580	580	580	581	581	581	581	581	581	583	583	583	583	583	584	584	584	585	585	585	585	587	587	587	588	588	588	589	590	591	592	592	594	595	595	597	597	597	598	598	598	598	598	598	597	596	595	594	594	594	592	590	589	588	587	587	585	584	584	581	580	580	578	577	577	576	576	576	576	576	576	577	577	577	578	579	580	581	582	583	583	583	584	584	584	584	585	585	585	587	587	587	588	588	589	589	590	591	593	594	594	596	597	598	599	600	602	604	605	607	608	608	610	612	613	614	614	614	616	616	616	616	615	614	614	614	614	614	614	614	613	613	613	613	613	613	613	612	611	611	610	610	608	607	607	607	606	605	604	604	604	604	604	605	605	605	605	607	607	607	608	608	608	610	610	610	610	610	610	608	608	608	605	605	605	605	606	607	607	607	607	609	610	610	612	613	613	615	616	617	619	621	625	626	627	628	630	632	636	642	646	651	671	680	680	684	686	689	685	682	682	677	674	671	667	665	662	660	658	655	653	651	648	647	646	645	644	643	643	642	641	641	641	641	640	640	640	638	637	635	633	632	631	631	631	631	631	631	631	631	631	631	631	631	631	633	633	633	631	630	630	630	630	630	631	632	633	633	634	635	636	636	636	636	636	635	634	632	630	627	625	624	621	619	617	616	616	613	613	613	611	610	610	610	609	608	607	607	607	605	604	604	602	602	602	601	600	599	598	597	597	597	597	597	597	597	597	597	597	598	599	600	601	602	602	602	604	605	607	610	611	613	616	616	616	619	619	620	620	620	619	617	617	616	614	614	613	611	611	610	608	608	607	607	607	607	607	607	607	607	607	607	607	607	607	607	607	607	607	607	607	607	607	607	606	605	605	605	605	605	605	605	605	605	605	605	605	605	605	605	605	605	605	605	605	605	604	604	604	604	604	604	604	604	604	604	604	604	604	604	604	604	605	605	605	607	607	607	607	607	607	607	607	607	605	605	605	605	605	604	604	604	604	603	602	602	601	601	599	599	599	598	597	597	595	595	595	592	592	592	591	590	589	588	587	587	587	587	587	585	585	585	587	587	587	588	588	588	588	588	588	589	590	591	591	591	591	592	592	592	592	592	592	594	593	592	592	592	592	591	591	591	591	591	591
571	569	568	564	562	561	559	557	556	555	555	554	553	552	551	551	552	553	554	554	555	556	557	558	559	560	561	564	565	567	567	567	567	568	568	568	569	569	569	569	570	571	569	569	569	571	570	569	568	568	568	568	568	568	567	567	567	567	567	568	569	569	571	572	573	574	575	576	576	577	577	577	579	580	580	581	581	581	581	581	581	581	581	581	580	580	580	580	580	580	580	580	580	580	580	580	580	580	580	580	580	581	581	581	581	581	581	581	582	583	583	583	583	583	583	583	581	581	581	581	581	580	580	580	580	580	579	578	578	578	578	578	578	577	577	577	577	577	577	576	576	576	576	575	574	574	574	574	573	573	573	573	573	573	574	574	574	576	576	576	576	577	577	577	577	577	577	576	576	576	575	574	573	573	573	573	573	572	572	572	572	572	572	573	573	573	574	576	576	577	577	577	577	580	580	580	581	581	581	583	583	583	583	583	584	583	583	583	583	583	583	583	583	583	583	583	583	583	583	583	583	583	583	583	583	584	583	583	583	583	583	583	583	583	581	581	581	580	580	580	578	578	578	577	577	577	577	577	577	577	577	577	578	578	578	580	580	580	580	580	581	583	583	583	583	583	583	583	583	583	584	584	584	584	584	584	585	585	585	587	587	587	587	587	588	589	589	589	591	591	592	593	594	595	596	597	597	597	597	597	597	597	597	596	595	594	594	594	592	590	589	588	587	587	585	584	584	581	580	580	577	576	576	576	575	574	574	574	574	574	575	576	577	577	578	580	580	581	581	582	583	584	584	584	585	585	585	587	587	587	588	588	588	589	590	591	592	593	594	595	596	597	598	599	601	602	603	604	606	607	608	609	610	611	612	613	614	614	614	614	614	614	614	614	614	613	613	613	611	611	611	611	611	611	611	609	608	608	608	608	607	606	605	605	604	604	602	602	602	602	603	604	604	604	605	605	606	607	607	607	607	607	607	607	607	607	607	605	605	605	605	605	605	604	603	602	602	602	602	604	606	608	610	611	613	614	615	617	619	621	625	627	628	630	632	634	640	648	528	0	462	680	680	684	686	689	689	689	686	682	679	674	671	668	662	661	660	655	653	651	648	647	646	646	645	645	645	645	645	645	645	645	645	645	645	641	641	640	638	637	635	635	635	635	635	635	635	633	633	633	633	633	633	635	634	633	631	630	630	630	630	630	630	630	630	631	632	633	633	633	633	633	633	631	629	627	625	624	623	620	618	617	616	614	613	611	610	610	608	608	608	607	607	607	605	604	604	602	601	601	601	600	599	598	597	597	597	596	595	595	595	595	595	595	595	597	597	598	599	600	601	602	602	602	605	606	607	610	611	613	614	615	616	617	618	619	619	618	617	616	615	614	613	612	611	610	609	608	607	607	605	605	605	605	605	605	605	604	604	604	605	605	605	606	607	607	607	607	607	607	607	607	606	605	605	605	605	605	605	605	605	605	605	605	605	605	605	605	605	605	605	605	605	605	604	604	603	602	602	602	602	602	602	602	602	602	602	602	603	604	604	604	604	605	605	605	605	605	605	605	605	605	605	605	605	605	605	605	604	604	604	603	602	601	600	599	598	598	598	597	596	595	594	593	592	591	590	589	588	588	588	587	586	585	585	584	584	584	585	585	585	586	587	588	589	589	589	590	591	592	593	594	594	594	595	595	596	597	597	597	597	597	596	595	594	594	594	594	593	592	591	591	591
572	571	569	566	565	564	562	560	560	558	557	556	556	555	554	554	555	556	556	557	557	558	559	560	561	562	563	565	566	568	569	569	569	569	570	570	570	570	569	569	570	571	570	570	570	571	570	569	568	568	568	568	567	566	566	566	566	566	566	568	568	568	570	571	572	573	574	574	574	575	576	576	577	578	578	579	580	580	580	580	580	580	580	580	579	579	579	579	579	580	580	580	580	580	580	580	580	580	580	580	580	582	582	582	582	582	582	582	583	584	584	584	584	584	583	583	582	582	582	581	581	580	580	580	580	580	579	578	578	578	578	578	577	577	577	576	576	576	575	575	575	574	574	574	573	573	573	572	572	571	571	571	571	571	572	572	573	574	574	574	574	575	575	576	576	576	576	575	574	574	574	573	573	572	572	572	572	572	572	572	572	572	572	572	572	573	574	575	576	576	576	577	577	579	579	579	580	581	581	582	582	582	582	582	584	583	583	583	583	583	583	583	583	583	583	583	583	583	583	583	583	583	583	583	584	584	584	584	584	584	583	583	583	583	582	581	581	580	580	580	578	578	578	577	577	577	577	577	577	577	577	577	577	578	578	580	580	580	580	581	581	583	583	584	584	584	584	584	584	584	584	584	584	584	584	584	585	585	585	586	586	587	587	587	588	588	589	589	590	590	592	593	593	594	595	596	596	596	596	596	596	596	596	595	594	594	594	594	592	591	590	588	588	587	585	584	584	582	581	580	577	576	576	576	575	574	574	574	574	574	575	576	577	577	578	580	580	580	581	582	583	583	584	584	584	585	585	587	587	587	587	588	588	589	590	591	591	592	593	594	595	596	597	598	600	601	602	603	605	606	606	608	609	610	612	612	614	614	614	614	614	614	614	614	613	612	612	612	610	610	610	610	610	610	610	608	607	606	606	606	606	605	604	604	604	603	602	602	602	602	602	603	603	604	604	605	605	606	606	606	606	606	606	606	606	606	607	605	605	604	604	603	603	603	602	600	600	600	600	603	604	606	608	610	612	614	615	616	619	621	625	627	629	630	633	636	642	650	593	334	569	681	684	686	688	690	689	688	685	681	677	672	670	667	662	660	659	655	653	652	649	648	647	647	647	646	646	646	646	646	646	646	646	646	646	644	643	642	640	639	638	637	636	636	637	637	636	635	634	634	634	634	634	635	634	633	631	630	630	629	629	629	629	629	629	629	630	630	631	632	632	632	631	629	627	626	624	622	621	618	616	615	614	613	612	610	609	608	606	606	606	606	606	605	604	603	602	600	600	600	600	599	598	598	597	596	596	595	594	594	594	594	595	595	595	597	597	598	599	600	601	603	603	603	605	606	608	610	611	613	614	615	616	617	617	618	618	618	616	615	615	614	612	612	610	609	609	608	606	605	604	604	604	604	604	604	604	604	604	604	604	604	604	605	606	606	606	606	606	606	606	606	605	605	606	605	605	605	605	605	605	606	606	605	605	605	605	605	605	605	605	605	605	605	604	603	603	602	602	602	602	602	602	602	602	602	602	602	602	603	603	603	604	604	605	605	605	605	605	605	605	605	605	605	605	605	605	605	604	604	603	602	602	601	600	599	598	598	597	596	595	594	593	591	590	590	589	588	586	586	586	586	585	584	584	584	584	584	584	584	585	586	587	588	589	590	590	592	592	594	594	596	596	596	596	597	598	599	599	599	598	598	597	596	596	596	596	595	594	592	592	591	591
574	572	571	569	568	567	564	563	563	560	560	559	559	559	558	558	558	558	559	559	559	561	562	563	564	564	565	567	568	569	571	571	571	571	571	572	572	571	569	569	570	571	571	571	571	571	570	569	568	568	568	567	567	565	565	565	565	565	565	567	567	567	569	570	571	572	573	573	573	574	574	574	576	577	577	578	578	580	579	578	578	579	580	578	578	578	578	578	578	580	580	580	580	580	580	580	580	581	581	581	581	583	583	583	583	583	583	584	584	584	584	584	584	584	584	583	583	583	583	581	581	581	580	580	580	580	579	578	577	577	577	577	577	577	576	576	576	575	574	574	573	573	573	572	572	572	571	571	571	570	569	569	569	569	571	571	571	572	573	573	573	573	573	574	574	574	574	573	573	573	573	572	572	572	571	571	571	571	571	571	571	571	571	572	572	572	573	574	575	576	576	576	577	578	578	578	580	580	581	581	581	581	581	582	583	583	583	583	583	583	583	583	583	583	583	583	583	583	583	583	583	583	583	584	584	584	584	584	584	584	584	583	583	583	583	582	581	580	580	580	578	578	578	577	577	577	577	577	577	577	577	577	577	577	578	580	580	580	581	581	581	583	583	584	584	584	584	584	584	584	584	584	584	584	584	584	585	585	585	585	586	587	587	587	587	588	588	589	589	589	591	592	592	592	593	594	595	595	595	595	595	595	595	594	594	594	594	594	592	591	591	589	588	587	585	584	584	583	581	580	577	576	576	576	575	574	574	574	574	574	575	576	577	577	578	580	580	580	581	582	583	583	583	584	584	584	585	587	587	587	587	587	588	589	590	591	591	591	592	594	594	595	597	597	598	600	601	602	604	604	605	606	608	610	611	611	613	613	613	613	613	613	613	613	613	611	611	611	610	610	610	610	610	610	608	607	607	605	605	605	604	604	604	604	603	602	602	602	602	602	602	602	602	603	604	605	605	605	605	605	605	605	605	604	604	605	607	605	605	604	602	602	601	601	600	599	599	599	599	601	603	605	607	609	611	613	615	616	619	621	625	627	629	631	635	637	643	651	658	669	676	681	687	688	689	691	688	687	684	679	675	671	669	667	662	660	658	655	654	653	650	649	648	648	648	648	648	648	648	648	648	648	648	648	648	646	645	643	641	641	640	638	638	638	640	639	638	636	636	636	636	636	636	635	634	633	631	630	630	628	628	628	628	628	628	628	628	628	630	630	630	630	629	627	626	624	622	620	618	616	615	613	611	611	611	608	607	607	605	605	605	604	604	604	602	601	601	599	599	599	598	597	597	597	596	595	594	594	594	594	594	594	595	595	595	597	597	598	599	600	601	604	604	604	605	606	608	611	612	613	614	615	616	617	617	617	617	617	616	614	614	613	611	611	610	608	608	607	605	604	604	604	604	604	604	604	604	604	604	604	604	604	604	605	605	605	605	605	605	605	605	605	605	605	607	606	605	605	605	605	605	606	607	605	605	605	605	605	605	605	605	605	605	605	604	602	602	602	602	602	601	601	601	601	601	601	601	601	601	602	602	603	604	604	604	605	605	605	605	605	605	605	605	605	605	605	605	605	604	604	602	602	602	601	600	599	598	597	597	595	594	594	592	590	589	588	587	587	585	584	584	584	584	584	583	583	583	583	583	583	585	586	587	588	590	591	592	593	594	595	596	597	598	598	598	599	600	601	601	600	599	599	599	598	597	597	597	595	594	592	592	592	591
576	575	574	572	571	571	569	568	567	565	565	565	564	564	563	563	563	563	564	564	564	565	566	567	568	568	569	572	572	573	574	574	574	572	572	572	572	572	572	573	573	573	573	573	572	571	570	569	568	568	567	566	565	564	564	564	563	563	563	563	564	564	565	567	568	568	569	569	571	572	572	573	573	573	574	575	576	577	577	577	577	578	578	578	578	578	578	578	578	580	580	580	580	580	581	581	581	581	583	583	583	583	583	584	584	584	584	585	585	585	585	585	585	585	585	584	584	584	583	583	582	581	580	580	580	578	578	578	577	577	577	576	576	576	575	574	574	573	573	573	573	573	572	571	571	569	569	569	568	568	568	568	568	568	568	569	569	569	570	571	571	572	572	572	573	573	572	572	572	571	571	571	569	569	569	568	568	568	568	568	569	569	569	569	571	571	572	574	574	574	576	576	576	577	577	578	578	579	580	581	581	581	581	581	581	581	581	581	581	581	583	583	583	583	583	583	583	583	583	583	583	583	583	584	584	584	583	583	583	583	583	583	583	583	583	582	581	580	579	578	578	577	577	577	576	576	576	576	576	576	576	577	577	577	578	580	580	581	581	582	583	584	584	585	585	585	585	585	585	585	585	585	584	584	584	584	584	584	584	585	585	585	585	586	587	587	587	587	588	588	589	589	589	591	592	592	592	592	592	594	594	594	594	594	594	594	594	594	592	591	591	591	589	588	587	586	585	583	582	581	578	577	577	576	576	576	576	576	576	576	576	576	577	577	578	580	580	580	581	582	583	583	583	584	584	584	585	587	587	587	587	587	588	589	589	589	591	591	591	592	593	594	595	596	597	598	598	599	601	601	602	603	605	607	608	608	610	611	611	611	611	611	613	612	611	611	611	611	610	610	610	608	608	608	607	606	605	605	605	605	604	603	602	602	602	602	602	602	602	602	602	602	602	603	604	605	605	605	605	605	605	605	605	604	604	603	602	601	601	601	599	599	598	598	598	597	597	597	598	600	602	604	607	609	611	613	614	616	619	621	625	629	631	633	637	640	646	654	660	669	675	679	684	685	686	686	685	683	678	675	673	669	666	664	660	659	658	657	655	653	651	651	651	651	651	651	653	653	653	653	653	653	653	653	653	651	650	648	645	645	645	643	643	643	641	641	641	640	639	638	636	636	636	635	634	633	631	629	628	628	628	628	627	627	627	627	627	627	627	627	625	624	623	620	619	619	617	615	613	611	611	610	608	608	608	607	606	605	604	603	602	602	601	601	599	599	599	598	597	597	597	596	595	595	594	594	594	593	592	592	593	594	594	594	595	597	597	598	601	601	602	605	605	605	607	607	608	611	612	613	614	615	616	616	616	617	616	616	616	614	613	611	610	609	608	607	606	605	604	604	602	602	602	602	602	602	601	601	601	601	601	601	602	603	604	604	604	604	604	604	604	605	605	605	607	607	607	607	607	607	607	607	607	607	607	607	607	607	607	607	607	607	605	605	604	602	602	601	601	600	599	598	598	598	598	598	598	598	598	599	601	601	602	602	603	604	604	604	605	605	605	605	605	605	605	604	604	604	604	604	602	601	601	599	598	598	597	596	595	594	592	591	589	588	588	587	586	585	584	583	583	581	581	581	581	581	581	581	582	583	583	584	585	588	590	591	592	593	594	597	597	598	599	600	601	602	603	604	604	603	602	601	600	599	598	598	597	595	595	594	592	591	589
577	576	575	574	573	572	571	570	570	568	568	568	567	566	566	566	566	566	566	566	566	568	569	570	570	570	571	573	573	574	574	574	574	573	573	573	574	574	574	574	574	574	574	573	572	572	571	569	568	568	566	565	564	564	564	563	562	562	562	562	562	563	564	566	566	566	567	568	570	570	570	572	572	572	574	574	575	576	576	576	576	577	578	578	578	578	578	578	578	580	580	580	580	581	582	582	582	582	583	584	584	584	584	584	585	586	586	586	586	586	586	586	586	586	585	584	584	584	584	583	582	581	580	580	580	578	578	578	577	577	576	576	576	575	574	574	574	573	572	572	572	572	570	570	570	569	569	568	568	568	568	568	568	568	568	568	568	568	569	570	570	571	572	572	572	572	572	572	572	570	570	570	569	569	568	568	568	568	568	568	568	569	569	569	571	571	572	573	574	574	576	576	576	577	577	578	578	579	580	580	581	581	581	581	581	581	581	581	581	581	583	583	583	583	583	583	583	583	583	583	583	583	583	584	584	584	583	583	583	583	583	583	583	583	582	581	581	580	579	578	578	577	577	577	576	576	576	576	576	576	576	577	577	577	578	580	580	581	582	583	584	584	584	585	585	585	585	585	585	585	585	585	584	584	584	584	584	584	584	585	585	584	584	585	586	586	586	586	587	588	588	588	589	590	590	591	592	592	592	592	592	592	592	592	593	593	593	593	592	591	591	591	589	588	588	587	586	584	583	582	580	579	578	576	576	576	576	576	576	576	576	576	577	578	579	580	580	580	582	582	583	583	584	584	584	585	585	587	587	587	587	587	588	589	589	589	590	590	591	591	592	593	593	594	596	596	597	598	599	599	600	602	603	606	606	607	608	609	610	610	610	611	612	611	611	611	611	611	610	610	610	608	608	608	607	606	605	605	605	605	604	603	602	602	602	602	602	602	602	602	602	602	603	604	604	605	605	605	605	605	604	604	603	603	603	602	600	600	599	599	597	597	596	596	596	596	596	596	598	599	601	603	607	608	610	612	614	616	619	621	625	629	631	633	637	640	646	654	659	666	673	676	680	681	682	681	680	678	674	671	669	666	664	662	660	659	658	657	656	655	654	654	654	654	654	654	655	655	655	655	655	655	655	655	655	652	651	650	648	647	646	645	644	644	643	642	641	640	639	638	637	637	636	634	633	632	630	629	628	628	627	626	626	626	626	626	626	626	624	623	622	621	620	618	617	616	614	613	612	610	610	609	606	606	606	606	605	604	603	602	602	602	601	600	599	599	598	598	597	596	596	595	595	595	594	594	594	593	592	592	593	594	594	594	595	597	598	598	601	601	602	605	605	605	607	608	609	611	612	613	614	615	616	616	616	617	616	616	616	614	613	611	610	609	608	607	606	605	604	604	602	602	602	602	602	602	601	601	601	601	601	601	602	603	603	604	604	604	604	604	604	605	605	605	607	607	607	607	607	607	607	607	607	607	607	607	607	607	607	607	607	606	605	605	604	602	602	601	600	599	598	598	598	598	598	598	598	598	598	598	599	600	600	601	602	603	603	603	604	604	604	604	604	604	604	603	603	602	602	602	600	600	599	598	597	596	596	594	593	592	590	589	588	587	586	586	585	584	582	582	582	580	580	580	580	580	580	580	581	582	583	584	585	588	589	590	592	593	594	597	597	598	600	600	601	602	603	604	604	603	602	601	600	599	598	597	596	595	594	592	591	590	588
578	577	577	576	575	574	573	572	572	571	571	571	569	569	569	568	568	568	569	569	569	571	571	572	572	572	573	574	574	574	574	574	574	574	574	574	576	576	576	576	575	574	574	574	573	572	571	569	568	567	565	564	564	563	563	563	561	561	561	561	561	562	564	565	565	565	566	567	568	568	568	571	571	571	573	573	573	574	575	576	576	577	577	578	578	578	578	578	578	580	580	580	581	582	583	583	583	583	584	584	585	585	585	585	587	587	587	587	587	588	588	588	587	587	586	585	584	584	584	583	582	581	580	580	580	578	578	577	577	577	576	576	576	574	573	573	573	572	572	572	571	571	569	569	569	569	568	568	568	567	567	567	567	567	567	568	568	568	569	569	569	570	571	571	572	572	572	571	571	569	569	569	569	569	568	568	568	568	568	568	568	569	569	569	571	571	572	573	573	574	576	576	576	577	577	577	578	579	580	580	580	581	581	581	581	581	581	581	581	581	583	583	583	583	583	583	583	583	583	583	583	583	583	584	584	584	583	583	583	583	583	583	583	583	581	581	581	580	579	578	577	577	577	577	576	576	576	576	576	576	576	577	577	577	578	580	580	581	583	583	584	584	584	585	585	585	585	585	585	585	585	585	585	584	584	584	584	584	584	585	585	584	584	584	584	585	585	585	587	587	587	588	588	588	589	589	591	591	591	591	591	591	591	591	591	592	592	592	592	591	591	591	590	589	588	587	587	584	583	583	581	580	580	577	577	577	577	577	577	577	577	577	578	579	580	580	580	581	583	583	583	584	584	584	585	585	585	587	587	587	587	587	588	589	589	589	589	590	591	591	591	592	592	593	594	595	596	597	597	597	598	600	602	604	604	605	607	608	608	610	610	610	611	611	611	611	611	611	610	610	610	608	608	608	607	606	605	605	605	605	604	603	602	602	602	602	602	602	602	602	602	602	604	604	605	605	605	605	605	605	604	602	602	602	601	600	599	598	598	597	595	595	594	594	594	595	595	596	597	598	599	602	606	608	610	612	614	616	619	621	625	629	631	633	638	641	646	654	658	664	670	674	676	677	678	676	675	674	671	667	665	664	662	660	660	659	658	657	657	657	657	657	657	657	657	657	657	657	657	657	657	657	657	657	657	653	652	651	650	649	648	646	646	645	645	643	641	640	639	638	638	637	636	633	632	631	630	629	628	627	626	625	625	625	625	624	624	624	621	620	620	618	617	617	615	613	611	610	610	608	608	607	605	605	605	605	604	604	602	601	601	601	600	599	599	598	598	597	596	595	595	595	595	595	594	594	594	593	592	592	593	594	594	594	595	597	598	599	601	601	602	605	605	605	608	609	610	611	612	613	614	615	616	616	616	617	616	616	616	614	613	611	610	609	608	607	606	605	604	604	602	602	602	602	602	602	601	601	601	601	601	601	602	602	602	604	604	604	604	604	604	605	605	605	607	607	607	607	607	607	607	607	607	607	607	607	607	607	607	607	606	605	605	605	604	602	602	601	599	599	598	597	597	597	597	597	597	598	598	598	598	598	599	601	601	602	602	603	604	604	604	604	604	603	602	602	602	601	601	601	599	598	598	597	596	595	594	593	592	591	589	588	587	586	585	584	583	583	581	581	581	580	580	580	580	580	580	580	581	581	583	584	585	588	589	589	592	593	594	597	597	598	601	601	601	602	603	604	604	603	602	601	600	599	597	596	594	594	593	591	589	589	588
580	579	578	578	577	577	577	577	577	576	576	576	574	574	574	574	574	574	574	574	574	576	576	576	573	573	573	574	575	576	577	577	577	577	577	577	577	577	577	577	577	576	576	575	573	572	572	571	569	567	565	564	563	561	561	561	560	559	559	559	560	560	561	562	563	564	564	564	564	566	567	569	569	569	571	572	572	573	574	574	574	576	577	578	578	578	578	579	580	580	580	581	583	583	583	584	584	585	585	586	587	587	587	588	588	588	589	589	590	591	589	589	589	587	587	587	585	585	584	583	582	581	580	580	580	578	578	577	577	577	576	575	574	573	572	572	571	571	571	571	570	569	568	568	568	568	567	567	565	565	565	565	565	565	565	566	567	567	568	568	569	569	569	571	571	571	571	571	571	569	569	569	568	568	568	568	568	568	568	568	568	569	569	569	571	571	572	573	573	574	576	576	576	577	577	577	578	579	580	580	580	581	581	581	581	581	581	581	583	583	583	583	583	583	583	583	583	583	583	583	583	583	583	584	584	583	583	583	583	583	583	583	582	581	581	581	581	580	579	578	577	577	577	577	576	576	576	576	576	576	576	577	578	579	580	580	581	583	583	583	584	585	586	587	587	587	587	587	587	587	587	586	585	585	585	585	584	584	584	584	584	584	584	584	584	584	584	584	585	585	585	586	587	587	587	587	588	589	589	589	589	589	589	589	589	591	591	591	592	592	592	592	591	591	589	588	588	587	586	585	583	582	581	581	579	578	578	578	578	578	579	580	581	581	581	581	582	583	584	584	584	585	585	585	587	587	587	587	587	588	588	588	588	589	589	589	589	590	591	591	591	591	591	591	591	592	593	594	595	595	597	598	598	599	601	602	604	606	607	608	609	610	611	611	611	611	611	611	611	610	610	608	608	608	608	607	607	605	605	605	604	604	604	604	603	602	602	602	602	604	604	604	605	605	605	605	605	605	605	605	604	601	600	599	598	597	595	594	593	592	592	592	591	591	591	592	592	593	594	597	599	601	604	606	610	612	614	616	619	622	627	630	631	633	637	639	643	648	651	653	656	659	662	662	662	660	659	658	658	656	655	655	654	653	653	653	653	655	655	655	657	659	660	658	658	658	657	657	657	658	658	657	655	655	655	653	652	651	650	650	650	648	648	648	646	644	641	641	640	638	636	636	635	632	631	630	628	628	627	625	625	624	624	623	620	620	620	619	617	616	614	613	613	611	610	610	608	607	607	605	604	604	602	602	602	602	601	601	601	600	599	599	598	598	598	597	597	597	596	595	595	595	595	595	594	594	594	594	594	594	594	595	597	597	597	598	600	602	604	604	605	608	609	610	610	610	611	613	613	614	616	616	616	617	617	617	616	616	616	614	613	611	611	611	610	608	607	605	604	604	602	602	602	602	602	602	601	601	601	601	601	601	601	602	602	604	604	604	604	604	604	605	605	605	607	608	608	608	608	608	608	609	610	610	610	610	608	608	608	607	606	605	605	605	604	602	601	599	598	598	597	597	596	595	595	595	595	597	597	597	597	597	598	599	600	601	602	602	602	602	602	602	601	601	601	601	600	599	598	598	597	597	596	594	593	592	591	590	589	587	586	585	584	582	581	581	579	578	577	577	577	576	576	576	576	576	576	577	578	578	580	582	583	584	586	587	588	589	589	592	593	594	595	596	597	598	598	599	599	599	599	598	597	595	594	593	591	591	590	589	588	588	587
580	580	579	579	579	579	579	579	579	578	578	578	577	577	577	576	576	576	577	577	577	576	576	576	575	575	576	577	577	578	579	579	579	579	579	579	579	579	579	579	579	578	577	576	574	573	573	572	569	568	566	565	563	561	561	561	560	559	559	559	559	560	560	561	562	564	564	564	564	565	566	568	569	569	571	572	572	572	573	574	574	576	577	578	578	578	578	579	580	580	581	582	583	583	584	584	585	586	586	587	588	588	589	590	590	590	590	590	591	592	590	590	589	588	587	587	586	585	584	583	582	581	580	580	580	578	578	577	577	576	575	574	573	572	572	571	570	570	570	570	568	568	568	568	567	566	566	566	565	565	565	565	565	565	565	566	566	567	567	568	568	569	569	570	571	571	571	571	571	569	569	569	568	568	568	568	568	568	568	568	568	569	569	570	571	572	572	573	573	574	576	576	576	577	577	578	578	579	580	580	580	581	581	581	581	581	581	582	583	583	583	583	583	584	584	584	584	584	584	584	584	584	584	584	583	583	583	583	583	582	582	582	581	581	581	581	581	580	579	578	578	577	577	577	577	576	576	576	576	576	577	578	578	579	580	581	582	583	583	584	584	586	586	587	587	588	588	587	587	587	587	586	585	585	585	585	584	584	584	584	584	584	584	584	584	584	584	584	584	585	585	586	586	586	586	586	588	588	588	588	588	588	588	589	589	590	591	591	592	592	592	592	592	591	590	590	589	588	587	586	585	584	583	582	581	580	580	580	580	580	581	582	582	582	582	583	583	584	585	586	586	586	586	586	587	588	588	588	588	588	588	588	588	589	589	589	589	589	590	590	590	590	590	590	590	590	591	592	593	593	594	596	597	598	599	601	602	605	606	606	608	609	610	611	611	611	612	612	611	611	610	610	609	609	609	609	608	606	606	606	606	606	605	604	604	603	602	602	602	604	604	604	605	605	605	605	605	605	605	605	604	601	600	599	598	597	595	593	592	592	592	591	591	591	591	592	592	593	594	597	599	601	604	606	610	612	614	616	619	621	626	629	631	634	637	639	643	646	649	652	654	656	658	658	658	656	655	654	654	652	652	652	651	650	650	650	651	652	653	653	656	657	657	656	656	655	655	655	655	656	655	655	653	653	653	652	651	650	649	649	649	647	647	646	645	643	641	640	639	637	636	635	633	631	630	629	628	627	626	625	624	623	622	621	620	619	618	618	616	614	612	612	611	610	608	607	606	605	604	603	603	602	602	602	601	600	600	600	600	599	598	598	598	598	598	597	597	597	596	596	596	595	595	595	595	594	594	594	594	594	595	596	597	598	598	599	601	603	604	605	606	609	610	612	612	612	612	613	614	615	616	616	616	617	617	617	616	616	616	614	613	611	611	611	610	608	607	605	605	604	603	603	603	602	602	602	601	601	601	600	600	600	601	601	602	603	603	603	604	604	604	605	606	606	608	608	608	609	609	609	609	610	610	610	610	610	609	609	609	608	607	606	605	605	604	602	600	599	598	597	596	596	595	594	594	595	595	596	596	596	596	597	598	598	599	600	601	602	602	602	602	602	601	601	600	600	600	598	598	597	596	595	594	593	591	590	590	588	587	586	584	583	582	580	579	578	577	576	575	575	575	574	574	574	574	574	575	575	575	576	578	579	580	582	583	584	586	586	587	590	591	592	593	594	594	596	596	597	597	597	597	597	595	594	592	591	590	590	589	588	586	586	585
581	580	580	580	580	580	581	581	581	581	581	580	580	580	580	578	578	578	580	580	580	576	576	576	577	577	578	580	580	580	581	581	581	581	581	581	581	581	581	581	581	580	578	577	576	574	573	572	570	569	567	565	563	561	561	561	560	559	559	559	559	559	560	561	561	563	563	563	563	564	565	568	569	569	571	572	572	572	573	574	574	576	577	578	578	578	578	579	580	580	581	583	583	583	584	585	586	587	588	588	589	589	590	591	591	591	591	591	591	592	591	590	589	588	588	587	587	586	584	583	582	581	580	580	580	578	578	577	576	576	574	573	573	572	571	571	569	569	569	568	567	567	567	567	567	565	565	565	565	565	565	565	565	565	565	565	565	567	567	567	568	569	569	569	570	571	571	571	571	569	569	569	568	568	568	568	568	568	568	568	569	569	570	571	571	572	573	573	573	574	576	576	576	577	577	578	578	579	580	580	580	581	581	581	581	581	582	583	583	583	583	583	583	584	584	584	584	584	584	584	584	584	584	583	583	583	583	583	583	582	581	581	581	581	581	581	581	580	579	578	578	577	577	577	577	577	577	577	577	577	577	578	578	579	580	583	583	583	584	584	585	587	587	587	588	588	588	587	587	587	587	586	585	585	585	585	584	584	584	584	584	584	584	584	584	584	584	584	584	584	585	585	585	585	585	585	587	588	588	588	588	588	588	589	589	589	590	591	592	592	592	592	592	592	591	591	591	589	588	588	587	586	585	584	583	583	583	583	583	583	583	583	584	584	584	585	585	585	587	587	587	588	588	588	588	588	588	589	589	589	589	589	589	589	589	589	589	589	589	588	588	588	588	588	588	589	589	589	591	591	592	594	595	597	598	599	601	603	604	605	607	608	610	611	611	611	612	613	611	611	611	611	610	610	610	610	610	608	607	607	607	607	607	605	605	605	602	602	602	604	604	604	605	605	605	605	605	605	605	605	604	601	600	599	598	597	595	592	592	591	591	591	591	591	591	592	592	593	594	597	599	601	604	606	610	612	614	616	619	621	625	629	631	635	637	639	643	645	647	650	652	653	655	655	654	651	650	650	650	649	648	648	648	648	648	648	648	650	651	651	655	655	655	653	653	653	653	653	653	653	653	653	651	651	651	650	649	648	648	648	648	646	646	645	643	642	641	638	637	636	635	634	631	630	629	628	627	626	625	624	623	622	620	620	619	617	617	616	614	613	611	610	610	608	606	605	604	603	602	601	601	601	601	601	601	599	599	599	599	598	597	597	597	597	597	597	597	597	597	597	597	596	595	595	595	595	594	594	594	595	596	597	598	598	599	601	602	604	605	606	608	610	611	613	613	613	613	614	615	616	617	617	617	617	617	617	616	616	616	614	613	611	611	611	610	608	607	605	605	605	604	604	604	602	602	602	601	601	601	599	599	599	601	601	601	602	602	602	604	604	604	605	606	607	608	608	608	610	610	610	610	611	611	611	611	611	610	610	610	608	608	608	605	605	604	601	600	599	598	597	595	595	595	594	594	594	595	595	595	595	595	596	597	598	598	599	601	601	601	601	601	601	601	600	599	599	599	598	597	597	595	593	592	592	590	589	588	586	585	584	582	581	580	578	577	576	575	574	573	573	573	573	572	572	572	573	573	573	573	573	576	577	577	580	581	581	583	584	585	588	588	589	591	591	592	594	594	595	595	595	595	595	594	592	589	589	588	588	588	587	584	584	583
581	581	581	581	582	583	583	584	584	584	584	584	584	584	584	583	582	580	580	580	580	580	580	581	581	582	583	584	584	584	585	585	585	585	585	585	585	585	584	584	584	583	583	582	578	577	576	573	571	571	569	568	566	564	562	561	560	559	559	559	559	559	560	561	561	561	562	563	563	564	564	567	568	569	569	571	572	572	573	574	576	577	577	578	578	578	580	581	581	583	583	584	585	586	587	588	588	589	591	591	592	592	592	592	594	594	594	594	594	594	592	592	591	589	589	588	586	585	584	583	582	581	580	580	580	578	578	577	576	575	573	572	572	572	570	569	568	568	568	567	566	565	565	565	565	565	565	565	564	564	564	564	564	564	564	565	565	565	566	567	568	569	569	569	570	571	571	571	571	569	569	569	569	569	568	568	568	569	569	569	569	571	571	571	572	572	573	574	575	576	576	576	576	577	577	578	578	579	580	580	580	581	581	582	583	583	583	583	584	584	584	584	584	584	584	584	584	584	584	584	584	584	584	583	583	583	583	583	581	581	581	581	581	581	580	580	580	580	579	578	578	577	577	577	577	577	577	577	577	578	578	578	580	580	581	583	583	583	585	585	585	587	587	588	588	588	588	588	588	588	587	587	587	585	585	585	584	584	584	584	584	584	584	584	584	584	584	584	584	584	584	584	584	585	585	585	587	587	587	587	587	587	587	588	588	589	590	591	592	593	594	594	595	595	594	594	594	592	591	591	589	589	589	588	587	587	587	587	587	587	587	588	588	588	588	589	589	589	589	590	591	591	591	591	591	591	592	592	592	592	592	592	591	591	590	589	589	589	589	588	588	587	587	587	587	587	587	587	588	588	589	590	592	594	595	596	598	600	602	604	605	606	608	609	610	611	612	613	613	613	613	613	613	613	611	611	611	611	610	610	610	608	607	605	605	605	605	605	605	605	605	605	607	607	607	607	607	607	605	605	604	602	600	598	597	596	594	592	591	589	589	589	589	589	590	591	592	593	595	597	599	601	604	606	610	612	614	616	618	620	624	627	629	631	634	636	638	640	642	645	646	646	646	646	646	645	644	643	641	641	641	641	641	641	641	642	643	645	646	646	648	650	651	651	650	650	650	649	648	648	648	648	646	646	646	645	645	645	643	643	643	643	643	643	641	640	638	636	635	633	631	631	630	627	626	625	624	623	622	620	620	620	619	618	617	616	615	613	611	610	608	607	607	605	603	602	601	600	599	599	598	598	598	598	598	598	598	598	598	597	597	597	597	597	597	597	597	597	597	597	597	597	597	597	596	595	595	595	595	597	597	598	599	600	601	602	603	605	608	609	610	613	613	614	614	615	616	616	616	617	617	617	617	617	617	617	617	617	616	614	614	613	613	612	611	610	609	608	606	605	604	604	604	602	602	602	601	601	601	599	599	599	601	601	601	602	602	602	602	603	604	605	606	607	608	609	610	610	611	611	611	612	613	613	613	613	613	612	611	610	609	608	605	605	604	601	600	599	598	597	595	594	594	594	594	594	594	594	594	594	594	594	595	597	598	599	599	599	599	601	601	601	599	599	598	597	597	597	595	594	592	591	591	589	588	587	585	584	583	581	579	578	576	575	574	572	571	571	569	569	569	569	568	568	568	568	568	569	570	571	571	572	572	574	574	574	577	579	580	583	584	585	587	587	588	589	590	591	591	591	591	591	590	589	587	586	585	585	585	584	581	581	580
581	581	581	582	583	583	584	584	584	584	584	584	584	584	584	583	582	582	582	582	582	582	582	582	583	584	585	585	586	586	586	586	586	586	586	586	586	586	584	584	584	584	584	582	580	578	577	574	573	572	570	568	567	564	563	562	560	560	560	560	560	560	560	561	561	561	562	563	563	564	564	567	568	569	569	571	572	572	573	574	576	577	578	578	579	579	580	581	582	584	584	584	586	587	588	588	589	590	591	592	593	593	593	593	594	594	594	594	594	594	593	592	591	589	589	588	586	585	584	583	582	581	580	580	579	578	577	576	575	575	573	572	572	572	570	569	568	568	567	566	565	565	564	564	564	564	564	564	564	564	564	564	564	564	564	564	565	565	566	567	568	569	569	569	570	571	571	571	571	570	570	570	570	569	568	568	569	570	570	570	570	571	572	572	572	573	574	575	575	576	576	576	576	577	577	578	578	579	580	580	581	581	581	582	583	583	583	584	584	584	584	584	584	584	584	584	584	584	584	584	584	584	584	583	583	582	582	582	581	581	580	580	580	580	580	580	580	579	578	578	578	577	577	577	577	577	577	577	577	578	578	578	580	580	581	583	583	583	584	585	585	587	587	588	588	588	588	588	588	588	587	587	587	585	585	585	584	584	584	584	584	584	584	584	584	584	584	584	584	584	584	584	584	584	584	585	586	586	586	587	587	587	587	588	588	589	590	591	592	593	594	594	595	596	596	596	595	594	594	593	592	592	591	590	590	589	589	589	589	590	590	590	590	590	590	590	591	592	592	592	593	593	593	593	593	594	594	594	594	594	594	593	593	593	592	590	590	590	589	588	588	587	587	587	587	587	587	587	587	588	588	590	591	592	594	595	596	599	600	602	604	605	608	609	610	610	612	613	614	614	614	614	614	613	612	612	611	611	610	610	610	609	608	608	607	606	606	606	606	606	606	606	608	608	608	608	608	608	605	605	604	602	600	598	596	595	594	592	591	589	589	588	588	589	589	590	592	593	594	597	599	601	604	606	610	612	613	615	618	620	623	626	628	630	632	634	636	638	639	642	643	643	642	642	642	640	640	639	637	637	637	637	638	638	638	639	639	640	642	643	646	647	648	648	648	647	646	646	646	644	644	644	644	644	644	643	643	642	642	642	642	642	641	640	639	638	637	635	634	632	630	629	628	626	625	624	622	622	621	620	620	620	619	618	616	615	614	613	611	610	608	606	606	604	603	602	601	600	599	598	598	598	598	598	598	598	598	598	598	597	597	597	597	598	598	598	598	598	597	597	597	597	598	598	597	596	596	596	596	598	598	598	600	601	602	603	604	606	609	610	610	613	614	615	615	615	616	616	617	617	617	617	617	618	618	618	617	617	616	615	615	614	614	613	612	611	610	609	607	606	604	604	604	603	603	603	601	600	600	599	599	599	600	600	600	602	602	602	602	602	603	604	605	606	608	608	609	610	611	611	611	612	613	613	613	613	613	612	611	610	609	608	605	604	603	601	600	598	598	596	595	594	594	594	593	593	593	593	593	593	594	594	595	597	597	598	598	599	599	600	600	600	599	598	598	597	597	596	594	593	592	590	589	588	586	585	584	582	581	579	578	577	574	573	572	570	570	569	567	567	567	567	566	566	566	566	566	566	567	568	569	570	570	572	572	573	575	576	577	580	581	582	585	585	586	587	588	589	589	589	589	589	588	587	586	585	584	583	582	582	580	579	579
581	581	581	583	583	583	584	584	584	585	585	585	584	584	584	583	583	583	583	583	583	584	584	584	585	586	587	587	587	588	588	588	588	587	587	587	587	586	585	585	585	585	584	583	581	579	577	576	574	573	571	569	567	565	564	563	561	560	560	560	560	560	561	561	561	561	562	563	563	564	564	567	568	569	569	571	572	573	574	574	576	577	578	578	579	580	581	582	583	584	584	585	587	588	589	589	590	591	592	593	594	594	594	594	594	594	595	595	595	594	594	593	591	589	589	588	586	585	584	583	582	581	580	579	578	577	577	576	574	574	573	572	572	571	570	569	568	567	567	565	565	565	564	564	564	564	564	564	564	564	564	564	564	564	564	564	564	565	566	567	568	569	569	569	570	571	571	571	571	571	571	571	571	570	569	569	570	571	571	571	571	572	572	572	573	573	574	576	576	576	576	576	577	577	577	578	578	579	580	581	581	581	581	582	583	583	583	584	584	584	584	584	584	584	585	585	585	584	584	584	584	584	583	583	583	581	581	581	581	580	580	580	580	580	580	580	580	578	578	578	578	577	577	577	577	577	577	577	577	578	578	578	580	580	581	583	583	583	584	584	585	587	587	587	588	588	588	588	588	588	587	587	587	585	585	585	584	584	584	584	584	583	583	583	583	583	583	583	583	583	583	584	584	584	584	584	585	585	585	587	587	587	587	588	588	589	590	591	592	593	594	595	596	597	597	597	597	597	596	595	594	594	594	592	592	592	591	591	591	592	592	592	592	592	592	592	593	594	594	594	595	595	595	595	595	596	597	597	597	597	595	595	595	594	593	592	591	590	589	588	588	587	587	587	587	587	587	587	587	587	588	589	589	591	593	594	595	597	599	601	603	605	607	609	610	610	612	613	614	614	614	614	614	614	614	612	611	611	610	610	610	610	610	610	609	608	608	608	608	608	608	608	610	610	610	610	609	608	605	605	604	601	600	598	595	595	594	591	590	589	588	588	588	589	589	589	591	593	594	596	598	601	604	606	610	611	612	614	618	620	622	626	628	630	631	631	633	635	636	638	639	640	638	638	638	636	635	635	633	633	633	633	634	635	635	635	635	636	638	640	643	644	645	645	645	645	643	643	643	641	641	641	641	641	641	641	641	640	640	640	640	640	639	638	636	636	636	633	632	631	628	628	627	625	625	624	621	620	620	619	619	619	619	618	616	614	614	613	611	609	607	606	605	604	603	602	601	600	599	598	598	598	598	598	598	598	598	598	598	597	597	597	598	598	598	598	598	598	597	597	597	598	598	598	597	597	597	597	597	598	598	599	601	601	602	604	605	607	610	610	611	614	615	616	616	616	616	617	617	617	617	617	617	619	619	619	617	617	617	616	615	614	614	614	613	611	611	610	608	607	605	604	604	604	604	603	601	600	599	599	599	599	599	599	599	601	601	601	601	601	601	602	604	605	607	608	608	610	611	611	611	612	613	613	613	613	613	612	611	610	609	608	605	604	602	601	600	598	597	596	595	594	594	594	592	592	592	592	592	592	594	594	595	597	597	597	598	598	599	599	599	599	598	598	597	597	596	594	592	592	591	589	588	587	585	584	583	581	579	577	576	575	573	572	571	569	568	568	565	565	565	565	564	563	563	564	564	564	565	565	567	568	568	569	570	571	573	574	574	577	578	580	583	583	584	585	586	587	587	587	587	587	586	585	584	584	583	580	580	580	578	578	578
581	581	581	583	584	584	585	585	585	585	585	585	585	585	585	584	584	584	584	584	584	585	586	587	587	587	588	588	588	589	589	589	589	589	589	588	588	588	588	588	588	587	587	586	584	583	582	578	575	574	573	572	570	567	566	565	563	562	561	561	561	561	561	562	563	563	563	563	564	564	564	567	569	571	571	572	572	573	574	574	577	578	578	581	581	581	583	584	584	585	586	588	589	589	589	592	592	592	594	594	595	595	595	595	595	595	594	594	594	594	592	592	591	589	588	587	585	584	583	581	581	581	580	579	578	577	577	576	574	574	573	572	571	569	568	568	567	566	565	565	564	564	564	564	564	564	563	563	563	563	563	563	564	564	564	564	564	565	566	567	568	569	569	571	571	571	572	572	572	572	572	572	571	571	571	571	571	572	572	572	573	573	573	573	574	575	576	576	576	577	577	577	578	578	579	580	580	580	581	581	581	581	583	583	584	584	584	584	585	585	585	585	585	585	585	585	585	585	585	585	584	584	583	583	583	581	580	580	580	580	580	580	580	580	578	578	578	578	577	577	577	577	577	577	577	577	577	577	577	577	577	577	578	579	580	583	583	583	583	583	584	585	585	585	587	587	587	587	587	587	587	586	585	585	585	585	584	584	584	584	584	583	583	583	583	583	583	583	583	583	583	584	584	584	584	584	585	585	585	587	587	587	587	588	588	589	590	591	592	593	594	595	597	598	598	598	598	599	599	599	598	598	598	597	597	597	597	597	597	597	597	597	598	598	598	598	598	598	598	598	599	599	599	599	599	599	599	599	599	599	599	599	598	597	596	595	594	593	592	590	589	588	587	587	587	587	587	587	587	587	587	588	588	589	591	592	594	597	598	599	602	605	607	608	608	610	612	613	616	615	614	614	614	614	614	613	613	613	613	613	613	613	613	613	613	613	613	613	613	611	611	611	611	611	611	611	610	608	605	605	604	601	600	598	595	594	592	591	590	589	588	588	588	589	589	589	591	593	594	596	598	601	604	606	610	611	612	614	618	619	620	624	625	627	628	628	630	630	630	630	630	630	630	629	628	627	627	627	625	625	625	625	625	625	627	628	628	630	631	631	635	635	635	636	636	636	636	636	636	636	636	636	635	635	635	635	635	635	635	635	635	635	635	635	633	632	631	630	629	628	627	626	624	622	621	620	620	620	619	617	617	617	617	616	614	613	612	611	610	609	607	606	605	604	603	602	601	600	599	598	598	598	598	598	598	598	598	598	598	598	598	598	598	598	599	599	599	599	599	599	599	599	599	599	598	598	598	598	598	599	600	601	602	603	604	607	607	608	611	612	613	614	615	616	616	616	617	617	617	617	617	617	617	617	617	617	617	617	617	617	617	616	614	614	614	613	612	610	608	608	607	606	605	604	603	602	601	600	599	598	598	598	598	598	598	599	599	599	599	599	599	601	602	602	605	606	607	608	608	608	610	611	611	611	611	611	611	610	610	608	608	607	605	604	602	599	599	598	597	596	595	594	594	594	592	592	592	592	592	592	594	594	595	595	596	597	598	598	598	598	598	598	597	596	595	594	593	591	589	589	588	587	586	584	582	580	578	577	576	574	573	573	571	569	568	567	565	564	563	562	561	561	560	560	560	560	560	560	561	561	563	564	564	564	565	565	568	570	571	573	574	576	578	579	580	581	582	583	584	584	584	584	584	583	580	579	578	577	577	577	576	576	576
581	581	581	583	584	584	585	585	585	586	586	586	586	586	585	585	584	584	585	586	586	586	587	588	588	588	588	589	590	590	590	590	590	590	590	590	590	590	590	590	589	589	588	587	586	584	583	580	576	575	574	572	571	568	567	566	564	563	562	561	561	561	562	563	563	564	564	564	564	564	565	568	570	572	572	572	573	574	574	575	577	578	579	581	581	581	583	584	584	585	586	588	588	589	589	591	592	592	593	593	594	594	594	594	594	594	593	593	593	592	592	591	590	588	587	586	585	584	583	581	581	580	579	579	578	577	577	576	574	574	572	572	571	569	568	568	567	566	565	564	564	564	564	564	564	564	563	563	563	563	563	563	563	564	564	564	564	565	566	567	568	569	569	571	571	571	572	572	572	572	572	572	572	572	572	572	572	572	573	573	574	574	574	574	575	576	576	577	577	578	578	579	579	579	580	580	580	581	582	582	582	582	583	584	584	584	584	584	585	585	585	586	586	586	586	586	586	585	585	585	584	584	583	583	583	581	580	580	580	580	580	580	579	579	578	578	578	578	577	577	577	577	577	577	577	577	577	577	577	577	577	577	578	579	580	582	582	582	583	583	584	584	585	585	586	586	587	587	587	587	587	586	585	585	585	585	584	584	584	584	584	583	583	583	583	583	583	583	583	583	583	584	584	584	584	584	585	585	585	587	587	587	587	588	588	589	590	591	592	594	595	596	597	598	598	599	600	600	600	600	600	600	600	599	599	599	599	599	599	599	599	599	599	600	600	600	600	600	600	600	600	600	601	602	602	602	602	602	602	602	601	600	600	599	598	596	596	595	594	591	590	588	588	587	587	587	587	587	587	587	587	588	588	589	591	592	593	596	598	598	602	604	606	607	608	610	612	613	616	615	615	615	615	616	616	615	615	615	615	614	614	614	615	615	615	614	614	614	614	612	612	612	612	612	612	611	610	609	606	605	604	601	600	598	595	594	592	591	590	589	588	588	588	589	589	590	592	593	594	597	599	601	605	607	610	612	613	615	618	619	620	623	624	626	626	627	628	628	628	628	627	627	627	626	625	624	624	623	622	622	623	624	624	624	626	626	626	628	628	629	632	632	632	633	633	633	633	633	633	633	633	633	632	632	632	632	632	632	632	632	632	632	632	632	631	630	630	629	628	626	626	625	623	621	620	620	619	618	618	617	617	617	617	616	614	613	612	611	610	609	607	606	605	604	603	602	601	600	600	598	598	598	598	598	598	598	598	598	598	598	598	598	599	600	600	600	600	600	600	600	600	600	600	600	600	600	600	600	600	600	601	602	603	604	606	607	608	609	611	612	614	615	615	616	616	617	617	617	617	617	617	617	617	617	617	617	617	617	617	617	617	616	614	614	614	612	611	610	608	608	607	606	605	604	603	602	601	600	599	598	598	598	598	598	598	598	598	599	599	599	599	601	602	602	604	605	606	608	608	608	609	609	610	610	610	610	610	609	609	608	607	606	605	603	602	599	599	598	596	596	595	594	594	593	592	592	592	592	592	593	594	594	594	595	596	597	597	598	598	598	597	596	596	596	594	593	592	590	589	588	588	586	585	584	581	579	578	576	575	574	572	572	570	568	566	566	564	563	562	561	560	560	559	559	559	559	559	559	559	560	561	562	562	562	563	563	566	568	569	571	572	574	575	577	578	579	580	580	582	582	582	582	581	580	578	577	576	575	575	575	574	574	574
581	581	581	583	584	584	585	585	585	587	587	587	587	586	585	585	585	585	587	587	587	588	588	588	589	589	589	591	591	592	591	591	591	592	592	591	591	591	591	591	591	591	589	588	587	585	584	581	578	577	576	573	571	569	568	567	565	564	563	561	561	561	563	563	563	564	564	564	565	565	565	568	570	572	572	573	573	574	575	576	577	579	580	581	581	581	583	584	584	585	586	587	588	588	589	591	591	592	592	592	592	592	592	592	594	593	592	592	592	591	591	590	589	587	586	585	584	584	583	581	581	580	578	578	578	577	577	576	574	574	572	571	571	569	568	568	567	566	565	564	564	564	564	564	564	563	563	563	563	563	563	563	563	563	564	564	564	565	566	567	568	569	569	571	571	571	572	573	573	572	572	572	573	573	573	573	573	573	574	574	574	576	576	576	577	577	577	578	578	578	580	580	580	580	580	581	581	582	583	584	584	584	584	584	585	585	585	585	585	585	585	586	587	587	587	587	587	586	585	585	584	584	583	583	583	581	580	580	580	580	580	580	579	578	578	578	578	578	577	577	577	577	577	577	577	577	577	577	577	577	577	577	578	579	580	581	581	581	583	583	584	584	584	585	585	586	587	587	587	587	587	586	585	585	585	585	584	584	584	584	584	583	583	583	583	583	583	583	583	583	583	584	584	584	584	584	585	585	585	587	587	587	587	588	588	589	590	591	592	594	595	597	598	598	599	600	601	601	601	601	601	602	602	601	601	601	601	601	601	601	601	601	601	601	602	602	602	602	602	602	602	602	603	604	604	604	604	604	604	604	602	602	601	601	600	598	597	596	595	593	591	589	588	588	587	587	587	587	587	587	587	588	588	589	590	591	592	595	597	598	601	603	605	607	608	611	612	613	616	616	616	616	617	617	617	617	617	617	616	616	616	616	616	617	616	616	616	616	616	614	614	614	614	614	613	611	611	610	607	606	604	601	600	598	595	594	592	591	590	589	588	588	588	589	590	591	593	594	595	597	599	601	606	608	610	612	614	616	618	619	620	621	622	624	625	625	625	625	625	625	624	624	624	623	622	620	620	620	620	620	620	622	622	622	624	624	624	625	626	627	628	628	628	630	630	630	630	630	630	630	630	630	628	628	628	630	629	628	628	629	630	630	630	630	628	628	628	627	626	625	624	623	622	620	620	619	617	617	617	617	617	617	617	616	614	613	612	611	610	609	607	606	605	604	603	602	601	601	601	599	599	599	598	598	598	598	599	599	598	598	598	599	600	601	601	601	601	601	601	601	601	602	602	601	601	601	601	601	601	602	603	604	604	605	607	607	608	610	611	612	614	616	616	616	617	617	617	617	617	617	617	617	617	617	617	617	617	617	617	617	617	616	614	614	613	611	611	610	608	608	607	606	605	604	603	602	601	600	599	598	598	598	598	598	598	598	598	598	599	599	599	601	602	602	604	605	605	607	607	607	608	608	608	610	610	610	608	608	608	607	606	605	604	603	601	599	599	598	595	595	595	594	593	592	592	592	592	592	593	594	594	594	594	595	596	597	597	597	597	597	596	595	595	595	594	592	590	589	588	588	587	585	584	583	579	578	577	575	574	573	572	570	568	566	565	565	564	563	561	560	560	559	558	558	558	558	558	558	558	558	559	560	560	561	561	561	564	566	567	569	570	572	573	574	576	577	577	578	580	580	580	580	579	578	576	575	574	573	573	573	572	572	572
581	581	581	583	584	584	585	586	587	588	588	588	588	588	588	587	587	587	588	588	588	589	589	589	591	591	591	592	593	594	594	594	594	595	595	594	594	594	595	594	593	592	592	591	589	587	586	584	581	579	577	575	574	572	570	569	567	566	565	564	564	564	564	564	564	564	565	565	567	567	567	569	571	572	574	574	574	576	577	577	578	580	581	581	581	581	583	584	584	585	586	587	588	588	589	589	589	589	591	591	591	591	591	592	592	592	591	591	591	591	589	589	588	587	586	584	583	582	581	580	580	580	578	578	577	577	576	574	573	573	572	571	570	568	568	567	565	565	565	564	564	564	564	563	563	563	563	563	563	563	563	563	563	563	564	564	564	565	566	567	568	569	569	571	572	572	572	573	573	574	574	574	574	574	574	574	575	576	576	576	577	577	577	578	578	579	580	580	580	581	581	582	583	583	583	583	583	583	584	585	585	585	585	586	587	587	587	587	587	587	587	587	587	588	588	588	587	587	587	587	585	584	584	583	583	581	580	580	580	580	580	580	579	578	578	578	578	578	577	577	577	577	577	577	577	577	577	577	577	578	578	578	580	580	580	581	581	581	583	583	584	584	584	585	585	585	585	587	587	587	587	586	585	585	585	585	585	585	584	584	584	584	584	584	584	584	584	584	584	584	584	584	584	584	584	584	585	585	585	587	587	587	587	588	588	588	590	591	591	593	594	595	596	597	598	599	599	601	601	601	602	602	602	604	604	604	604	604	604	604	604	605	605	605	605	605	605	605	607	607	607	607	607	607	607	607	607	608	608	608	607	606	605	604	603	602	600	599	598	596	594	592	591	590	589	588	588	587	587	587	587	588	588	589	590	591	592	595	597	598	601	603	605	606	607	610	612	613	616	616	616	617	618	619	619	619	619	619	619	619	620	620	620	620	620	620	620	619	619	617	617	617	617	617	616	614	613	611	608	606	604	602	602	601	598	597	595	594	593	592	592	592	592	592	593	594	595	596	598	599	601	604	606	608	610	611	612	613	616	617	619	619	619	620	620	620	620	620	620	619	618	617	617	616	616	616	616	616	616	616	616	616	616	616	617	618	619	620	621	622	624	624	624	625	625	625	625	624	624	624	624	624	624	624	624	625	625	624	624	624	625	627	627	627	625	625	624	624	622	620	620	620	619	617	617	616	616	615	614	614	615	616	616	615	614	613	612	611	610	610	608	607	606	604	604	604	602	601	601	601	600	599	599	599	599	601	601	601	601	601	601	601	602	602	602	602	602	602	602	602	602	603	604	602	602	602	602	602	602	604	604	605	607	607	607	608	609	611	613	613	614	616	616	617	617	617	617	617	617	617	617	617	617	617	617	617	617	617	617	616	615	614	613	613	613	611	610	608	607	607	605	604	604	602	602	602	601	600	599	598	598	598	597	597	597	598	598	598	598	598	598	599	600	601	602	603	604	605	606	607	607	607	607	608	608	608	607	606	605	604	603	602	602	602	601	598	598	597	595	595	595	594	593	592	592	592	592	592	593	594	594	594	594	595	595	595	595	595	594	594	594	594	592	592	591	589	588	587	585	585	584	582	580	578	577	576	574	573	571	569	568	567	565	564	563	561	560	559	558	557	556	555	554	554	554	554	554	554	554	554	555	556	556	558	559	559	561	563	564	565	566	568	569	570	572	573	573	574	576	576	576	576	575	574	573	573	572	571	571	571	571	570	569
581	581	581	583	584	584	585	586	588	588	588	588	588	588	588	588	588	588	588	588	588	589	589	589	591	591	592	593	594	594	594	594	594	596	596	596	596	596	596	595	594	593	593	592	590	588	587	586	582	581	578	576	574	572	571	570	569	567	566	566	566	566	566	566	566	566	566	566	568	568	568	570	572	573	575	575	575	576	577	578	579	580	581	581	582	582	583	584	584	585	586	587	587	588	588	589	589	589	590	590	591	591	591	592	592	591	591	591	591	590	589	589	588	587	586	584	583	582	581	580	580	580	578	578	577	577	576	574	573	573	572	571	570	568	568	567	565	565	565	564	564	564	564	563	563	563	563	563	563	563	563	563	563	563	564	564	564	565	566	567	568	569	570	572	572	572	572	573	574	575	575	575	575	576	576	576	576	576	577	577	578	578	579	579	579	580	580	580	581	582	582	583	584	584	584	584	584	584	584	586	586	586	586	586	587	587	588	588	588	588	588	588	588	588	588	588	588	588	587	587	585	584	584	583	583	581	581	580	580	580	580	580	579	578	578	578	578	578	578	578	578	578	578	578	578	578	578	578	578	578	578	579	580	580	580	581	581	581	583	583	584	584	584	584	584	584	584	586	586	586	587	587	586	586	586	586	586	586	586	586	585	584	584	584	584	584	584	584	584	584	584	584	584	584	584	585	585	585	585	587	587	587	588	588	588	588	589	590	591	592	593	594	595	596	598	598	599	600	600	600	602	602	602	604	604	604	604	604	604	604	605	606	606	606	606	606	606	606	608	608	608	608	608	608	609	609	609	609	610	610	609	608	608	606	605	604	602	601	600	597	596	594	592	591	590	589	588	588	588	588	588	588	588	589	590	591	592	594	596	598	600	601	604	606	607	609	611	612	615	616	616	617	618	619	619	619	620	620	620	621	621	621	621	621	621	621	621	621	620	618	618	618	618	617	616	615	614	612	608	607	606	603	602	602	599	598	596	596	595	593	593	593	594	594	594	596	596	597	600	600	602	604	607	608	610	611	612	613	615	616	616	617	618	618	618	618	618	618	618	618	617	616	616	615	614	614	614	614	614	614	614	614	614	615	616	616	617	618	619	620	622	622	622	622	622	622	622	622	622	622	622	622	622	622	622	622	622	622	622	623	624	624	625	626	624	623	622	622	621	620	619	618	618	616	615	615	615	615	614	614	614	615	615	615	614	613	612	611	610	610	608	607	606	604	604	604	602	602	601	601	600	600	600	600	600	602	602	602	602	602	602	602	602	603	603	603	603	603	603	603	603	604	604	602	602	602	603	603	603	604	605	605	607	607	608	609	610	611	613	614	614	616	616	617	617	617	617	617	617	617	617	617	617	617	617	617	617	617	616	615	615	614	612	612	612	610	609	608	606	606	604	603	603	602	602	601	600	599	599	598	598	598	597	597	597	598	598	598	598	598	598	599	600	601	602	603	604	605	606	606	606	607	607	608	608	607	606	605	604	603	602	602	602	601	600	598	597	596	595	595	594	594	593	592	592	592	592	593	593	594	594	594	594	594	594	594	594	594	594	593	593	592	591	590	590	588	587	586	584	584	582	580	579	577	575	574	572	571	570	568	567	566	564	562	561	560	558	557	556	556	555	554	553	552	552	552	552	552	552	553	553	554	555	556	557	557	560	561	562	563	564	566	568	569	570	572	572	572	574	574	574	574	574	573	572	571	570	570	570	570	570	569	568
581	581	581	583	584	584	585	587	588	588	588	588	588	588	588	588	588	588	588	588	588	589	589	589	591	591	592	594	594	595	595	595	595	597	597	597	597	597	597	595	595	594	594	593	591	589	588	587	584	582	580	577	575	573	572	572	571	569	568	567	567	567	567	567	567	567	567	567	568	569	569	572	573	574	576	576	576	576	577	578	580	581	581	581	582	583	583	584	584	585	586	587	587	587	588	589	589	589	589	590	591	591	591	591	591	591	591	591	590	589	589	589	588	587	586	584	583	582	581	580	580	580	578	578	577	576	575	574	573	573	572	570	569	568	568	567	565	565	565	564	564	564	564	563	563	563	563	563	563	563	563	563	563	563	564	564	564	565	566	567	569	570	571	572	572	572	573	574	574	576	576	576	577	577	577	577	577	577	578	578	578	580	580	580	581	581	581	581	582	583	583	583	584	585	585	585	585	585	585	587	587	587	587	587	587	588	588	588	588	588	589	589	589	589	589	589	588	588	588	587	586	585	584	583	583	581	581	581	580	580	580	580	579	578	578	578	578	578	578	578	578	578	578	578	578	578	578	578	578	578	579	580	580	580	581	581	581	581	583	583	583	584	584	584	584	584	584	585	585	585	587	587	587	587	587	587	587	587	587	587	586	585	585	585	585	585	585	584	584	584	585	585	585	585	585	585	585	585	585	587	587	587	588	588	588	588	589	589	591	592	592	594	595	595	598	598	598	599	599	599	601	602	602	604	604	604	605	605	605	605	606	607	607	607	608	608	608	608	610	610	610	610	610	610	611	611	611	611	611	611	611	611	610	608	607	605	604	603	601	599	597	595	593	592	591	589	589	588	588	588	588	588	588	589	590	591	592	593	595	597	598	600	604	606	607	608	610	611	614	615	616	617	618	619	619	620	620	622	622	622	622	622	622	622	622	622	622	622	622	620	620	620	619	618	617	616	615	613	608	608	607	604	603	602	599	598	597	597	596	594	594	594	595	595	596	597	598	599	601	602	603	605	607	609	610	611	612	613	614	614	614	615	616	617	617	617	617	617	617	616	616	616	614	613	613	613	613	613	611	611	611	611	612	613	614	614	614	616	617	617	619	619	619	620	619	619	619	620	620	620	620	620	620	620	620	620	620	620	620	621	622	622	623	624	622	621	620	619	619	619	617	617	616	614	614	614	614	614	614	614	614	614	614	614	614	613	612	611	610	610	608	607	607	605	604	604	602	602	602	601	601	601	601	601	601	602	602	602	602	602	602	602	603	604	604	604	604	604	604	604	604	604	604	602	602	602	604	604	604	605	605	605	607	607	608	610	610	611	614	614	614	616	616	617	617	617	617	617	617	617	617	617	617	617	617	617	617	617	616	614	614	614	612	611	610	608	608	607	605	605	604	603	602	602	601	601	599	599	599	598	598	598	597	597	597	598	598	598	598	598	598	599	600	601	602	603	604	605	605	605	605	606	607	607	607	607	605	604	604	602	602	601	601	600	598	598	597	595	595	595	594	594	593	592	592	592	592	594	594	594	594	594	594	594	594	594	594	594	594	592	592	591	589	589	588	587	586	584	583	582	580	578	577	576	574	573	571	570	569	567	565	564	563	561	560	559	557	556	555	554	554	553	552	551	551	550	550	550	551	551	551	552	553	554	555	555	558	559	560	561	562	564	567	568	569	571	571	571	572	572	572	572	572	572	571	570	569	568	568	568	568	568	568
581	581	581	584	584	584	587	587	587	588	588	588	588	588	588	588	588	588	588	588	588	589	590	591	591	591	592	594	594	595	595	596	597	598	598	598	598	598	598	597	596	595	594	593	592	590	589	588	585	583	581	579	578	576	575	574	572	571	571	569	569	569	569	569	569	569	569	569	571	572	572	573	575	576	578	578	578	578	579	580	581	581	581	583	583	583	583	584	584	585	586	587	587	587	588	588	588	589	589	589	589	589	590	591	591	591	591	589	589	589	588	588	588	585	585	584	583	582	581	580	580	580	578	578	577	576	575	574	573	573	572	570	569	568	568	567	565	565	565	564	564	564	564	563	563	563	564	564	564	564	564	564	564	564	564	564	564	565	567	568	569	570	571	572	573	573	574	575	576	577	577	577	578	578	578	580	580	580	580	580	581	581	582	583	583	583	583	584	584	584	585	585	585	585	585	585	587	587	587	588	588	588	588	588	588	589	589	589	589	589	591	591	591	591	591	591	589	589	589	588	587	587	585	584	584	583	582	581	581	580	580	580	580	580	580	580	580	580	580	580	580	580	580	580	580	580	580	580	580	580	580	580	581	581	581	581	581	581	583	583	583	584	584	584	584	584	584	585	585	585	587	587	587	587	587	587	588	588	588	588	588	587	587	587	587	587	587	587	587	587	587	587	587	587	587	587	587	587	587	587	587	587	587	587	587	588	589	589	589	590	591	592	593	594	597	597	597	598	598	598	601	601	601	602	602	602	604	605	605	605	606	607	608	608	608	610	610	610	611	612	613	613	613	613	614	614	614	614	614	614	614	614	613	611	611	610	608	606	604	602	600	598	596	594	592	592	592	591	589	589	588	588	588	589	589	589	591	593	594	595	597	599	601	602	602	605	607	608	611	612	613	614	617	619	619	620	620	622	622	622	622	623	624	624	624	624	624	624	624	622	622	622	620	620	619	616	615	613	610	609	608	607	606	604	602	602	601	598	598	598	598	598	599	599	599	599	601	601	602	604	606	607	608	609	610	610	610	611	613	613	613	613	613	614	614	614	614	614	614	614	613	613	613	612	611	611	610	610	608	608	608	610	610	610	610	611	611	611	612	613	613	613	613	616	616	616	616	616	616	616	616	616	616	616	616	617	617	617	617	617	617	617	618	619	619	618	617	616	616	616	614	614	614	613	613	613	613	613	613	613	613	613	613	613	613	613	612	611	611	611	610	609	608	607	606	605	605	604	604	604	604	604	604	604	604	604	604	604	604	604	604	604	604	604	604	604	604	604	604	604	604	604	604	604	604	604	604	605	605	605	606	607	608	609	610	611	612	613	614	614	614	616	616	616	616	616	616	616	616	616	616	616	616	616	616	616	616	615	614	613	612	611	609	608	607	607	606	604	602	602	601	600	599	599	599	599	599	599	599	598	598	598	598	598	598	598	598	598	598	598	598	599	600	601	602	603	604	604	604	604	604	604	604	604	604	604	602	602	602	601	600	599	598	598	598	597	596	595	595	595	594	592	592	592	592	592	592	594	594	594	594	593	592	592	593	594	592	592	592	591	590	589	588	588	587	585	584	583	581	580	578	577	575	573	572	571	569	568	566	564	562	561	559	558	558	555	554	554	554	552	551	550	549	549	549	548	548	548	549	549	549	549	549	551	553	554	556	558	559	561	562	564	567	567	568	569	570	571	572	572	572	572	572	572	571	570	569	568	568	568	568	568	568
581	582	582	584	584	585	587	587	587	588	588	588	588	588	588	588	588	588	588	588	588	589	589	590	591	591	592	594	594	595	595	596	597	597	598	598	598	598	598	597	596	594	593	593	592	590	589	588	585	584	582	580	579	577	576	575	573	573	572	571	571	570	570	570	570	570	570	571	572	572	573	574	576	577	578	579	579	579	580	581	581	582	582	582	582	582	583	583	584	584	585	586	586	587	588	588	588	588	588	589	589	589	590	591	591	591	591	589	589	589	588	588	588	585	585	584	583	582	581	581	580	580	578	578	577	576	575	574	573	573	572	571	570	568	568	568	566	565	565	564	564	564	564	564	564	564	564	564	564	564	564	564	564	564	564	564	564	565	567	568	569	570	570	572	573	573	574	575	576	578	578	578	579	579	580	580	581	582	582	582	582	582	583	584	584	584	584	584	585	586	586	586	586	586	586	586	587	588	588	588	588	588	588	588	588	589	589	590	590	591	592	592	592	592	592	591	590	590	590	588	588	587	585	584	584	583	582	581	581	581	580	580	580	580	580	580	580	580	580	580	580	580	580	580	580	580	580	580	580	580	580	580	582	582	582	582	582	582	583	583	583	583	584	584	584	584	584	584	585	585	587	587	587	587	587	588	588	588	588	588	588	588	588	588	588	588	588	588	588	588	588	588	588	588	587	587	587	587	587	587	587	587	587	587	587	588	589	589	589	590	591	592	593	593	596	596	596	598	598	598	600	600	600	602	602	602	603	604	604	605	606	607	607	608	608	610	610	610	611	612	613	613	613	614	615	615	615	615	615	616	616	615	614	613	612	612	609	608	606	603	601	598	597	596	594	592	592	591	589	589	588	588	589	589	589	589	591	592	593	594	596	597	600	601	602	604	605	607	610	611	612	612	616	618	618	619	620	622	623	623	623	624	624	624	624	625	626	625	624	623	623	622	620	620	619	616	615	614	611	610	609	608	607	606	604	603	602	600	600	600	600	601	602	602	602	602	603	603	604	606	606	608	609	609	610	610	610	610	611	612	612	612	612	612	612	612	612	612	612	612	612	612	612	611	610	610	609	609	608	608	608	609	609	609	609	609	610	610	610	611	612	612	612	614	614	614	614	614	614	614	615	615	615	615	615	616	616	616	616	616	616	616	617	618	618	617	616	615	615	614	613	612	612	612	612	612	612	612	612	612	612	612	613	613	613	613	612	611	611	611	610	609	609	608	607	606	606	606	605	604	604	604	604	605	605	604	604	604	604	604	604	604	604	604	604	604	604	604	604	604	604	604	604	604	604	604	604	604	604	605	606	607	608	609	610	611	612	613	613	614	614	615	615	615	616	616	616	616	616	616	616	616	615	615	615	615	615	615	614	612	612	610	609	607	606	606	605	603	601	600	600	599	598	598	598	598	598	598	598	598	598	598	598	598	598	598	598	598	598	598	598	599	600	600	602	602	603	603	603	603	603	603	603	603	603	603	602	601	600	600	599	598	598	598	598	596	596	595	595	594	593	592	592	592	592	592	592	593	593	593	593	593	592	592	592	593	592	592	592	590	590	588	588	587	586	584	583	582	580	579	577	575	574	572	570	569	567	566	565	562	561	560	558	557	556	554	553	552	552	551	550	549	548	548	547	547	546	546	547	548	548	548	549	550	552	553	556	557	558	560	562	564	566	567	568	569	570	572	572	572	572	572	572	572	571	570	569	568	568	568	568	568	568
581	582	583	584	585	585	587	587	587	589	589	588	588	588	588	588	588	588	589	589	589	589	589	589	591	591	592	594	594	595	595	596	597	597	597	597	597	597	597	597	596	594	592	592	592	590	589	588	586	585	583	581	580	578	577	576	574	574	574	573	572	572	572	572	572	572	572	572	572	573	574	576	577	578	578	579	580	580	581	581	581	582	583	581	581	581	583	583	583	584	584	585	585	586	587	588	588	588	588	588	589	589	590	591	591	591	591	589	589	589	588	588	588	585	585	584	583	582	581	581	581	580	578	578	577	576	575	574	573	573	572	571	571	569	568	568	567	566	565	565	564	564	564	564	564	564	564	564	564	564	564	564	564	564	564	564	564	565	567	568	569	569	569	572	573	573	574	575	576	578	578	578	580	580	581	581	582	583	583	583	584	584	584	584	584	584	585	585	586	587	587	587	587	588	588	588	588	588	588	588	588	589	589	589	589	589	590	591	592	592	592	592	592	592	592	592	591	591	591	589	588	587	585	584	584	583	582	581	581	581	581	580	580	580	580	580	580	580	580	580	580	580	580	580	580	580	580	581	581	581	581	581	583	583	583	583	583	583	583	583	583	583	583	583	583	583	584	584	584	585	587	587	587	587	587	588	589	589	589	589	589	589	589	589	589	588	588	588	588	588	588	588	588	588	587	587	587	587	587	587	587	587	587	587	587	588	589	589	589	590	591	592	592	592	594	595	595	597	597	597	598	599	599	601	602	602	602	603	604	605	606	607	607	607	608	610	610	610	611	612	613	613	613	614	616	616	616	616	616	617	617	617	616	614	614	613	611	609	607	605	602	599	598	597	595	593	592	591	589	589	589	589	589	589	589	589	591	592	592	594	595	596	598	600	601	602	604	605	608	609	610	611	614	616	617	618	619	622	623	624	624	625	625	625	625	625	627	626	625	624	623	622	620	620	619	616	615	614	611	611	610	608	608	607	605	605	604	602	602	602	602	603	604	604	604	604	605	605	605	607	607	608	610	610	610	610	610	610	610	610	610	610	610	611	611	611	611	611	611	611	611	611	610	610	610	608	608	608	607	607	607	608	608	608	608	608	608	608	608	608	611	611	611	611	611	611	613	613	613	613	613	614	614	614	614	616	616	616	616	616	616	616	616	617	616	616	616	614	614	613	611	611	611	610	610	610	610	610	610	611	611	611	613	613	613	613	612	611	611	611	611	610	610	610	609	608	608	607	607	605	605	605	605	606	607	605	605	605	605	605	605	605	604	604	604	604	604	604	604	604	604	604	604	604	604	604	604	604	604	605	606	607	608	609	610	611	612	613	613	613	614	614	614	614	616	616	616	616	616	616	616	615	614	614	614	614	614	614	613	611	611	610	608	607	605	604	603	602	600	599	599	598	598	598	597	597	597	597	597	597	597	597	597	597	597	598	598	598	598	598	598	599	599	599	601	602	602	602	602	602	602	602	602	602	602	602	601	600	599	599	599	598	597	597	597	595	595	595	594	593	592	592	592	592	592	592	592	592	592	592	592	592	592	592	592	592	592	592	591	589	589	588	587	586	584	583	582	581	579	578	576	574	573	571	569	567	565	564	563	561	560	558	556	555	555	554	552	551	550	549	549	548	547	547	545	545	545	545	546	547	547	548	548	550	551	551	555	557	558	560	561	563	565	566	568	569	570	572	572	572	573	573	573	572	571	570	569	568	568	568	568	568	568
583	583	583	584	585	585	587	588	588	589	589	589	589	589	588	588	588	588	589	589	588	588	588	589	589	590	591	592	593	594	594	594	594	595	596	597	597	596	595	594	594	594	592	592	591	589	588	587	585	585	583	582	580	578	577	577	576	575	574	574	573	573	573	573	573	573	573	573	574	575	576	577	577	577	580	581	581	581	581	581	581	581	581	581	581	581	581	582	583	584	584	584	585	586	587	587	587	588	588	588	589	589	590	591	591	591	591	591	590	589	589	589	588	587	586	585	584	584	583	581	581	580	578	578	577	576	575	574	573	573	572	571	571	569	568	568	567	566	565	565	565	565	564	564	564	564	564	564	564	564	564	564	564	564	564	564	564	565	567	568	568	569	569	571	572	572	573	575	576	577	578	580	581	581	581	583	583	584	584	584	585	585	585	585	585	586	587	587	587	588	588	588	588	589	589	589	589	589	589	591	591	591	591	591	591	591	591	592	592	592	594	595	595	594	594	594	592	591	591	589	588	588	587	586	585	583	583	583	583	582	581	581	581	581	581	581	581	581	581	581	581	581	581	581	581	581	581	582	583	583	583	583	583	583	583	584	584	583	583	583	583	583	583	583	583	583	584	584	584	584	585	586	587	588	588	589	591	591	591	592	592	592	592	592	592	591	591	591	591	591	591	590	589	589	589	589	588	588	588	588	588	588	588	588	588	588	588	588	589	589	589	589	590	591	592	593	594	594	595	595	597	598	598	598	599	599	601	602	602	604	604	605	607	607	607	608	609	610	611	612	613	613	613	614	616	616	616	616	616	617	617	617	616	614	614	613	611	609	607	605	602	599	598	597	595	594	593	592	591	591	589	589	589	589	589	589	591	591	591	592	593	595	597	598	598	599	601	602	604	606	607	608	611	613	616	617	617	620	621	622	625	626	627	628	628	628	628	627	627	625	625	624	620	620	619	614	614	613	611	611	610	610	609	608	608	608	607	605	605	605	607	607	607	608	608	608	610	610	610	611	611	611	611	611	610	608	608	608	608	608	608	608	608	608	608	608	608	608	608	608	607	607	607	606	605	605	605	605	604	604	604	604	605	605	605	606	607	607	608	608	608	608	608	608	609	610	610	610	610	610	610	611	611	612	613	613	613	614	614	614	614	614	615	616	616	615	614	613	612	611	610	609	608	608	608	608	608	608	608	608	609	610	610	610	611	611	611	611	611	611	611	611	611	611	610	610	610	609	608	608	608	608	608	608	608	607	607	607	605	605	605	605	604	604	604	604	604	602	601	601	601	601	601	602	602	602	602	603	604	605	606	607	608	609	610	610	611	613	613	613	614	614	614	614	614	614	614	614	614	613	613	613	613	613	613	613	611	611	610	610	609	607	605	605	604	602	600	599	598	598	598	597	597	597	597	597	597	597	597	597	597	597	597	597	597	598	598	598	598	598	598	599	599	599	601	602	602	602	602	602	602	602	602	602	601	601	599	598	598	597	597	597	595	595	595	595	595	594	592	592	592	592	592	592	592	592	592	592	592	592	592	592	591	591	591	591	591	590	589	588	588	587	585	584	583	581	579	578	576	575	573	572	570	568	566	565	563	562	561	560	557	556	555	554	554	551	550	550	549	548	548	547	545	544	544	544	544	544	545	545	547	548	548	549	550	551	554	556	558	560	561	563	564	565	567	569	570	572	572	572	573	573	573	572	571	570	569	569	569	568	568	568	567
583	583	584	584	585	586	588	588	588	588	589	589	589	589	588	588	588	588	588	588	588	588	588	588	589	590	591	591	592	593	594	594	594	595	595	596	596	596	595	594	594	594	592	591	591	589	588	587	585	584	583	582	581	579	579	578	577	576	575	575	574	574	574	574	574	574	574	574	574	575	576	577	577	577	580	580	580	580	580	581	581	581	581	581	581	581	581	582	583	584	584	584	585	586	587	587	587	588	588	588	589	589	590	591	591	591	592	591	591	590	589	589	588	587	586	585	584	584	583	581	581	580	579	578	577	576	575	574	573	573	572	571	571	569	568	568	568	566	566	566	565	565	564	564	564	564	564	564	564	564	564	564	564	564	564	564	564	565	566	568	568	569	569	570	571	572	573	574	575	577	578	580	581	581	582	583	584	584	584	585	585	586	586	586	586	587	588	588	588	588	588	588	588	589	589	589	589	589	590	591	591	591	591	591	592	592	592	593	593	593	594	595	595	594	594	594	592	592	591	589	589	588	587	586	585	584	584	583	583	582	582	582	582	582	582	582	582	582	582	582	582	582	582	582	582	582	582	583	584	584	584	584	584	584	584	584	584	584	584	584	584	583	583	583	583	583	584	584	584	584	585	586	587	588	588	589	591	591	592	592	592	593	593	593	593	593	592	592	592	592	592	591	590	590	590	590	588	588	588	588	588	588	588	588	588	588	588	588	588	588	589	589	590	590	592	592	593	593	593	594	596	596	597	598	598	599	600	600	600	602	603	604	605	606	606	606	607	608	609	610	612	612	612	612	614	614	614	615	615	616	615	615	614	614	614	613	611	609	607	605	603	600	598	597	596	594	593	592	591	591	590	589	589	589	589	589	590	590	590	592	593	593	596	596	597	598	599	600	602	604	606	606	609	611	614	615	616	618	620	621	624	625	626	628	628	628	628	627	626	625	625	624	620	619	618	614	614	613	611	610	610	610	609	608	608	608	608	607	606	606	607	608	608	609	610	610	610	610	610	612	612	612	611	611	610	608	608	608	608	608	608	608	608	608	608	608	608	607	606	606	605	604	604	604	604	604	604	603	602	602	602	602	603	603	604	605	606	606	606	606	606	607	608	608	608	609	609	609	609	609	610	610	611	612	613	613	613	614	614	614	614	614	614	615	615	614	614	612	611	610	609	608	606	606	606	606	606	606	606	607	608	609	609	609	610	610	610	610	610	611	611	611	611	611	611	610	610	610	610	610	609	609	609	609	609	608	608	607	605	605	605	604	604	604	603	603	602	602	601	600	600	600	600	600	601	602	602	603	604	605	605	606	607	608	609	610	611	612	613	613	614	614	614	614	613	612	612	612	612	612	612	612	612	612	612	612	610	609	609	609	608	606	604	603	602	601	600	598	597	596	596	596	596	596	596	596	596	596	596	597	596	596	596	597	597	598	598	598	598	598	599	599	600	600	602	602	602	602	602	602	602	602	602	602	601	601	598	598	598	597	597	596	595	595	594	594	594	594	592	592	592	592	592	592	592	592	592	592	592	592	592	591	591	590	590	590	590	590	588	588	587	586	583	582	582	580	578	577	575	574	572	570	569	566	565	564	562	561	560	559	557	555	554	553	552	550	549	549	548	547	546	546	544	544	544	544	544	544	544	545	546	547	548	549	550	551	554	555	557	560	561	563	564	565	567	569	570	572	572	572	572	573	573	572	572	571	569	569	569	568	568	568	567
