981	981	981	981	981	981	981	981	982	985	988	990	993	993	995	1001	1007	1011	1017	1024	1029	1038	1042	1046	1056	1059	1063	1070	1073	1074	1074	1074	1074	1074	1071	1069	1065	1063	1060	1056	1054	1052	1052	1052	1052	1052	1052	1052	1052	1054	1056	1061	1066	1070	1079	1084	1088	1108	1113	1118	1128	1136	1144	1159	1162	1165	1181	1184	1187	1198	1204	1211	1222	1228	1235	1251	1261	1273	1290	1298	1306	1324	1332	1341	1353	1359	1364	1370	1371	1371	1371	1371	1371	1371	1371	1371	1371	1371	1371	1371	1371	1371	1371	1371	1371	1377	1379	1379	1384	1387	1394	1399	1402	1402	1407	1411	1418	1418	1418	1418	1423	1426	1426	1431	1436	1443	1443	1443	1451	1460	1468	1477	1487	1495	1504	1514	1523	1532	1536	1541	1551	1556	1561	1561	1561	1561	1570	1575	1581	1590	1591	1591	1600	1601	1601	1611	1612	1612	1621	1622	1622	1631	1637	1644	1652	1658	1666	1694	1711	1735	1765	1791	1838	1881	1914	1970	2018	2051	2103	2143	2171	2216	2245	2260	2277	2277	2277	2277	2277	2273	2256	2243	2236	2236	2223	2216	2216	2204	2196	2196	2196	2194	2177	2177	2177	2177	2177	2176	2158	2158	2158	2158	2148	2139	2139	2130	2121	2103	2103	2103	2085	2085	2085	2069	2060	2051	2051	2044	2034	2019	2011	2001	1987	1979	1970	1943	1933	1924	1898	1889	1880	1868	1861	1852	1796	1777	1760	1760	1229	0	907	1144	1144	259	246	933	933	931	926	926	925	923	918	915	912	912	911	909	907	905	902	900	899	896	890	886	883	877	873	868	866	864	859	857	856	853	850	847	847	847	847	847	845	844	844	846	847	844	844	844	844	844	844	844	845	847	850	850	850	850	850	850	847	846	844	841	840	838	831	828	824	816	811	806	795	788	778	778	776	771	771	752	703	690	682	671	664	660	653	648	646	645	644	642	640	639	638	636	636	636	635	634	633	631	629	628	628	627	627	627	627	627	625	625	625	625	625	625	627	629	631	640	652	662	686	699	711	771	771	771	805	819	833	855	864	874	874	875	877	877	877	877	877	877	877	877	877	877	877	876	874	871	870	868	868	866	862	860	859	859	857	855	853	853	852	850	850	850	850	850	850	850	848	846	844	842	841	841	839	838	838	838	838	841	843	845	850	852	854	859	861	863	868	870	871	871	871	871	871	871	871	868	868	868	868	868	868	868	868	868	868	867	865	865	864	862	862	861	859	853	852	850	845	842	838	834	831	827	820	817	814	807	805	803	801	799	795	795	794	793	789	788	788	786	784	783	783	783	783	781	780	780	782	783	783	783	784	788	791	793	795	795	795	798	800	801	801	802	803	803	803	803	806	809	811	816	819	822	827	829	830	833	833	833	838	840	841	841	842	844	844	844	844	847	847	847	847	847	847	847	847	847	847	847	847	847	847	847	847	846	844	844	844	844	844	843	841	841	841	841	839	838	838	838	837	836	836	836	836	834	833	833	833	833	833	831	830	830	830	830	830	830	830	827	827	827	827	827	827	830	830	830	830	832	833	833	833	833	836	837	838	838	838	838	838	838	838	836	836	836	833	833	833	833	833	833	833	833	833	833	833	833	833	832	830	830	830	830	830	829	827	824	824	824	824	824	824	826	826	824	824	823	822	822	821	819	813	810	808	808	808	806	806	806	808	808	809	811	814	816	816	818	819	822	823	824	824	823	822	819	817	816	811	808	805	798	793	790	783	779	776	771	768	766
985	988	990	993	993	994	997	1000	1001	1001	1001	1002	1005	1008	1011	1017	1024	1028	1034	1037	1040	1047	1053	1058	1065	1068	1072	1079	1079	1079	1079	1079	1078	1074	1071	1069	1065	1063	1060	1056	1056	1056	1052	1052	1052	1052	1052	1052	1056	1059	1061	1065	1068	1070	1079	1086	1093	1103	1108	1113	1128	1133	1138	1153	1159	1165	1175	1181	1187	1193	1198	1205	1216	1224	1235	1251	1261	1273	1290	1300	1313	1325	1332	1341	1353	1359	1364	1370	1373	1379	1379	1377	1371	1371	1371	1371	1371	1373	1379	1373	1371	1371	1371	1371	1371	1377	1380	1386	1386	1387	1394	1399	1402	1402	1407	1411	1418	1418	1418	1418	1423	1426	1426	1431	1435	1435	1440	1443	1451	1456	1461	1477	1482	1486	1495	1504	1513	1523	1527	1532	1541	1546	1551	1561	1561	1561	1561	1565	1571	1580	1581	1581	1590	1595	1601	1601	1605	1612	1612	1616	1622	1631	1637	1644	1652	1658	1666	1684	1699	1723	1743	1766	1811	1854	1881	1924	1970	2001	2051	2103	2134	2177	2219	2245	2277	2277	2281	2298	2284	2277	2277	2263	2253	2236	2236	2236	2236	2224	2216	2216	2204	2196	2196	2196	2195	2177	2177	2177	2177	2167	2158	2158	2148	2139	2139	2139	2139	2121	2112	2103	2103	2095	2085	2085	2077	2068	2052	2044	2034	2019	2004	1985	1971	1958	1939	1926	1913	1894	1870	1861	1852	1840	1834	1825	1771	1760	1760	332	0	0	907	1144	1144	259	248	937	934	931	926	926	925	923	920	918	916	913	911	909	909	908	906	903	901	896	890	886	883	879	876	871	867	865	862	858	856	853	850	847	847	845	844	844	844	844	844	846	847	844	844	844	847	847	847	847	847	847	850	850	850	850	850	850	845	844	844	839	837	836	826	820	814	803	797	790	776	773	773	777	543	0	554	694	682	672	666	658	652	649	645	644	643	643	642	641	641	639	638	638	638	638	636	635	634	631	630	630	630	629	628	627	627	627	627	627	627	625	625	625	627	629	630	636	646	655	676	689	701	728	743	759	789	805	822	846	857	868	871	872	874	874	875	877	877	876	874	874	874	874	871	870	868	868	867	865	860	858	856	856	855	853	851	850	850	848	847	847	847	847	847	847	847	847	845	843	841	841	840	838	838	838	838	838	838	841	843	845	850	852	853	856	860	862	865	867	868	871	871	871	868	868	868	868	868	868	868	868	868	868	868	868	868	867	865	865	865	865	862	861	859	856	854	850	845	842	838	836	833	827	823	819	814	809	806	803	801	800	798	798	797	795	793	792	790	788	787	785	785	785	785	784	783	783	783	783	783	784	786	788	791	793	795	795	795	798	798	798	801	802	803	806	806	806	808	812	814	816	819	822	824	827	830	833	833	833	836	836	836	838	839	841	841	841	841	844	844	844	844	844	844	844	844	844	844	844	844	844	844	844	844	844	844	841	841	841	841	840	838	838	838	838	836	836	836	836	836	836	834	833	833	833	833	833	831	830	830	830	830	830	830	830	830	830	830	827	827	827	827	827	827	830	830	830	830	832	833	833	833	833	836	836	836	836	836	836	836	836	836	836	836	836	833	833	833	833	833	833	833	833	833	833	833	833	833	832	830	830	830	830	827	826	824	824	824	824	824	824	824	824	824	824	824	823	822	820	818	816	812	810	806	804	803	803	803	803	803	805	806	808	810	812	814	815	816	819	819	819	819	819	819	816	815	814	811	808	806	801	796	793	785	782	780	773	770	768
991	994	996	997	999	1000	1003	1006	1008	1009	1011	1012	1016	1019	1022	1028	1033	1037	1043	1046	1049	1056	1061	1064	1070	1073	1076	1082	1082	1081	1079	1077	1076	1074	1071	1069	1065	1063	1061	1058	1057	1056	1054	1054	1054	1054	1054	1054	1058	1060	1061	1065	1068	1070	1079	1086	1093	1103	1108	1113	1128	1133	1138	1153	1159	1165	1173	1179	1187	1193	1198	1205	1216	1225	1238	1254	1263	1273	1293	1302	1313	1328	1335	1345	1357	1362	1368	1370	1373	1379	1379	1377	1371	1371	1371	1371	1374	1376	1379	1376	1376	1378	1378	1378	1378	1387	1391	1394	1394	1396	1406	1409	1410	1410	1415	1419	1422	1422	1422	1422	1424	1426	1426	1429	1431	1435	1440	1443	1451	1456	1460	1472	1477	1482	1495	1502	1508	1523	1527	1532	1541	1546	1551	1556	1558	1561	1561	1563	1566	1575	1578	1581	1586	1590	1596	1600	1603	1606	1611	1616	1622	1631	1635	1638	1647	1653	1660	1678	1691	1712	1731	1751	1792	1833	1859	1895	1940	1970	2018	2074	2107	2149	2197	2224	2256	2271	2281	2298	2298	2296	2288	2274	2265	2256	2250	2246	2246	2234	2226	2226	2214	2206	2206	2206	2205	2186	2186	2186	2177	2172	2167	2158	2153	2148	2139	2139	2139	2121	2117	2112	2103	2095	2085	2085	2077	2068	2052	2044	2034	2011	1999	1985	1964	1953	1939	1919	1903	1880	1862	1852	1838	1827	1822	1818	1770	1760	1760	332	0	0	907	1129	1091	649	630	938	936	934	930	928	927	924	921	918	916	913	912	910	908	907	904	902	899	893	889	885	882	878	875	870	867	865	860	858	856	852	849	847	847	845	844	844	844	844	844	845	846	844	844	844	845	846	846	846	846	847	850	849	848	848	848	848	843	842	842	839	836	833	821	814	806	794	787	778	762	759	759	459	272	0	546	685	674	666	661	654	650	647	645	644	643	643	642	641	641	640	639	639	639	639	637	636	635	633	632	632	632	630	629	628	628	628	628	628	627	626	626	626	627	629	630	636	644	652	672	685	697	722	737	752	783	799	815	841	853	865	871	872	874	874	875	876	876	875	874	873	872	871	870	868	866	865	864	862	858	856	853	853	852	850	848	847	847	846	846	846	846	846	846	846	846	846	843	842	841	840	839	838	838	838	838	838	838	841	843	845	850	852	853	856	860	862	865	867	868	870	870	869	868	868	868	868	868	868	868	868	868	868	868	868	868	867	865	865	864	864	862	861	859	856	854	850	846	843	840	836	833	827	823	819	815	809	807	804	802	801	800	798	798	796	796	795	792	791	790	789	788	788	788	787	786	786	786	786	786	786	787	789	792	793	795	796	797	798	798	798	800	802	803	806	807	807	810	812	814	818	820	822	824	826	829	832	832	833	834	834	834	837	838	838	839	840	840	842	842	842	842	842	842	842	842	842	842	842	842	842	842	842	842	842	842	840	840	840	840	839	837	837	837	837	835	834	834	834	834	834	832	832	832	832	832	832	830	830	830	829	828	828	828	828	828	828	828	827	827	827	827	827	827	830	830	830	830	832	833	833	833	833	834	834	835	836	836	836	836	836	836	836	836	836	833	833	833	833	833	833	833	833	833	832	832	832	832	831	830	829	828	828	826	825	823	823	823	823	824	824	824	824	824	823	823	822	820	818	817	815	810	807	804	802	802	800	800	800	800	803	804	806	808	809	811	813	814	816	817	818	818	818	817	815	813	812	810	807	806	801	797	794	786	784	781	776	773	770
997	1000	1001	1001	1004	1006	1009	1012	1014	1017	1020	1022	1026	1029	1032	1038	1042	1045	1052	1055	1058	1065	1069	1071	1074	1077	1080	1084	1084	1083	1079	1076	1074	1074	1071	1069	1065	1063	1061	1061	1058	1056	1056	1056	1056	1056	1056	1056	1061	1061	1061	1065	1068	1070	1079	1086	1093	1103	1108	1113	1128	1133	1138	1153	1159	1165	1171	1178	1187	1193	1198	1205	1216	1227	1241	1258	1265	1273	1296	1304	1313	1331	1339	1349	1361	1366	1371	1371	1373	1379	1379	1377	1371	1371	1371	1371	1377	1379	1379	1379	1381	1386	1386	1386	1386	1397	1402	1402	1402	1405	1418	1418	1418	1418	1423	1426	1426	1426	1426	1426	1426	1426	1426	1426	1427	1435	1440	1443	1451	1456	1460	1468	1473	1477	1495	1500	1504	1523	1527	1532	1541	1546	1551	1551	1556	1561	1561	1561	1561	1570	1575	1581	1581	1585	1591	1600	1601	1601	1611	1616	1622	1631	1633	1633	1642	1647	1654	1673	1684	1700	1718	1737	1773	1813	1836	1866	1910	1939	1985	2046	2080	2121	2175	2204	2236	2265	2281	2298	2312	2315	2298	2284	2277	2277	2264	2256	2256	2244	2236	2236	2224	2216	2216	2216	2214	2196	2196	2195	2177	2177	2176	2158	2158	2158	2139	2139	2139	2121	2121	2121	2103	2095	2085	2085	2077	2068	2052	2044	2034	2003	1994	1985	1957	1948	1939	1912	1893	1866	1854	1842	1825	1813	1811	1811	1769	1760	1760	332	0	0	907	1114	1038	1038	1012	940	938	936	933	930	928	926	921	918	916	913	912	912	908	905	902	900	898	890	887	885	880	876	873	868	866	864	859	857	856	850	848	847	847	845	844	844	844	844	844	844	844	844	844	844	844	844	844	844	845	847	850	849	847	847	847	847	842	841	841	838	835	830	816	808	798	785	777	766	749	745	745	141	0	0	539	676	667	660	656	651	647	646	645	644	643	643	642	641	641	640	640	640	640	640	638	637	636	635	634	633	633	632	631	630	630	630	628	628	628	627	627	627	627	629	630	635	642	648	669	681	693	717	731	745	777	792	808	837	849	862	870	872	874	874	874	874	874	874	874	871	870	868	868	867	865	862	861	859	857	854	850	850	849	847	845	844	844	844	844	844	844	844	844	844	844	844	842	841	841	839	838	838	838	838	838	838	838	841	843	845	850	852	853	856	860	862	865	867	868	868	868	868	868	868	868	868	868	868	868	868	868	868	868	868	868	867	865	865	864	862	862	861	859	856	854	850	847	845	841	837	833	827	823	820	816	809	807	806	804	802	801	799	798	798	798	797	795	793	793	793	791	790	790	790	790	790	789	788	788	788	788	790	792	793	795	797	798	798	798	798	798	801	803	806	807	808	811	813	814	819	821	822	824	826	827	830	832	833	833	833	833	836	836	836	838	838	838	841	841	841	841	841	841	841	841	841	841	841	841	841	841	841	841	841	841	838	838	838	838	837	836	836	836	836	834	833	833	833	833	833	831	830	830	830	830	830	830	830	830	828	827	827	827	827	827	827	827	827	827	827	827	827	827	830	830	830	830	832	833	833	833	833	833	833	833	836	836	836	836	836	836	836	836	836	833	833	833	833	833	833	833	833	833	830	830	830	830	830	830	827	827	827	824	823	822	822	822	822	824	824	824	824	823	822	822	821	819	817	815	814	808	805	801	801	800	798	798	798	798	800	801	803	805	806	808	810	811	814	815	816	816	816	816	814	812	811	808	807	806	801	798	795	788	785	783	778	775	773
1005	1008	1012	1017	1020	1023	1026	1029	1031	1034	1041	1043	1043	1046	1049	1056	1060	1062	1065	1069	1071	1074	1078	1080	1084	1084	1083	1079	1079	1078	1074	1074	1073	1070	1067	1065	1065	1063	1060	1056	1056	1056	1056	1056	1056	1056	1059	1061	1061	1063	1065	1070	1075	1079	1084	1089	1093	1103	1110	1118	1128	1133	1138	1153	1159	1165	1171	1176	1182	1192	1198	1205	1216	1227	1241	1258	1267	1279	1296	1307	1320	1338	1344	1349	1361	1366	1371	1377	1379	1379	1379	1379	1379	1379	1379	1379	1379	1381	1386	1386	1388	1394	1400	1402	1402	1413	1420	1426	1432	1435	1435	1440	1442	1435	1435	1435	1435	1435	1435	1435	1430	1426	1426	1426	1427	1435	1440	1443	1451	1456	1460	1468	1473	1477	1486	1495	1504	1513	1518	1523	1532	1536	1541	1541	1546	1551	1551	1555	1561	1561	1565	1571	1580	1581	1581	1590	1595	1601	1611	1616	1622	1622	1626	1633	1633	1637	1644	1662	1673	1688	1707	1722	1748	1777	1796	1825	1867	1891	1924	1981	2016	2068	2119	2151	2196	2224	2244	2277	2306	2323	2341	2326	2316	2298	2298	2298	2298	2285	2275	2256	2256	2254	2236	2224	2216	2216	2216	2215	2196	2196	2195	2177	2167	2158	2158	2148	2139	2121	2121	2121	2103	2103	2103	2086	2077	2068	2052	2044	2034	2003	1988	1970	1956	1942	1924	1897	1883	1866	1842	1828	1811	1811	1807	1798	1766	1745	1712	1712	1195	0	941	1145	1038	1038	1012	940	940	939	937	931	928	926	924	922	916	913	912	912	908	905	902	898	895	890	886	883	880	876	873	868	864	861	856	854	853	850	848	847	844	842	841	841	843	844	844	842	841	841	841	841	841	842	844	844	844	844	847	847	847	844	844	844	841	840	838	836	831	822	804	795	783	783	777	766	729	715	701	690	684	676	669	664	658	653	650	646	645	645	643	643	643	641	641	641	641	641	641	641	640	640	640	639	638	638	637	636	636	635	635	635	633	631	631	631	631	630	630	630	630	630	630	633	639	645	665	676	686	711	723	736	767	782	798	829	842	856	870	871	871	871	872	874	871	870	868	868	867	865	865	863	859	856	855	853	848	847	847	842	841	841	841	841	841	841	841	841	841	841	841	841	841	841	841	840	838	838	838	836	836	836	838	838	838	841	843	845	850	852	853	856	858	860	865	867	868	868	868	868	868	866	865	865	865	865	865	865	865	865	865	865	865	865	865	865	864	862	859	859	859	853	852	850	845	843	841	837	834	830	823	820	816	812	810	808	806	805	803	801	801	801	801	800	798	798	798	798	798	797	795	795	795	795	794	792	790	790	791	793	794	795	795	795	795	795	797	798	798	801	804	808	810	811	814	815	816	819	821	822	824	826	827	830	830	830	830	830	830	833	833	833	833	834	836	836	837	838	838	838	838	838	838	838	838	838	838	838	838	838	838	838	838	838	837	836	836	836	836	834	833	833	831	830	830	830	830	830	828	827	827	827	827	827	827	827	827	827	827	827	827	827	827	827	827	827	827	827	827	827	827	827	827	827	827	829	830	830	830	830	830	832	833	833	833	833	836	836	836	836	835	833	830	830	830	830	830	830	830	830	830	830	830	830	830	830	830	827	827	827	824	823	822	822	822	822	822	823	824	824	823	822	820	818	816	814	812	808	803	800	798	794	793	793	793	793	795	795	796	798	800	802	806	806	806	808	808	808	811	811	811	811	809	808	808	807	806	801	799	798	790	789	788	783	780	778
1009	1014	1018	1024	1028	1031	1034	1040	1042	1045	1051	1053	1054	1056	1058	1063	1066	1069	1072	1074	1075	1076	1078	1080	1082	1082	1081	1076	1076	1076	1072	1072	1071	1068	1065	1063	1063	1060	1058	1056	1056	1056	1056	1056	1056	1058	1060	1061	1063	1065	1068	1072	1077	1082	1086	1091	1096	1108	1113	1118	1130	1135	1141	1154	1159	1165	1171	1176	1182	1192	1198	1205	1216	1227	1241	1258	1267	1279	1296	1307	1320	1338	1345	1352	1362	1368	1375	1378	1379	1379	1382	1382	1382	1382	1382	1382	1386	1387	1390	1393	1396	1402	1408	1411	1414	1426	1432	1438	1445	1448	1452	1452	1451	1448	1445	1442	1439	1437	1435	1435	1432	1430	1426	1426	1427	1435	1440	1443	1451	1453	1456	1464	1468	1473	1482	1491	1500	1508	1513	1518	1527	1532	1536	1536	1541	1546	1551	1553	1556	1561	1563	1566	1575	1578	1581	1585	1590	1596	1605	1610	1617	1617	1621	1628	1632	1637	1644	1657	1665	1677	1695	1710	1736	1764	1781	1805	1841	1865	1902	1952	1987	2043	2092	2125	2177	2204	2226	2266	2295	2314	2341	2334	2328	2320	2312	2308	2308	2295	2286	2277	2271	2265	2246	2234	2226	2226	2220	2215	2206	2201	2195	2177	2172	2167	2158	2148	2139	2130	2126	2121	2103	2103	2103	2086	2077	2068	2052	2044	2034	1996	1983	1970	1949	1935	1916	1890	1876	1859	1835	1824	1811	1805	1800	1792	1760	1741	1712	1712	1195	0	941	1166	1112	653	631	942	940	939	937	931	928	926	924	922	916	913	912	910	907	905	902	898	895	888	885	883	880	876	873	868	864	861	856	854	853	850	848	847	844	842	841	841	842	842	842	842	841	841	841	841	841	842	842	842	843	844	845	846	846	843	842	842	840	839	838	835	828	818	798	791	783	783	647	383	654	704	692	682	677	670	664	660	654	650	647	644	644	644	643	642	642	641	641	641	641	641	641	641	641	640	640	640	640	640	639	638	638	637	636	636	634	633	633	632	632	632	632	632	632	632	632	633	639	644	664	674	685	709	722	736	764	778	794	825	839	854	870	871	871	871	872	872	870	869	868	867	865	864	862	860	858	855	853	850	846	845	844	840	840	840	840	840	840	840	840	840	840	840	840	841	841	840	840	839	838	837	837	836	836	836	838	838	838	841	843	845	850	852	853	856	858	859	864	865	866	866	866	866	866	865	864	864	864	864	864	864	864	865	864	864	864	864	864	864	862	860	859	858	858	853	851	848	844	842	840	836	834	830	824	821	818	813	811	810	807	806	804	804	804	804	804	803	802	802	802	800	800	800	798	798	798	796	794	793	792	792	792	793	794	794	795	795	795	795	797	798	800	802	804	808	810	811	814	815	816	819	821	822	824	825	826	828	828	828	828	828	828	832	832	832	832	832	833	834	835	836	837	837	837	837	837	837	837	837	837	837	837	837	837	837	837	837	836	834	834	834	834	832	832	832	829	828	828	828	828	828	827	827	827	826	826	826	826	826	826	826	826	826	826	826	826	826	827	827	826	826	826	826	826	827	827	827	827	828	829	830	830	830	830	832	833	833	833	833	834	834	834	834	833	832	830	830	830	830	829	828	828	829	830	829	828	828	828	828	828	826	826	826	823	822	820	820	821	822	822	823	824	824	823	822	820	818	815	813	811	807	801	799	796	793	791	790	790	791	792	792	793	796	797	799	804	804	805	807	807	807	808	808	808	808	808	807	807	806	804	802	800	798	792	791	789	784	782	780
1013	1020	1024	1030	1037	1040	1043	1050	1053	1056	1060	1062	1065	1065	1066	1070	1073	1075	1079	1079	1079	1079	1079	1079	1079	1079	1078	1074	1074	1073	1070	1070	1069	1065	1062	1061	1061	1058	1056	1056	1056	1056	1056	1056	1056	1061	1061	1061	1065	1068	1070	1074	1079	1084	1088	1093	1098	1113	1115	1118	1133	1138	1144	1154	1159	1165	1171	1176	1182	1192	1198	1205	1216	1227	1241	1258	1267	1279	1296	1307	1320	1338	1346	1356	1363	1369	1379	1379	1379	1379	1385	1386	1386	1386	1386	1386	1392	1394	1394	1400	1404	1410	1416	1420	1426	1438	1445	1451	1457	1461	1468	1463	1460	1460	1454	1450	1443	1438	1435	1435	1435	1434	1426	1426	1427	1435	1440	1443	1451	1451	1451	1460	1464	1468	1477	1486	1495	1504	1508	1513	1523	1527	1532	1532	1536	1541	1550	1551	1551	1560	1561	1561	1570	1575	1581	1581	1585	1591	1600	1605	1612	1612	1615	1622	1631	1637	1644	1652	1658	1666	1683	1698	1723	1752	1767	1785	1815	1838	1880	1923	1957	2018	2066	2100	2158	2185	2207	2256	2285	2305	2341	2341	2341	2341	2327	2319	2319	2306	2298	2298	2285	2275	2256	2244	2236	2236	2225	2216	2216	2205	2195	2177	2177	2177	2158	2148	2139	2139	2130	2121	2103	2103	2103	2086	2077	2068	2052	2044	2034	1989	1979	1970	1942	1927	1909	1883	1869	1852	1829	1820	1811	1800	1794	1785	1754	1736	1712	1712	1195	0	941	1187	1187	269	249	944	941	939	937	931	928	926	924	922	916	913	911	909	907	905	902	898	894	886	884	883	880	876	873	868	864	861	856	854	853	850	848	847	844	842	841	841	841	841	841	841	841	841	841	841	841	841	841	841	842	844	844	844	844	841	841	841	838	838	838	834	826	814	793	787	783	783	517	0	580	694	684	675	671	665	659	656	651	647	645	643	643	643	643	642	641	641	641	641	641	641	641	641	641	641	641	641	641	641	640	640	640	639	638	636	636	636	635	634	633	633	633	633	633	633	633	633	638	643	662	673	684	707	721	736	761	775	790	821	836	853	870	871	871	871	871	871	868	868	868	865	864	862	859	858	856	853	851	847	845	843	841	839	838	838	838	838	838	838	838	838	838	838	838	840	840	838	838	838	838	837	836	836	836	836	838	838	838	841	843	845	850	852	853	856	858	859	862	864	865	865	865	865	865	863	862	862	862	862	862	862	862	865	864	862	862	862	862	862	861	859	859	858	856	853	851	847	844	842	838	836	834	830	825	822	819	815	813	811	809	807	806	806	806	806	806	806	806	806	805	803	803	803	801	801	800	798	794	793	793	793	793	793	793	793	795	795	795	795	797	798	801	802	804	808	810	811	814	815	816	819	821	822	824	824	824	827	827	827	827	827	827	830	830	830	830	830	830	833	833	833	836	836	836	836	836	836	836	836	836	836	836	836	836	836	836	836	835	833	833	833	833	831	830	830	828	827	827	827	827	827	827	827	827	825	824	824	824	824	824	824	824	824	824	824	824	826	827	827	825	824	824	824	824	827	827	827	827	827	827	830	830	830	830	832	833	833	833	833	833	833	833	833	832	830	830	830	830	830	829	827	827	828	830	827	827	827	827	827	827	824	824	824	822	821	819	819	820	822	822	823	824	824	823	822	820	818	814	812	810	806	800	797	793	791	790	788	788	788	790	790	791	793	794	796	801	802	803	806	806	806	806	806	806	806	806	806	806	804	803	803	800	798	795	792	790	785	784	783
1021	1029	1034	1043	1050	1055	1061	1064	1067	1070	1077	1079	1079	1079	1080	1084	1084	1084	1084	1084	1083	1079	1079	1078	1074	1071	1069	1065	1065	1065	1065	1062	1061	1061	1058	1056	1056	1056	1056	1056	1056	1056	1061	1061	1061	1061	1063	1065	1065	1070	1074	1079	1084	1088	1093	1098	1103	1113	1118	1123	1133	1138	1144	1154	1159	1165	1171	1176	1182	1192	1198	1205	1216	1227	1241	1258	1267	1279	1296	1307	1320	1338	1346	1356	1368	1374	1379	1385	1386	1386	1386	1386	1386	1392	1394	1394	1394	1398	1410	1416	1418	1418	1430	1437	1443	1455	1462	1468	1474	1479	1486	1486	1485	1477	1471	1467	1460	1454	1451	1451	1446	1442	1435	1435	1435	1435	1440	1443	1451	1451	1451	1460	1464	1468	1477	1482	1486	1495	1499	1504	1513	1518	1523	1532	1536	1541	1541	1541	1541	1550	1555	1561	1561	1565	1571	1580	1581	1581	1590	1595	1601	1601	1605	1612	1620	1626	1633	1642	1647	1654	1664	1676	1700	1718	1733	1760	1779	1798	1838	1869	1897	1954	2000	2032	2085	2136	2165	2196	2251	2284	2319	2334	2344	2364	2349	2341	2341	2327	2319	2319	2294	2277	2277	2265	2254	2236	2236	2235	2216	2205	2195	2177	2167	2158	2139	2139	2139	2121	2121	2121	2103	2095	2085	2085	2077	2068	2052	2037	2018	1987	1972	1954	1927	1912	1894	1869	1861	1852	1829	1815	1798	1787	1785	1785	1754	1736	1712	1702	1700	1700	353	303	1070	1070	1036	940	940	939	937	931	928	926	924	922	919	914	911	909	907	905	899	895	892	886	882	880	877	875	873	868	864	861	856	854	853	850	848	847	847	845	844	841	841	841	841	843	844	841	841	841	841	841	841	841	841	841	844	843	841	838	837	836	833	833	833	825	817	806	792	790	790	119	239	705	690	683	674	668	665	660	656	653	648	646	644	643	641	641	641	641	641	641	641	641	641	641	641	643	643	643	643	643	643	643	643	643	643	642	641	641	640	640	638	637	636	635	635	635	635	635	635	635	639	643	658	668	678	701	713	726	753	768	783	813	829	847	867	869	871	871	870	868	868	867	865	862	861	859	856	855	853	850	849	847	842	840	838	838	838	838	838	838	838	838	838	838	838	838	838	838	838	838	838	838	836	836	836	836	837	838	838	840	841	844	846	847	850	852	853	856	858	859	862	862	862	862	862	862	862	862	862	862	862	862	862	862	862	862	862	862	862	861	859	859	858	856	853	853	853	850	848	844	841	840	838	836	834	830	825	823	822	817	815	814	812	811	811	811	811	811	809	808	808	808	807	806	806	805	803	802	800	798	796	795	793	793	793	793	793	793	795	795	795	795	797	798	801	804	806	808	810	811	814	815	816	819	821	822	824	824	824	824	824	824	824	824	824	827	827	827	827	828	830	830	830	830	830	831	833	833	833	833	833	833	833	833	833	833	833	833	833	830	830	830	830	830	830	828	827	827	827	826	824	824	824	824	824	824	824	824	824	824	824	824	824	824	824	824	824	824	824	824	824	824	824	824	824	824	824	824	826	827	827	827	827	830	830	830	830	830	830	830	830	830	830	830	830	830	829	827	827	827	827	827	827	827	827	827	827	827	827	827	824	824	824	824	824	824	822	821	819	819	820	822	822	823	824	822	821	819	817	815	811	809	806	801	795	792	788	786	785	785	785	785	785	787	788	790	792	793	795	799	801	801	802	803	803	803	803	803	803	803	803	803	803	801	801	801	795	794	793	790	789	788
1026	1033	1039	1048	1057	1061	1066	1071	1074	1077	1082	1084	1086	1086	1087	1088	1088	1088	1086	1083	1080	1076	1075	1073	1070	1067	1065	1063	1061	1060	1060	1059	1058	1058	1057	1056	1056	1056	1056	1056	1056	1056	1061	1061	1061	1063	1064	1065	1068	1071	1074	1079	1084	1088	1096	1101	1106	1116	1119	1123	1135	1141	1146	1157	1161	1165	1171	1176	1182	1192	1198	1205	1219	1228	1241	1258	1267	1279	1296	1307	1320	1338	1346	1356	1368	1374	1379	1385	1386	1386	1389	1390	1390	1396	1398	1398	1401	1405	1414	1420	1423	1426	1435	1442	1452	1460	1466	1472	1482	1488	1495	1495	1494	1486	1483	1480	1473	1465	1460	1460	1455	1451	1443	1443	1443	1443	1445	1447	1451	1451	1451	1460	1464	1468	1477	1482	1486	1495	1499	1504	1513	1518	1523	1527	1532	1536	1541	1541	1541	1550	1553	1556	1561	1563	1566	1575	1578	1581	1585	1590	1596	1600	1603	1606	1615	1620	1628	1636	1642	1649	1658	1668	1688	1706	1719	1742	1765	1782	1812	1842	1869	1924	1968	2000	2052	2100	2132	2177	2224	2255	2298	2319	2333	2352	2352	2351	2341	2334	2329	2319	2300	2287	2277	2265	2254	2236	2230	2225	2216	2205	2195	2177	2162	2148	2130	2130	2130	2112	2112	2112	2094	2086	2076	2068	2064	2060	2043	2028	2010	1980	1965	1946	1919	1908	1894	1863	1854	1845	1822	1811	1798	1787	1785	1785	1759	1742	1718	1690	1683	1683	349	303	1070	1070	1036	940	939	938	935	931	928	926	924	922	918	914	911	908	905	903	899	895	892	884	882	880	877	875	873	868	865	863	858	856	854	852	850	848	847	845	844	842	842	842	842	843	844	842	842	841	841	840	840	840	840	841	842	841	840	837	836	834	833	832	832	823	816	806	799	654	395	60	238	700	687	681	674	667	663	658	654	652	648	645	643	642	641	640	640	640	641	641	641	641	642	642	642	643	644	644	644	644	644	644	644	644	644	644	643	643	642	641	640	639	638	636	636	636	636	636	636	636	639	642	656	666	676	698	710	722	750	764	780	809	825	842	865	868	870	870	869	868	867	865	864	861	859	858	854	852	852	849	847	844	840	839	838	838	838	838	838	838	838	837	837	837	837	837	837	838	838	837	837	837	836	836	836	836	837	838	838	840	841	844	846	847	850	852	853	856	857	858	860	861	862	862	862	862	862	862	862	862	862	862	862	862	862	862	861	860	860	860	859	858	856	854	853	852	852	849	847	844	840	839	837	836	834	830	826	824	822	818	817	815	814	813	812	812	812	812	811	811	810	808	807	806	805	804	803	802	800	798	796	795	793	793	793	793	793	793	795	796	796	796	797	798	801	804	806	808	810	811	814	815	816	819	821	822	823	823	823	824	824	824	824	824	824	826	826	826	826	827	828	828	828	828	828	829	830	830	831	832	832	832	832	832	832	832	832	832	832	829	828	828	828	828	827	826	825	824	824	824	823	823	823	823	823	823	822	822	822	822	823	823	823	823	823	823	823	823	823	823	823	824	824	824	824	824	824	824	825	826	827	827	827	828	828	828	828	828	828	828	828	828	828	828	828	828	827	826	826	826	826	826	826	826	826	826	826	826	826	826	824	824	824	823	823	823	822	821	819	819	820	822	823	823	824	822	821	819	815	812	810	808	805	800	793	790	786	784	782	782	782	783	784	786	787	789	791	792	794	798	800	801	802	802	802	802	802	802	802	802	802	802	802	801	801	801	796	795	794	792	791	789
1030	1037	1043	1052	1063	1067	1070	1077	1081	1084	1087	1089	1093	1093	1093	1093	1093	1092	1088	1081	1078	1074	1071	1069	1065	1062	1061	1061	1058	1056	1056	1056	1056	1056	1056	1056	1056	1056	1056	1056	1056	1056	1061	1061	1061	1065	1065	1065	1070	1072	1074	1079	1084	1088	1098	1103	1108	1118	1120	1123	1138	1143	1149	1160	1162	1165	1171	1176	1182	1192	1198	1205	1221	1230	1241	1258	1267	1279	1296	1307	1320	1338	1346	1356	1368	1374	1379	1385	1386	1386	1392	1394	1394	1400	1402	1402	1408	1412	1418	1424	1428	1435	1441	1447	1460	1466	1470	1477	1489	1497	1504	1504	1503	1495	1495	1494	1486	1475	1468	1468	1463	1459	1451	1451	1451	1451	1451	1451	1451	1451	1451	1460	1464	1468	1477	1482	1486	1495	1499	1504	1513	1518	1523	1523	1527	1532	1540	1541	1541	1550	1551	1551	1560	1561	1561	1570	1575	1581	1581	1585	1591	1599	1601	1601	1610	1615	1622	1631	1636	1644	1652	1661	1677	1695	1706	1723	1751	1766	1785	1814	1841	1894	1937	1967	2018	2065	2099	2158	2197	2226	2277	2305	2322	2341	2356	2361	2341	2341	2339	2319	2306	2296	2277	2265	2254	2236	2225	2216	2216	2205	2195	2177	2157	2139	2121	2121	2121	2103	2103	2103	2085	2077	2068	2052	2051	2051	2035	2020	2001	1972	1957	1939	1912	1903	1894	1857	1847	1838	1815	1806	1798	1787	1785	1785	1764	1748	1723	1677	1666	1666	346	303	1070	1070	1036	940	938	936	933	930	928	926	924	922	916	913	911	906	903	901	899	895	891	883	881	880	877	875	873	868	866	864	859	857	856	853	851	850	847	845	844	844	844	844	844	844	844	844	843	841	841	840	838	838	839	841	841	840	838	836	835	833	833	832	830	820	814	806	806	517	0	0	236	695	684	679	673	666	662	657	652	650	648	644	642	640	640	640	640	640	640	641	641	641	643	643	643	643	644	645	646	646	646	646	646	646	646	645	645	645	644	643	641	640	640	638	637	636	636	636	636	636	639	641	653	664	674	695	707	719	747	761	776	805	820	838	863	866	868	868	868	868	865	864	862	859	858	856	851	850	850	847	845	841	839	838	838	838	838	838	838	838	838	836	836	836	836	836	836	837	838	836	836	836	836	836	836	836	837	838	838	840	841	844	846	847	850	852	853	856	856	856	859	861	862	862	862	862	862	862	862	862	862	862	862	862	862	862	861	859	859	859	859	856	855	853	853	852	850	847	846	844	839	837	836	836	834	830	827	825	822	819	818	816	816	815	814	814	814	814	814	813	811	809	807	806	804	803	803	802	800	798	796	795	793	793	793	793	793	793	795	797	798	798	798	798	801	804	806	808	810	811	814	815	816	819	821	822	822	822	822	824	824	824	824	824	824	824	824	824	824	825	827	827	827	827	827	827	827	827	828	830	830	830	830	830	830	830	830	830	830	827	827	827	827	826	824	824	823	822	822	822	822	822	822	822	822	821	819	819	819	819	821	822	822	822	822	822	822	822	822	822	822	824	824	824	824	824	824	824	824	824	827	827	827	827	827	827	827	827	827	827	827	827	827	827	827	827	826	824	824	824	824	824	824	824	824	824	824	824	824	824	824	824	824	822	822	822	822	821	819	819	820	822	824	824	824	822	821	819	813	810	808	806	804	798	792	789	785	781	780	780	780	781	783	784	786	788	789	791	793	796	798	801	801	801	801	801	801	801	801	801	801	801	801	801	801	801	798	796	795	795	792	790
1026	1040	1047	1056	1068	1073	1079	1086	1090	1093	1097	1099	1103	1099	1097	1093	1093	1091	1084	1077	1072	1065	1062	1060	1056	1053	1052	1052	1049	1047	1047	1047	1047	1047	1047	1047	1047	1050	1052	1052	1054	1056	1061	1061	1061	1065	1068	1070	1070	1072	1074	1084	1089	1093	1103	1106	1108	1118	1123	1128	1138	1143	1149	1160	1162	1165	1175	1181	1187	1193	1200	1211	1222	1230	1241	1258	1267	1279	1296	1307	1320	1332	1341	1356	1368	1374	1379	1385	1388	1394	1394	1396	1402	1402	1404	1410	1416	1420	1426	1433	1437	1443	1455	1462	1468	1481	1488	1495	1507	1515	1523	1523	1523	1523	1517	1512	1504	1498	1494	1486	1481	1476	1468	1463	1460	1460	1460	1460	1460	1464	1468	1468	1468	1468	1477	1482	1486	1495	1499	1504	1513	1518	1523	1523	1527	1532	1540	1541	1541	1541	1545	1551	1551	1555	1561	1570	1571	1571	1580	1581	1581	1589	1591	1591	1599	1605	1612	1620	1625	1633	1642	1650	1666	1675	1683	1700	1717	1729	1748	1775	1797	1838	1878	1903	1939	1982	2014	2068	2129	2168	2216	2256	2283	2319	2319	2319	2319	2319	2317	2298	2285	2275	2256	2244	2234	2216	2216	2215	2196	2186	2176	2139	2129	2121	2103	2094	2085	2085	2077	2068	2068	2060	2051	2035	2027	2018	2002	1994	1985	1956	1942	1924	1897	1888	1880	1855	1842	1825	1813	1802	1785	1785	1785	1785	1743	1713	1666	1622	1612	1612	335	304	1074	1074	1038	937	934	932	929	927	926	926	921	918	916	911	908	906	903	901	896	892	888	880	878	877	877	875	873	868	866	865	862	862	862	859	857	856	853	851	850	847	847	847	847	845	844	844	843	841	841	840	838	838	838	838	841	839	836	836	834	830	830	829	827	817	816	816	108	0	0	602	703	691	680	674	667	663	660	657	652	650	646	644	642	638	638	638	638	639	640	641	641	641	643	644	645	645	646	646	648	648	648	650	650	650	650	649	648	648	646	645	645	644	643	640	640	640	638	638	638	638	639	640	650	660	669	689	701	713	740	754	768	797	812	830	857	862	865	865	864	862	859	859	859	854	852	850	847	847	847	844	843	841	839	837	836	836	836	836	836	836	836	836	836	836	836	836	836	836	836	836	836	836	836	836	836	838	838	839	841	843	844	844	846	847	850	852	853	856	856	856	856	858	859	859	859	859	859	859	859	859	859	859	859	859	859	859	858	856	856	855	853	853	852	850	847	847	847	844	843	841	838	837	836	833	832	830	827	826	824	822	821	819	819	818	816	816	816	816	816	815	814	812	810	808	804	803	803	802	800	798	796	795	793	793	793	795	795	796	798	800	801	801	801	801	803	805	807	811	813	814	814	815	816	819	821	822	822	822	822	822	822	822	822	822	822	822	822	822	824	824	824	824	824	824	824	824	824	824	824	824	824	825	827	827	827	827	827	827	827	824	824	824	824	823	822	822	821	819	819	819	819	819	819	819	819	819	819	819	819	819	819	819	819	819	820	822	822	822	822	822	822	822	822	822	822	822	822	822	822	822	824	824	824	824	824	824	824	824	824	824	824	824	824	824	824	822	822	822	822	822	822	822	822	822	822	822	822	822	822	822	822	822	822	822	821	819	819	819	819	819	819	819	819	820	822	820	817	814	809	807	803	801	799	795	787	784	780	779	778	778	778	778	780	782	783	785	788	790	790	793	795	798	798	798	798	800	801	801	801	801	801	801	801	801	801	801	798	798	798	795	794	793
1024	1038	1045	1054	1065	1072	1082	1089	1093	1098	1100	1102	1106	1100	1097	1096	1090	1086	1079	1072	1067	1060	1058	1055	1052	1049	1047	1045	1043	1042	1042	1042	1042	1042	1044	1045	1045	1048	1050	1052	1053	1054	1058	1060	1061	1065	1068	1070	1070	1074	1077	1086	1090	1093	1103	1106	1108	1118	1123	1128	1138	1143	1149	1160	1164	1168	1176	1181	1187	1195	1202	1211	1225	1232	1241	1258	1267	1279	1296	1305	1316	1331	1340	1352	1365	1371	1379	1385	1388	1394	1397	1399	1402	1405	1408	1414	1420	1424	1430	1437	1441	1447	1459	1467	1477	1490	1497	1504	1517	1524	1532	1532	1532	1532	1526	1521	1514	1508	1503	1495	1490	1485	1477	1472	1468	1468	1468	1468	1468	1471	1472	1472	1475	1477	1482	1486	1490	1500	1504	1508	1513	1518	1523	1527	1530	1532	1540	1541	1541	1541	1545	1551	1551	1555	1561	1565	1568	1571	1575	1576	1576	1584	1586	1586	1594	1599	1606	1615	1620	1628	1636	1643	1655	1663	1670	1683	1700	1712	1730	1752	1770	1806	1844	1868	1902	1950	1982	2034	2088	2126	2187	2220	2243	2278	2291	2298	2298	2298	2297	2288	2275	2265	2246	2234	2224	2206	2201	2195	2177	2167	2157	2130	2120	2112	2094	2085	2076	2068	2060	2051	2043	2039	2034	2018	2010	2002	1986	1979	1970	1941	1927	1909	1889	1881	1873	1848	1837	1825	1813	1802	1785	1780	1777	1772	1736	1702	1644	1597	1586	1586	329	152	537	537	642	935	932	931	929	926	924	924	921	918	914	911	908	904	902	899	894	890	887	880	878	877	876	874	872	870	868	866	862	862	862	859	858	857	854	852	850	848	848	847	847	846	846	844	843	841	841	840	838	838	838	838	839	838	836	835	833	830	830	829	827	817	816	816	108	0	0	602	703	691	680	674	667	663	660	655	651	648	646	643	641	638	638	638	638	639	640	641	641	641	643	644	645	645	646	646	648	649	649	650	650	650	650	650	649	649	647	646	646	645	644	640	640	640	639	638	638	638	639	639	648	657	666	686	698	709	735	749	764	792	807	824	853	858	864	862	861	860	858	857	856	852	850	848	846	845	844	843	841	840	837	837	836	835	834	834	836	836	836	835	834	834	834	835	836	836	836	836	836	836	836	836	836	838	839	840	841	843	844	846	846	847	850	852	853	854	855	856	856	857	858	858	858	858	858	858	858	858	858	858	858	858	858	858	856	854	854	854	853	852	850	848	846	846	846	843	841	840	837	837	836	833	832	830	829	827	826	823	822	820	820	820	819	818	818	818	816	815	814	812	811	810	806	804	803	802	801	800	797	796	796	796	796	796	798	798	800	800	801	802	803	804	804	807	809	811	813	814	815	816	816	819	821	822	822	822	822	822	822	822	822	821	820	820	820	820	823	823	823	823	823	823	823	823	823	823	823	823	823	824	826	826	826	826	826	826	826	824	824	823	823	822	820	820	820	819	818	818	818	818	818	818	818	818	818	819	819	819	819	819	819	819	819	820	822	822	822	822	822	822	822	822	822	822	822	822	822	822	823	823	823	823	823	823	823	823	823	823	823	823	823	822	822	820	820	820	820	820	820	820	820	820	820	820	820	820	820	820	820	820	820	820	819	818	818	817	816	816	817	818	819	819	819	817	815	811	807	805	802	800	798	792	786	783	779	778	777	777	778	778	780	782	783	785	788	789	790	793	795	798	798	798	798	799	800	801	801	801	801	801	801	801	801	801	800	799	798	795	794	794
1021	1035	1043	1052	1063	1071	1084	1091	1096	1103	1103	1104	1108	1100	1098	1098	1087	1082	1074	1067	1063	1056	1053	1051	1047	1044	1042	1038	1038	1038	1038	1038	1038	1038	1041	1043	1043	1045	1048	1052	1052	1052	1056	1059	1061	1065	1068	1070	1070	1075	1079	1088	1091	1093	1103	1106	1108	1118	1123	1128	1138	1143	1149	1160	1165	1171	1176	1181	1187	1198	1204	1211	1227	1234	1241	1258	1267	1279	1296	1304	1313	1331	1339	1349	1361	1369	1379	1385	1388	1394	1400	1402	1402	1408	1412	1418	1424	1428	1435	1441	1445	1451	1463	1472	1486	1499	1506	1513	1526	1534	1541	1541	1541	1541	1535	1531	1523	1517	1512	1504	1499	1494	1486	1481	1477	1477	1477	1477	1477	1477	1477	1477	1482	1486	1486	1491	1495	1504	1508	1513	1513	1518	1523	1532	1532	1532	1540	1541	1541	1541	1545	1551	1551	1555	1561	1561	1565	1571	1571	1571	1571	1579	1581	1581	1589	1594	1601	1610	1615	1622	1631	1636	1644	1652	1657	1666	1683	1694	1712	1729	1744	1773	1810	1834	1866	1917	1951	2001	2047	2083	2158	2183	2202	2236	2262	2277	2277	2277	2277	2277	2264	2254	2236	2224	2214	2196	2185	2176	2158	2148	2138	2121	2111	2103	2085	2076	2068	2051	2043	2034	2018	2018	2018	2002	1994	1985	1971	1963	1954	1926	1912	1894	1881	1874	1866	1841	1833	1825	1813	1802	1785	1775	1769	1760	1729	1691	1622	1573	1561	1561	324	0	0	0	246	933	930	929	929	925	923	923	920	918	912	910	908	902	900	898	893	888	885	880	878	877	874	872	871	871	869	867	862	862	862	859	859	859	856	853	850	850	848	847	847	847	847	844	843	841	841	840	838	838	838	838	838	837	836	833	832	830	830	829	827	817	816	816	108	0	0	602	703	691	680	674	667	663	659	653	649	647	645	642	640	638	638	638	638	639	640	641	641	641	643	644	645	645	646	646	648	649	650	651	651	651	651	650	650	650	649	648	646	645	645	641	641	641	640	639	638	638	638	638	645	655	664	684	694	705	730	744	759	787	802	819	848	855	862	859	859	859	856	855	853	850	849	847	844	843	841	841	840	838	836	836	836	834	833	833	835	836	836	834	833	833	833	834	836	836	836	836	836	836	836	836	836	838	840	841	841	843	844	847	847	847	850	852	853	853	855	856	856	856	856	856	856	856	856	856	856	856	856	856	856	856	856	856	855	853	853	853	853	850	849	847	844	844	844	841	840	838	836	836	836	833	832	830	830	829	827	824	823	822	822	822	822	820	819	819	817	815	814	812	811	811	807	805	803	803	803	801	799	798	798	798	798	798	800	801	801	801	801	803	805	806	806	809	811	811	813	814	816	816	816	819	821	822	822	822	822	822	822	822	822	820	819	819	819	819	822	822	822	822	822	822	822	822	822	822	822	822	822	823	824	824	824	824	824	824	824	824	823	822	822	821	819	819	819	819	817	816	816	816	816	816	816	816	816	818	819	819	819	819	819	819	819	819	821	822	822	822	822	822	822	822	822	822	822	822	822	822	822	822	822	822	822	822	822	822	822	822	822	822	822	820	819	819	819	819	819	819	819	819	819	819	819	819	819	819	819	819	819	819	819	819	818	816	816	815	814	814	815	816	818	818	816	814	812	808	804	802	801	799	796	790	785	782	778	777	776	776	777	778	780	782	783	785	787	788	790	792	794	798	798	798	798	798	798	801	801	801	801	801	801	801	801	801	801	799	798	795	795	795
1013	1027	1036	1047	1059	1065	1074	1085	1090	1093	1101	1103	1103	1099	1097	1093	1082	1078	1074	1064	1058	1047	1044	1042	1038	1035	1034	1034	1034	1034	1034	1034	1034	1034	1037	1038	1038	1041	1043	1047	1050	1052	1056	1059	1061	1065	1068	1070	1074	1077	1079	1088	1091	1093	1103	1108	1113	1123	1125	1128	1144	1149	1154	1165	1168	1171	1181	1187	1193	1204	1210	1217	1228	1236	1247	1264	1271	1279	1291	1300	1313	1325	1332	1341	1360	1366	1371	1377	1381	1386	1399	1404	1410	1416	1420	1426	1433	1435	1435	1447	1453	1460	1472	1481	1495	1501	1508	1523	1535	1543	1551	1551	1551	1551	1545	1541	1541	1535	1531	1523	1517	1512	1504	1499	1495	1495	1495	1495	1495	1495	1495	1495	1495	1495	1495	1500	1504	1513	1518	1523	1523	1527	1532	1532	1532	1532	1540	1541	1541	1541	1545	1551	1551	1551	1551	1560	1561	1561	1561	1561	1561	1569	1574	1581	1581	1584	1591	1599	1604	1612	1620	1625	1633	1642	1647	1654	1663	1669	1677	1694	1708	1735	1762	1781	1811	1849	1877	1924	1976	2012	2068	2115	2145	2177	2189	2199	2216	2228	2236	2236	2224	2214	2196	2185	2176	2158	2147	2138	2121	2111	2102	2085	2076	2067	2034	2026	2018	2001	2001	2001	1985	1978	1970	1955	1947	1939	1925	1917	1909	1895	1882	1866	1841	1833	1825	1801	1793	1785	1775	1768	1760	1750	1744	1735	1706	1662	1581	1565	1561	1561	324	0	0	0	245	926	926	926	926	921	919	919	917	915	912	908	905	899	897	895	890	885	882	877	875	874	871	871	871	868	866	865	862	862	862	859	859	859	856	854	853	850	850	850	850	848	847	847	846	844	841	840	838	838	838	838	838	837	836	833	832	830	827	826	824	815	806	793	793	509	0	604	705	693	681	675	669	662	657	651	647	645	641	639	637	636	636	636	636	637	638	640	641	641	643	644	645	646	646	647	650	650	650	651	651	651	651	651	651	650	649	648	648	647	646	645	643	641	640	640	640	636	636	636	643	651	658	678	688	699	729	739	750	779	794	811	845	852	859	859	858	856	853	852	850	847	846	844	841	840	838	838	837	836	834	833	833	833	833	833	833	833	833	833	833	833	833	833	833	835	836	836	836	836	836	836	836	838	840	841	841	843	844	847	847	847	850	850	850	853	853	853	853	853	853	853	853	853	853	853	853	853	853	853	853	853	853	853	852	850	850	849	847	847	846	844	841	841	841	838	837	836	833	833	833	830	830	830	830	829	827	827	826	824	824	824	824	822	822	822	820	818	816	814	813	811	811	810	808	808	808	806	804	803	803	803	803	803	803	804	806	806	806	806	806	806	808	810	811	814	814	814	816	816	816	819	819	819	819	819	819	819	819	819	819	819	819	816	816	816	816	817	819	819	819	819	819	819	819	819	820	822	822	822	822	822	822	822	822	822	822	819	819	819	819	818	816	816	815	814	814	814	814	816	816	816	816	816	816	816	816	816	816	816	816	816	817	819	819	819	819	819	819	819	819	819	819	819	819	819	819	819	819	819	819	819	819	819	819	819	819	819	819	819	816	816	816	816	816	816	816	815	814	814	815	816	816	816	816	816	816	816	814	814	814	814	813	811	811	811	811	811	811	811	813	814	814	812	809	806	802	799	795	793	792	788	782	779	776	774	773	773	775	776	778	781	783	785	787	788	790	792	794	798	798	798	798	798	798	801	801	801	801	801	801	801	801	801	801	799	798	798	796	795
1009	1021	1029	1040	1052	1059	1070	1079	1084	1090	1096	1098	1098	1094	1092	1088	1079	1075	1070	1060	1053	1042	1040	1038	1034	1029	1028	1028	1028	1028	1028	1029	1030	1030	1033	1034	1036	1039	1041	1045	1048	1050	1056	1059	1061	1065	1068	1070	1074	1077	1079	1088	1092	1096	1103	1108	1113	1123	1127	1130	1144	1150	1157	1165	1169	1174	1184	1189	1196	1204	1211	1220	1231	1238	1247	1264	1271	1279	1291	1299	1310	1324	1332	1341	1354	1360	1368	1374	1378	1386	1396	1400	1406	1412	1416	1422	1428	1432	1435	1447	1453	1460	1469	1475	1486	1495	1503	1518	1528	1534	1542	1544	1547	1551	1548	1546	1546	1540	1535	1528	1524	1522	1514	1508	1504	1504	1501	1500	1500	1500	1500	1500	1500	1500	1500	1504	1508	1513	1518	1523	1527	1530	1532	1536	1536	1536	1541	1541	1541	1541	1543	1546	1546	1548	1551	1555	1556	1556	1556	1558	1561	1565	1569	1576	1576	1579	1586	1594	1599	1606	1615	1620	1628	1636	1641	1649	1657	1663	1672	1684	1695	1718	1744	1761	1786	1822	1848	1888	1939	1973	2026	2072	2102	2140	2152	2162	2187	2199	2206	2206	2195	2185	2168	2162	2156	2130	2125	2120	2103	2093	2085	2060	2051	2043	2018	2006	1994	1986	1982	1978	1962	1955	1947	1932	1925	1916	1903	1896	1888	1874	1862	1846	1821	1813	1805	1782	1772	1760	1755	1748	1736	1726	1720	1712	1683	1635	1547	1539	1488	1374	755	426	0	368	594	924	923	922	922	919	918	918	915	913	910	906	903	898	895	894	890	884	881	877	874	872	871	870	869	868	866	865	862	862	862	859	859	859	856	854	853	852	851	850	850	849	848	848	846	844	841	840	840	840	840	840	838	837	836	833	832	830	827	826	824	815	806	793	793	643	374	663	708	695	682	676	669	662	657	651	647	644	640	638	637	636	636	636	636	637	638	640	640	641	643	644	645	646	646	647	649	649	649	650	650	650	650	650	650	649	648	648	647	646	645	644	642	641	640	639	639	636	636	636	642	649	656	676	686	697	724	735	748	777	792	808	842	850	858	858	857	856	852	851	850	846	844	842	840	839	838	837	836	834	833	833	833	833	833	833	833	833	833	833	833	833	833	833	833	835	836	836	836	836	836	837	837	838	840	841	842	843	844	847	847	847	850	850	850	852	852	852	852	852	852	852	852	852	852	852	852	852	852	852	852	851	850	850	849	848	848	847	846	844	843	842	840	839	838	837	836	834	833	833	833	830	830	830	830	829	828	827	826	826	826	825	824	823	823	823	821	820	818	816	814	812	811	811	810	810	809	807	806	806	806	805	804	804	804	805	807	807	807	807	808	809	810	810	811	814	814	814	816	816	816	819	819	819	819	819	819	818	818	818	818	818	818	816	816	815	815	816	816	816	816	816	817	818	818	818	818	819	819	820	820	820	820	820	820	820	820	819	818	818	818	817	816	816	815	814	814	814	814	815	815	815	815	815	815	815	815	815	815	815	816	816	816	818	818	818	818	818	818	818	818	818	818	818	818	818	818	818	818	818	818	818	818	818	818	818	818	818	818	817	815	815	815	814	814	814	814	813	812	812	813	814	814	814	814	814	814	814	813	812	812	811	810	808	808	808	808	808	808	808	811	811	811	809	807	804	799	797	794	791	789	786	781	778	776	774	773	773	775	776	778	781	783	785	787	788	790	792	794	798	798	798	798	798	798	801	801	801	801	801	801	801	801	801	800	799	798	798	796	795
1005	1015	1023	1034	1045	1053	1065	1072	1078	1088	1092	1093	1093	1089	1087	1084	1076	1072	1065	1055	1049	1038	1035	1033	1030	1024	1021	1021	1021	1021	1021	1024	1026	1026	1029	1031	1034	1036	1039	1043	1045	1048	1056	1059	1061	1065	1068	1070	1074	1077	1079	1088	1093	1098	1103	1108	1113	1123	1128	1133	1144	1152	1160	1165	1170	1176	1186	1192	1199	1205	1212	1223	1234	1240	1247	1264	1271	1279	1291	1298	1306	1324	1332	1341	1348	1354	1364	1370	1376	1386	1392	1396	1402	1408	1412	1418	1424	1428	1435	1447	1453	1460	1466	1470	1477	1490	1498	1513	1520	1525	1532	1538	1543	1551	1551	1551	1551	1545	1540	1532	1532	1531	1523	1517	1513	1513	1508	1504	1504	1504	1504	1504	1504	1504	1504	1509	1513	1513	1518	1523	1532	1532	1532	1541	1541	1541	1541	1541	1541	1541	1541	1541	1541	1545	1551	1551	1551	1551	1551	1555	1561	1561	1564	1571	1571	1574	1581	1589	1594	1601	1610	1615	1622	1631	1636	1644	1652	1657	1666	1674	1682	1700	1725	1740	1760	1796	1819	1852	1901	1934	1985	2029	2059	2103	2115	2126	2158	2170	2177	2177	2166	2156	2139	2139	2136	2103	2103	2102	2085	2076	2067	2034	2026	2018	2001	1985	1970	1970	1962	1954	1939	1932	1924	1910	1902	1894	1881	1874	1866	1853	1841	1825	1801	1793	1785	1763	1751	1735	1735	1727	1712	1702	1696	1688	1660	1609	1513	1513	1415	1187	1187	851	0	736	944	923	920	919	919	917	916	916	913	911	909	904	901	896	894	892	890	883	880	877	873	871	871	869	868	868	866	865	862	862	862	859	859	859	856	854	853	853	851	850	850	850	850	850	847	844	841	841	841	841	841	841	838	837	836	833	832	830	827	826	824	815	806	793	793	777	748	722	710	697	683	676	669	662	657	651	646	644	640	637	636	635	635	635	635	637	638	640	640	641	643	644	645	645	646	646	648	648	648	650	650	650	650	650	650	648	648	648	646	645	645	643	642	641	640	639	638	636	636	636	640	647	653	674	684	695	719	731	745	775	790	806	839	848	856	856	856	856	851	850	850	845	843	841	838	838	838	836	835	833	833	833	833	833	833	833	833	833	833	833	833	833	833	833	833	835	836	836	836	836	836	837	838	838	840	842	844	844	844	847	847	847	850	850	850	850	850	850	850	850	850	850	850	850	850	850	850	850	850	850	850	848	847	847	847	847	847	846	844	841	841	841	838	837	836	836	835	833	833	833	833	830	830	830	830	830	830	827	827	827	827	826	824	824	824	824	822	821	819	817	815	814	812	811	811	811	810	808	808	808	808	807	806	806	806	806	808	808	808	808	810	811	811	811	811	814	814	814	816	816	816	819	819	819	819	819	819	816	816	816	816	816	816	816	815	814	814	814	814	814	814	814	816	816	816	816	816	816	816	817	819	819	819	819	819	819	819	819	818	816	816	816	816	816	815	814	814	814	814	814	814	814	814	814	814	814	814	814	814	814	816	816	816	816	816	816	816	816	816	816	816	816	816	816	816	816	816	816	816	816	816	816	816	816	816	816	816	816	816	816	814	814	814	811	811	811	811	811	811	811	811	811	811	811	811	811	811	811	811	811	811	808	807	806	806	806	806	806	806	806	808	808	808	806	804	801	796	794	793	789	787	785	780	778	776	774	773	773	775	776	778	781	783	785	787	788	790	792	794	798	798	798	798	798	798	801	801	801	801	801	801	801	801	801	798	798	798	798	796	795
993	1007	1013	1021	1032	1040	1052	1059	1065	1074	1082	1085	1088	1085	1081	1074	1067	1063	1056	1046	1040	1030	1027	1024	1017	1014	1013	1013	1013	1013	1013	1016	1017	1017	1023	1027	1030	1035	1039	1043	1045	1048	1056	1059	1061	1065	1068	1070	1074	1079	1084	1088	1093	1098	1108	1113	1118	1123	1128	1133	1149	1154	1160	1171	1176	1182	1192	1196	1199	1216	1219	1223	1234	1242	1253	1265	1269	1273	1284	1291	1299	1311	1318	1327	1339	1346	1356	1362	1369	1379	1385	1388	1394	1400	1404	1410	1416	1420	1426	1433	1439	1451	1457	1462	1468	1474	1480	1495	1501	1506	1513	1520	1523	1523	1529	1532	1532	1532	1532	1532	1532	1531	1523	1523	1523	1523	1523	1522	1513	1513	1513	1513	1513	1513	1513	1513	1513	1523	1527	1532	1532	1536	1541	1541	1541	1541	1541	1541	1541	1541	1541	1541	1541	1541	1541	1541	1545	1551	1551	1551	1551	1559	1561	1561	1569	1574	1581	1589	1594	1601	1610	1615	1622	1622	1625	1633	1641	1644	1644	1651	1659	1677	1693	1705	1723	1749	1767	1798	1835	1862	1909	1949	1977	2018	2039	2055	2085	2096	2105	2121	2121	2119	2103	2092	2084	2068	2058	2050	2034	2025	2017	2001	1985	1970	1954	1946	1939	1924	1917	1909	1894	1887	1880	1867	1860	1852	1839	1832	1825	1812	1800	1785	1762	1750	1735	1715	1703	1688	1678	1673	1666	1656	1647	1633	1633	1595	1513	1513	1415	1187	1066	1018	977	935	922	919	917	915	912	912	912	912	910	908	906	901	898	896	892	889	886	882	880	877	873	871	871	869	868	868	866	865	865	865	865	865	863	862	859	857	856	853	853	853	853	853	853	850	849	847	847	846	844	844	843	841	838	838	838	833	832	830	830	829	827	815	807	795	779	766	748	725	714	701	687	679	669	663	659	651	645	642	638	636	634	633	633	633	633	635	636	638	639	640	641	642	643	643	644	645	645	646	646	648	648	648	648	647	646	646	645	645	645	644	643	641	640	640	638	637	636	635	635	635	636	642	648	669	679	689	715	727	741	767	783	801	834	843	853	853	852	850	850	849	847	844	843	841	838	837	836	836	835	833	833	833	833	833	833	833	833	833	833	833	833	833	833	833	833	835	836	836	836	836	836	837	839	841	841	842	844	846	847	847	847	847	850	850	850	847	847	847	847	847	847	847	847	847	847	847	847	847	847	847	847	847	847	844	844	844	844	843	841	841	840	838	836	836	836	833	832	830	830	830	830	830	830	830	830	830	830	830	830	830	828	827	827	827	826	824	824	823	822	820	818	816	812	811	811	809	808	808	808	808	808	808	808	808	808	809	811	811	811	811	811	811	811	813	814	814	814	814	816	816	816	816	816	816	816	816	816	816	815	814	814	814	814	814	813	811	811	811	811	811	812	814	814	814	814	814	814	814	814	815	816	816	816	816	816	817	819	819	818	816	816	816	816	814	814	814	814	813	811	811	811	811	811	811	811	811	812	814	814	814	814	814	814	814	814	814	814	815	816	814	814	814	814	814	814	814	814	814	814	814	814	814	814	814	814	814	814	811	811	811	811	809	808	806	806	806	803	803	803	806	805	803	803	804	806	808	807	806	806	805	803	803	803	803	803	803	803	801	801	801	801	801	801	801	799	795	791	789	788	786	784	783	779	777	773	773	773	773	775	776	778	781	783	785	788	790	790	793	795	798	798	798	798	798	798	801	801	801	801	801	801	801	801	801	798	798	798	798	796	795
987	997	1004	1013	1025	1032	1043	1052	1057	1065	1075	1079	1084	1080	1076	1070	1065	1060	1052	1042	1036	1028	1025	1022	1015	1012	1011	1011	1011	1011	1011	1015	1017	1017	1023	1027	1030	1034	1037	1040	1044	1048	1054	1058	1061	1065	1068	1070	1074	1079	1084	1090	1094	1098	1108	1113	1118	1123	1128	1133	1149	1154	1160	1173	1178	1184	1193	1197	1202	1216	1221	1226	1237	1244	1253	1265	1269	1273	1284	1290	1296	1307	1314	1324	1335	1341	1348	1355	1361	1372	1380	1385	1390	1399	1404	1410	1416	1420	1426	1433	1437	1443	1449	1454	1464	1470	1475	1486	1492	1497	1504	1510	1514	1514	1519	1522	1522	1522	1522	1522	1522	1523	1523	1523	1523	1523	1523	1523	1518	1518	1518	1513	1513	1513	1518	1518	1518	1523	1527	1532	1532	1534	1536	1536	1536	1536	1536	1536	1536	1541	1541	1541	1541	1541	1541	1541	1543	1546	1550	1551	1551	1559	1561	1561	1569	1574	1581	1585	1591	1601	1605	1609	1617	1621	1625	1633	1637	1640	1644	1648	1653	1666	1682	1693	1712	1732	1749	1779	1810	1834	1880	1915	1940	1986	2007	2022	2052	2062	2070	2086	2086	2085	2077	2067	2058	2043	2038	2033	2010	2001	1993	1978	1965	1954	1932	1924	1916	1902	1895	1888	1880	1870	1859	1846	1839	1832	1819	1812	1805	1793	1781	1766	1744	1732	1718	1697	1686	1671	1657	1649	1639	1625	1612	1592	1592	1543	1438	1381	1319	1205	1069	1017	973	934	922	919	915	914	912	910	909	909	908	907	904	901	898	894	891	889	886	882	880	877	873	871	871	869	868	868	867	866	866	866	866	866	865	863	862	860	859	858	857	856	856	856	856	853	852	852	850	849	847	847	846	844	843	842	841	836	834	833	832	830	828	816	807	795	779	769	756	730	719	705	690	682	671	665	659	651	645	641	637	635	633	632	632	632	632	635	636	636	638	639	640	641	642	642	643	643	644	644	645	646	646	646	646	645	644	644	644	643	643	642	641	640	639	638	636	635	634	633	633	633	634	640	646	666	677	688	713	726	741	765	781	800	833	842	852	852	851	850	849	847	846	843	841	840	837	837	836	836	835	834	833	833	833	833	833	833	833	833	833	833	833	833	833	833	834	836	836	836	837	837	837	838	839	841	842	843	844	845	846	847	847	847	848	848	848	846	846	846	846	846	846	846	846	845	844	844	844	844	845	845	844	844	844	842	842	842	841	840	840	839	838	837	835	834	834	832	831	830	829	828	828	828	828	828	828	828	828	830	829	828	827	827	827	827	826	824	823	822	820	819	818	815	812	811	810	808	808	808	808	808	808	808	808	808	808	809	811	811	811	811	812	812	812	813	814	814	815	815	816	816	816	816	816	816	816	815	815	815	814	814	812	812	812	812	812	811	810	810	810	811	812	812	812	812	812	812	813	814	814	815	816	816	816	816	816	817	818	818	817	816	815	815	815	813	812	812	812	812	810	810	810	810	810	810	810	810	810	811	812	812	812	812	812	812	814	814	814	815	815	812	812	812	812	812	812	812	812	813	812	812	813	814	814	814	812	812	812	810	810	809	808	807	806	804	803	802	801	800	800	802	801	800	800	802	804	804	804	804	802	801	800	800	800	800	800	800	800	798	798	798	798	798	798	798	797	794	790	788	786	785	783	782	779	777	773	773	773	773	775	777	779	782	784	786	789	790	792	794	795	798	798	798	798	798	798	801	801	801	801	801	801	800	800	799	798	797	796	796	796	795
981	988	994	1005	1018	1025	1034	1045	1050	1056	1067	1073	1079	1075	1072	1065	1062	1058	1047	1037	1032	1026	1022	1019	1013	1010	1009	1009	1009	1009	1009	1014	1017	1017	1023	1027	1030	1032	1034	1038	1043	1047	1052	1057	1061	1065	1068	1070	1074	1079	1084	1093	1096	1098	1108	1113	1118	1123	1128	1133	1149	1154	1160	1175	1181	1187	1193	1198	1205	1216	1222	1229	1240	1246	1253	1265	1269	1273	1284	1289	1293	1304	1311	1320	1332	1336	1341	1347	1354	1364	1376	1381	1386	1398	1404	1410	1416	1420	1426	1433	1435	1435	1441	1447	1460	1466	1470	1477	1483	1488	1495	1501	1504	1504	1510	1513	1513	1513	1513	1513	1513	1514	1523	1523	1523	1523	1523	1523	1523	1523	1523	1513	1513	1513	1523	1523	1523	1523	1527	1532	1532	1532	1532	1532	1532	1532	1532	1532	1532	1540	1541	1541	1541	1541	1541	1541	1541	1541	1550	1551	1551	1559	1561	1561	1569	1574	1581	1581	1587	1601	1601	1604	1612	1620	1625	1633	1633	1636	1644	1644	1646	1654	1670	1682	1700	1716	1730	1760	1786	1807	1852	1880	1903	1954	1974	1989	2018	2028	2036	2051	2051	2051	2051	2041	2033	2018	2018	2016	1985	1977	1969	1954	1946	1938	1909	1901	1894	1880	1873	1866	1866	1853	1838	1825	1819	1811	1799	1792	1785	1774	1763	1748	1725	1714	1700	1680	1668	1654	1636	1625	1612	1594	1577	1551	1551	1491	1364	1250	1223	1223	1073	1016	969	933	922	919	914	912	912	908	906	906	906	905	902	900	898	893	891	889	886	882	880	877	873	871	871	869	868	868	868	868	868	868	868	868	866	865	865	863	862	862	860	859	859	859	859	856	856	856	853	852	850	850	849	847	847	846	844	838	837	836	833	832	830	816	807	795	779	772	764	735	723	709	692	684	673	666	660	651	645	641	636	634	632	631	631	631	631	634	635	635	637	638	638	640	641	641	641	641	643	643	643	645	645	645	645	644	643	643	642	641	641	640	640	638	637	636	635	634	633	631	631	631	631	637	643	664	675	686	711	725	741	763	779	798	831	840	850	850	850	850	847	846	844	841	840	838	836	836	836	836	836	836	834	833	833	833	833	833	833	833	833	833	833	833	833	834	836	836	836	836	837	838	838	838	839	841	843	844	844	844	844	847	847	847	847	847	847	844	844	844	844	844	844	844	844	844	841	841	841	841	843	844	841	841	841	841	841	841	838	838	838	836	836	836	833	833	833	830	830	830	827	827	827	827	827	827	827	827	827	830	829	827	827	827	827	827	826	824	822	821	819	819	818	814	812	810	808	808	808	808	808	808	808	808	808	808	808	809	811	811	811	811	813	814	814	814	814	814	815	816	816	816	816	816	816	816	816	815	814	814	814	814	811	811	811	811	811	811	808	808	808	811	811	811	811	811	811	811	812	814	814	815	816	816	816	816	816	816	816	816	816	816	814	814	814	812	811	811	811	810	808	808	808	808	808	808	808	808	808	808	810	811	811	811	811	811	813	814	814	814	814	811	811	811	811	811	811	811	811	811	811	811	811	814	814	814	811	811	811	808	808	808	806	804	803	801	800	798	798	798	798	798	798	798	798	799	801	801	801	801	798	798	798	798	798	798	798	798	798	795	795	795	795	795	795	795	794	793	789	787	785	783	782	780	778	777	773	773	773	773	775	777	780	782	784	788	789	791	793	794	795	798	798	798	798	798	798	801	801	801	801	801	801	798	798	798	798	796	795	795	795	795
969	976	981	989	999	1006	1017	1024	1031	1043	1050	1056	1065	1065	1063	1056	1053	1049	1038	1032	1028	1021	1018	1016	1013	1010	1009	1009	1009	1009	1009	1012	1013	1013	1018	1022	1026	1028	1031	1038	1041	1044	1052	1057	1061	1065	1068	1071	1079	1082	1084	1093	1098	1103	1108	1113	1118	1128	1133	1138	1149	1157	1165	1176	1184	1193	1199	1204	1211	1222	1228	1235	1240	1246	1253	1265	1269	1273	1278	1282	1286	1297	1304	1313	1319	1324	1334	1340	1346	1356	1362	1368	1379	1384	1388	1394	1400	1404	1410	1416	1422	1435	1435	1437	1443	1449	1453	1460	1465	1468	1468	1474	1477	1477	1483	1487	1495	1495	1496	1504	1504	1505	1513	1513	1514	1523	1523	1523	1523	1523	1523	1523	1523	1523	1523	1523	1523	1523	1527	1532	1532	1532	1532	1532	1532	1532	1532	1532	1532	1532	1536	1541	1541	1541	1541	1541	1541	1541	1550	1551	1551	1559	1561	1561	1569	1574	1581	1581	1584	1591	1599	1604	1612	1612	1615	1622	1622	1625	1633	1641	1644	1644	1651	1659	1677	1693	1704	1723	1748	1766	1798	1824	1844	1880	1908	1928	1954	1973	1987	2001	2001	2001	2001	2001	2000	1985	1977	1969	1954	1938	1923	1909	1901	1893	1866	1859	1852	1838	1832	1825	1811	1811	1811	1798	1792	1785	1761	1755	1748	1736	1730	1723	1702	1687	1666	1646	1636	1622	1595	1584	1571	1546	1528	1504	1504	1459	1364	1250	1223	1223	254	272	962	936	926	919	911	909	909	907	905	902	902	901	899	897	895	893	891	889	883	881	880	877	873	871	871	871	871	868	868	868	871	871	871	871	869	868	868	868	868	865	865	865	862	862	862	862	861	859	859	858	856	853	853	853	853	850	847	844	842	838	836	834	830	820	812	801	785	776	764	743	731	715	698	689	676	667	661	651	643	639	635	632	631	630	630	630	631	632	633	635	635	636	638	638	638	638	639	640	640	641	641	641	641	641	641	641	641	640	640	640	638	638	638	636	635	635	633	632	631	630	630	630	630	634	638	657	667	678	703	728	757	757	772	790	822	834	847	844	844	844	844	843	841	838	837	836	833	833	833	833	833	833	833	833	833	833	833	833	833	833	833	833	833	833	835	836	836	836	836	838	838	838	838	840	841	841	841	842	844	844	844	844	844	844	844	844	844	841	841	841	841	841	841	841	839	838	838	838	838	838	838	838	838	838	838	838	838	838	836	836	836	833	833	833	830	830	830	827	827	827	827	827	827	827	827	827	827	827	827	827	827	827	827	826	824	824	824	824	822	821	819	819	818	814	812	810	808	808	808	808	808	808	808	808	808	808	810	811	811	813	814	814	815	816	816	816	816	816	816	816	816	816	816	816	816	816	814	812	811	811	811	811	808	808	808	808	808	808	808	808	808	808	808	808	808	809	811	811	812	814	814	814	814	816	815	814	814	814	814	814	814	814	812	811	811	809	808	808	808	807	806	806	806	806	806	806	806	806	806	808	808	808	808	808	808	808	810	811	811	811	811	811	811	811	811	811	811	808	808	808	808	810	811	811	811	811	811	811	811	808	807	806	803	802	801	798	797	795	793	793	793	790	790	790	790	791	793	795	795	795	795	795	795	795	795	795	793	793	793	790	790	790	790	790	790	792	792	790	786	784	783	781	780	780	778	778	776	776	776	776	777	778	780	782	784	788	789	791	793	794	795	798	798	798	798	798	798	798	798	798	798	798	798	798	796	795	795	795	795	793	793	793
964	970	975	983	991	997	1007	1017	1023	1032	1042	1048	1056	1058	1057	1052	1048	1045	1036	1030	1026	1021	1018	1016	1013	1009	1007	1007	1007	1007	1007	1010	1011	1011	1016	1020	1024	1028	1031	1036	1040	1044	1052	1057	1061	1065	1068	1071	1079	1082	1084	1093	1098	1103	1108	1113	1118	1128	1133	1138	1149	1157	1165	1178	1185	1193	1201	1207	1214	1225	1230	1235	1243	1249	1256	1265	1267	1270	1275	1280	1286	1294	1301	1310	1315	1320	1327	1336	1341	1348	1358	1363	1372	1377	1382	1390	1396	1400	1406	1412	1417	1426	1429	1431	1434	1440	1445	1452	1454	1456	1460	1462	1464	1464	1470	1474	1482	1482	1483	1490	1493	1495	1500	1502	1505	1514	1516	1518	1523	1523	1523	1523	1523	1523	1523	1523	1523	1523	1525	1528	1528	1528	1528	1528	1528	1528	1532	1532	1532	1532	1534	1536	1541	1541	1541	1541	1541	1541	1550	1551	1551	1559	1563	1566	1570	1574	1581	1585	1588	1591	1599	1603	1606	1611	1613	1617	1621	1623	1628	1636	1640	1644	1648	1652	1666	1682	1693	1712	1732	1748	1779	1805	1823	1852	1880	1899	1924	1943	1956	1970	1975	1978	1978	1978	1976	1962	1949	1939	1924	1912	1901	1888	1880	1873	1852	1845	1838	1824	1818	1812	1798	1792	1786	1773	1770	1766	1749	1742	1736	1724	1719	1712	1691	1675	1655	1635	1625	1612	1589	1577	1561	1536	1519	1495	1495	1234	682	625	612	612	127	272	962	938	928	919	911	909	908	905	904	902	901	900	899	897	895	892	889	887	883	881	880	877	873	871	871	871	871	870	870	870	871	871	871	871	870	869	868	868	868	865	865	865	864	864	864	864	862	860	860	860	859	856	856	856	855	853	850	846	843	840	837	835	832	820	813	804	788	779	768	747	735	720	705	695	679	668	661	651	643	639	634	632	631	630	630	630	630	632	632	634	635	635	636	637	637	638	639	639	639	639	640	640	640	640	640	640	639	639	638	638	636	636	635	634	634	633	632	631	630	629	629	629	629	633	636	654	664	674	698	717	739	752	767	784	816	828	842	842	842	842	842	841	840	837	837	836	833	832	832	832	832	832	832	832	832	833	833	833	833	833	833	833	833	834	836	836	836	837	837	838	838	838	838	840	841	841	841	841	842	842	842	842	842	842	842	842	842	840	840	840	840	840	839	838	838	837	837	837	837	837	837	837	837	837	837	837	837	837	835	834	834	832	832	832	829	828	828	826	826	826	826	826	826	826	826	826	826	826	826	826	826	826	826	825	824	824	824	824	822	821	819	819	818	815	813	812	810	808	808	808	808	808	810	810	810	810	811	811	812	813	814	815	816	816	816	816	816	816	816	816	816	815	815	815	815	815	812	812	811	810	810	809	808	807	807	807	807	807	808	808	808	808	808	808	808	809	811	811	812	812	812	813	814	815	815	814	814	814	814	813	812	812	810	810	810	807	807	807	807	807	806	806	806	806	806	806	806	806	806	807	807	807	807	807	807	807	808	808	808	808	808	808	808	808	808	808	808	807	807	807	807	808	809	810	810	810	810	809	808	807	806	804	802	800	798	796	794	792	791	790	789	788	788	788	788	788	789	791	792	792	792	792	792	792	792	792	792	792	792	790	790	789	789	789	789	790	790	788	785	783	782	780	779	779	778	778	776	776	776	777	778	780	782	783	785	789	790	791	793	794	795	798	798	798	798	798	798	798	798	798	796	796	796	796	796	795	794	794	794	793	792	792
958	965	970	977	984	989	997	1010	1015	1021	1034	1041	1047	1051	1051	1047	1044	1041	1034	1028	1025	1021	1018	1016	1013	1007	1005	1005	1005	1005	1005	1008	1009	1009	1014	1018	1021	1027	1030	1034	1039	1044	1052	1057	1061	1065	1068	1071	1079	1082	1084	1093	1098	1103	1108	1113	1118	1128	1133	1138	1149	1157	1165	1181	1187	1193	1204	1210	1217	1228	1231	1235	1246	1252	1260	1265	1266	1266	1272	1278	1286	1292	1297	1306	1312	1315	1320	1331	1336	1341	1353	1358	1364	1369	1375	1386	1392	1396	1402	1408	1412	1418	1424	1426	1426	1432	1437	1443	1443	1444	1451	1451	1451	1451	1457	1461	1468	1468	1469	1477	1482	1486	1486	1491	1496	1504	1509	1514	1523	1523	1523	1523	1523	1523	1523	1523	1523	1523	1523	1523	1523	1523	1523	1523	1523	1523	1531	1532	1532	1532	1532	1532	1540	1541	1541	1541	1541	1541	1550	1551	1551	1559	1564	1571	1571	1574	1581	1589	1591	1591	1599	1601	1601	1610	1612	1612	1620	1622	1622	1630	1635	1644	1644	1646	1654	1670	1681	1700	1716	1729	1760	1785	1802	1825	1851	1870	1894	1913	1926	1939	1948	1954	1954	1954	1953	1939	1922	1908	1894	1886	1879	1866	1859	1852	1838	1831	1825	1811	1805	1798	1785	1773	1760	1748	1748	1748	1736	1730	1723	1713	1707	1700	1679	1664	1644	1624	1614	1601	1584	1570	1551	1527	1510	1486	1486	1009	0	0	0	0	0	272	962	940	929	919	911	908	906	903	902	902	900	899	899	897	895	890	887	885	883	881	880	877	873	871	871	871	871	871	871	871	871	871	871	871	871	871	868	868	868	865	865	865	865	865	865	865	864	862	862	862	862	859	859	859	856	855	853	847	845	841	838	836	833	821	814	806	790	782	771	751	740	724	712	700	682	670	662	651	642	638	633	631	631	630	630	630	630	631	631	633	634	635	635	636	636	638	638	638	638	638	638	638	639	640	640	639	638	638	637	636	635	634	633	633	632	631	630	630	630	628	628	628	628	632	635	651	660	669	693	706	721	747	762	778	809	823	838	841	841	841	841	840	838	836	836	836	833	832	830	830	830	830	830	830	830	832	833	833	833	833	833	833	834	836	836	836	836	837	838	838	838	838	838	840	841	841	841	841	841	841	841	841	841	841	841	841	841	838	838	838	838	838	838	836	836	836	836	836	836	836	836	836	836	836	836	836	836	836	833	833	833	830	830	830	827	827	827	824	824	824	824	824	824	824	824	824	824	824	824	824	824	824	824	824	824	824	824	824	822	821	819	819	818	816	814	813	811	809	808	808	808	809	811	811	811	811	811	812	814	814	814	816	816	816	816	816	816	816	816	816	816	815	814	814	814	814	811	811	811	808	808	808	808	807	806	806	806	806	808	808	808	808	808	808	808	809	811	811	811	811	811	812	814	814	814	814	814	814	814	811	811	811	809	808	808	806	806	806	806	806	806	806	806	806	806	806	806	806	806	806	806	806	806	806	806	806	806	806	806	806	806	806	806	806	806	806	806	806	806	806	806	806	806	808	808	808	808	807	806	806	804	803	801	798	795	793	792	790	788	787	785	785	785	785	785	785	785	788	789	790	790	790	790	790	790	790	790	790	790	790	789	788	788	788	788	788	787	785	783	782	780	778	778	778	778	778	776	776	776	778	779	781	783	784	786	790	790	791	793	794	795	798	798	798	798	798	798	798	798	798	795	795	795	795	795	795	793	793	793	793	791	790
951	957	961	966	972	977	985	995	999	1005	1018	1024	1030	1036	1039	1043	1043	1041	1034	1028	1024	1017	1017	1016	1013	1007	1005	1005	1005	1005	1005	1008	1009	1009	1014	1018	1021	1027	1030	1034	1039	1044	1052	1057	1061	1065	1070	1074	1079	1084	1088	1093	1098	1103	1113	1116	1118	1128	1133	1138	1154	1159	1165	1181	1187	1193	1204	1210	1217	1228	1234	1241	1246	1249	1253	1259	1262	1266	1272	1275	1279	1291	1295	1299	1305	1308	1313	1319	1322	1327	1338	1345	1356	1362	1366	1371	1377	1381	1386	1398	1402	1402	1408	1412	1418	1418	1420	1426	1426	1428	1435	1435	1435	1435	1435	1436	1443	1448	1451	1451	1456	1461	1468	1473	1478	1495	1495	1496	1504	1509	1513	1513	1513	1513	1513	1513	1513	1523	1523	1523	1523	1523	1523	1523	1523	1523	1523	1527	1532	1532	1532	1532	1540	1541	1541	1541	1545	1551	1551	1555	1561	1561	1564	1571	1579	1581	1581	1589	1594	1601	1601	1601	1601	1610	1612	1612	1620	1622	1622	1622	1624	1633	1641	1646	1654	1662	1668	1677	1693	1704	1723	1747	1764	1785	1802	1815	1838	1855	1869	1894	1894	1895	1909	1900	1893	1880	1872	1865	1852	1844	1838	1825	1811	1798	1785	1785	1785	1773	1767	1760	1748	1742	1735	1735	1730	1723	1713	1707	1700	1689	1683	1677	1656	1646	1633	1605	1593	1581	1564	1551	1532	1508	1492	1468	1426	1418	1418	268	0	0	0	277	977	954	941	926	915	911	906	903	901	899	899	898	896	894	892	890	887	885	883	881	880	877	873	871	871	871	871	871	871	871	871	871	871	871	871	871	871	871	871	868	868	868	868	868	868	868	867	865	865	865	865	865	864	862	862	859	856	853	851	847	844	841	836	825	819	811	797	793	790	764	751	734	713	709	709	677	664	653	643	638	633	631	631	630	630	630	630	631	631	631	632	633	633	634	635	635	635	635	635	635	635	636	636	636	636	635	635	635	634	633	631	630	630	630	628	627	627	627	627	627	627	627	627	629	631	645	654	664	687	699	713	740	753	768	801	815	830	836	837	838	838	838	838	836	835	833	830	830	830	830	830	830	830	830	830	830	831	833	833	833	833	835	836	836	836	836	836	837	838	838	838	839	841	841	841	841	841	841	841	839	838	838	838	838	838	838	838	838	838	838	836	836	836	836	836	836	833	833	833	833	833	833	833	833	833	833	833	833	830	830	830	827	827	827	824	824	824	824	823	822	822	822	822	822	822	822	824	823	822	822	823	824	822	822	822	822	822	822	822	821	819	819	819	819	817	816	816	815	814	814	814	814	814	814	814	814	814	814	816	816	816	816	816	816	816	815	814	814	814	814	814	812	811	811	811	811	808	808	808	808	808	808	808	807	806	806	806	806	806	806	806	806	807	808	808	808	808	808	808	808	808	809	811	811	811	811	808	808	808	808	808	808	806	806	806	806	805	803	803	803	803	803	803	803	803	803	803	803	803	803	803	803	803	803	803	803	803	803	803	803	803	803	803	803	803	803	803	803	803	803	803	803	803	806	806	806	806	806	806	803	802	801	795	794	793	790	789	788	783	783	783	780	779	778	778	779	780	783	783	783	783	784	785	785	786	788	788	788	788	788	788	788	788	788	788	786	784	783	781	779	778	778	778	778	778	778	776	776	776	778	779	781	783	786	788	790	792	793	793	793	793	795	795	795	795	795	795	795	795	795	793	793	793	793	793	793	790	790	790	790	790	790
949	955	959	964	970	974	981	991	995	1001	1012	1019	1030	1036	1039	1040	1039	1037	1032	1028	1024	1017	1016	1015	1013	1007	1005	1005	1005	1005	1005	1008	1009	1011	1015	1018	1021	1027	1030	1034	1041	1046	1052	1057	1061	1068	1071	1074	1082	1085	1088	1093	1098	1103	1113	1116	1118	1128	1133	1138	1154	1159	1165	1181	1187	1193	1204	1210	1217	1228	1233	1238	1243	1248	1253	1259	1262	1266	1272	1275	1279	1288	1292	1296	1301	1305	1310	1312	1316	1324	1332	1338	1348	1355	1359	1368	1373	1377	1382	1391	1395	1398	1404	1408	1414	1414	1415	1418	1418	1419	1422	1422	1422	1422	1425	1428	1434	1440	1443	1443	1448	1452	1460	1465	1470	1486	1489	1491	1500	1502	1504	1508	1508	1508	1508	1511	1513	1514	1514	1514	1518	1518	1518	1518	1520	1523	1523	1525	1528	1532	1532	1532	1540	1541	1541	1541	1545	1551	1555	1560	1566	1566	1569	1576	1584	1586	1586	1594	1598	1601	1601	1603	1606	1611	1612	1612	1620	1622	1622	1622	1624	1633	1641	1645	1649	1657	1662	1672	1683	1692	1712	1731	1745	1766	1783	1795	1818	1831	1842	1866	1870	1874	1888	1879	1872	1859	1851	1845	1832	1824	1818	1805	1795	1785	1772	1769	1766	1760	1754	1748	1742	1736	1729	1724	1718	1712	1701	1697	1694	1688	1681	1672	1656	1646	1633	1605	1593	1581	1559	1547	1532	1508	1492	1468	1426	1407	1384	769	613	582	546	663	983	958	944	926	914	909	904	901	900	898	898	897	894	892	891	890	887	885	883	881	880	877	874	872	871	871	871	871	871	871	871	871	871	871	871	871	871	871	871	868	868	868	868	869	870	870	868	866	866	866	866	866	866	865	864	862	859	855	852	848	844	841	837	827	821	812	801	796	790	769	756	740	719	715	715	680	667	656	645	640	634	632	631	630	630	630	630	631	631	631	632	632	632	633	633	633	634	634	634	634	634	636	636	635	634	634	634	633	632	632	630	630	629	628	627	626	626	626	626	626	626	626	627	628	630	642	651	660	686	699	713	737	750	764	797	810	824	834	836	838	838	838	837	836	835	833	830	830	830	830	830	830	830	830	830	830	831	833	833	833	833	835	836	836	836	836	837	838	838	838	838	838	840	840	840	840	840	840	840	839	838	838	838	838	838	838	838	838	837	837	836	836	836	836	835	834	833	833	833	833	833	833	833	832	832	832	832	832	829	828	828	826	826	826	824	824	823	823	823	822	822	822	822	822	822	822	823	822	820	820	821	823	821	820	820	820	821	822	821	820	819	819	819	819	818	817	816	815	815	815	815	815	815	815	815	815	815	815	815	815	815	815	815	815	815	814	814	814	813	813	812	811	810	810	810	811	808	808	808	807	807	807	807	806	804	804	804	804	804	805	806	806	806	807	807	807	807	807	807	807	808	809	810	810	810	810	807	807	807	807	807	807	805	804	804	804	804	802	802	802	802	801	800	800	800	800	800	800	800	800	800	800	800	800	800	800	800	800	800	800	800	800	800	801	802	802	802	802	802	802	802	803	803	804	804	804	804	804	804	802	801	799	794	793	792	788	787	786	782	781	780	778	778	777	777	777	778	780	781	782	782	782	784	784	785	786	788	788	788	788	787	786	786	786	786	784	784	783	780	778	777	777	777	777	778	778	776	776	776	778	779	781	784	787	788	790	791	792	792	792	793	795	794	794	794	794	794	794	794	794	792	792	792	792	792	791	789	789	789	789	788	787
947	954	957	962	968	972	977	987	991	997	1007	1015	1030	1036	1038	1038	1035	1033	1030	1027	1024	1017	1014	1013	1013	1007	1005	1005	1005	1005	1005	1008	1010	1013	1016	1018	1021	1027	1030	1034	1042	1047	1052	1057	1062	1070	1072	1075	1084	1086	1088	1093	1098	1103	1113	1116	1118	1128	1133	1138	1154	1159	1165	1181	1187	1193	1204	1210	1217	1228	1231	1235	1240	1246	1253	1259	1262	1266	1272	1275	1279	1285	1288	1293	1298	1301	1306	1306	1310	1320	1326	1331	1341	1347	1353	1364	1369	1373	1379	1384	1388	1394	1400	1404	1410	1410	1410	1410	1410	1410	1410	1410	1410	1410	1415	1419	1426	1432	1435	1435	1440	1444	1451	1456	1461	1477	1482	1487	1495	1495	1495	1504	1504	1504	1504	1509	1513	1504	1504	1504	1513	1513	1513	1513	1518	1523	1523	1523	1523	1531	1532	1532	1540	1541	1541	1541	1545	1551	1560	1565	1571	1571	1574	1581	1589	1591	1591	1599	1601	1601	1601	1604	1612	1612	1612	1612	1620	1622	1622	1622	1624	1633	1641	1644	1644	1651	1656	1666	1673	1681	1700	1715	1727	1748	1764	1776	1798	1806	1814	1838	1846	1853	1866	1858	1851	1838	1831	1824	1811	1804	1798	1785	1779	1773	1760	1754	1748	1748	1742	1735	1735	1729	1723	1712	1707	1700	1689	1688	1688	1688	1679	1666	1655	1646	1633	1605	1593	1581	1555	1544	1532	1508	1492	1468	1426	1396	1349	1271	1226	1165	1093	1050	989	963	947	926	913	907	902	900	898	896	896	895	893	891	890	890	887	885	883	881	880	877	875	874	871	871	871	871	871	871	871	871	871	871	871	871	871	871	871	868	868	868	868	870	871	871	870	868	868	868	868	868	868	868	865	864	862	856	854	850	845	842	838	828	822	814	804	798	790	774	762	745	725	721	721	683	669	658	648	642	635	632	631	630	630	630	630	631	631	631	631	631	631	631	631	631	632	633	633	633	633	635	635	635	633	633	633	631	631	631	630	629	628	627	626	625	625	625	625	625	625	625	627	628	628	640	648	657	686	699	713	733	746	761	793	805	819	832	835	838	838	837	836	836	835	833	830	830	830	830	830	830	830	830	830	830	831	833	833	833	833	835	836	836	836	836	838	838	838	838	838	838	838	838	838	838	838	838	838	838	838	838	838	838	838	838	838	838	837	836	836	836	836	836	834	833	833	833	833	833	833	833	833	831	830	830	830	830	827	827	827	824	824	824	824	823	822	822	822	822	822	822	822	822	822	822	822	821	819	819	820	822	820	819	819	819	820	822	820	819	819	819	819	819	819	818	816	816	816	816	816	816	816	816	816	816	816	816	814	814	814	814	814	814	814	814	814	814	812	811	811	809	808	808	810	811	808	808	808	806	806	806	806	804	803	803	803	803	803	804	806	806	806	806	806	806	806	806	806	806	808	808	808	808	808	808	806	806	806	806	806	806	804	803	803	803	802	801	801	801	801	799	798	798	798	798	798	798	798	798	798	798	798	798	798	798	798	798	798	798	798	798	798	798	801	801	801	801	801	801	801	802	803	803	803	803	803	803	803	801	799	798	793	791	790	785	784	783	780	779	778	776	776	776	776	776	776	778	779	780	780	781	783	783	784	785	788	788	788	788	787	785	785	785	785	783	783	783	779	777	776	776	776	776	778	778	776	776	776	778	779	781	785	787	788	790	790	790	790	792	793	795	794	793	793	793	793	793	793	793	790	790	790	790	790	790	788	788	788	788	786	785
947	954	957	962	968	972	977	987	991	997	1007	1012	1021	1025	1027	1030	1027	1026	1026	1022	1020	1017	1014	1013	1013	1010	1008	1005	1005	1006	1009	1009	1010	1013	1018	1022	1026	1028	1031	1038	1043	1048	1056	1061	1066	1074	1077	1080	1088	1091	1093	1103	1106	1108	1113	1118	1123	1133	1138	1144	1154	1162	1171	1182	1187	1193	1204	1208	1211	1222	1225	1229	1240	1243	1247	1252	1253	1253	1259	1262	1266	1277	1281	1286	1292	1293	1293	1298	1301	1306	1317	1322	1327	1338	1343	1349	1354	1358	1364	1375	1381	1386	1386	1389	1402	1402	1402	1402	1402	1402	1402	1402	1402	1402	1407	1410	1410	1415	1419	1426	1431	1436	1443	1448	1452	1460	1470	1478	1486	1486	1486	1495	1495	1495	1504	1504	1504	1504	1504	1504	1513	1513	1513	1513	1518	1523	1523	1523	1523	1531	1532	1532	1540	1541	1541	1541	1545	1551	1560	1565	1571	1579	1581	1581	1589	1594	1601	1601	1601	1601	1601	1604	1612	1612	1612	1612	1620	1622	1622	1622	1624	1633	1641	1644	1644	1651	1656	1666	1673	1679	1688	1704	1714	1723	1731	1738	1760	1776	1786	1798	1806	1812	1825	1825	1824	1811	1811	1810	1785	1778	1773	1760	1754	1748	1748	1741	1735	1735	1729	1723	1712	1712	1712	1712	1707	1700	1689	1683	1677	1677	1672	1666	1646	1640	1633	1605	1593	1581	1555	1544	1532	1508	1492	1468	1441	1407	1349	1271	1226	1165	1093	1057	1013	977	956	929	912	904	899	897	896	896	894	893	893	891	890	890	887	885	883	881	880	877	875	874	874	872	871	871	871	871	871	871	871	871	871	871	871	871	871	871	871	871	871	873	874	874	874	874	874	874	874	871	871	871	865	865	865	859	857	853	848	845	841	831	826	819	809	805	801	783	772	757	735	730	730	691	677	664	650	643	635	633	632	631	630	630	630	631	631	631	631	631	631	631	631	631	631	631	631	631	631	633	632	631	631	631	631	630	629	628	627	627	627	625	624	624	624	624	624	625	625	625	625	626	627	638	645	653	674	702	734	734	744	757	786	799	814	829	833	838	838	837	836	836	835	833	830	830	830	830	830	830	830	830	830	830	831	833	833	834	836	836	836	836	836	836	838	838	838	838	838	838	838	838	838	838	838	838	838	838	838	838	838	838	838	837	836	836	836	836	836	834	833	833	833	833	830	830	830	830	830	830	830	830	830	827	827	827	827	826	824	824	824	824	822	822	822	822	821	819	819	819	819	819	819	819	816	816	816	816	816	816	816	816	816	816	817	819	819	819	819	819	819	819	819	819	819	817	816	816	816	816	816	816	816	814	814	814	814	812	811	811	811	811	811	809	808	808	810	811	811	809	808	808	808	808	806	806	806	803	803	803	803	803	803	803	802	801	801	801	801	803	803	803	803	804	806	806	806	806	806	806	806	806	806	806	806	806	806	803	803	803	803	802	801	801	800	798	798	798	798	796	795	795	795	795	795	795	795	795	794	793	793	793	793	793	794	795	795	795	795	795	795	795	795	797	798	798	798	798	798	798	798	801	801	801	801	801	801	798	796	795	790	789	788	783	782	780	776	775	773	771	771	771	771	771	771	776	776	776	778	778	778	780	781	783	785	785	785	785	785	785	785	784	783	783	782	780	777	776	776	776	776	776	776	776	776	776	777	780	782	783	785	787	788	790	790	790	790	790	790	793	793	793	793	791	790	790	790	790	788	788	788	788	786	785	785	785	785	785	785	785
949	954	957	962	969	973	977	987	991	997	1007	1012	1019	1022	1025	1030	1027	1026	1026	1022	1020	1017	1016	1015	1013	1010	1009	1007	1007	1008	1011	1012	1013	1015	1020	1024	1030	1032	1035	1042	1048	1052	1060	1066	1070	1079	1082	1084	1090	1093	1096	1106	1108	1111	1116	1121	1126	1136	1141	1146	1157	1164	1171	1182	1187	1193	1201	1206	1211	1219	1222	1226	1234	1237	1241	1246	1249	1253	1259	1262	1266	1274	1278	1282	1288	1291	1293	1295	1298	1302	1311	1316	1324	1332	1336	1342	1350	1354	1360	1371	1377	1382	1385	1388	1398	1401	1402	1402	1402	1402	1402	1402	1402	1402	1405	1407	1410	1412	1415	1422	1425	1428	1439	1444	1448	1456	1463	1469	1482	1484	1486	1495	1495	1495	1504	1504	1504	1504	1504	1504	1513	1513	1513	1513	1518	1523	1523	1523	1523	1531	1534	1536	1541	1543	1546	1546	1550	1556	1565	1570	1576	1584	1586	1586	1594	1599	1606	1606	1606	1606	1606	1608	1612	1616	1617	1617	1621	1622	1622	1622	1624	1633	1641	1644	1644	1651	1655	1660	1668	1673	1682	1698	1708	1718	1725	1732	1754	1766	1775	1792	1799	1805	1812	1812	1811	1804	1801	1797	1779	1772	1766	1754	1751	1748	1742	1735	1729	1729	1723	1718	1712	1712	1712	1712	1707	1700	1689	1683	1677	1677	1672	1666	1646	1640	1633	1605	1593	1581	1559	1547	1532	1512	1496	1472	1445	1414	1360	1289	1253	1206	1127	1097	1076	1000	965	931	912	904	899	897	896	894	893	893	893	891	890	888	887	885	883	881	880	878	877	875	874	873	872	872	872	872	872	872	872	872	872	872	872	872	872	872	872	872	872	873	874	872	872	872	872	872	872	871	870	870	867	866	865	859	857	854	848	845	841	833	828	822	812	809	804	789	778	762	740	736	736	415	439	666	652	645	636	635	634	633	631	630	630	631	631	631	631	631	631	631	631	631	631	631	631	631	631	632	631	630	630	630	629	629	628	628	627	626	626	624	624	623	623	623	623	624	624	625	625	626	627	636	644	652	671	692	714	727	741	757	782	795	810	826	832	838	838	838	837	836	835	834	832	832	832	832	832	832	832	832	832	832	832	833	834	835	836	836	836	837	837	837	838	838	838	838	838	838	838	838	838	837	837	837	837	837	837	837	837	837	837	836	836	834	834	834	834	834	833	832	832	831	830	830	830	830	830	830	828	828	828	827	826	826	826	825	824	824	824	823	822	822	822	821	820	819	819	818	818	818	817	816	815	815	815	815	815	815	815	815	815	815	816	818	818	818	818	818	818	818	818	818	818	816	816	816	816	816	816	815	815	814	813	812	812	812	811	811	811	811	811	809	808	808	809	810	810	808	807	807	806	805	804	804	804	802	802	802	802	801	800	800	801	801	801	801	801	802	802	802	802	803	804	804	804	804	804	804	804	804	804	804	804	804	804	802	802	802	801	800	800	800	799	796	796	797	796	795	795	794	794	794	792	792	792	792	792	792	792	792	792	792	792	792	792	793	794	794	794	794	794	795	796	796	796	796	796	797	798	800	800	800	801	801	801	798	796	794	790	788	786	782	780	779	775	773	772	770	770	770	770	770	770	774	775	776	777	777	778	780	781	782	784	784	785	785	785	785	785	784	783	783	782	780	777	776	776	776	776	776	776	776	776	776	777	779	781	782	785	786	787	789	789	789	789	789	789	792	791	790	790	790	789	789	788	787	786	786	786	786	786	785	785	784	784	784	784	784
951	954	957	962	971	974	977	987	991	997	1007	1011	1017	1020	1023	1030	1027	1026	1026	1022	1020	1017	1017	1016	1013	1010	1009	1009	1009	1010	1013	1016	1017	1017	1023	1027	1034	1036	1039	1047	1052	1057	1065	1070	1075	1084	1086	1088	1093	1096	1098	1108	1111	1113	1118	1123	1128	1138	1143	1149	1160	1165	1171	1182	1187	1193	1199	1204	1211	1217	1219	1223	1228	1231	1235	1240	1246	1253	1259	1262	1266	1272	1275	1279	1285	1288	1293	1293	1295	1299	1305	1310	1320	1325	1329	1334	1345	1351	1356	1367	1373	1379	1384	1388	1394	1400	1402	1402	1402	1402	1402	1402	1402	1402	1402	1403	1410	1410	1411	1418	1418	1420	1435	1440	1444	1451	1456	1461	1477	1482	1486	1495	1495	1495	1504	1504	1504	1504	1504	1504	1513	1513	1513	1513	1518	1523	1523	1523	1523	1531	1536	1541	1541	1545	1551	1551	1555	1561	1570	1575	1581	1589	1591	1591	1599	1605	1612	1612	1612	1612	1612	1612	1612	1620	1622	1622	1622	1622	1622	1622	1624	1633	1641	1644	1644	1651	1654	1654	1662	1668	1677	1692	1702	1712	1719	1726	1748	1755	1763	1785	1793	1798	1798	1798	1798	1798	1791	1784	1773	1766	1760	1748	1748	1748	1735	1729	1723	1723	1718	1712	1712	1712	1712	1712	1707	1700	1689	1683	1677	1677	1672	1666	1646	1640	1633	1605	1593	1581	1564	1551	1532	1516	1501	1477	1449	1420	1371	1308	1279	1247	1161	1138	1138	1023	974	933	913	904	899	897	895	893	893	893	893	891	889	886	886	885	883	881	880	880	878	877	874	874	874	874	874	874	874	874	874	874	874	874	874	874	874	874	874	874	874	874	874	871	871	871	871	871	871	871	870	868	868	867	865	859	858	856	848	845	841	834	830	824	815	812	808	795	785	768	746	741	741	140	202	669	654	647	638	636	635	635	632	631	631	631	631	631	631	631	631	631	631	631	631	631	631	631	631	631	630	630	630	629	628	628	628	628	627	626	625	624	623	622	622	622	622	624	624	624	625	626	627	635	642	650	669	681	695	720	737	757	777	790	806	823	830	838	838	838	838	836	836	836	833	833	833	833	833	833	833	833	833	833	833	833	835	836	836	836	837	838	838	838	838	838	838	838	838	838	838	838	838	836	836	836	836	836	836	836	836	836	836	836	836	833	833	833	833	833	833	830	830	830	830	830	830	830	830	830	827	827	827	827	826	824	824	824	824	824	823	822	822	822	822	819	819	819	819	818	816	816	815	814	814	814	814	814	814	814	814	814	814	814	815	816	816	816	816	816	816	816	816	816	816	816	816	816	816	816	816	815	814	814	812	811	811	811	811	811	811	811	811	809	808	808	808	808	808	807	806	806	804	803	803	803	803	801	801	801	801	799	798	798	799	801	801	801	801	801	801	801	801	802	803	803	803	803	803	803	803	803	803	803	801	801	801	801	801	801	799	798	798	798	797	795	795	795	795	795	794	793	793	792	790	790	790	790	790	790	790	790	790	790	790	790	790	792	793	793	793	793	793	793	793	795	795	795	795	797	798	798	798	798	801	801	801	798	795	793	790	787	785	780	779	778	773	772	771	768	768	768	768	768	768	773	774	776	776	777	778	780	780	780	783	784	785	785	785	785	785	784	783	783	782	780	777	776	776	776	776	776	776	776	776	776	776	778	779	781	785	785	786	788	788	788	788	788	788	790	789	788	788	788	788	788	786	785	785	785	785	785	785	785	785	784	783	783	783	783
951	954	957	962	971	976	981	987	991	997	1003	1007	1013	1019	1022	1026	1026	1026	1026	1022	1021	1021	1021	1020	1017	1017	1017	1017	1017	1017	1017	1020	1022	1026	1029	1031	1038	1041	1044	1052	1060	1066	1074	1077	1080	1088	1094	1098	1098	1103	1108	1113	1116	1118	1123	1128	1133	1138	1143	1149	1160	1165	1171	1176	1181	1187	1193	1198	1205	1205	1210	1217	1222	1225	1229	1234	1237	1241	1251	1256	1260	1265	1268	1273	1278	1281	1286	1292	1293	1293	1298	1303	1313	1318	1322	1327	1332	1338	1349	1360	1366	1371	1377	1380	1386	1392	1394	1394	1399	1402	1402	1402	1402	1402	1402	1403	1410	1410	1411	1418	1418	1420	1435	1440	1444	1451	1456	1460	1468	1473	1477	1486	1491	1495	1495	1500	1504	1504	1504	1504	1513	1513	1513	1513	1518	1523	1523	1523	1523	1531	1536	1541	1550	1551	1551	1551	1559	1571	1571	1575	1581	1589	1594	1601	1610	1612	1612	1612	1612	1612	1612	1612	1612	1620	1622	1622	1622	1625	1633	1633	1633	1633	1641	1646	1654	1654	1654	1654	1662	1668	1677	1684	1688	1688	1703	1713	1723	1730	1738	1760	1768	1774	1785	1785	1785	1785	1778	1772	1760	1760	1760	1748	1741	1735	1735	1729	1723	1723	1718	1712	1712	1712	1712	1712	1707	1700	1700	1695	1688	1688	1683	1677	1667	1657	1644	1624	1614	1601	1575	1564	1551	1527	1510	1486	1464	1441	1402	1341	1303	1247	1161	1138	1138	1023	976	940	911	901	896	894	893	893	893	892	890	890	889	886	886	885	883	881	880	880	878	877	877	877	877	877	877	877	874	874	874	874	874	874	874	872	871	871	871	871	871	871	871	868	868	868	868	868	868	868	868	868	865	864	862	859	857	853	850	848	844	837	833	827	820	818	816	805	795	780	773	762	743	743	728	693	667	655	643	641	639	638	636	635	633	633	633	633	633	633	631	631	631	631	631	631	631	631	631	631	630	630	630	629	628	628	628	628	627	626	625	624	623	622	622	622	622	622	623	624	625	626	627	633	639	645	664	675	687	712	726	741	766	781	798	815	823	833	838	837	836	836	836	836	836	835	833	833	834	836	834	833	833	835	836	836	836	836	836	836	836	836	836	836	836	836	836	836	836	836	836	836	836	836	836	835	833	833	833	833	833	833	833	833	833	833	831	830	830	830	830	830	830	830	830	830	830	827	827	827	824	824	824	824	824	824	824	823	822	822	821	819	819	819	819	816	816	816	816	815	814	814	814	814	811	811	811	811	811	811	811	811	811	811	811	811	811	812	814	814	814	814	814	814	814	814	814	814	814	814	814	814	814	814	812	811	811	811	811	808	808	808	806	806	806	806	806	806	803	803	803	801	801	801	801	799	798	798	798	798	798	798	798	798	798	798	798	798	798	798	799	801	801	801	801	801	801	801	803	803	803	803	802	801	801	801	801	798	798	798	796	795	795	795	795	795	795	795	795	793	793	793	791	790	788	788	788	788	788	787	785	785	785	785	787	788	788	788	788	788	789	790	790	792	793	793	793	793	795	795	795	795	795	795	798	796	795	795	794	793	788	785	783	780	778	776	773	772	771	768	767	766	766	767	768	771	772	773	776	776	776	778	779	780	783	783	783	785	785	785	783	783	783	781	780	780	777	776	776	776	776	776	776	776	776	776	776	778	779	781	783	784	785	785	785	785	785	785	785	788	786	785	785	784	783	783	783	783	783	783	783	783	781	780	780	780	780	780	780	780
953	956	959	964	971	976	983	989	993	997	1003	1007	1013	1019	1022	1026	1026	1026	1026	1024	1024	1024	1024	1023	1019	1019	1019	1019	1019	1019	1022	1024	1026	1028	1032	1035	1042	1046	1049	1056	1063	1068	1076	1081	1084	1093	1097	1101	1103	1107	1111	1116	1118	1121	1126	1129	1133	1138	1143	1149	1160	1164	1168	1176	1180	1184	1190	1194	1199	1202	1206	1211	1216	1219	1223	1231	1234	1238	1246	1250	1256	1262	1265	1270	1277	1281	1286	1289	1291	1293	1298	1302	1310	1315	1318	1324	1331	1338	1349	1357	1362	1371	1377	1380	1386	1392	1394	1394	1399	1402	1402	1402	1402	1402	1405	1407	1410	1410	1411	1418	1420	1423	1435	1440	1444	1451	1456	1460	1468	1473	1477	1486	1491	1495	1495	1500	1504	1504	1504	1504	1513	1513	1513	1518	1520	1523	1527	1528	1528	1536	1540	1546	1555	1558	1561	1561	1565	1571	1575	1580	1586	1594	1600	1606	1611	1614	1617	1617	1617	1617	1617	1617	1617	1621	1622	1622	1626	1629	1633	1633	1634	1638	1642	1646	1654	1654	1655	1660	1664	1668	1677	1681	1683	1688	1700	1708	1718	1725	1732	1754	1758	1762	1772	1772	1772	1772	1769	1766	1754	1754	1754	1742	1738	1735	1729	1726	1723	1723	1720	1718	1712	1712	1712	1712	1709	1706	1706	1701	1694	1694	1692	1688	1678	1668	1655	1635	1625	1612	1589	1579	1566	1541	1524	1500	1474	1454	1422	1363	1326	1273	1230	1035	569	511	488	470	795	899	894	893	893	892	892	891	890	889	888	886	885	884	883	882	881	880	879	878	877	877	877	877	877	877	876	876	875	874	874	874	872	872	871	871	871	871	871	870	870	866	866	866	866	866	866	866	866	866	865	863	860	858	856	853	850	848	844	838	834	830	824	822	819	810	801	788	774	762	743	743	728	693	675	664	648	644	642	640	638	637	634	634	634	634	633	633	632	632	632	632	632	632	632	632	632	632	631	630	630	630	629	629	628	628	627	626	625	624	623	622	622	622	622	622	623	624	625	626	627	632	637	643	660	672	684	708	723	741	762	776	793	812	821	832	836	837	836	836	836	836	836	835	834	834	835	836	835	834	834	836	836	836	836	836	836	836	836	836	836	836	836	835	834	834	834	834	834	834	834	834	834	834	833	832	832	832	832	832	832	832	832	832	831	830	830	830	830	830	829	828	828	828	828	826	826	825	824	824	824	823	823	823	823	822	820	820	820	819	818	818	818	816	816	815	815	814	812	812	812	811	810	810	810	810	810	810	809	808	808	808	809	810	810	810	811	812	812	812	812	813	814	814	814	814	814	814	814	814	814	812	811	811	810	810	809	807	807	807	804	804	804	804	804	803	802	802	802	800	800	799	798	797	796	796	796	796	796	796	796	796	796	796	796	797	798	798	799	800	800	800	800	800	800	801	802	802	802	802	801	800	800	800	800	798	797	796	795	795	795	794	794	794	794	794	794	792	792	792	790	788	786	786	786	786	786	785	784	784	784	784	785	786	786	786	786	786	787	788	789	791	792	792	792	792	794	794	794	794	795	795	796	796	795	794	793	791	788	785	783	780	778	776	773	772	771	768	767	766	766	767	768	771	772	773	774	775	776	778	779	780	783	783	783	785	785	785	783	783	783	781	780	780	777	776	776	776	776	776	776	776	776	776	776	778	779	780	782	783	784	784	784	784	784	784	784	786	785	784	782	782	782	782	782	782	782	782	782	782	781	780	780	780	780	780	780	780
955	958	961	966	972	977	985	991	994	997	1003	1007	1013	1019	1022	1026	1026	1026	1026	1026	1026	1026	1026	1025	1021	1021	1021	1021	1021	1022	1026	1029	1030	1030	1035	1039	1047	1050	1053	1061	1066	1071	1079	1084	1089	1098	1101	1103	1108	1111	1113	1118	1121	1123	1128	1131	1133	1138	1143	1149	1160	1162	1165	1176	1179	1182	1187	1190	1193	1199	1201	1205	1210	1213	1217	1228	1231	1235	1240	1245	1253	1259	1262	1266	1277	1281	1286	1286	1288	1293	1298	1301	1306	1311	1315	1320	1331	1338	1349	1354	1359	1371	1377	1380	1386	1392	1394	1394	1399	1402	1402	1402	1402	1402	1407	1410	1410	1410	1411	1418	1423	1427	1435	1440	1444	1451	1456	1460	1468	1473	1477	1486	1491	1495	1495	1500	1504	1504	1504	1504	1513	1513	1513	1523	1523	1523	1531	1532	1532	1540	1545	1551	1560	1565	1571	1571	1571	1571	1580	1585	1591	1599	1605	1612	1612	1615	1622	1622	1622	1622	1622	1622	1622	1622	1622	1622	1630	1633	1633	1633	1635	1644	1644	1646	1654	1654	1656	1666	1666	1668	1677	1677	1679	1688	1696	1702	1712	1719	1726	1748	1748	1749	1760	1760	1760	1760	1760	1759	1748	1748	1748	1735	1735	1735	1723	1723	1723	1723	1723	1723	1712	1712	1712	1712	1712	1712	1712	1707	1700	1700	1700	1700	1689	1679	1666	1646	1636	1622	1604	1594	1581	1556	1538	1513	1483	1466	1443	1385	1349	1299	1299	931	0	0	0	0	678	898	893	893	892	890	890	890	890	887	886	886	884	883	883	883	883	880	880	880	877	877	877	877	877	877	877	877	877	874	874	874	871	871	871	871	871	871	871	869	868	865	865	865	865	865	865	865	865	865	865	862	859	856	855	853	850	848	844	839	836	833	828	825	822	815	808	795	775	762	743	743	728	693	683	672	653	647	644	643	641	639	636	636	636	635	634	633	633	633	633	633	633	633	633	633	633	633	632	631	631	630	630	630	629	628	627	626	625	624	623	622	622	622	622	622	623	624	625	626	627	631	636	641	657	669	682	704	721	741	758	772	788	809	819	830	835	836	836	836	836	836	836	836	836	836	836	836	836	836	836	836	836	836	836	836	836	836	836	836	836	836	836	834	833	833	833	833	833	833	833	833	833	833	833	831	830	830	830	830	830	830	830	830	830	830	830	830	830	830	828	827	827	827	827	824	824	824	824	824	824	822	822	822	822	821	819	819	819	819	816	816	816	816	815	814	814	813	811	811	810	808	808	808	808	808	808	808	806	806	806	806	807	808	808	808	808	810	811	811	811	812	814	814	814	814	814	814	814	814	813	811	811	810	808	808	808	806	806	806	803	803	803	803	802	801	801	801	801	798	798	798	795	795	795	795	795	795	795	795	795	795	795	795	795	796	798	798	798	798	798	798	798	798	799	801	801	801	801	801	800	798	798	798	798	798	797	795	795	795	795	793	793	793	793	793	793	791	790	790	788	787	785	785	785	785	784	783	783	783	783	783	783	783	785	785	785	785	785	785	788	789	790	790	790	790	793	793	793	793	794	795	795	795	795	793	791	790	788	785	783	780	778	776	773	772	771	768	767	766	766	767	768	771	772	773	773	774	776	778	779	780	783	783	783	785	785	785	783	783	783	781	780	780	777	776	776	776	776	776	776	776	776	776	776	778	778	778	780	782	783	783	783	783	783	783	783	783	783	783	780	780	780	780	780	780	780	780	780	780	780	780	780	780	780	780	780	780
