3272	3272	3272	3264	3264	3256	3248	3248	3232	3208	3192	3192	3169	3154	3154	3139	3131	3131	3131	3131	3131	3131	3131	3139	3139	3139	3139	3154	3154	3154	3154	3154	3154	3154	3139	3131	3131	3116	3109	3087	3087	3080	3080	3116	0	0	0	0	0	0	0	0	0	0	0	1235	1235	1235	1237	1237	1237	1238	1241	1238	1237	1234	1234	1230	1228	1228	1227	1224	1224	1224	1223	1223	1223	1223	1223	1223	1222	1222	1222	1221	1221	1221	1221	1220	1220	1220	1219	1219	1219	1217	1216	1216	1215	1214	1214	1214	1213	1213	1213	1213	1213	1213	1213	1213	1213	1213	1214	1214	1215	1217	1217	1219	1221	1221	1224	1225	1225	1228	1234	1234	1238	1242	0	0	0	0	0	0	0	0	0	0	0	0	0	0	0	0	0	0	3087	3087	3116	3116	3139	3139	3161	3169	3169	3192	3224	3224	3248	3256	3256	3256	3264	3264	3264	3264	3264	3256	3256	3256	3240	3240	3240	3232	3224	3224	3224	0	0	0	0	0	0	0	1900	1897	1897	1897	1897	1897	1897	1897	1897	1897	1897	1897	1897	1894	1894	1894	1891	1891	1891	1889	1889	1889	1886	1886	1886	1883	1883	1883	1880	1880	1880	1880	1880	1880	1875	1875	1875	1875	1880	1880	1880	1880	1883	1883	1886	1889	1889	1891	1894	1894	1897	1897	1897	1897	1900	1900	1900	1902	1902	1902	1905	1911	1911	1913	1925	1925	1936	1936	1953	1971	1971	1989	1989	1998	2010	2010	2039	2061	2061	2081	2081	2094	2101	2101	2108	2114	2114	2121	2121	2121	2125	2125	2128	2128	2128	2128	2135	2135	2128	2128	2128	2128	2125	2125	2125	2121	2121	2118	2118	2118	2114	2114	2111	2111	2111	2111	2111	2111	2111	2111	2108	2108	2108	2108	2108	2111	2111	2111	2111	2111	2111	2111	2111	2111	2111	2111	2114	2114	2114	2114	2118	2118	2121	2128	2128	2139	2146	2146	2149	2156	2156	2163	2174	2174	2174	2181	2181	2185	2185	2185	2181	2181	2181	2174	2174	2174	2170	2163	2163	2156	2156	2156	2156	2149	2149	2149	2149	2149	2149	2149	2156	2156	2160	2163	2163	2170	2170	2170	2174	2181	2181	2185	2185	2185	2185	2185	2185	2189	2189	2189	2189	2189	2185	2185	2185	2185	2185	2181	2181	2181	2181	2181	2181	2181	2181	2181	2181	2181	2181	2181	2181	2181	2185	2185	2185	2185	2189	2189	2192	2196	2196	2196	2200	2200	2200	2203	2203	2203	2203	2203	2207	2207	2207	2207	2211	2211	2211	2211	2211	2211	2211	2211	2211	2211	2211	2207	2207	2207	2207	2207	2207	2203	2203	2203	2203	2203	2203	2203	2203	2203	2203	2203	2203	2203	2203	2203	2203	2203	2207	2207	2207	2211	2211	2211	2215	2215	2218	2218	2218	2222	2226	2226	2230	2237	2237	2245	2264	2264	2276	2292	2292	2312	2312	0	0	0	0	0	2981	2981	2981	3023	3065	3065	3072	3080	3080	3087	3094	3094	3109	3116	3116	3139	3139	3154	3169	3169	3184	3208	3208	3224	3248	3248	3264	3272	3272	3272	3288	3288	3288	3288	3288	3297	3305	3305	3313	3322	3322	3330	3339	3330	3330	3330	3322	3305	3305	3305	3297	3297	3288	3280	3272	3272	3272	3264	3264	3264	3264	3264	3256	3256	3256	3256	3256	3256	3256	3248	3248	3248	3248	3248	3248	3248	3248	3248	3248	3248	3248	3248	3240	3240	3232	3232	3232	3216	3192	3192	3169	3154	3131	3131	3109	3094	3094	3087	3072	3072	3065	3065	3065	3065	3065	3065	3072	3072	3080	3094	3094	3109	3109	3116	3139	3139	3161	3161	3161	3169	3184	3184	3192	3192	3192	3184	3184	3184	3192	3192	3192	3208	3216	3216	3216	3216	3216	3224	3232	3232	3240	3248	3248	3256	3256	3256	3264	3272	3272	3272	3288	3288	3288	3297	3297	3305	3305	3305	3305	3305	3305	3313	3322	3322	3322	3322	3322	3322	3322	3322	3322	3322	3322	3322	3322	3322	3313	3313	3313	3313	3313	3313	3305	3305	3305	3305	3305	3305	3305	3297	3297	3297	3297	3297	3297	3297	3297	3297	3297	3297	3297	3297	3297	3297	3305	3305	3305	3313	3313	3313	3313	3313	3313	3313	3305	3305	3297	3297	3297	3297	3297	3297	3297	3297	3297	3297	3288	3288	3288	3288	3288	3272	3272	3272	3272	3272	3272	3272	3264	3264	3264	3264	3264	3264	3264	3264	3264	3264
3272	3272	3272	3264	3264	3256	3248	3248	3232	3208	3192	3192	3169	3154	3154	3139	3131	3131	3131	3131	3131	3131	3131	3139	3139	3139	3139	3154	3154	3154	3154	3154	3154	3154	3139	3131	3131	3116	3109	3087	3087	3080	3080	0	0	0	0	0	0	0	0	0	0	0	0	0	0	1249	1249	1249	1249	1249	1250	1250	1246	1246	1243	1241	1235	1235	1231	1229	1229	1228	1225	1225	1224	1224	1224	1224	1224	1223	1223	1223	1223	1223	1222	1221	1221	1221	1221	1221	1220	1220	1220	1219	1219	1216	1216	1216	1215	1215	1215	1214	1214	1213	1213	1213	1213	1213	1213	1213	1214	1216	1216	1219	1220	1220	1223	1224	1224	1227	1230	1230	1237	0	0	0	0	0	0	0	0	0	0	0	0	0	0	0	0	0	0	0	3087	3087	3116	3116	3139	3139	3161	3169	3169	3192	3224	3224	3248	3256	3256	3256	3264	3264	3264	3264	3256	3256	3256	3256	3240	3240	3232	3224	3216	3216	3216	0	0	0	0	0	0	0	1900	1897	1897	1897	1897	1897	1897	1897	1897	1897	1897	1897	1897	1894	1894	1894	1891	1891	1891	1889	1889	1889	1886	1886	1886	1883	1883	1883	1880	1880	1880	1880	1880	1880	1875	1875	1875	1875	1880	1880	1880	1880	1883	1883	1886	1889	1889	1891	1894	1894	1897	1897	1897	1897	1900	1900	1900	1902	1902	1902	1905	1908	1911	1913	1925	1925	1936	1936	1953	1974	1974	1989	1989	2001	2014	2014	2039	2064	2064	2081	2081	2094	2104	2104	2108	2114	2114	2121	2121	2121	2125	2125	2128	2128	2128	2128	2135	2135	2128	2128	2128	2128	2125	2125	2125	2121	2121	2121	2118	2118	2118	2114	2114	2114	2114	2111	2111	2111	2111	2111	2111	2111	2111	2111	2111	2111	2111	2114	2114	2114	2114	2114	2111	2111	2114	2114	2114	2114	2114	2118	2121	2121	2125	2128	2128	2139	2146	2146	2149	2156	2156	2163	2170	2170	2174	2174	2174	2181	2181	2181	2181	2181	2181	2174	2174	2174	2170	2163	2163	2160	2156	2156	2156	2149	2149	2149	2149	2149	2149	2149	2149	2149	2156	2160	2160	2160	2163	2163	2163	2170	2170	2174	2174	2174	2181	2181	2181	2181	2181	2181	2181	2181	2174	2174	2174	2174	2174	2170	2170	2170	2170	2170	2170	2170	2170	2170	2170	2170	2170	2170	2170	2170	2174	2174	2174	2181	2181	2181	2185	2189	2189	2189	2192	2192	2196	2196	2196	2200	2203	2203	2203	2203	2203	2207	2207	2207	2207	2211	2211	2211	2211	2211	2207	2207	2207	2207	2207	2207	2203	2203	2203	2203	2203	2203	2200	2200	2200	2200	2200	2200	2196	2196	2200	2200	2200	2200	2200	2200	2203	2203	2203	2203	2203	2207	2207	2211	2211	2211	2215	2215	2218	2222	2222	2222	2233	2233	2241	2241	2245	2257	2257	2264	2312	2312	0	0	0	0	2981	2981	2981	3023	3065	3065	3072	3080	3080	3087	3094	3094	3109	3116	3116	3139	3139	3154	3161	3161	3169	3192	3192	3216	3232	3232	3248	3256	3256	3256	3264	3264	3272	3288	3288	3297	3305	3305	3313	3322	3322	3330	3339	3330	3330	3330	3322	3305	3305	3305	3297	3297	3288	3280	3272	3272	3272	3264	3264	3264	3264	3264	3256	3256	3256	3256	3256	3256	3256	3248	3248	3248	3248	3248	3248	3256	3256	3248	3248	3248	3248	3248	3240	3240	3232	3232	3232	3216	3192	3192	3169	3154	3131	3131	3109	3094	3094	3087	3072	3072	3065	3065	3065	3065	3065	3065	3072	3072	3080	3094	3094	3109	3109	3116	3139	3139	3161	3161	3161	3169	3184	3184	3169	3169	3169	3169	3169	3169	3169	3169	3169	3184	3184	3184	3192	3208	3208	3208	3208	3208	3216	3224	3224	3232	3248	3248	3256	3256	3256	3264	3272	3272	3272	3280	3280	3288	3288	3288	3288	3297	3297	3297	3297	3297	3297	3297	3297	3297	3297	3297	3297	3297	3297	3297	3297	3297	3297	3297	3297	3297	3297	3297	3288	3288	3297	3288	3288	3288	3288	3288	3288	3288	3288	3288	3288	3297	3297	3297	3297	3297	3297	3297	3297	3297	3297	3297	3297	3297	3305	3305	3297	3297	3297	3297	3288	3288	3288	3288	3288	3280	3280	3288	3272	3272	3280	3280	3280	3280	3272	3272	3272	3264	3264	3264	3264	3256	3256	3256	3256	3256	3256	3248	3248	3248	3248	3248	3248	3248
3264	3264	3264	3264	3264	3256	3240	3240	3216	3192	3169	3169	3139	3116	3116	3094	3087	3087	3087	3080	3080	3087	3087	3087	3087	3087	3094	3094	3094	3094	3094	3094	3094	3109	3094	3087	3087	3080	3072	3065	3065	3058	3051	3051	3051	0	0	0	0	0	0	0	0	0	0	0	0	1257	1257	1257	1257	1257	1257	1257	1257	1256	1252	1249	1249	1249	1238	1235	1235	1231	1229	1229	1229	1227	1227	1227	1225	1225	1225	1224	1224	1224	1224	1224	1224	1223	1223	1223	1222	1221	1221	1221	1220	1219	1219	1219	1216	1216	1216	1215	1215	1214	1213	1213	1213	1213	1213	1213	1214	1216	1216	1219	1220	1220	1223	1224	1224	1227	1230	1230	1237	0	0	0	0	0	0	0	0	0	0	0	0	0	0	0	0	0	0	0	0	0	3154	3154	3154	3154	3169	3184	3184	3208	3232	3232	3256	3256	3256	3256	3264	3264	3264	3264	3256	3256	3256	3248	3232	3224	3224	3216	3208	3208	3208	0	0	0	0	0	0	0	0	1900	1900	1900	1900	1900	1897	1897	1900	1897	1897	1900	1897	1897	1897	1897	1897	1897	1897	1894	1894	1894	1891	1891	1891	1891	1889	1889	1889	1886	1886	1886	1886	1886	1883	1883	1883	1883	1886	1886	1886	1886	1886	1886	1889	1891	1891	1894	1897	1897	1897	1897	1897	1900	1900	1900	1902	1902	1905	1905	1908	1908	1911	1913	1916	1925	1936	1936	1953	1974	1974	1989	1989	2001	2014	2014	2039	2042	2064	2081	2081	2094	2104	2104	2108	2114	2114	2121	2121	2121	2125	2125	2125	2125	2125	2125	2125	2125	2125	2125	2125	2125	2125	2125	2125	2121	2121	2121	2118	2118	2118	2114	2114	2114	2114	2111	2111	2111	2111	2111	2111	2111	2111	2111	2111	2111	2111	2114	2114	2114	2114	2114	2111	2111	2114	2114	2114	2114	2114	2118	2121	2121	2125	2128	2128	2139	2146	2146	2149	2156	2156	2163	2170	2170	2174	2174	2174	2181	2181	2181	2181	2181	2181	2174	2174	2174	2170	2170	2163	2160	2156	2156	2156	2149	2149	2149	2149	2149	2149	2149	2149	2149	2156	2160	2160	2160	2163	2163	2163	2170	2170	2174	2174	2174	2181	2181	2181	2181	2181	2181	2181	2181	2174	2174	2174	2174	2174	2170	2170	2170	2170	2170	2170	2170	2170	2170	2170	2170	2170	2170	2170	2170	2174	2174	2174	2181	2181	2181	2185	2189	2189	2189	2192	2192	2196	2196	2196	2200	2203	2203	2203	2203	2203	2203	2207	2207	2207	2207	2207	2207	2207	2207	2207	2203	2203	2203	2203	2203	2203	2203	2203	2200	2200	2200	2196	2196	2196	2196	2192	2192	2192	2192	2192	2192	2192	2192	2192	2192	2196	2196	2196	2200	2203	2203	2203	2203	2203	2203	2207	2207	2211	2211	2211	2218	2222	2222	2222	2230	2230	2233	2237	2237	2253	2253	0	0	0	0	0	0	3030	3030	3072	3072	3080	3087	3087	3094	3109	3109	3109	3116	3116	3131	3131	3139	3154	3154	3161	3169	3169	3192	3208	3208	3208	3224	3224	3232	3240	3240	3256	3264	3264	3272	3280	3280	3288	3288	3288	3297	3297	3297	3288	3288	3288	3272	3272	3272	3272	3264	3264	3264	3256	3256	3256	3256	3256	3256	3248	3248	3248	3248	3248	3248	3248	3248	3248	3240	3240	3240	3240	3248	3248	3248	3248	3248	3248	3248	3248	3248	3240	3240	3232	3224	3224	3208	3184	3184	3161	3139	3109	3109	3094	3072	3072	3072	3058	3051	3051	3051	3051	3051	3051	3051	3051	3051	3058	3072	3072	3080	3094	3094	3116	3116	3131	3154	3154	3161	3169	3169	3169	3169	3169	3169	3169	3169	3169	3169	3169	3184	3184	3184	3192	3208	3208	3208	3208	3208	3216	3224	3224	3232	3248	3248	3256	3256	3256	3264	3272	3272	3272	3280	3280	3288	3288	3288	3288	3297	3297	3297	3297	3297	3297	3297	3297	3297	3297	3297	3297	3297	3297	3297	3297	3297	3297	3297	3297	3297	3297	3297	3288	3288	3297	3288	3288	3288	3288	3288	3288	3288	3288	3288	3288	3297	3297	3297	3297	3297	3297	3297	3297	3297	3297	3297	3297	3297	3305	3305	3297	3297	3297	3288	3280	3280	3272	3272	3272	3272	3264	3264	3264	3264	3264	3264	3264	3264	3264	3256	3256	3256	3256	3256	3248	3248	3240	3240	3232	3232	3232	3224	3224	3224	3224	3224	3224	3224
3264	3264	3264	3256	3256	3240	3232	3232	3208	3169	3139	3139	3109	3087	3072	3072	3065	3058	3058	3051	3051	3051	3051	3058	3058	3058	3058	3065	3065	3065	3065	3065	3065	3065	3065	3058	3058	3058	3051	3051	3051	3044	3044	3044	3044	3044	0	0	0	0	0	0	0	0	0	0	0	1257	1257	1257	1257	1257	1257	1257	1257	1256	1252	1249	1249	1249	1238	1235	1235	1231	1229	1229	1229	1227	1227	1227	1225	1225	1225	1224	1224	1224	1224	1224	1224	1223	1223	1223	1222	1221	1221	1221	1220	1219	1219	1219	1216	1216	1216	1215	1215	1214	1213	1213	1212	1212	1212	1212	1213	1215	1215	1216	1219	1219	1222	1223	1223	1225	1230	1230	1237	0	0	0	0	0	0	0	0	0	0	0	0	0	0	0	0	0	0	0	0	0	3154	3154	3161	3161	3169	3192	3192	3216	3232	3232	3256	3256	3256	3256	3264	3264	3264	3264	3256	3256	3256	3248	3232	3224	3224	3216	3208	3208	3208	0	0	0	0	0	0	0	0	1900	1900	1900	1900	1900	1900	1900	1900	1900	1900	1900	1900	1900	1900	1900	1897	1897	1897	1897	1897	1897	1897	1897	1897	1894	1894	1894	1894	1894	1894	1894	1891	1891	1891	1891	1891	1891	1891	1891	1891	1891	1894	1894	1894	1897	1897	1897	1900	1900	1900	1900	1900	1902	1902	1902	1902	1905	1905	1908	1908	1908	1911	1916	1916	1925	1936	1936	1953	1974	1974	1989	1989	2001	2017	2017	2042	2042	2071	2084	2084	2094	2104	2104	2108	2114	2114	2118	2118	2121	2121	2121	2121	2121	2121	2121	2121	2121	2121	2125	2125	2121	2121	2121	2121	2121	2121	2121	2121	2121	2118	2118	2118	2118	2114	2114	2114	2114	2114	2114	2114	2114	2114	2114	2114	2114	2114	2118	2118	2118	2114	2114	2114	2114	2118	2118	2118	2118	2118	2121	2121	2121	2128	2135	2135	2139	2146	2146	2149	2156	2156	2160	2163	2163	2170	2174	2174	2174	2174	2174	2174	2174	2174	2170	2170	2170	2163	2160	2160	2156	2156	2156	2149	2149	2149	2146	2146	2146	2146	2146	2146	2146	2149	2149	2149	2156	2160	2160	2160	2160	2160	2163	2170	2170	2170	2170	2170	2170	2170	2170	2170	2163	2163	2163	2163	2163	2163	2160	2160	2160	2160	2160	2160	2160	2160	2160	2160	2163	2163	2163	2163	2163	2163	2170	2170	2170	2174	2174	2181	2181	2181	2181	2185	2185	2189	2192	2192	2192	2196	2196	2203	2203	2203	2203	2207	2207	2207	2207	2207	2207	2207	2207	2207	2203	2203	2203	2203	2203	2203	2203	2203	2200	2200	2200	2196	2196	2196	2196	2192	2192	2192	2192	2192	2192	2192	2192	2192	2192	2196	2196	2196	2200	2203	2203	2203	2203	2203	2203	2207	2207	2211	2211	2211	2218	2222	2222	2222	2230	2230	2233	2237	2237	2253	2253	0	0	0	0	0	0	3051	3051	3087	3087	3094	3094	3094	3094	3116	3116	3116	3116	3116	3131	3131	3139	3154	3154	3161	3169	3161	3161	3169	3169	3169	3169	3184	3184	3192	3192	3208	3224	3224	3232	3240	3240	3248	3256	3256	3256	3256	3256	3256	3256	3248	3248	3240	3240	3240	3232	3232	3232	3232	3232	3224	3224	3224	3224	3224	3224	3224	3224	3224	3224	3224	3224	3224	3224	3224	3224	3232	3232	3232	3240	3240	3240	3240	3240	3240	3240	3240	3240	3232	3224	3224	3208	3184	3184	3161	3131	3109	3109	3087	3072	3072	3058	3051	3044	3044	3044	3044	3044	3044	3044	3044	3044	3044	3051	3051	3065	3087	3087	3109	3109	3116	3139	3139	3161	3169	3169	3169	3169	3169	3161	3161	3161	3161	3161	3161	3161	3169	3169	3169	3169	3184	3184	3184	3184	3192	3208	3208	3216	3224	3224	3232	3240	3240	3248	3256	3256	3256	3264	3264	3272	3272	3272	3272	3280	3280	3280	3288	3288	3288	3288	3288	3288	3288	3288	3288	3288	3288	3288	3288	3288	3288	3288	3288	3288	3288	3288	3288	3280	3280	3280	3280	3280	3280	3280	3288	3288	3288	3288	3288	3288	3288	3288	3288	3297	3297	3297	3297	3297	3297	3297	3297	3297	3297	3297	3288	3288	3288	3288	3280	3280	3272	3272	3272	3272	3264	3264	3264	3264	3264	3264	3264	3264	3264	3256	3256	3256	3256	3256	3248	3248	3240	3240	3232	3232	3232	3224	3224	3224	3224	3224	3224	3224
3264	3264	3264	3256	3256	3240	3232	3232	3208	3169	3139	3139	3109	3087	3072	3072	3065	3058	3058	3051	3051	3051	3051	3058	3058	3058	3058	3065	3065	3065	3065	3065	3065	3065	3065	3058	3058	3058	3051	3044	3044	3044	3044	3044	3044	3044	3044	3044	0	0	0	0	0	0	0	0	0	1268	1268	1262	1262	1262	1262	1262	1262	1260	1257	1255	1255	1250	1245	1245	1242	1237	1234	1234	1231	1231	1231	1230	1229	1229	1229	1228	1227	1227	1227	1225	1225	1225	1224	1224	1224	1223	1223	1222	1221	1221	1220	1220	1219	1219	1216	1215	1215	1214	1212	1212	1212	1210	1210	1212	1212	1212	1214	1214	1217	1217	1220	1221	1221	1223	1224	1224	1237	0	0	0	0	0	0	0	0	0	0	0	0	0	0	0	0	0	0	0	0	0	3154	3154	3161	3161	3169	3192	3192	3216	3232	3232	3256	3256	3256	3256	3264	3264	3264	3264	3256	3256	3256	3240	3232	3216	3216	3216	3208	3208	3208	0	0	0	0	0	0	0	0	1900	1900	1900	1900	1900	1900	1900	1900	1900	1900	1900	1900	1900	1900	1900	1897	1897	1897	1897	1897	1897	1897	1897	1897	1894	1894	1894	1894	1894	1894	1894	1891	1891	1891	1891	1891	1891	1891	1891	1891	1891	1894	1894	1894	1897	1897	1897	1900	1900	1900	1902	1902	1902	1905	1905	1905	1908	1908	1908	1911	1911	1913	1919	1919	1928	1942	1942	1953	1977	1977	1989	1989	2001	2020	2020	2042	2042	2071	2084	2084	2094	2104	2104	2108	2114	2114	2118	2118	2121	2121	2121	2121	2121	2121	2121	2121	2121	2121	2125	2125	2121	2121	2121	2121	2121	2121	2121	2121	2121	2121	2118	2118	2118	2118	2118	2118	2118	2118	2118	2118	2118	2118	2118	2118	2118	2118	2118	2118	2118	2118	2118	2118	2118	2118	2118	2121	2121	2121	2121	2125	2125	2128	2135	2135	2139	2146	2146	2146	2149	2149	2160	2163	2163	2163	2170	2170	2170	2170	2170	2170	2170	2170	2163	2163	2160	2160	2156	2156	2149	2149	2149	2146	2146	2146	2139	2139	2139	2139	2139	2139	2139	2139	2146	2146	2146	2149	2149	2149	2156	2156	2160	2160	2160	2160	2160	2160	2160	2160	2160	2160	2160	2160	2156	2156	2156	2156	2156	2156	2156	2156	2156	2149	2149	2149	2149	2156	2156	2156	2156	2160	2160	2160	2163	2163	2163	2163	2163	2170	2170	2170	2174	2181	2181	2185	2185	2185	2189	2192	2192	2196	2196	2196	2200	2203	2203	2203	2203	2203	2203	2203	2203	2203	2203	2203	2200	2200	2200	2200	2200	2200	2196	2196	2196	2196	2192	2192	2192	2189	2189	2189	2185	2185	2185	2185	2185	2185	2185	2185	2185	2185	2189	2189	2189	2192	2196	2196	2196	2200	2200	2203	2203	2203	2207	2211	2211	2215	2218	2218	2222	2226	2226	2233	2253	0	0	0	0	0	0	3051	3051	3087	3087	3094	3094	3094	3094	3109	3116	3116	3116	3116	3131	3131	3139	3139	3139	3139	3154	3154	3161	3169	3169	3169	3169	3184	3184	3192	3192	3208	3224	3224	3232	3240	3240	3248	3256	3256	3256	3256	3256	3256	3256	3248	3248	3240	3240	3240	3232	3232	3232	3232	3232	3224	3224	3224	3224	3224	3224	3224	3224	3224	3224	3224	3224	3224	3224	3224	3224	3232	3232	3232	3240	3240	3240	3240	3240	3240	3240	3240	3240	3232	3224	3224	3208	3184	3184	3161	3131	3116	3116	3087	3072	3072	3058	3051	3044	3044	3044	3044	3044	3044	3044	3044	3044	3044	3051	3051	3065	3087	3087	3094	3109	3116	3139	3139	3154	3161	3161	3161	3161	3161	3154	3154	3154	3154	3154	3154	3154	3154	3161	3161	3161	3161	3161	3169	3184	3184	3184	3184	3184	3192	3216	3216	3216	3216	3224	3232	3232	3240	3248	3248	3256	3256	3256	3264	3264	3264	3264	3272	3272	3272	3272	3272	3272	3272	3272	3272	3272	3272	3272	3272	3280	3280	3280	3280	3272	3272	3272	3272	3272	3272	3272	3272	3272	3272	3272	3272	3272	3280	3280	3280	3288	3288	3288	3288	3288	3288	3288	3297	3297	3297	3297	3288	3288	3288	3288	3288	3280	3280	3272	3264	3264	3264	3264	3264	3256	3256	3256	3256	3256	3256	3256	3256	3256	3248	3240	3240	3232	3224	3216	3216	3216	3208	3208	3208	3192	3192	3192	3192	3192	3192	3184	3184	3184
3256	3256	3256	3248	3248	3232	3216	3216	3184	3154	3116	3116	3094	3072	3051	3051	3051	3044	3044	3044	3044	3044	3044	3044	3044	3044	3044	3051	3051	3051	3051	3051	3051	3051	3051	3051	3051	3051	3044	3044	3044	3044	3044	3044	3044	3044	3044	3044	0	0	0	0	0	0	0	0	0	1268	1268	1268	1268	1268	1267	1265	1265	1262	1261	1261	1258	1256	1256	0	1249	1245	1241	1241	1238	1237	1237	1235	1235	1235	1235	1234	1234	1231	1230	1229	1229	1229	1228	1228	1227	1225	1225	1224	1223	1223	1222	1221	1220	1220	1217	1215	1215	1215	1212	1212	1212	1210	1210	1212	1212	1212	1214	1214	1217	1217	1220	1221	1221	1223	1224	1224	0	0	0	0	0	0	0	0	0	0	0	0	0	0	0	0	0	0	0	0	0	0	3161	3161	3184	3184	3192	3208	3208	3224	3248	3248	3256	3264	3264	3264	3264	3264	3264	3264	3256	3256	3256	3240	3232	3216	3216	3216	3216	0	0	0	0	0	0	0	0	0	0	0	0	1900	1900	1900	1900	1900	1900	1900	1902	1902	1902	1900	1900	1900	1900	1900	1900	1900	1900	1900	1897	1897	1897	1897	1897	1897	1897	1897	1897	1897	1897	1897	1897	1897	1897	1897	1897	1897	1897	1897	1897	1897	1897	1900	1900	1900	1900	1900	1902	1902	1902	1902	1905	1905	1905	1908	1908	1908	1911	1911	1913	1919	1919	1928	1942	1942	1953	1977	1977	1989	1989	2001	2020	2020	2042	2042	2071	2084	2084	2094	2104	2104	2108	2114	2114	2114	2114	2114	2118	2118	2118	2118	2118	2118	2118	2118	2118	2121	2121	2118	2118	2118	2118	2121	2121	2121	2121	2121	2118	2118	2118	2118	2118	2118	2118	2118	2118	2118	2118	2118	2118	2118	2118	2118	2118	2118	2118	2118	2118	2118	2118	2118	2118	2118	2121	2121	2121	2121	2125	2125	2128	2135	2135	2139	2146	2146	2146	2149	2149	2160	2163	2163	2163	2170	2170	2170	2170	2170	2170	2170	2170	2163	2163	2160	2160	2156	2156	2149	2149	2149	2146	2146	2146	2139	2139	2139	2139	2139	2139	2139	2139	2146	2146	2146	2149	2149	2149	2156	2156	2160	2160	2160	2160	2160	2160	2160	2160	2160	2160	2160	2160	2156	2156	2156	2156	2156	2156	2156	2156	2156	2149	2149	2149	2149	2156	2156	2156	2156	2160	2160	2160	2163	2163	2163	2163	2163	2170	2170	2170	2174	2181	2174	2174	2174	2174	2181	2185	2185	2189	2192	2192	2196	2196	2196	2200	2200	2200	2200	2200	2200	2200	2196	2196	2196	2196	2196	2196	2192	2192	2192	2192	2192	2189	2189	2189	2189	2185	2185	2185	2181	2181	2181	2181	2174	2174	2174	2174	2174	2174	2174	2174	2174	2181	2185	2185	2185	2185	2185	2189	2192	2192	2200	2203	2203	2207	2211	2211	2215	2218	2218	2222	2226	2226	0	0	0	0	0	0	0	0	3109	3109	3109	3109	3109	3109	3116	3116	3116	3131	3131	3131	3131	3131	3131	3131	3131	3139	3139	3139	3139	3139	3154	3154	3154	3154	3161	3161	3169	3184	3184	3184	3208	3208	3216	3216	3216	3216	3216	3216	3216	3216	3208	3208	3208	3208	3208	3208	3192	3192	3208	3208	3208	3208	3192	3192	3192	3192	3208	3208	3208	3208	3208	3208	3216	3216	3216	3216	3224	3224	3224	3232	3232	3232	3240	3240	3240	3240	3240	3232	3224	3224	3208	3184	3184	3161	3131	3116	3116	3087	3072	3072	3051	3051	3044	3044	3037	3037	3037	3037	3037	3037	3037	3044	3051	3051	3065	3080	3080	3094	3116	3116	3139	3139	3154	3161	3161	3161	3161	3161	3154	3154	3154	3154	3154	3154	3154	3154	3161	3161	3161	3161	3161	3169	3184	3184	3184	3184	3184	3192	3216	3216	3216	3216	3224	3232	3232	3240	3248	3248	3256	3256	3256	3264	3264	3264	3264	3272	3272	3272	3272	3272	3272	3272	3272	3272	3272	3272	3272	3272	3280	3280	3280	3280	3272	3272	3272	3272	3272	3272	3272	3272	3272	3272	3272	3272	3272	3280	3280	3280	3288	3288	3288	3288	3288	3288	3288	3297	3297	3288	3288	3288	3280	3280	3280	3272	3272	3272	3264	3256	3256	3256	3256	3256	3248	3240	3240	3240	3232	3232	3232	3232	3232	3224	3216	3208	3208	3192	3192	3192	3169	3169	3169	3169	3161	3161	3161	3161	3161	3154	3154	3154	3154
3240	3248	3248	3240	3240	3224	3208	3169	3169	3139	3109	3109	3080	3058	3051	3051	3044	3037	3037	3037	3030	3030	3030	3037	3037	3037	3044	3044	3044	3044	3044	3044	3044	3044	3044	3044	3044	3044	3044	3044	3044	3044	3044	3044	3044	3044	3044	3044	0	0	0	0	0	0	0	0	0	1268	1268	1268	1268	1268	1267	1265	1265	1262	1261	1261	1258	1256	1256	1256	1249	1245	1241	1241	1238	1237	1237	1235	1235	1235	1235	1234	1234	1231	1230	1229	1229	1229	1228	1228	1227	1225	1225	1224	1223	1223	1222	1221	1220	1220	1217	1215	1215	1215	1212	1212	1212	1208	1208	1208	1208	1208	1208	1208	1212	1215	1215	1215	1217	1217	1224	1224	0	0	0	0	0	0	0	0	0	0	0	0	0	0	0	0	0	0	0	0	0	0	0	3208	3208	3208	3216	3224	3224	3232	3256	3256	3264	3264	3264	3264	3272	3272	3264	3264	3264	3256	3256	3248	3232	3216	3216	3216	0	0	0	0	0	0	0	0	0	0	0	0	0	0	1902	1902	1902	1902	1902	1902	1902	1902	1902	1902	1902	1902	1902	1902	1902	1900	1900	1900	1900	1900	1900	1900	1900	1900	1897	1897	1897	1897	1897	1897	1897	1897	1897	1897	1900	1900	1900	1900	1900	1900	1900	1902	1902	1902	1902	1902	1905	1908	1908	1908	1908	1908	1908	1911	1911	1911	1913	1913	1919	1925	1925	1936	1945	1945	1962	1980	1980	1992	1992	2001	2020	2020	2042	2042	2064	2084	2084	2094	2101	2101	2108	2108	2108	2111	2111	2111	2111	2111	2111	2114	2114	2114	2114	2114	2114	2114	2114	2114	2114	2114	2114	2118	2118	2118	2118	2118	2118	2118	2118	2118	2118	2118	2118	2118	2118	2118	2118	2118	2118	2118	2121	2121	2118	2118	2118	2118	2118	2118	2118	2118	2121	2121	2121	2121	2121	2121	2125	2125	2128	2135	2135	2139	2146	2146	2146	2149	2149	2156	2160	2160	2160	2160	2160	2163	2163	2160	2160	2160	2160	2160	2160	2156	2156	2149	2149	2146	2146	2146	2139	2139	2139	2139	2135	2135	2135	2135	2135	2135	2135	2135	2135	2139	2139	2139	2139	2146	2146	2149	2149	2149	2149	2149	2149	2149	2149	2149	2149	2149	2149	2146	2146	2146	2146	2146	2146	2146	2146	2146	2146	2146	2146	2146	2149	2149	2149	2149	2149	2149	2156	2156	2156	2156	2160	2160	2160	2163	2163	2170	2170	2170	2174	2174	2174	2181	2185	2185	2189	2192	2192	2196	2196	2196	2200	2200	2200	2200	2200	2200	2200	2196	2196	2196	2196	2196	2196	2192	2192	2192	2192	2192	2189	2189	2189	2189	2185	2185	2185	2181	2181	2181	2181	2174	2174	2174	2174	2174	2174	2174	2174	2174	2181	2185	2185	2185	2185	2185	2189	2192	2192	2200	2203	2203	2207	2211	2211	2215	2218	2218	2222	2226	2226	0	0	0	0	0	0	0	0	3116	3116	3116	3116	3116	3116	3116	3116	3116	3116	3109	3109	3109	3109	3109	3109	3109	3109	3109	3109	3109	3109	3109	3109	3094	3094	3109	3109	3116	3116	3116	3131	3139	3139	3154	3154	3154	3161	3161	3161	3161	3169	3169	3169	3169	3169	3169	3169	3169	3169	3169	3169	3169	3169	3169	3169	3169	3169	3184	3184	3184	3184	3192	3192	3192	3208	3208	3208	3216	3216	3216	3216	3224	3224	3224	3232	3232	3232	3232	3232	3224	3224	3208	3192	3192	3169	3139	3116	3116	3087	3072	3072	3051	3051	3044	3044	3037	3037	3037	3037	3037	3037	3037	3044	3051	3051	3065	3080	3080	3094	3116	3116	3139	3139	3154	3161	3161	3161	3161	3161	3154	3154	3154	3139	3139	3154	3139	3139	3154	3139	3139	3154	3139	3139	3154	3154	3161	3161	3161	3161	3169	3169	3184	3192	3192	3208	3216	3216	3224	3232	3232	3232	3248	3248	3248	3256	3256	3256	3256	3256	3264	3264	3264	3264	3264	3264	3264	3272	3272	3272	3272	3272	3272	3272	3272	3272	3272	3264	3264	3264	3264	3264	3264	3264	3272	3272	3272	3272	3272	3272	3280	3280	3280	3280	3288	3288	3288	3288	3288	3288	3288	3288	3280	3280	3280	3272	3272	3272	3264	3256	3256	3256	3256	3256	3248	3240	3240	3240	3232	3232	3232	3232	3232	3224	3216	3208	3208	3192	3192	3192	3169	3169	3169	3169	3161	3161	3161	3161	3161	3154	3154	3154	3154
3240	3248	3248	3240	3240	3224	3208	3169	3169	3139	3109	3109	3080	3058	3051	3051	3044	3037	3037	3037	3030	3030	3030	3037	3037	3037	3044	3044	3044	3037	3037	3037	3037	3037	3044	3037	3037	3044	3037	3037	3044	3044	3044	3044	3044	3044	3044	3044	0	0	0	0	0	0	0	0	0	0	1272	1272	1272	1272	1272	1269	1269	1267	1263	1263	1261	1258	1256	1256	1254	1250	1250	1245	1243	1241	1241	1241	1241	1241	1241	1238	1238	1237	1237	1237	1235	1234	1231	1231	1230	1229	1229	1227	1225	1225	1223	1222	1221	1221	1219	1217	1217	1215	1213	1213	1212	1208	1206	1206	1206	1205	1205	1204	1204	1206	1206	1208	1208	1206	1206	0	0	0	0	0	0	0	0	0	0	0	0	0	0	0	0	0	0	0	0	0	0	0	0	3208	3208	3208	3216	3224	3224	3232	3256	3256	3264	3264	3264	3264	3272	3272	3264	3264	3264	3256	3256	3248	3232	3216	3216	3216	0	0	0	0	0	0	0	0	0	0	0	0	0	0	1902	1902	1902	1902	1902	1902	1902	1902	1902	1902	1902	1902	1902	1902	1902	1900	1900	1900	1900	1900	1900	1900	1900	1900	1897	1897	1897	1897	1897	1897	1897	1897	1897	1897	1900	1900	1900	1902	1902	1902	1902	1902	1902	1905	1908	1908	1908	1908	1908	1911	1911	1911	1913	1916	1916	1919	1922	1922	1925	1933	1933	1942	1953	1953	1965	1983	1983	1992	1992	2001	2020	2020	2042	2042	2064	2084	2084	2094	2101	2101	2108	2108	2108	2111	2111	2111	2111	2111	2111	2114	2114	2114	2114	2114	2114	2114	2114	2114	2114	2114	2114	2118	2118	2118	2118	2118	2118	2118	2118	2118	2118	2118	2118	2118	2118	2118	2118	2118	2121	2121	2121	2121	2118	2118	2118	2118	2118	2118	2118	2121	2121	2121	2121	2121	2121	2125	2128	2128	2128	2135	2135	2135	2139	2139	2139	2146	2146	2149	2149	2149	2156	2156	2156	2156	2156	2156	2156	2156	2149	2149	2149	2149	2146	2146	2146	2139	2139	2139	2135	2128	2128	2128	2128	2128	2125	2125	2125	2125	2125	2128	2128	2128	2128	2128	2128	2135	2139	2139	2139	2139	2139	2139	2139	2139	2139	2139	2139	2139	2139	2139	2139	2139	2139	2139	2139	2139	2139	2139	2139	2139	2139	2139	2139	2146	2146	2146	2146	2146	2149	2149	2149	2149	2156	2156	2156	2156	2156	2156	2160	2163	2163	2170	2170	2170	2174	2181	2181	2185	2185	2185	2189	2189	2189	2192	2192	2192	2192	2192	2192	2192	2192	2189	2189	2192	2192	2189	2189	2189	2185	2185	2185	2185	2185	2185	2181	2174	2174	2174	2174	2174	2170	2170	2170	2170	2163	2163	2163	2163	2163	2163	2170	2170	2170	2170	2170	2170	2174	2181	2181	2189	2192	2192	2200	2207	2207	2207	2211	2211	2215	2218	2218	0	0	0	0	0	0	0	0	3116	3116	3116	3116	3116	3109	3109	3116	3116	3116	3109	3109	3109	3109	3109	3109	3109	3109	3109	3109	3109	3109	3109	3109	3094	3094	3109	3109	3116	3116	3116	3131	3139	3139	3154	3154	3154	3161	3161	3161	3161	3169	3169	3169	3169	3169	3169	3169	3169	3169	3169	3169	3169	3169	3169	3169	3169	3169	3184	3184	3184	3184	3192	3192	3192	3208	3208	3208	3216	3216	3216	3216	3224	3224	3224	3232	3232	3232	3232	3232	3224	3224	3216	3192	3192	3169	3154	3116	3116	3094	3080	3080	3065	3051	3044	3044	3044	3044	3044	3044	3044	3044	3044	3044	3051	3051	3065	3080	3080	3094	3094	3116	3139	3139	3154	3154	3154	3154	3154	3154	3139	3139	3139	3131	3131	3131	3131	3131	3131	3131	3131	3131	3131	3131	3131	3131	3131	3131	3131	3139	3154	3154	3154	3161	3161	3161	3184	3184	3192	3192	3192	3216	3216	3216	3232	3232	3232	3248	3248	3248	3256	3256	3256	3256	3264	3264	3264	3264	3264	3264	3272	3272	3272	3272	3272	3264	3264	3264	3264	3264	3264	3264	3264	3264	3272	3272	3272	3272	3272	3272	3272	3272	3272	3272	3280	3280	3280	3280	3280	3280	3280	3280	3272	3272	3272	3264	3264	3264	3256	3248	3248	3240	3232	3232	3224	3224	3224	3216	3216	3216	3208	3208	3208	3208	3184	3169	3169	3161	3154	3154	3139	3139	3139	3131	3131	3131	3131	3116	3116	3116	3116	3116	3116
3232	3232	3232	3224	3224	3208	3192	3161	3161	3131	3109	3109	3080	3058	3044	3044	3037	3030	3030	3030	3030	3030	3030	3030	3030	3030	3030	3030	3030	3030	3037	3037	3037	3037	3044	3037	3037	3044	3037	3037	3044	3044	3044	3044	3044	3044	3044	3044	0	0	0	0	0	0	0	0	0	0	1279	1276	1276	1276	1276	1276	1276	1272	1267	1267	1263	1261	1258	1258	1257	1255	1255	1252	1250	1250	1249	1246	1245	1245	1245	1243	1243	1243	1242	1242	1241	1241	1241	1238	1235	1234	1234	1231	1229	1229	1225	1224	1224	1223	1221	1219	1219	1217	1214	1214	1212	1210	1206	1206	1206	1205	1205	1204	1204	1206	1206	1208	1208	1206	1206	0	0	0	0	0	0	0	0	0	0	0	0	0	0	0	0	0	0	0	0	0	0	0	0	0	1368	1366	1366	1366	1362	1362	1362	1362	1362	1360	1360	1360	1360	0	0	0	0	0	0	0	0	0	0	0	0	0	0	0	0	0	0	0	0	0	0	0	0	1905	1902	1902	1902	1902	1902	1902	1902	1905	1905	1905	1905	1902	1902	1902	1902	1902	1902	1902	1900	1900	1900	1900	1900	1900	1900	1900	1900	1900	1900	1900	1900	1900	1900	1900	1902	1902	1902	1902	1902	1902	1902	1902	1902	1905	1908	1908	1908	1908	1908	1911	1911	1911	1913	1916	1916	1919	1922	1922	1925	1933	1933	1942	1953	1953	1965	1974	1983	1992	1992	2001	2017	2017	2039	2039	2061	2081	2081	2091	2097	2097	2104	2108	2108	2108	2108	2108	2108	2108	2108	2108	2108	2108	2111	2111	2111	2111	2111	2111	2111	2114	2114	2114	2118	2118	2118	2118	2118	2118	2118	2118	2118	2118	2118	2118	2118	2118	2118	2118	2118	2118	2118	2118	2118	2118	2118	2118	2118	2121	2121	2121	2121	2121	2125	2125	2125	2125	2128	2128	2128	2135	2135	2135	2139	2139	2139	2146	2146	2149	2149	2149	2156	2156	2156	2156	2156	2156	2156	2156	2149	2149	2149	2149	2146	2146	2146	2139	2139	2139	2135	2128	2128	2128	2128	2128	2125	2125	2125	2125	2125	2128	2128	2128	2128	2128	2128	2135	2139	2139	2139	2139	2139	2139	2139	2139	2139	2139	2139	2139	2139	2139	2139	2139	2139	2139	2139	2139	2139	2139	2139	2139	2139	2139	2139	2146	2146	2146	2146	2146	2146	2146	2146	2146	2146	2146	2146	2149	2149	2149	2156	2156	2156	2160	2160	2160	2163	2170	2170	2174	2181	2181	2181	2181	2181	2181	2185	2185	2185	2185	2185	2185	2185	2185	2185	2185	2185	2185	2185	2185	2181	2181	2181	2181	2181	2181	2174	2170	2170	2170	2163	2163	2160	2160	2160	2160	2156	2156	2156	2156	2156	2156	2156	2156	2156	2156	2160	2160	2160	2163	2163	2170	2181	2181	2189	2196	2196	2203	2203	2203	2207	2207	2207	0	0	0	0	0	0	0	0	3116	3116	3116	3109	3109	3109	3109	3109	3109	3109	3094	3094	3094	3094	3094	3087	3087	3087	3087	3087	3087	3080	3080	3080	3072	3072	3080	3080	3080	3080	3080	3087	3087	3087	3094	3109	3109	3116	3116	3116	3131	3131	3131	3139	3139	3139	3139	3139	3139	3139	3154	3154	3154	3154	3154	3154	3161	3161	3161	3161	3169	3169	3169	3184	3184	3184	3184	3184	3192	3192	3192	3208	3216	3216	3216	3224	3224	3224	3224	3224	3224	3224	3216	3192	3192	3169	3154	3116	3116	3094	3080	3080	3065	3051	3044	3044	3044	3044	3044	3044	3044	3051	3051	3051	3058	3058	3072	3087	3087	3094	3094	3116	3139	3139	3154	3154	3154	3154	3154	3154	3139	3139	3139	3131	3131	3131	3131	3131	3131	3131	3131	3131	3131	3131	3131	3131	3131	3131	3131	3139	3154	3154	3154	3161	3161	3161	3184	3184	3192	3192	3192	3216	3216	3216	3232	3232	3232	3248	3248	3248	3256	3256	3256	3256	3264	3264	3264	3264	3264	3264	3272	3272	3272	3272	3272	3264	3264	3264	3264	3272	3272	3272	3272	3272	3272	3272	3272	3272	3272	3272	3272	3272	3272	3272	3272	3272	3272	3272	3272	3272	3272	3272	3264	3264	3264	3256	3248	3248	3232	3224	3224	3216	3208	3208	3208	3192	3184	3184	3169	3169	3169	3169	3161	3161	3139	3116	3116	3116	3109	3094	3094	3094	3094	3094	3094	3094	3094	3087	3087	3087	3087	3094	3094
3216	3216	3216	3216	3216	3208	3184	3161	3161	3131	3094	3094	3072	3051	3044	3044	3037	3030	3030	3030	3030	3030	3030	3030	3030	3030	3030	3030	3030	3030	3030	3037	3037	3037	3037	3037	3037	3044	3037	3037	3037	3037	3037	3044	3037	3037	3044	3044	3044	0	0	0	0	0	0	0	0	0	1279	1276	1276	1276	1276	1276	1276	1272	1267	1267	1263	1261	1258	1258	1257	1255	1255	1252	1250	1250	1249	1246	1245	1245	1245	1243	1243	1243	1242	1242	1241	1241	1241	1238	1235	1234	1234	1231	1229	1229	1225	1224	1224	1223	1221	1219	1219	1217	1214	1214	1212	1210	1206	1206	1205	1202	1202	1201	1201	1201	1197	1197	1195	1195	1195	0	0	0	0	0	0	0	0	0	0	0	0	0	0	0	0	0	0	0	0	0	0	0	0	0	1368	1366	1366	1366	1362	1362	1362	1362	1362	1360	1360	1360	1360	0	0	0	0	0	0	0	0	0	0	0	0	0	0	0	0	0	0	0	0	0	0	0	0	1905	1905	1905	1905	1905	1905	1905	1908	1908	1908	1908	1908	1908	1905	1905	1905	1902	1902	1902	1902	1902	1902	1902	1902	1902	1902	1902	1902	1902	1902	1902	1902	1902	1902	1902	1902	1902	1902	1902	1905	1905	1905	1908	1908	1908	1911	1911	1911	1913	1913	1913	1916	1916	1919	1922	1922	1925	1928	1928	1936	1945	1945	1953	1962	1962	1974	1974	1986	1992	1992	2004	2017	2017	2039	2039	2055	2077	2077	2091	2094	2094	2101	2104	2104	2104	2108	2108	2108	2108	2108	2108	2108	2108	2108	2108	2108	2108	2108	2108	2108	2111	2111	2114	2114	2114	2118	2118	2118	2118	2118	2118	2118	2118	2118	2118	2118	2118	2118	2118	2118	2118	2118	2118	2118	2118	2121	2121	2121	2121	2121	2121	2121	2121	2125	2125	2125	2125	2128	2128	2128	2135	2135	2135	2139	2139	2139	2146	2146	2146	2149	2149	2149	2149	2149	2149	2149	2149	2146	2146	2146	2139	2139	2139	2135	2135	2135	2128	2128	2128	2128	2128	2128	2125	2121	2121	2121	2121	2121	2121	2121	2121	2121	2121	2121	2125	2125	2125	2128	2128	2128	2128	2128	2128	2128	2128	2128	2128	2128	2128	2128	2128	2128	2128	2128	2128	2135	2135	2135	2135	2135	2135	2135	2135	2139	2139	2139	2139	2146	2146	2146	2146	2146	2146	2146	2146	2146	2149	2149	2149	2156	2156	2156	2160	2160	2160	2163	2170	2170	2174	2181	2181	2181	2181	2181	2181	2185	2185	2185	2185	2185	2185	2185	2185	2185	2185	2185	2185	2185	2185	2181	2181	2181	2181	2181	2181	2174	2170	2170	2170	2163	2163	2160	2160	2160	2160	2156	2156	2156	2156	2156	2156	2156	2156	2156	2156	2160	2160	2160	2163	2163	2170	2181	2181	2189	2196	2196	2203	2203	2203	2207	2207	2207	0	0	0	0	0	0	0	0	3116	3116	3109	3109	3109	3109	3094	3094	3094	3094	3087	3087	3087	3080	3080	3080	3072	3072	3072	3065	3065	3065	3058	3058	3051	3051	3051	3051	3051	3058	3058	3058	3065	3072	3072	3072	3072	3072	3080	3087	3087	3094	3109	3094	3094	3116	3116	3116	3116	3116	3131	3131	3131	3131	3131	3131	3139	3139	3139	3154	3154	3154	3161	3161	3161	3169	3169	3169	3184	3184	3184	3184	3192	3192	3192	3216	3216	3216	3224	3224	3224	3224	3216	3192	3192	3184	3161	3131	3131	3116	3087	3087	3072	3058	3058	3051	3051	3044	3044	3044	3044	3051	3051	3051	3058	3058	3072	3087	3087	3094	3094	3116	3131	3131	3139	3139	3139	3139	3139	3139	3131	3116	3116	3116	3116	3116	3116	3116	3116	3116	3116	3116	3116	3116	3116	3116	3116	3116	3116	3116	3131	3131	3131	3131	3131	3139	3154	3154	3161	3169	3169	3169	3192	3192	3208	3216	3216	3224	3232	3232	3240	3248	3248	3256	3256	3256	3256	3264	3264	3264	3264	3264	3264	3264	3264	3264	3264	3264	3264	3264	3264	3264	3264	3264	3264	3272	3272	3272	3272	3264	3264	3272	3272	3272	3272	3272	3272	3272	3272	3272	3272	3272	3264	3264	3264	3256	3248	3248	3232	3224	3224	3216	3208	3208	3208	3192	3184	3184	3169	3169	3169	3169	3161	3161	3139	3116	3116	3116	3109	3094	3094	3094	3094	3094	3094	3094	3094	3087	3087	3087	3087	3094	3094
3216	3216	3216	3216	3216	3208	3184	3161	3161	3139	3094	3094	3072	3051	3044	3044	3037	3030	3030	3030	3030	3030	3030	3030	3030	3030	3030	3030	3030	3030	3030	3037	3037	3037	3037	3037	3044	3044	3044	3037	3037	3037	3037	3044	3037	3037	3044	3044	3044	0	0	0	0	0	0	0	0	0	0	0	0	0	1282	1282	1279	1277	1273	1273	1269	1266	1266	1262	1261	1258	1258	1256	1255	1255	1254	1251	1251	1251	1251	1251	1250	1249	1246	1246	1246	1245	1245	1243	1242	1242	1238	1235	1234	1234	1229	1227	1227	1224	1222	1220	1220	1219	1216	1216	1214	1212	1208	1208	1205	1201	1201	1197	1195	1193	1193	1193	1193	1195	1195	0	0	0	0	0	0	0	0	0	0	0	0	0	0	0	0	1353	1353	1353	1353	1358	0	1362	1362	1365	1365	1362	1362	1362	1360	1360	1360	1360	1362	1360	1360	1360	1360	0	0	0	0	0	0	0	0	0	0	0	0	0	0	0	0	0	0	0	0	0	0	0	0	1905	1905	1905	1905	1905	1905	1905	1908	1908	1908	1908	1908	1908	1905	1905	1905	1902	1902	1902	1902	1902	1902	1902	1902	1902	1902	1902	1902	1902	1902	1902	1902	1902	1902	1902	1902	1905	1905	1905	1908	1908	1908	1908	1908	1911	1911	1911	1916	1916	1916	1922	1925	1925	1928	1936	1936	1942	1945	1945	1951	1953	1953	1962	1971	1971	1980	1980	1989	1995	1995	2004	2017	2017	2039	2039	2055	2077	2077	2091	2094	2094	2101	2104	2104	2104	2108	2108	2108	2108	2108	2108	2108	2108	2108	2108	2108	2108	2108	2108	2108	2111	2111	2114	2114	2114	2118	2118	2118	2118	2118	2118	2118	2118	2118	2118	2118	2118	2118	2118	2118	2118	2118	2118	2118	2118	2118	2118	2121	2121	2121	2121	2121	2121	2125	2125	2125	2125	2128	2128	2135	2135	2135	2135	2139	2139	2139	2139	2139	2139	2139	2139	2139	2139	2139	2139	2139	2139	2139	2135	2135	2135	2128	2128	2128	2125	2125	2125	2125	2125	2121	2121	2121	2121	2118	2118	2118	2118	2118	2118	2118	2118	2118	2118	2118	2118	2118	2121	2121	2121	2121	2121	2121	2121	2121	2121	2121	2125	2125	2125	2125	2125	2125	2128	2128	2128	2128	2128	2128	2135	2135	2135	2135	2135	2135	2139	2139	2139	2139	2139	2139	2139	2139	2139	2139	2139	2139	2139	2139	2139	2146	2146	2146	2149	2156	2156	2156	2160	2160	2160	2163	2163	2170	2170	2170	2170	2170	2170	2174	2174	2174	2174	2174	2174	2174	2174	2174	2174	2174	2174	2174	2174	2174	2174	2174	2170	2170	2163	2163	2160	2160	2160	2156	2149	2149	2149	2146	2146	2139	2139	2139	2139	2146	2139	2139	2139	2146	2149	2149	2149	2160	2160	2163	2163	2174	2185	2185	2192	2196	2196	2200	2203	2203	0	0	0	0	0	0	0	0	3116	3116	3109	3109	3109	3109	3094	3094	3094	3094	3087	3087	3087	3080	3080	3080	3072	3072	3072	3065	3065	3065	3058	3058	3051	3051	3051	3051	3051	3058	3058	3058	3065	3072	3072	3072	3072	3072	3080	3087	3087	3094	3109	3094	3094	3116	3116	3116	3116	3116	3131	3131	3131	3131	3131	3131	3139	3139	3139	3154	3154	3154	3161	3161	3161	3169	3169	3169	3184	3184	3184	3184	3192	3192	3192	3216	3216	3216	3224	3224	3224	3224	3216	3208	3208	3192	3169	3169	3154	3131	3109	3109	3087	3072	3072	3065	3058	3051	3051	3051	3051	3058	3058	3058	3065	3065	3080	3087	3087	3109	3109	3109	3131	3131	3131	3131	3131	3116	3116	3116	3116	3109	3109	3109	3109	3109	3109	3109	3109	3109	3109	3109	3109	3109	3109	3109	3109	3109	3109	3109	3116	3116	3116	3116	3116	3131	3131	3131	3139	3154	3154	3154	3161	3161	3169	3192	3192	3208	3216	3216	3224	3232	3232	3240	3248	3248	3256	3256	3256	3264	3264	3264	3264	3264	3264	3264	3264	3264	3264	3264	3264	3264	3264	3264	3264	3264	3264	3264	3264	3264	3264	3264	3264	3264	3264	3264	3264	3264	3264	3264	3264	3264	3256	3256	3256	3240	3224	3224	3216	3192	3192	3184	3169	3154	3154	3154	3131	3131	3131	3116	3116	3109	3094	3094	3087	3080	3072	3072	3065	3065	3065	3065	3065	3072	3072	3072	3072	3072	3072	3072	3072	3072	3072
3192	3208	3208	3208	3208	3192	3169	3154	3154	3131	3094	3094	3072	3051	3044	3044	3037	3030	3030	3030	3030	3030	3030	3030	3030	3030	3037	3037	3037	3037	3044	3044	3044	3044	3044	3044	3044	3044	3044	3044	3044	3044	3044	3044	3044	3044	3044	3044	3044	0	0	0	0	0	0	0	0	0	0	0	0	0	1286	1286	1284	1284	1284	1279	1276	1269	1269	1267	1265	1265	1262	1260	1258	1258	1257	1256	1256	1256	1256	1256	1255	1254	1251	1251	1251	1250	1250	1249	1246	1246	1243	1242	1238	1238	1234	1230	1230	1227	1224	1221	1221	1220	1217	1217	1215	1212	1208	1208	1205	1201	1201	1197	1195	1192	1192	1191	1189	1189	1189	1188	1188	1188	0	0	0	0	0	0	0	0	0	0	0	0	0	1348	1348	1351	1351	1353	1356	1356	1360	1360	1360	1360	1360	1360	1358	1358	1358	1360	1360	1360	1360	1360	1360	0	0	0	0	0	0	0	0	0	0	0	0	0	0	0	0	0	0	0	0	0	0	0	0	0	0	1908	1908	1908	1908	1908	1908	1908	1908	1908	1908	1908	1908	1908	1908	1908	1908	1905	1905	1905	1905	1902	1902	1902	1902	1902	1902	1902	1902	1902	1902	1902	1902	1902	1902	1905	1905	1905	1908	1908	1908	1908	1908	1911	1911	1911	1916	1916	1916	1922	1925	1925	1928	1936	1936	1942	1945	1945	1951	1953	1953	1962	1971	1971	1980	1980	1989	1995	1995	2004	2017	2017	2032	2039	2051	2071	2071	2084	2094	2094	2097	2101	2101	2104	2104	2104	2104	2104	2104	2104	2104	2104	2104	2108	2108	2108	2108	2108	2108	2108	2108	2111	2114	2114	2114	2114	2114	2118	2118	2118	2118	2118	2118	2118	2118	2118	2118	2118	2118	2118	2118	2118	2118	2118	2118	2118	2121	2121	2121	2121	2125	2125	2125	2128	2128	2128	2128	2128	2135	2135	2135	2139	2139	2139	2139	2139	2139	2139	2139	2139	2139	2139	2139	2139	2139	2139	2139	2135	2135	2135	2128	2128	2128	2125	2125	2125	2125	2125	2121	2121	2121	2121	2118	2118	2118	2118	2118	2118	2118	2118	2118	2118	2118	2118	2118	2121	2121	2121	2121	2121	2121	2121	2121	2121	2121	2125	2125	2125	2125	2125	2125	2128	2128	2128	2128	2128	2128	2135	2135	2135	2135	2135	2135	2135	2135	2135	2135	2135	2135	2135	2135	2135	2135	2135	2135	2135	2135	2135	2135	2135	2135	2139	2139	2139	2146	2149	2149	2156	2156	2156	2156	2160	2160	2160	2163	2163	2163	2163	2163	2170	2170	2170	2170	2170	2170	2170	2170	2170	2163	2163	2163	2163	2163	2163	2160	2156	2156	2149	2149	2149	2146	2139	2139	2139	2135	2135	2135	2128	2128	2128	2128	2135	2135	2135	2135	2135	2135	2139	2146	2146	2156	2160	2160	2174	2174	2185	2185	2185	2192	2196	2196	2203	0	0	0	0	0	0	0	3094	3094	3094	3094	3094	3094	3087	3087	3087	3087	3080	3080	3072	3065	3065	3058	3058	3058	3058	3051	3051	3051	3044	3044	3044	3044	3044	3044	3044	3044	3044	3044	3044	3044	3044	3051	3051	3051	3058	3058	3058	3072	3072	3072	3080	3080	3080	3087	3094	3094	3109	3109	3109	3109	3116	3116	3131	3131	3131	3139	3139	3139	3154	3154	3154	3161	3161	3161	3169	3169	3169	3169	3184	3184	3184	3208	3208	3208	3216	3216	3216	3224	3216	3208	3208	3192	3169	3169	3154	3154	3139	3139	3116	3109	3109	3087	3080	3080	3072	3072	3072	3072	3072	3072	3072	3080	3087	3087	3094	3109	3109	3109	3131	3131	3131	3131	3131	3116	3116	3116	3116	3109	3109	3109	3109	3109	3109	3109	3109	3109	3109	3109	3109	3109	3109	3109	3109	3109	3109	3109	3116	3116	3116	3116	3116	3131	3131	3131	3139	3154	3154	3154	3161	3161	3169	3192	3192	3208	3216	3216	3224	3232	3232	3240	3248	3248	3256	3256	3256	3264	3264	3264	3264	3264	3264	3264	3264	3264	3264	3264	3264	3264	3264	3264	3264	3264	3256	3256	3256	3256	3256	3256	3256	3248	3248	3248	3248	3256	3256	3248	3248	3248	3240	3240	3240	3216	3208	3208	3184	3161	3154	3154	3139	3116	3116	3109	3094	3094	3080	3072	3065	3065	3058	3051	3051	3051	3051	3051	3051	3051	3051	3051	3051	3051	3051	3051	3051	3051	3051	3058	3058	3065	3065
3184	3184	3184	3192	3192	3184	3169	3154	3154	3131	3094	3094	3072	3051	3044	3044	3037	3030	3030	3030	3030	3030	3030	3030	3030	3030	3037	3037	3037	3037	3044	3044	3044	3044	3044	3044	3044	3044	3044	3044	3044	3044	3044	3044	3044	3044	3044	3044	3044	0	0	0	0	0	0	0	0	0	0	1289	1289	1289	1286	1286	1284	1284	1284	1279	1276	1269	1269	1267	1265	1265	1262	1260	1258	1258	1257	1256	1256	1256	1256	1256	1255	1254	1251	1251	1251	1250	1250	1249	1246	1246	1243	1242	1238	1238	1234	1230	1230	1227	1224	1221	1221	1220	1217	1217	1215	1212	1208	1208	1205	1201	1201	1195	1195	1192	1192	1191	1189	1189	1189	1188	1188	1188	0	0	0	0	0	0	0	0	0	0	0	0	0	1348	1348	1351	1351	1353	1356	1356	1360	1360	1360	1360	1360	1360	1358	1358	1358	1360	1360	1360	1360	1362	1362	0	0	0	0	0	0	0	0	0	0	0	0	0	0	0	0	0	0	0	0	0	0	0	0	0	0	0	1911	1911	1911	1911	1911	1911	1911	1911	1911	1911	1911	1911	1911	1908	1908	1908	1908	1908	1908	1908	1908	1905	1902	1902	1902	1902	1902	1902	1902	1905	1905	1905	1905	1908	1908	1908	1908	1908	1908	1911	1911	1911	1913	1913	1919	1922	1922	1925	1933	1933	1936	1945	1945	1951	1953	1953	1962	1962	1965	1974	1974	1977	1986	1986	1992	1995	1995	2004	2014	2014	2029	2048	2048	2064	2064	2081	2091	2091	2094	2097	2097	2101	2101	2101	2101	2104	2104	2104	2104	2104	2104	2104	2104	2104	2104	2104	2108	2108	2108	2108	2111	2111	2111	2114	2114	2114	2118	2118	2118	2118	2118	2114	2114	2114	2114	2114	2114	2114	2114	2118	2118	2118	2118	2118	2118	2121	2121	2121	2125	2125	2125	2128	2128	2128	2128	2128	2135	2135	2135	2139	2139	2139	2139	2139	2139	2139	2139	2135	2135	2135	2135	2128	2128	2128	2128	2125	2125	2121	2121	2121	2121	2121	2121	2118	2118	2118	2118	2118	2118	2118	2114	2114	2114	2114	2111	2111	2111	2111	2111	2111	2111	2111	2111	2114	2114	2114	2118	2118	2118	2118	2118	2118	2118	2118	2118	2118	2121	2121	2121	2125	2125	2125	2125	2125	2128	2128	2128	2128	2135	2135	2135	2135	2135	2135	2135	2135	2135	2135	2135	2135	2135	2135	2135	2135	2135	2135	2135	2135	2135	2139	2139	2139	2146	2149	2149	2156	2156	2156	2156	2160	2160	2160	2163	2163	2163	2163	2163	2170	2170	2170	2170	2170	2170	2170	2170	2170	2163	2163	2163	2163	2163	2163	2160	2156	2156	2149	2149	2149	2146	2139	2139	2139	2135	2135	2135	2128	2128	2128	2128	2135	2135	2135	2135	2135	2135	2139	2146	2146	2156	2160	2160	2174	2174	2185	2185	2185	2192	2196	2196	2200	0	0	0	0	0	0	0	3087	3087	3087	3087	3087	3087	3080	3080	3080	3080	3072	3072	3058	3058	3058	3051	3051	3051	3044	3044	3044	3044	3037	3030	3030	3030	3030	3030	3030	3030	3030	3030	3030	3030	3030	3037	3037	3037	3044	3051	3051	3051	3051	3051	3058	3065	3065	3072	3080	3080	3087	3087	3087	3087	3094	3094	3109	3116	3116	3131	3131	3131	3139	3154	3154	3154	3154	3154	3154	3161	3161	3161	3169	3169	3169	3192	3192	3192	3216	3216	3216	3224	3216	3216	3216	3208	3184	3184	3169	3154	3139	3139	3116	3109	3109	3087	3080	3080	3072	3072	3072	3072	3072	3072	3072	3080	3087	3087	3094	3109	3109	3109	3116	3116	3116	3116	3116	3109	3109	3109	3109	3094	3094	3094	3094	3094	3094	3094	3094	3094	3087	3087	3087	3087	3087	3087	3087	3094	3094	3094	3094	3094	3094	3094	3094	3109	3109	3109	3116	3116	3116	3131	3139	3139	3154	3161	3161	3169	3184	3184	3208	3216	3216	3224	3240	3240	3240	3256	3256	3256	3256	3256	3256	3264	3264	3264	3264	3264	3264	3264	3264	3264	3264	3264	3264	3264	3256	3256	3256	3256	3256	3256	3256	3248	3248	3248	3248	3256	3256	3248	3248	3248	3240	3240	3240	3216	3208	3208	3184	3161	3154	3154	3139	3116	3116	3109	3094	3094	3080	3072	3065	3065	3058	3051	3051	3051	3051	3051	3051	3051	3051	3051	3051	3051	3051	3051	3051	3051	3051	3058	3058	3065	3065
3184	3184	3184	3192	3192	3184	3161	3154	3154	3131	3109	3109	3080	3065	3051	3051	3044	3044	3044	3044	3037	3037	3037	3037	3044	3037	3037	3044	3044	3044	3044	3044	3044	3044	3044	3044	3051	3051	3051	3051	3051	3051	3044	3044	3044	3044	3044	3044	3044	0	0	0	0	0	0	0	0	0	1293	1289	1289	1289	1289	1289	1288	1286	1286	1284	1282	1282	1281	1277	1272	1272	1268	1265	1262	1262	1261	1260	1260	1258	1257	1257	1256	1256	1256	1256	1254	1254	1254	1252	1251	1251	1249	1245	1245	1242	1237	1234	1234	1229	1225	1223	1223	1221	1219	1219	1217	1213	1210	1210	1205	1201	1201	1195	1195	1192	1192	1191	1189	1189	1189	1188	1188	1188	0	1231	1231	1231	0	0	0	0	0	0	1341	1341	1342	1342	1345	1347	1347	1351	1353	1353	1358	1358	1358	1358	1358	1358	1356	1356	1356	1356	1360	1360	1360	1360	1360	1362	0	0	0	0	0	0	0	0	0	0	0	0	0	0	0	0	0	0	0	0	0	0	0	0	0	0	1911	1911	1911	1911	1911	1911	1911	1911	1911	1911	1911	1911	1911	1911	1911	1911	1911	1911	1911	1908	1908	1908	1905	1905	1905	1905	1905	1905	1905	1905	1908	1908	1908	1908	1908	1908	1908	1908	1908	1911	1911	1911	1913	1913	1919	1925	1925	1933	1942	1942	1951	1951	1956	1962	1962	1965	1974	1974	1977	1980	1980	1986	1989	1989	1992	1998	1998	2004	2014	2014	2029	2048	2048	2064	2064	2081	2091	2091	2094	2097	2097	2101	2101	2101	2101	2104	2104	2104	2104	2104	2104	2104	2104	2104	2104	2104	2108	2108	2108	2108	2111	2111	2111	2114	2114	2114	2114	2114	2114	2114	2114	2111	2111	2114	2114	2114	2114	2114	2114	2114	2114	2114	2114	2114	2118	2118	2118	2121	2125	2125	2125	2128	2128	2128	2135	2135	2135	2135	2135	2135	2135	2135	2135	2135	2135	2128	2128	2128	2128	2125	2125	2125	2121	2121	2121	2121	2121	2118	2118	2118	2114	2114	2114	2114	2114	2114	2114	2111	2111	2111	2111	2108	2108	2108	2108	2108	2108	2108	2108	2108	2108	2108	2108	2111	2111	2111	2111	2114	2114	2114	2114	2114	2114	2114	2114	2118	2118	2118	2121	2121	2121	2125	2125	2125	2128	2128	2128	2128	2128	2135	2135	2135	2135	2135	2135	2135	2135	2128	2128	2128	2128	2128	2128	2128	2128	2128	2128	2128	2128	2128	2135	2135	2135	2139	2139	2139	2146	2146	2149	2149	2149	2149	2149	2149	2156	2156	2156	2160	2160	2160	2160	2163	2163	2163	2163	2163	2160	2160	2160	2156	2156	2156	2149	2146	2146	2146	2139	2139	2139	2135	2135	2135	2128	2128	2128	2128	2128	2128	2128	2128	2128	2128	2128	2135	2135	2135	2139	2139	2146	2149	2149	2163	2174	2174	2181	2181	2185	2192	2192	2200	0	0	0	0	0	0	0	3087	3087	3087	3087	3087	3087	3080	3080	3080	3080	3072	3072	3058	3058	3058	3051	3051	3051	3044	3044	3044	3044	3037	3030	3030	3030	3030	3030	3030	3030	3030	3030	3030	3030	3030	3037	3037	3037	3044	3051	3051	3051	3051	3051	3058	3065	3065	3072	3080	3080	3087	3087	3087	3087	3094	3094	3109	3116	3116	3131	3131	3131	3139	3154	3154	3154	3154	3154	3154	3161	3161	3161	3169	3169	3169	3192	3192	3192	3216	3216	3216	3224	3224	3224	3224	3224	3208	3208	3208	3192	3192	3184	3161	3154	3154	3139	3131	3131	3116	3109	3109	3109	3109	3109	3109	3109	3109	3109	3116	3116	3116	3116	3116	3116	3109	3109	3109	3094	3094	3094	3087	3087	3087	3087	3080	3080	3080	3080	3080	3080	3080	3080	3080	3080	3080	3080	3080	3087	3087	3087	3087	3087	3087	3087	3087	3087	3087	3087	3094	3094	3094	3109	3116	3116	3131	3139	3139	3154	3161	3161	3169	3184	3184	3192	3216	3216	3224	3232	3232	3232	3240	3240	3240	3248	3248	3248	3248	3248	3248	3248	3248	3248	3248	3240	3240	3240	3232	3232	3232	3224	3224	3224	3224	3224	3224	3224	3224	3224	3224	3224	3216	3216	3216	3216	3216	3192	3169	3169	3154	3139	3116	3116	3109	3087	3087	3080	3065	3065	3058	3051	3044	3044	3044	3037	3037	3030	3030	3030	3030	3030	3030	3030	3037	3044	3044	3044	3044	3044	3051	3051	3051	3051	3058
3169	3169	3169	3169	3184	3169	3161	3154	3154	3139	3109	3109	3094	3072	3065	3065	3058	3051	3051	3044	3044	3044	3044	3044	3044	3044	3044	3044	3044	3044	3044	3044	3044	3044	3044	3044	3051	3051	3051	3051	3051	3051	3051	3051	3051	3051	3051	3051	0	0	0	0	0	0	0	0	0	0	1293	1293	1292	1292	1292	1292	1292	1292	1292	1289	1289	1291	1289	1288	1288	1284	1279	1272	1272	1268	1266	1262	1262	1261	1261	1261	1258	1258	1258	1257	1256	1256	1256	1256	1254	1254	1252	1251	1251	1249	1243	1241	1241	1235	1230	1230	1225	1223	1221	1221	1219	1216	1216	1213	1206	1204	1204	1202	1201	1201	1201	1201	1204	1204	1205	1206	1206	1219	0	1231	1231	1231	0	0	0	0	0	0	1341	1341	1341	1341	1342	1345	1345	1349	1352	1352	1353	1356	1356	1356	1356	1353	1353	1356	1356	1356	1358	1358	1360	1360	1360	1362	1366	1366	0	0	0	0	0	0	0	0	0	0	0	0	0	0	0	0	0	0	0	0	0	0	0	0	0	0	1913	1913	1913	1913	1913	1913	1916	1916	1913	1913	1913	1911	1911	1911	1911	1911	1911	1908	1908	1908	1905	1905	1905	1905	1905	1905	1905	1905	1908	1908	1908	1908	1908	1908	1908	1908	1908	1911	1911	1911	1913	1913	1919	1925	1925	1933	1942	1942	1951	1951	1956	1962	1962	1965	1974	1974	1977	1980	1980	1986	1989	1989	1992	1998	1998	2004	2014	2014	2029	2048	2048	2061	2061	2077	2087	2087	2091	2097	2097	2097	2097	2097	2097	2101	2101	2101	2101	2101	2101	2101	2101	2104	2104	2104	2104	2108	2108	2108	2108	2108	2108	2111	2111	2111	2114	2114	2114	2114	2114	2111	2111	2114	2114	2114	2114	2114	2114	2114	2114	2114	2114	2114	2118	2118	2118	2121	2125	2125	2125	2128	2128	2135	2135	2135	2135	2139	2135	2135	2135	2135	2135	2135	2135	2128	2128	2128	2128	2125	2125	2125	2121	2121	2121	2121	2121	2118	2118	2118	2114	2114	2114	2114	2114	2114	2114	2111	2111	2111	2111	2108	2108	2108	2108	2108	2108	2108	2108	2108	2108	2108	2108	2111	2111	2111	2111	2114	2114	2114	2114	2114	2114	2114	2114	2118	2118	2118	2118	2121	2121	2121	2125	2125	2125	2128	2128	2128	2128	2128	2128	2128	2128	2128	2128	2128	2128	2125	2125	2125	2121	2121	2121	2121	2121	2121	2121	2121	2121	2121	2125	2125	2125	2128	2128	2128	2135	2135	2135	2139	2139	2139	2139	2139	2146	2149	2149	2149	2156	2156	2156	2156	2156	2156	2156	2156	2149	2149	2149	2149	2146	2146	2146	2139	2139	2135	2135	2135	2128	2128	2125	2125	2125	2121	2121	2121	2121	2121	2121	2125	2125	2125	2128	2128	2128	2135	2135	2135	2146	2149	2149	2160	2170	2170	2174	2174	2185	2189	2189	2196	0	0	0	0	0	0	0	3080	3080	3080	3072	3072	3072	3072	3065	3065	3058	3058	3058	3051	3044	3044	3044	3044	3044	3037	3030	3030	3030	3030	3023	3023	3023	3023	3023	3023	3023	3023	3023	3023	3023	3023	3023	3030	3030	3030	3037	3037	3044	3051	3051	3051	3051	3051	3058	3065	3065	3072	3080	3080	3080	3087	3087	3094	3109	3109	3109	3131	3131	3131	3139	3139	3139	3139	3139	3154	3154	3154	3154	3161	3161	3169	3184	3184	3192	3208	3208	3216	3224	3224	3224	3232	3232	3232	3232	3224	3224	3224	3216	3208	3208	3192	3184	3169	3169	3161	3154	3154	3139	3139	3139	3131	3131	3131	3131	3131	3131	3116	3116	3116	3116	3109	3109	3109	3094	3094	3094	3087	3087	3087	3087	3080	3080	3080	3080	3080	3080	3080	3080	3080	3080	3080	3080	3080	3087	3087	3087	3087	3087	3087	3087	3087	3087	3087	3087	3094	3094	3094	3109	3116	3116	3131	3139	3139	3154	3161	3161	3169	3184	3184	3192	3216	3216	3224	3232	3232	3232	3240	3240	3216	3216	3216	3216	3216	3208	3208	3208	3208	3208	3208	3208	3192	3192	3192	3192	3184	3184	3184	3184	3184	3184	3184	3184	3184	3192	3192	3192	3184	3184	3184	3184	3184	3161	3139	3116	3116	3109	3087	3087	3080	3065	3065	3058	3051	3044	3044	3037	3030	3030	3030	3023	3023	3023	3023	3023	3023	3023	3023	3023	3030	3030	3030	3030	3037	3037	3044	3044	3044	3051	3051
3154	3161	3161	3169	3169	3169	3161	3154	3154	3139	3109	3109	3094	3072	3065	3065	3058	3051	3051	3044	3044	3044	3044	3044	3044	3044	3044	3044	3044	3044	3044	3044	3044	3044	3044	3044	3051	3051	3051	3051	3051	3051	3051	3051	3051	3051	3051	3051	0	0	0	0	0	0	0	0	0	1297	1293	1293	1292	1292	1292	1292	1292	1292	1292	1289	1289	1291	1289	1288	1288	1284	1279	1272	1272	1268	1266	1262	1262	1261	1261	1261	1258	1258	1258	1257	1256	1256	1256	1256	1254	1254	1252	1251	1251	1249	1243	1241	1241	1235	1230	1230	1230	1227	1224	1224	1222	1219	1219	1217	1214	1212	1212	1210	1210	1210	1210	1212	1216	1216	1219	1219	0	0	0	0	0	0	0	0	0	0	0	0	0	1341	1341	1341	1342	1345	1345	1349	1352	1352	1353	1356	1356	1356	1356	1353	1353	1356	1356	1358	1358	1358	1360	1362	1362	1365	1366	1366	0	0	0	0	0	0	0	0	0	0	0	0	0	0	0	0	0	0	0	0	0	0	0	0	0	0	1916	1916	1919	1919	1919	1919	1919	1919	1919	1919	1916	1916	1916	1913	1911	1911	1911	1911	1911	1911	1908	1908	1908	1908	1908	1908	1908	1908	1908	1908	1908	1908	1908	1908	1908	1908	1911	1911	1911	1911	1916	1916	1925	1933	1933	1942	1942	1951	1956	1956	1971	1974	1974	1977	1980	1980	1983	1986	1986	1989	1992	1992	1995	1998	1998	2004	2014	2014	2029	2048	2048	2061	2061	2074	2084	2084	2091	2094	2094	2097	2097	2097	2097	2097	2097	2097	2097	2097	2097	2097	2097	2101	2101	2101	2104	2104	2104	2104	2108	2108	2108	2108	2108	2108	2108	2108	2111	2111	2111	2111	2111	2111	2111	2108	2108	2108	2111	2111	2111	2111	2114	2114	2114	2118	2118	2121	2125	2125	2125	2128	2128	2135	2135	2135	2135	2139	2135	2135	2135	2135	2128	2128	2128	2125	2125	2125	2125	2121	2121	2118	2118	2118	2118	2114	2114	2114	2111	2111	2111	2111	2111	2111	2111	2111	2108	2108	2108	2108	2108	2108	2108	2108	2108	2108	2108	2108	2108	2108	2108	2108	2108	2108	2108	2108	2111	2111	2111	2111	2111	2111	2111	2114	2114	2118	2118	2118	2118	2121	2121	2121	2125	2125	2125	2128	2128	2128	2128	2128	2128	2128	2128	2128	2128	2128	2128	2125	2125	2125	2121	2121	2121	2121	2121	2121	2121	2121	2121	2121	2125	2125	2125	2128	2128	2128	2135	2135	2135	2139	2139	2139	2139	2139	2146	2149	2149	2149	2156	2156	2156	2156	2156	2156	2156	2156	2149	2149	2149	2149	2146	2146	2146	2139	2139	2135	2135	2135	2128	2128	2125	2125	2125	2121	2121	2121	2121	2121	2121	2125	2125	2125	2128	2128	2128	2135	2135	2135	2146	2149	2149	2160	2170	2170	2174	2174	2181	2189	2189	2192	0	0	0	0	0	0	0	3065	3058	3058	3051	3051	3051	3051	3051	3051	3051	3051	3051	3044	3037	3037	3030	3030	3030	3023	3023	3023	3023	3023	3016	3016	3016	3016	3016	3009	3009	3009	3009	3016	3016	3016	3016	3016	3016	3023	3030	3030	3030	3037	3037	3044	3044	3044	3051	3051	3051	3058	3058	3058	3065	3072	3072	3080	3087	3087	3094	3109	3109	3116	3116	3116	3131	3131	3131	3131	3139	3139	3139	3154	3154	3161	3169	3169	3184	3192	3192	3216	3224	3224	3224	3232	3232	3232	3232	3224	3224	3224	3216	3208	3208	3192	3184	3169	3169	3161	3154	3154	3139	3139	3139	3131	3131	3131	3131	3131	3131	3116	3116	3116	3109	3094	3094	3094	3080	3080	3080	3080	3072	3072	3072	3072	3072	3072	3072	3072	3065	3065	3072	3065	3065	3065	3065	3072	3072	3072	3072	3072	3072	3072	3072	3072	3080	3080	3080	3087	3087	3087	3087	3094	3109	3109	3116	3116	3116	3131	3131	3139	3154	3154	3161	3184	3184	3192	3192	3192	3208	3216	3216	3216	3216	3216	3216	3216	3208	3208	3208	3208	3208	3208	3208	3192	3192	3192	3192	3184	3184	3184	3184	3184	3184	3184	3184	3184	3192	3192	3192	3184	3184	3184	3184	3184	3161	3139	3116	3116	3109	3087	3087	3080	3065	3065	3058	3051	3044	3044	3037	3030	3030	3030	3023	3023	3023	3023	3023	3023	3023	3023	3023	3030	3030	3030	3030	3037	3037	3044	3044	3044	3051	3051
3154	3161	3161	3161	3169	3169	3169	3154	3154	3139	3131	3131	3109	3087	3080	3080	3065	3058	3058	3051	3051	3051	3051	3044	3044	3044	3044	3044	3044	3044	3044	3044	3044	3051	3051	3051	3051	3051	3051	3051	3051	3051	3051	3051	3051	3051	0	0	0	0	0	0	0	0	0	1302	1302	1297	1296	1296	1296	1296	1296	1296	1296	1296	1296	1296	1296	1296	1296	1295	1295	1292	1288	1281	1281	1277	1273	1273	1268	1265	1262	1262	1261	1261	1261	1260	1258	1258	1257	1257	1257	1256	1256	1255	1255	1254	1250	1250	1246	1241	1237	1237	1231	1227	1224	1224	1222	1219	1219	1217	1214	1212	1212	1210	1210	1210	1210	1212	1216	1216	1219	1219	0	0	0	0	0	0	0	0	0	0	0	1334	1334	1334	1338	1341	1341	1344	1344	1345	1348	1348	1351	1352	1351	1351	1349	1349	1349	1351	1351	1351	1356	1356	1358	1358	1362	1362	1366	1366	1376	1379	1379	1384	1384	1384	1384	0	0	0	0	0	0	0	0	0	0	0	0	0	0	0	0	0	1925	1925	1925	1922	1922	1922	1922	1922	1922	1925	1925	1925	1922	1922	1922	1919	1916	1916	1916	1913	1913	1911	1911	1911	1911	1911	1911	1908	1908	1908	1908	1908	1908	1908	1908	1908	1908	1908	1911	1911	1911	1913	1919	1919	1925	1936	1936	1945	1945	1953	1965	1965	1977	1980	1980	1983	1989	1989	1989	1989	1989	1992	1995	1995	1995	2001	2001	2004	2014	2014	2029	2048	2048	2061	2061	2074	2084	2084	2091	2094	2094	2097	2097	2097	2097	2097	2097	2097	2097	2097	2097	2097	2097	2101	2101	2097	2097	2101	2101	2104	2104	2104	2104	2104	2104	2108	2108	2108	2108	2108	2108	2108	2108	2108	2108	2108	2108	2108	2108	2108	2108	2111	2111	2111	2114	2118	2118	2121	2125	2125	2125	2128	2128	2135	2135	2135	2135	2135	2135	2128	2128	2128	2128	2128	2125	2121	2121	2121	2118	2118	2118	2114	2114	2114	2114	2111	2111	2108	2108	2108	2108	2108	2108	2108	2108	2108	2108	2108	2108	2108	2108	2104	2104	2104	2104	2104	2104	2104	2104	2104	2104	2108	2108	2108	2108	2108	2108	2108	2108	2111	2111	2111	2111	2114	2114	2114	2114	2114	2118	2121	2121	2121	2125	2125	2125	2125	2125	2125	2125	2125	2125	2125	2125	2121	2121	2121	2121	2121	2121	2118	2118	2118	2118	2118	2118	2114	2114	2114	2114	2118	2118	2118	2121	2121	2121	2121	2121	2125	2125	2128	2128	2128	2128	2135	2135	2139	2139	2139	2146	2146	2146	2146	2146	2146	2146	2146	2146	2139	2139	2139	2139	2139	2135	2128	2128	2128	2125	2125	2121	2121	2121	2121	2121	2118	2118	2118	2121	2121	2121	2121	2125	2125	2125	2128	2128	2135	2135	2135	2146	2149	2149	2160	2170	2170	2174	2174	2181	2189	2189	2192	0	0	0	0	0	0	0	3065	3058	3058	3051	3051	3051	3051	3051	3051	3051	3051	3051	3044	3037	3037	3030	3030	3030	3023	3023	3023	3023	3023	3016	3016	3016	3016	3016	3009	3009	3009	3009	3016	3016	3016	3016	3016	3016	3023	3030	3030	3030	3037	3037	3044	3044	3044	3051	3051	3051	3058	3058	3058	3065	3072	3072	3080	3087	3087	3094	3109	3109	3116	3116	3116	3131	3131	3131	3131	3139	3139	3139	3139	3139	3154	3161	3161	3184	3192	3192	3208	3216	3216	3224	3232	3232	3240	3240	3240	3240	3240	3240	3232	3232	3232	3224	3224	3216	3192	3192	3184	3169	3161	3161	3154	3139	3139	3131	3116	3116	3109	3109	3087	3087	3087	3072	3072	3072	3065	3065	3065	3065	3065	3058	3058	3058	3058	3058	3058	3058	3058	3058	3058	3058	3058	3058	3065	3065	3065	3065	3065	3065	3065	3072	3072	3072	3072	3072	3072	3072	3080	3080	3080	3087	3087	3087	3094	3094	3109	3116	3116	3116	3131	3131	3139	3139	3154	3161	3161	3161	3169	3169	3169	3169	3169	3169	3169	3169	3161	3161	3161	3161	3161	3161	3161	3154	3154	3154	3154	3154	3154	3139	3139	3139	3154	3154	3154	3161	3161	3154	3154	3154	3154	3154	3131	3131	3109	3094	3094	3087	3072	3072	3065	3051	3051	3044	3044	3030	3030	3023	3023	3023	3016	3016	3016	3016	3016	3016	3016	3016	3016	3016	3023	3023	3023	3030	3030	3030	3037	3044	3044	3044	3051
3154	3161	3161	3161	3169	3169	3169	3169	3169	3161	3154	3154	3131	3109	3109	3094	3080	3072	3072	3058	3051	3051	3051	3051	3051	3051	3051	3051	3051	3051	3051	3051	3051	3051	3051	3051	3051	3051	3051	3051	3051	3051	3051	3051	3051	0	0	0	0	0	0	0	0	0	0	1302	1302	1301	1301	1301	1300	1300	1300	1300	1300	1300	1298	1298	1298	1300	1300	1298	1298	1296	1293	1293	1289	1284	1279	1279	1273	1268	1266	1266	1262	1262	1262	1261	1261	1261	1258	1257	1257	1257	1256	1256	1256	1256	1252	1252	1250	1245	1242	1242	1237	1230	1225	1225	1224	1223	1223	1220	1220	1220	1219	1219	1219	1219	1220	1221	1221	1224	1228	1228	1250	1250	0	0	0	0	0	0	1305	1305	1323	1323	1330	1330	1336	1338	1338	1341	1344	1344	1345	1345	1345	1347	1347	1347	1347	1347	1347	1347	1349	1349	1353	1356	1356	1358	1360	1362	1368	1368	1376	1379	1379	1382	1384	1384	1384	1384	1384	1384	0	0	0	0	0	0	0	0	0	0	0	0	0	0	1925	1925	1925	1922	1922	1922	1922	1922	1922	1925	1925	1925	1922	1922	1922	1919	1916	1916	1916	1913	1913	1911	1911	1911	1911	1911	1911	1908	1908	1908	1908	1908	1908	1908	1908	1908	1908	1908	1911	1911	1911	1913	1919	1919	1925	1936	1936	1945	1945	1953	1965	1965	1977	1980	1980	1983	1989	1989	1989	1989	1989	1992	1995	1995	1995	2001	2001	2004	2014	2014	2029	2042	2042	2055	2055	2074	2081	2081	2091	2091	2091	2094	2094	2094	2097	2097	2097	2097	2097	2097	2097	2097	2097	2097	2097	2097	2097	2101	2101	2104	2104	2104	2104	2104	2104	2108	2108	2108	2108	2108	2108	2108	2108	2108	2108	2108	2108	2108	2108	2108	2108	2111	2111	2111	2114	2118	2118	2121	2125	2125	2125	2128	2128	2135	2135	2135	2135	2135	2135	2128	2128	2128	2128	2128	2125	2121	2121	2121	2118	2118	2118	2114	2114	2114	2114	2111	2111	2108	2108	2108	2108	2108	2108	2108	2108	2108	2108	2108	2108	2108	2108	2104	2104	2104	2104	2104	2104	2104	2104	2104	2104	2108	2108	2108	2108	2108	2108	2108	2108	2108	2108	2108	2108	2111	2111	2114	2114	2114	2118	2118	2118	2118	2121	2121	2121	2121	2121	2118	2118	2118	2118	2118	2118	2118	2114	2114	2114	2114	2114	2111	2111	2111	2111	2111	2111	2111	2111	2111	2111	2111	2111	2111	2111	2114	2114	2114	2118	2118	2118	2121	2121	2121	2121	2125	2125	2128	2128	2128	2135	2135	2135	2139	2139	2139	2135	2135	2128	2128	2128	2128	2125	2125	2125	2121	2121	2121	2118	2118	2118	2118	2118	2118	2118	2118	2118	2118	2118	2118	2118	2121	2121	2121	2125	2128	2128	2128	2135	2135	2146	2149	2149	2160	2170	2170	2174	2174	2181	2189	2189	2192	2196	2196	0	0	0	0	0	3044	3044	3044	3044	3044	3044	3044	3037	3037	3030	3030	3030	3030	3030	3030	3023	3023	3023	3016	3016	3016	3016	3016	3009	3009	3002	3002	3002	2995	2995	2995	2995	2995	2995	2995	3002	3002	3002	3016	3023	3023	3023	3030	3030	3030	3037	3037	3044	3044	3044	3051	3051	3051	3058	3065	3065	3072	3087	3087	3094	3094	3094	3116	3116	3116	3116	3131	3131	3131	3131	3131	3139	3139	3139	3154	3161	3161	3184	3192	3192	3208	3216	3216	3224	3232	3232	3240	3248	3248	3248	3248	3248	3248	3248	3248	3240	3240	3232	3224	3224	3208	3192	3184	3184	3161	3154	3154	3139	3116	3116	3109	3109	3087	3087	3087	3072	3072	3072	3065	3065	3065	3065	3065	3058	3058	3058	3058	3058	3058	3058	3058	3058	3058	3058	3058	3058	3065	3065	3065	3065	3065	3065	3065	3072	3072	3072	3072	3072	3072	3072	3080	3080	3080	3087	3087	3087	3094	3094	3109	3116	3116	3116	3131	3131	3109	3109	3109	3131	3131	3131	3131	3139	3139	3139	3139	3131	3131	3131	3131	3131	3131	3131	3131	3131	3131	3116	3116	3116	3116	3116	3116	3116	3116	3116	3116	3116	3116	3116	3116	3116	3116	3109	3109	3109	3094	3094	3087	3080	3080	3065	3058	3058	3051	3044	3037	3037	3030	3023	3023	3023	3016	3016	3016	3009	3009	3009	3009	3009	3009	3009	3016	3016	3016	3023	3023	3023	3030	3030	3030	3037	3037	3044	3051
3154	3161	3161	3161	3169	3169	3169	3169	3169	3161	3154	3154	3131	3109	3109	3094	3080	3072	3072	3058	3051	3051	3051	3051	3051	3051	3051	3051	3044	3044	3044	3044	3044	3051	3051	3051	3051	3051	3051	3051	3051	3051	3051	3051	3051	0	0	0	0	0	0	0	0	0	0	1302	1302	1301	1301	1301	1300	1300	1300	1300	1300	1300	1298	1298	1298	1300	1300	1298	1298	1296	1293	1293	1289	1284	1279	1279	1273	1268	1266	1266	1262	1262	1262	1261	1260	1260	1258	1257	1257	1257	1256	1256	1256	1256	1252	1252	1251	1249	1249	1245	1241	1234	1234	1229	1227	1224	1224	1224	1223	1223	1223	1223	1223	1223	1225	1229	1229	1238	1238	1250	1250	1250	0	0	0	0	0	0	1305	1305	1323	1323	1330	1330	1336	1338	1338	1341	1344	1344	1345	1345	1345	1347	1347	1347	1347	1347	1347	1347	1349	1349	1353	1356	1356	1360	1360	1365	1368	1368	1376	1379	1379	1382	1384	1384	1384	1384	1384	1384	0	0	0	0	0	0	0	0	0	0	0	0	0	0	1933	1933	1933	1933	1933	1933	1933	1933	1933	1933	1933	1933	1933	1925	1925	1925	1925	1925	1922	1919	1919	1919	1913	1913	1913	1911	1911	1911	1911	1911	1911	1911	1911	1911	1911	1911	1911	1911	1911	1911	1911	1913	1919	1919	1928	1936	1936	1951	1951	1962	1971	1971	1980	1986	1986	1989	1989	1989	1989	1992	1992	1992	1995	1995	1998	2001	2001	2004	2017	2017	2029	2042	2042	2055	2055	2071	2077	2077	2084	2091	2091	2091	2094	2094	2094	2094	2094	2094	2094	2094	2094	2094	2094	2094	2094	2094	2094	2097	2097	2097	2101	2101	2101	2104	2104	2104	2104	2104	2104	2104	2104	2104	2104	2104	2104	2104	2104	2104	2108	2108	2108	2108	2108	2108	2111	2114	2114	2118	2121	2121	2121	2125	2125	2128	2128	2128	2128	2128	2128	2125	2125	2125	2121	2121	2121	2118	2118	2118	2114	2111	2111	2111	2108	2108	2108	2108	2108	2108	2108	2108	2108	2104	2104	2104	2104	2104	2104	2104	2104	2104	2104	2104	2104	2104	2104	2104	2104	2104	2104	2104	2104	2104	2104	2104	2108	2108	2108	2108	2108	2108	2108	2108	2108	2111	2111	2114	2114	2114	2118	2118	2118	2118	2121	2121	2121	2121	2121	2118	2118	2118	2118	2118	2118	2118	2114	2114	2114	2114	2114	2111	2111	2111	2111	2111	2111	2111	2111	2111	2111	2111	2111	2111	2111	2114	2114	2114	2118	2118	2118	2121	2121	2121	2121	2125	2125	2128	2128	2128	2135	2135	2135	2139	2139	2139	2135	2135	2128	2128	2128	2128	2125	2125	2125	2121	2121	2121	2118	2118	2118	2118	2118	2118	2118	2118	2118	2118	2118	2118	2118	2118	2118	2118	2125	2128	2128	2128	2135	2135	2146	2156	2156	2160	2163	2170	2181	2181	2185	2189	2189	2192	2196	2196	0	0	0	0	0	3044	3016	3016	3016	3023	3023	3023	3016	3016	3016	3016	3023	3023	3016	3016	3016	3016	3016	3016	3009	3009	3009	3009	3002	3002	2995	2995	2995	2995	2995	2995	2995	2995	2995	2995	2995	2995	2995	3002	3016	3016	3023	3023	3023	3023	3030	3030	3037	3044	3044	3044	3051	3051	3051	3058	3058	3065	3080	3080	3087	3094	3094	3109	3116	3116	3116	3131	3131	3131	3131	3131	3131	3131	3131	3139	3161	3161	3169	3184	3184	3192	3208	3208	3216	3224	3224	3232	3240	3240	3248	3248	3248	3248	3248	3248	3240	3240	3232	3224	3224	3208	3192	3169	3169	3154	3139	3139	3116	3109	3109	3094	3087	3080	3080	3072	3065	3065	3058	3058	3058	3051	3051	3051	3051	3051	3051	3051	3051	3051	3051	3051	3051	3051	3051	3051	3051	3051	3058	3058	3058	3058	3058	3058	3058	3058	3058	3065	3065	3065	3065	3065	3065	3065	3072	3072	3080	3080	3080	3080	3087	3087	3094	3109	3109	3109	3109	3109	3131	3131	3131	3131	3139	3139	3139	3139	3131	3131	3131	3131	3131	3131	3131	3131	3131	3131	3116	3116	3116	3116	3116	3116	3116	3116	3116	3116	3116	3116	3116	3116	3116	3116	3109	3109	3109	3094	3094	3087	3080	3080	3065	3058	3058	3051	3044	3037	3037	3030	3023	3023	3023	3016	3016	3016	3009	3009	3009	3009	3009	3009	3009	3016	3016	3016	3023	3023	3023	3030	3030	3030	3037	3037	3044	3051
3154	3154	3154	3169	3184	3184	3184	3184	3184	3184	3169	3169	3154	3116	3116	3109	3087	3080	3080	3065	3058	3058	3051	3051	3051	3044	3044	3044	3044	3044	3044	3044	3044	3051	3051	3051	3051	3051	3051	3051	3051	3051	3051	3051	3051	0	0	0	0	0	1317	1313	1313	1310	1309	1305	1305	1304	1304	1304	1304	1302	1302	1302	1302	1302	1302	1302	1302	1302	1304	1301	1301	1300	1297	1297	1295	1291	1286	1286	1279	1273	1267	1267	1265	1262	1262	1261	1260	1260	1258	1257	1257	1257	1256	1256	1256	1255	1252	1252	1251	1249	1249	1245	1241	1234	1234	1229	1227	1224	1224	1224	1223	1223	1223	1223	1223	1223	1225	1229	1229	1238	1238	1250	1250	1250	1266	1266	1277	1293	1293	1300	1300	1305	1314	1314	1326	1326	1331	1336	1336	1340	1341	1341	1342	1344	1344	1344	1344	1344	1344	1345	1345	1345	1349	1349	1352	1356	1356	1360	1360	1365	1368	1368	1376	1379	1379	1382	1384	1384	1384	1384	1384	1384	1384	1384	0	0	0	0	0	0	0	0	0	0	0	0	1942	1942	1942	1942	1942	1942	1942	1942	1942	1942	1945	1942	1936	1936	1936	1933	1933	1933	1928	1925	1925	1922	1922	1922	1916	1916	1916	1916	1913	1913	1911	1911	1911	1911	1911	1911	1911	1911	1911	1911	1911	1913	1919	1919	1928	1942	1942	1953	1953	1962	1974	1974	1983	1989	1989	1989	1992	1992	1992	1992	1992	1995	1995	1995	2001	2001	2001	2007	2017	2017	2029	2042	2042	2055	2055	2071	2077	2077	2084	2091	2091	2091	2094	2094	2091	2091	2091	2091	2091	2091	2091	2091	2091	2091	2091	2091	2094	2094	2094	2094	2097	2097	2097	2097	2097	2097	2101	2101	2101	2104	2104	2101	2101	2101	2101	2101	2104	2104	2104	2104	2104	2104	2108	2108	2108	2111	2111	2114	2114	2114	2118	2121	2121	2121	2125	2125	2125	2125	2125	2121	2121	2121	2118	2118	2118	2114	2111	2111	2111	2111	2111	2108	2108	2108	2108	2108	2108	2104	2104	2104	2104	2104	2104	2104	2104	2104	2104	2101	2101	2101	2101	2101	2101	2101	2101	2101	2101	2101	2101	2101	2101	2104	2104	2104	2104	2104	2108	2108	2108	2108	2108	2108	2108	2111	2111	2111	2111	2111	2114	2114	2114	2114	2114	2118	2114	2114	2114	2114	2114	2114	2111	2108	2108	2108	2108	2108	2108	2108	2108	2108	2108	2108	2108	2108	2108	2108	2108	2108	2108	2108	2108	2108	2108	2108	2111	2111	2111	2114	2114	2114	2114	2114	2118	2121	2121	2121	2125	2125	2125	2128	2128	2128	2128	2128	2125	2125	2125	2125	2125	2121	2118	2118	2118	2114	2114	2114	2114	2111	2111	2111	2111	2111	2111	2111	2111	2111	2114	2114	2114	2118	2118	2118	2125	2128	2128	2128	2139	2139	2146	2156	2156	2163	2163	2170	2181	2181	2185	2189	2189	2192	2196	2196	0	0	0	0	0	0	3016	3016	3016	3023	3023	3023	3016	3016	3016	3016	3023	3023	3016	3016	3016	3016	3016	3016	3009	3009	3009	3009	3002	3002	2995	2995	2995	2995	2995	2995	2995	2995	2995	2995	2995	2995	2995	3002	3016	3016	3023	3023	3023	3023	3030	3030	3037	3044	3044	3044	3051	3051	3051	3058	3058	3065	3080	3080	3087	3094	3094	3109	3109	3109	3116	3116	3116	3116	3131	3131	3131	3131	3131	3139	3154	3154	3161	3169	3169	3184	3192	3192	3208	3208	3208	3216	3224	3224	3224	3232	3232	3232	3232	3232	3224	3224	3216	3192	3192	3184	3161	3154	3154	3131	3116	3116	3094	3087	3087	3080	3072	3065	3065	3065	3051	3051	3051	3051	3051	3051	3051	3051	3044	3044	3044	3044	3044	3044	3044	3044	3051	3051	3051	3051	3051	3051	3051	3051	3051	3051	3051	3051	3051	3051	3051	3051	3051	3051	3058	3058	3058	3058	3065	3065	3065	3065	3065	3065	3072	3072	3072	3080	3080	3080	3080	3080	3087	3094	3087	3087	3094	3094	3094	3094	3094	3094	3094	3094	3094	3094	3094	3094	3094	3094	3094	3094	3094	3094	3094	3094	3094	3094	3094	3094	3094	3094	3087	3087	3087	3087	3087	3087	3080	3072	3072	3065	3058	3058	3051	3044	3044	3044	3030	3030	3030	3023	3023	3023	3016	3016	3016	3009	3009	3009	3009	3002	3002	3002	3002	3009	3009	3016	3016	3016	3023	3030	3030	3030	3037	3037	3044	3044
3154	3154	3154	3184	3184	3184	3184	3192	3192	3184	3169	3169	3161	3131	3131	3116	3094	3080	3080	3065	3058	3058	3051	3051	3051	3044	3044	3044	3044	3044	3044	3044	3044	3051	3051	3051	3051	3051	3051	0	0	0	0	0	0	0	0	0	0	0	1317	1313	1313	1310	1309	1306	1306	1306	1306	1307	1307	1307	1307	1307	1307	1307	1306	1306	1307	1307	1307	1307	1305	1302	1300	1300	1297	1295	1295	1291	1284	1277	1277	1269	1266	1263	1263	1261	1260	1260	1257	1256	1256	1256	1255	1255	1255	1254	1251	1251	1249	1246	1246	1245	1242	1238	1238	1234	1230	1230	1230	1231	1231	1231	1237	1237	1237	1241	1245	1245	1252	1257	1257	1258	1261	1261	1266	1266	1277	1293	1293	1300	1300	1305	1314	1314	1321	1321	1326	1331	1331	1336	1338	1338	1340	1340	1340	1341	1341	1341	1342	1344	1344	1344	1347	1347	1352	1358	1358	1362	1362	1366	1372	1372	1378	1381	1381	1384	1384	1384	1384	1384	1384	1384	1384	1384	1384	0	0	0	0	0	0	0	0	0	0	0	1942	1942	1942	1942	1942	1942	1942	1942	1942	1942	1945	1942	1936	1936	1936	1933	1933	1933	1928	1925	1925	1922	1922	1922	1916	1916	1916	1916	1913	1913	1911	1911	1911	1911	1911	1911	1911	1911	1911	1911	1911	1913	1919	1919	1928	1936	1936	1953	1953	1962	1974	1974	1983	1989	1989	1989	1992	1992	1992	1992	1992	1995	1995	1995	2001	2001	2001	2007	2017	2017	2029	2042	2042	2051	2051	2064	2074	2074	2081	2084	2084	2091	2091	2091	2091	2091	2091	2091	2091	2091	2091	2091	2091	2091	2091	2091	2094	2094	2094	2094	2097	2097	2097	2097	2097	2097	2101	2101	2101	2104	2104	2101	2101	2101	2101	2101	2104	2104	2104	2104	2104	2104	2108	2108	2108	2111	2111	2114	2114	2114	2118	2121	2121	2121	2125	2125	2125	2125	2125	2121	2121	2121	2118	2118	2118	2114	2111	2111	2111	2111	2111	2108	2108	2108	2108	2108	2108	2104	2104	2104	2104	2104	2104	2104	2104	2104	2104	2101	2101	2101	2101	2101	2101	2101	2101	2101	2097	2097	2097	2097	2101	2101	2101	2104	2104	2104	2104	2108	2108	2108	2108	2108	2108	2108	2108	2108	2108	2108	2111	2111	2111	2111	2108	2108	2108	2108	2108	2108	2108	2108	2108	2104	2104	2104	2104	2104	2104	2104	2104	2104	2104	2104	2104	2104	2104	2104	2104	2104	2104	2104	2104	2104	2104	2104	2108	2108	2108	2108	2108	2108	2111	2111	2114	2114	2114	2118	2118	2118	2121	2121	2121	2121	2121	2118	2118	2118	2118	2114	2114	2114	2111	2111	2111	2108	2108	2108	2108	2108	2108	2108	2108	2108	2108	2108	2108	2108	2108	2111	2111	2114	2118	2118	2121	2125	2125	2128	2135	2135	2146	2149	2149	2160	2160	2170	2174	2174	2181	2185	2185	2192	2192	2192	0	0	0	0	0	0	3016	3016	3002	3002	3002	3002	3002	3002	3002	3002	3002	3002	3009	3009	3009	3009	3009	3009	3009	3009	3009	3009	3002	3002	2995	2995	2995	2995	2995	2995	2995	2988	2988	2988	2988	2995	2995	2995	3009	3009	3016	3016	3016	3023	3023	3023	3030	3037	3037	3044	3044	3044	3051	3058	3058	3065	3080	3080	3087	3094	3094	3109	3109	3109	3116	3116	3116	3116	3131	3131	3131	3131	3131	3139	3154	3154	3161	3169	3169	3184	3192	3192	3208	3208	3208	3216	3224	3224	3224	3232	3232	3232	3232	3232	3224	3224	3216	3192	3192	3184	3161	3154	3154	3131	3116	3116	3094	3087	3087	3080	3072	3065	3065	3065	3051	3051	3051	3051	3051	3051	3051	3051	3044	3044	3044	3044	3044	3044	3044	3044	3051	3051	3051	3051	3051	3051	3051	3051	3051	3051	3051	3051	3051	3051	3051	3051	3051	3051	3058	3058	3058	3058	3065	3065	3051	3051	3051	3051	3051	3051	3051	3051	3051	3058	3058	3058	3058	3058	3058	3065	3065	3065	3072	3072	3072	3072	3080	3072	3072	3072	3072	3080	3080	3080	3080	3080	3080	3080	3080	3080	3080	3072	3072	3072	3072	3072	3072	3072	3072	3065	3065	3065	3058	3058	3058	3051	3051	3051	3044	3044	3044	3030	3030	3023	3023	3023	3016	3016	3016	3009	3009	3002	3002	3002	3002	3002	3002	3002	3002	3009	3009	3016	3016	3016	3023	3030	3030	3030	3037	3037	3044	3044
3154	3154	3154	3184	3184	3184	3184	3192	3192	3184	3169	3169	3161	3131	3131	3116	3094	3080	3080	3065	3058	3058	3051	3051	3051	3044	3044	3044	3044	3044	3044	3044	1330	1330	1327	1327	1327	1326	1323	1323	1321	1321	1318	1318	1317	1314	1314	1313	1313	1314	1314	1313	1313	1310	1309	1306	1306	1306	1306	1307	1307	1307	1307	1307	1307	1307	1306	1306	1307	1307	1307	1307	1305	1302	1300	1300	1297	1295	1295	1291	1284	1281	1281	1273	1267	1263	1263	1261	1260	1260	1257	1256	1256	1256	1255	1255	1255	1254	1251	1251	1249	1246	1246	1245	1243	1242	1242	1241	1241	1241	1241	1243	1249	1249	1252	1255	1255	0	0	1265	1265	1265	1269	1277	1277	1282	1289	1289	1295	1295	1300	1302	1302	1309	1314	1314	1321	1321	1326	1331	1331	1336	1338	1338	1340	1340	1340	1341	1341	1341	1342	1344	1344	1344	1347	1347	1352	1358	1358	1362	1362	1368	1375	1375	1379	1382	1382	1384	1384	1384	1384	1384	1384	1384	1384	1384	1384	0	0	0	0	0	0	0	0	0	0	0	0	0	1951	1951	1951	1951	1951	1951	1951	1951	1951	1951	1951	1951	1945	1945	1945	1942	1936	1936	1936	1928	1928	1928	1925	1922	1922	1919	1919	1919	1916	1913	1913	1913	1913	1911	1911	1911	1911	1911	1911	1916	1919	1919	1928	1936	1936	1951	1951	1962	1974	1974	1983	1989	1989	1992	1992	1992	1992	1995	1995	1995	1998	1998	2001	2004	2004	2007	2017	2017	2029	2039	2039	2048	2048	2061	2064	2064	2074	2081	2081	2084	2084	2084	2084	2087	2084	2084	2087	2087	2087	2087	2087	2087	2087	2087	2087	2091	2091	2091	2091	2094	2094	2094	2094	2094	2094	2097	2097	2097	2097	2097	2097	2097	2097	2097	2097	2097	2097	2101	2101	2101	2104	2104	2104	2108	2108	2108	2111	2111	2111	2118	2118	2118	2118	2118	2118	2118	2118	2118	2114	2114	2114	2111	2111	2111	2108	2108	2108	2108	2108	2108	2108	2108	2104	2104	2104	2104	2101	2101	2101	2101	2101	2101	2101	2097	2097	2097	2097	2097	2097	2097	2097	2097	2097	2097	2097	2097	2097	2097	2101	2101	2101	2104	2104	2104	2104	2108	2108	2108	2108	2108	2108	2108	2108	2108	2108	2108	2111	2111	2111	2111	2108	2108	2108	2108	2108	2108	2108	2108	2108	2104	2104	2104	2104	2104	2104	2104	2104	2104	2104	2104	2104	2104	2104	2104	2104	2104	2104	2104	2104	2104	2104	2104	2108	2108	2108	2108	2108	2108	2111	2111	2114	2114	2114	2118	2118	2118	2121	2121	2121	2121	2121	2118	2118	2118	2118	2114	2114	2114	2111	2111	2111	2108	2108	2108	2108	2108	2108	2104	2104	2104	2104	2104	2108	2108	2108	2108	2108	2111	2114	2114	2118	2121	2121	2125	2135	2135	2139	2149	2149	2160	2160	2163	2174	2174	2174	2185	2185	2185	2189	2189	0	0	0	0	0	0	0	0	3002	2988	2988	2988	2988	2995	2995	2995	3002	3002	3002	3002	3002	3002	3002	3002	3002	3009	3009	3009	3002	3002	3002	2995	2995	2995	2995	2995	2995	2988	2988	2988	2988	2988	2988	2995	3002	3002	3009	3009	3009	3016	3023	3023	3023	3030	3030	3037	3044	3044	3044	3051	3051	3058	3072	3072	3080	3094	3094	3094	3109	3109	3109	3109	3109	3109	3116	3116	3116	3116	3116	3131	3139	3139	3139	3154	3154	3161	3169	3169	3169	3184	3184	3184	3192	3192	3192	3192	3192	3192	3192	3192	3184	3184	3169	3154	3139	3139	3131	3116	3116	3094	3087	3087	3080	3065	3065	3065	3058	3058	3058	3051	3051	3051	3044	3044	3044	3044	3044	3044	3044	3044	3044	3044	3044	3044	3044	3044	3044	3044	3044	3044	3044	3044	3051	3051	3051	3051	3051	3051	3051	3051	3051	3051	3051	3051	3051	3051	3051	3051	3051	3051	3051	3051	3051	3051	3051	3051	3051	3051	3051	3058	3058	3058	3058	3058	3058	3065	3065	3065	3072	3072	3072	3072	3080	3072	3072	3072	3072	3080	3080	3080	3080	3080	3080	3080	3080	3080	3080	3072	3072	3072	3072	3072	3072	3072	3072	3065	3065	3065	3058	3058	3058	3051	3051	3051	3044	3044	3044	3030	3030	3023	3023	3023	3016	3016	3016	3009	3009	3002	3002	3002	3002	3002	3002	3002	3002	3009	3009	3016	3016	3016	3023	3030	3030	3030	3037	3037	3044	3044
0	0	0	0	0	0	0	0	0	0	0	0	0	0	0	0	0	0	0	0	0	0	0	0	0	0	0	0	0	0	0	1326	1323	1323	1323	1322	1322	1321	1318	1314	1314	1314	1313	1313	1313	1310	1310	1310	1313	1313	1313	1313	1313	1310	1310	1309	1309	1309	1309	1310	1310	1310	1310	1309	1309	1310	1310	1310	1310	1310	1310	1310	1307	1304	1301	1301	1298	1297	1297	1295	1288	1281	1281	1273	1267	1263	1263	1261	1260	1260	1257	1256	1256	1256	1254	1254	1254	1252	1251	1251	1249	1246	1246	1245	1243	1242	1242	1241	1241	1241	1241	1243	1249	1249	1252	1255	1255	1267	1267	1265	1265	1265	1269	1277	1277	1282	1289	1289	1295	1295	1298	1302	1302	1305	1309	1309	1314	1321	1321	1326	1326	1331	1334	1334	1337	1338	1338	1338	1338	1338	1340	1341	1341	1344	1345	1345	1351	1358	1358	1362	1362	1368	1375	1375	1379	1382	1382	1384	1384	1384	1384	1384	1384	1384	1384	1384	1384	0	0	0	0	0	0	0	0	0	0	0	0	0	1956	1953	1953	1953	1953	1953	1953	1956	1956	1956	1956	1956	1953	1951	1951	1951	1945	1945	1945	1942	1936	1936	1933	1928	1928	1925	1922	1922	1922	1919	1919	1916	1913	1913	1913	1913	1911	1911	1911	1916	1922	1922	1928	1942	1942	1951	1951	1962	1974	1974	1983	1989	1989	1992	1992	1992	1995	1995	1995	1995	1998	1998	2001	2004	2004	2010	2017	2017	2029	2039	2039	2048	2048	2055	2061	2061	2064	2074	2074	2074	2077	2077	2077	2077	2077	2077	2077	2077	2077	2081	2081	2081	2081	2081	2081	2084	2087	2087	2087	2091	2091	2091	2091	2091	2091	2091	2091	2094	2094	2094	2094	2094	2094	2094	2094	2094	2094	2097	2097	2097	2097	2097	2101	2104	2104	2104	2108	2108	2108	2108	2108	2111	2111	2111	2114	2114	2111	2108	2108	2108	2108	2108	2108	2108	2108	2108	2104	2104	2104	2104	2104	2104	2104	2104	2104	2101	2101	2101	2097	2097	2097	2097	2097	2097	2097	2097	2097	2097	2097	2097	2097	2097	2097	2097	2097	2097	2097	2097	2097	2097	2097	2101	2104	2104	2104	2104	2104	2104	2104	2104	2104	2108	2108	2108	2108	2108	2108	2108	2108	2108	2104	2104	2104	2104	2104	2101	2101	2101	2101	2097	2097	2097	2097	2097	2097	2097	2097	2097	2097	2097	2097	2097	2097	2097	2097	2097	2097	2097	2101	2101	2101	2104	2104	2104	2104	2104	2104	2108	2108	2108	2108	2111	2111	2111	2111	2111	2114	2114	2114	2114	2114	2111	2111	2111	2111	2108	2108	2108	2108	2108	2108	2108	2104	2104	2104	2104	2104	2104	2104	2104	2104	2104	2108	2108	2108	2108	2108	2111	2114	2114	2118	2121	2121	2125	2135	2135	2139	2149	2149	2160	2160	2163	2174	2174	2174	2185	2185	2185	2189	2189	0	0	0	0	0	0	0	0	0	2988	2988	2988	2988	2995	2995	2995	3002	3002	3002	3002	3002	3002	3002	3002	3002	3009	3009	3009	3002	3002	3002	3002	3002	3002	3002	3002	2995	2988	2988	2988	2988	2988	2988	2995	3002	3002	3009	3009	3009	3016	3023	3023	3023	3030	3030	3037	3044	3044	3044	3044	3044	3051	3058	3058	3065	3072	3072	3087	3087	3087	3094	3094	3094	3094	3109	3109	3109	3109	3109	3116	3116	3116	3131	3139	3139	3139	3154	3154	3154	3154	3154	3154	3154	3154	3154	3154	3154	3154	3139	3139	3139	3131	3131	3116	3094	3094	3087	3080	3080	3072	3065	3058	3058	3051	3051	3051	3051	3044	3044	3044	3044	3044	3037	3037	3037	3037	3037	3037	3037	3037	3037	3037	3037	3037	3037	3037	3037	3037	3037	3044	3044	3044	3044	3044	3044	3044	3044	3044	3044	3044	3044	3044	3044	3044	3044	3044	3044	3051	3051	3044	3044	3044	3044	3044	3044	3044	3044	3044	3044	3044	3044	3044	3044	3044	3044	3044	3051	3051	3051	3051	3051	3051	3051	3051	3058	3058	3058	3058	3065	3065	3065	3065	3065	3065	3065	3065	3065	3065	3065	3051	3051	3051	3051	3051	3051	3051	3051	3051	3051	3044	3044	3044	3044	3044	3037	3030	3030	3030	3023	3023	3023	3023	3016	3016	3016	3009	3009	3002	3002	3002	3002	3002	3002	3002	3002	3009	3009	3016	3016	3016	3023	3030	3030	3030	3037	3037	3044	3044
0	0	0	0	0	0	0	0	0	0	0	0	0	0	0	0	0	0	0	0	0	0	0	0	0	0	0	0	0	0	0	1326	1323	1323	1323	1322	1322	1321	1318	1314	1314	1314	1313	1313	1313	1310	1310	1310	1313	1313	1313	1313	1313	1313	1310	1310	1310	1310	1313	1314	1313	1313	1313	1313	1313	1313	1313	1310	1310	1310	1310	1310	1309	1306	1302	1302	1301	1298	1298	1296	1292	1284	1284	1277	1268	1265	1265	1261	1258	1258	1256	1255	1254	1254	1252	1252	1252	1251	1251	1251	1249	1249	1249	1246	1246	1246	1246	1249	1250	1250	1250	1255	1255	1257	0	1262	1262	1267	1267	1272	1279	1279	1282	1282	1289	1292	1292	1295	1296	1296	1298	1301	1301	1302	1306	1306	1309	1314	1314	1321	1321	1323	1330	1330	1333	1334	1334	1336	1336	1336	1338	1340	1340	1342	1345	1345	1351	1358	1358	1365	1365	1372	1378	1378	1381	1384	1384	1384	1384	1384	1384	1384	1384	1384	1384	1384	1384	0	0	0	0	0	0	0	0	0	0	0	0	0	1956	1953	1953	1953	1953	1953	1953	1956	1956	1956	1956	1956	1953	1951	1951	1951	1945	1945	1945	1942	1936	1936	1933	1928	1928	1925	1922	1922	1922	1919	1919	1916	1913	1913	1913	1913	1911	1911	1911	1916	1922	1922	1928	1936	1936	1951	1951	1962	1974	1974	1980	1989	1989	1992	1992	1992	1992	1995	1995	1995	1998	1998	2001	2004	2004	2010	2017	2017	2023	2032	2032	2042	2042	2055	2061	2061	2064	2074	2074	2074	2077	2077	2077	2077	2077	2077	2077	2077	2077	2081	2081	2081	2081	2081	2081	2084	2087	2087	2087	2091	2091	2091	2091	2091	2091	2091	2091	2094	2094	2094	2094	2094	2094	2094	2094	2094	2094	2097	2097	2097	2097	2097	2101	2104	2104	2104	2108	2108	2108	2108	2108	2111	2111	2111	2114	2114	2111	2108	2108	2108	2108	2108	2108	2108	2108	2108	2104	2104	2104	2104	2104	2104	2104	2104	2104	2101	2101	2101	2097	2097	2097	2097	2097	2097	2097	2097	2094	2094	2094	2094	2094	2094	2094	2094	2094	2094	2097	2097	2097	2097	2097	2101	2101	2101	2104	2104	2104	2104	2104	2104	2104	2104	2104	2104	2104	2104	2104	2104	2104	2101	2101	2101	2097	2097	2097	2097	2094	2094	2094	2094	2094	2094	2094	2094	2094	2094	2094	2094	2094	2094	2094	2094	2094	2094	2094	2094	2097	2097	2097	2097	2097	2097	2101	2101	2101	2104	2104	2104	2104	2104	2108	2108	2108	2108	2108	2108	2108	2108	2108	2108	2108	2108	2108	2108	2108	2108	2108	2104	2104	2104	2104	2104	2104	2104	2104	2104	2104	2104	2104	2104	2104	2104	2104	2104	2104	2104	2104	2108	2108	2108	2114	2118	2118	2121	2128	2128	2135	2146	2146	2156	2160	2160	2170	2170	2170	2181	2181	2181	2185	2185	0	0	0	0	0	0	0	0	0	2975	2975	2975	2981	2981	2981	2988	2995	2995	3002	3002	3002	3002	3002	3002	3002	3009	3009	3009	3002	3002	3002	3002	3002	3002	3002	3002	2995	2988	2988	2988	2988	2988	2988	2988	2995	2995	3002	3002	3002	3009	3016	3016	3016	3023	3023	3030	3030	3030	3037	3044	3044	3051	3058	3058	3065	3072	3072	3087	3087	3087	3094	3094	3094	3094	3109	3109	3109	3109	3109	3116	3116	3116	3131	3139	3139	3139	3154	3154	3154	3154	3154	3154	3154	3154	3154	3154	3154	3154	3139	3139	3139	3131	3131	3116	3094	3094	3087	3080	3080	3072	3065	3058	3058	3051	3051	3051	3051	3044	3044	3044	3044	3044	3037	3037	3037	3037	3037	3037	3037	3037	3037	3037	3037	3037	3037	3037	3037	3037	3037	3044	3044	3044	3044	3044	3044	3044	3044	3044	3044	3044	3044	3044	3044	3044	3044	3044	3044	3044	3044	3037	3037	3037	3037	3030	3030	3030	3030	3030	3030	3030	3030	3030	3030	3030	3030	3030	3030	3030	3037	3044	3044	3044	3044	3044	3044	3051	3051	3051	3051	3051	3051	3051	3051	3051	3051	3051	3051	3051	3051	3051	3044	3044	3044	3044	3044	3044	3044	3044	3037	3037	3037	3030	3030	3030	3030	3023	3023	3023	3023	3016	3016	3016	3016	3016	3009	3009	3009	3002	3002	3002	3002	3002	3002	3002	3002	3009	3009	3016	3016	3016	3023	3023	3023	3030	3037	3037	3044	3044
1338	0	0	0	0	0	0	0	0	0	0	0	0	0	0	0	0	0	0	0	0	0	0	0	0	0	0	0	1327	1327	1327	1323	1322	1322	1321	1318	1318	1318	1317	1313	1313	1310	1310	1310	1310	1309	1309	1309	1310	1313	1313	1313	1313	1313	1310	1310	1310	1310	1313	1314	1313	1313	1313	1313	1313	1313	1313	1310	1310	1310	1313	1313	1309	1307	1304	1304	1302	1298	1298	1297	1295	1288	1288	1279	1269	1265	1265	1261	1258	1258	1256	1255	1254	1254	1252	1252	1252	1251	1251	1251	1249	1249	1250	1250	1250	1251	1251	1254	0	0	0	0	0	0	0	0	0	1279	1279	1282	1282	1286	1289	1289	1292	1295	1295	1296	1297	1297	1298	1301	1301	1302	1306	1306	1309	1314	1314	1321	1321	1323	1330	1330	1333	1334	1334	1336	1336	1336	1338	1340	1340	1342	1345	1345	1351	1358	1358	1366	1366	1372	1379	1379	1384	1384	1384	1385	1385	1385	1384	1384	1384	1384	1384	1384	1384	1384	1384	0	0	0	0	0	0	0	0	0	0	0	0	0	1965	1965	1965	1965	1965	1965	1965	1965	1962	1962	1962	1962	1962	1956	1956	1956	1951	1951	1945	1945	1942	1936	1936	1933	1928	1928	1925	1922	1922	1919	1916	1916	1916	1916	1913	1913	1913	1916	1922	1922	1928	1936	1936	1951	1951	1962	1974	1974	1980	1986	1986	1989	1992	1992	1992	1995	1995	1995	1998	1998	2001	2004	2004	2010	2017	2017	2023	2029	2029	2042	2042	2048	2051	2051	2061	2064	2064	2071	2071	2071	2071	2071	2071	2071	2071	2071	2074	2074	2074	2074	2074	2074	2074	2077	2077	2077	2081	2084	2084	2084	2084	2084	2084	2087	2087	2087	2087	2087	2087	2091	2091	2091	2091	2091	2091	2094	2094	2094	2094	2094	2097	2097	2097	2101	2101	2101	2104	2104	2104	2104	2104	2104	2108	2108	2108	2104	2104	2104	2104	2104	2104	2104	2104	2104	2104	2104	2104	2104	2101	2101	2101	2101	2101	2097	2097	2097	2097	2097	2097	2097	2097	2097	2097	2097	2094	2094	2094	2094	2094	2094	2094	2094	2094	2094	2097	2097	2097	2097	2097	2101	2101	2101	2104	2104	2104	2104	2104	2104	2104	2104	2104	2104	2104	2104	2104	2104	2104	2101	2101	2101	2097	2097	2097	2097	2094	2094	2094	2094	2094	2094	2094	2094	2094	2094	2094	2094	2094	2094	2094	2094	2094	2094	2094	2094	2097	2097	2097	2097	2097	2097	2101	2101	2101	2104	2104	2104	2104	2104	2108	2108	2108	2108	2108	2108	2108	2108	2108	2108	2108	2108	2108	2108	2108	2108	2108	2104	2104	2101	2101	2101	2101	2101	2101	2101	2101	2097	2097	2097	2097	2101	2101	2101	2104	2104	2104	2104	2108	2108	2111	2114	2114	2118	2125	2125	2128	2139	2139	2146	2156	2156	2160	2170	2170	2174	2174	2174	2174	2174	0	0	0	0	0	0	0	2954	2954	2954	2961	2975	2975	2975	2981	2981	2988	2988	2995	3002	3002	3002	3002	3009	3009	3009	3009	3009	3002	3002	3002	3002	3002	3002	3002	3002	2995	2988	2988	2988	2988	2988	2988	2988	2988	2988	2988	2995	2995	3002	3002	3002	3009	3016	3016	3016	3023	3023	3023	3030	3030	3037	3044	3044	3051	3058	3058	3065	3072	3072	3080	3080	3080	3087	3087	3087	3087	3087	3087	3094	3094	3094	3109	3109	3109	3109	3116	3116	3109	3109	3116	3116	3109	3109	3109	3109	3109	3109	3094	3094	3087	3080	3080	3080	3065	3065	3065	3051	3051	3051	3044	3044	3044	3044	3044	3044	3044	3037	3037	3037	3037	3037	3030	3030	3030	3030	3030	3030	3030	3030	3030	3030	3030	3030	3030	3030	3030	3030	3030	3037	3037	3037	3044	3044	3044	3044	3044	3044	3044	3044	3044	3044	3044	3044	3044	3044	3044	3044	3044	3037	3037	3037	3037	3030	3030	3030	3030	3030	3030	3030	3030	3030	3030	3030	3030	3030	3030	3030	3037	3044	3044	3044	3044	3044	3044	3051	3051	3051	3051	3051	3051	3051	3051	3051	3051	3051	3051	3051	3051	3051	3044	3044	3044	3044	3044	3044	3044	3044	3037	3037	3037	3030	3030	3030	3030	3023	3023	3023	3023	3016	3016	3016	3016	3016	3009	3009	3009	3002	3002	3002	3002	3009	3009	3009	3009	3009	3009	3016	3023	3023	3023	3023	3023	3030	3037	3037	3037	3044
1337	1337	1337	1336	1336	1333	1331	1331	0	0	0	0	0	0	0	0	0	0	0	0	0	0	0	1305	1305	1305	1321	1321	1321	1322	1322	1322	1321	1321	1318	1317	1317	1317	1314	1310	1310	1309	1309	1309	1309	1307	1307	1307	1309	1310	1310	1313	1313	1313	1313	1313	1313	1313	1314	1314	1317	1314	1314	1314	1314	1314	1313	1313	1314	1314	1313	1313	1309	1307	1304	1304	1302	1298	1298	1297	1295	1288	1288	1279	1269	1265	1265	1261	1258	1258	1256	1255	1252	1252	1251	1251	1251	1250	1250	1250	1249	1249	1250	1250	1250	1251	1251	1254	0	0	0	0	1272	1272	1281	1281	0	1279	1279	1282	1282	1286	1289	1289	1292	1295	1295	1296	1297	1297	1297	1298	1298	1301	1302	1302	1306	1310	1310	1314	1321	1321	1323	1323	1327	1330	1330	1330	1333	1333	1334	1338	1338	1341	1344	1344	1349	1358	1358	1366	1366	1372	1381	1381	1384	1385	1385	1385	1385	1385	1385	1385	1385	1385	1385	1384	1384	1384	1384	0	0	0	0	0	0	0	0	0	0	0	0	0	1974	1974	1974	1974	1974	1971	1971	1971	1971	1971	1965	1965	1965	1965	1962	1962	1956	1953	1953	1951	1945	1945	1945	1936	1933	1933	1928	1925	1925	1922	1919	1919	1919	1916	1916	1916	1916	1919	1925	1925	1928	1942	1942	1951	1951	1962	1974	1974	1980	1986	1986	1989	1992	1992	1992	1995	1995	1995	1998	1998	2001	2004	2004	2010	2014	2014	2020	2029	2029	2032	2039	2039	2048	2048	2051	2055	2055	2061	2061	2061	2061	2061	2061	2061	2061	2064	2061	2061	2064	2064	2064	2064	2064	2064	2071	2071	2074	2074	2074	2074	2074	2074	2077	2077	2077	2081	2081	2081	2081	2081	2081	2081	2084	2084	2087	2087	2087	2091	2091	2091	2091	2094	2094	2094	2094	2094	2097	2097	2097	2097	2097	2101	2101	2101	2101	2101	2101	2101	2101	2101	2101	2097	2097	2097	2097	2097	2097	2097	2097	2097	2097	2097	2097	2097	2097	2097	2097	2094	2094	2094	2094	2094	2094	2094	2094	2094	2094	2094	2094	2094	2094	2094	2094	2094	2094	2094	2097	2097	2097	2097	2097	2097	2101	2101	2101	2101	2101	2101	2101	2101	2101	2097	2097	2097	2097	2097	2097	2094	2094	2094	2094	2091	2091	2091	2091	2091	2091	2087	2087	2087	2087	2091	2091	2091	2091	2091	2091	2091	2091	2091	2091	2091	2091	2094	2094	2094	2094	2094	2094	2097	2097	2097	2097	2097	2097	2101	2101	2101	2104	2104	2104	2104	2104	2104	2104	2104	2104	2108	2108	2104	2104	2104	2104	2104	2104	2104	2104	2101	2101	2101	2101	2101	2101	2101	2101	2097	2097	2097	2097	2101	2101	2101	2104	2104	2104	2104	2108	2108	2111	2114	2114	2118	2125	2125	2128	2139	2139	2146	2156	2156	2160	2170	2170	2174	2174	2174	2174	2174	0	0	0	0	0	0	0	2954	2954	2954	2961	2975	2975	2975	2981	2981	2988	2988	2995	3002	3002	3002	3002	3009	3009	3009	3016	3016	3009	3009	3009	3002	3002	3002	3002	3002	3002	2995	2995	2988	2988	2988	2988	2988	2988	2988	2988	2995	2981	2981	2988	2988	2988	3002	3002	3002	3009	3009	3016	3023	3023	3023	3030	3030	3044	3051	3051	3051	3058	3058	3058	3065	3065	3072	3072	3072	3072	3080	3080	3080	3080	3080	3080	3087	3087	3080	3080	3080	3080	3080	3080	3072	3065	3065	3065	3065	3065	3058	3051	3051	3051	3051	3051	3044	3044	3044	3044	3037	3030	3030	3030	3030	3030	3030	3030	3030	3030	3030	3030	3030	3030	3030	3030	3030	3030	3030	3023	3023	3023	3023	3023	3023	3023	3023	3023	3023	3030	3030	3030	3030	3030	3030	3030	3030	3030	3037	3037	3037	3044	3044	3044	3044	3044	3037	3037	3037	3037	3037	3037	3030	3030	3030	3030	3023	3023	3023	3023	3023	3016	3016	3016	3016	3016	3016	3016	3023	3023	3023	3023	3030	3030	3030	3030	3037	3037	3044	3044	3044	3044	3044	3044	3044	3044	3044	3044	3044	3044	3044	3044	3044	3037	3037	3037	3030	3030	3030	3030	3030	3023	3023	3023	3023	3023	3023	3023	3016	3016	3016	3016	3016	3016	3016	3016	3016	3009	3009	3009	3002	3002	3002	3002	3009	3009	3009	3009	3009	3009	3016	3023	3023	3023	3023	3023	3030	3030	3030	3037	3044
