2364	2341	2331	2319	2279	2258	2236	2180	2161	2139	2089	2031	1954	1849	1838	1838	1656	1602	1551	1457	1412	1356	1308	1281	1247	1212	1196	1176	1154	1146	1138	1134	1133	1133	1133	1133	1133	1137	1139	1144	1148	1149	1149	1149	1150	1154	1158	1160	1160	1160	1161	1165	1169	1173	1182	1182	1183	1187	1191	1193	1193	1193	1080	0	0	0	0	0	0	0	0	43	1149	1141	1133	1133	1130	1128	1123	1118	1113	1113	1104	1093	1088	1084	1079	1074	1074	1074	1070	1070	1070	1070	1066	1061	1061	1061	1061	1057	1055	1052	1048	1044	1038	1035	1031	1026	1022	1020	1017	1017	1016	1013	1013	1013	1013	1016	1017	1017	1017	1018	1021	1021	1021	1021	1021	1021	1021	1024	1025	1021	1021	1020	1017	1017	1016	1013	1013	1013	1009	1007	1005	1005	1003	1001	1001	1003	1005	1009	1009	1009	1009	1011	1013	1013	1015	1017	1017	1017	1017	1017	1019	1021	1021	1021	1021	1021	1021	1021	1021	1021	1021	1017	1017	1017	1017	1017	1017	1017	1017	1017	1017	1017	1017	1017	1017	1017	1020	1023	1026	1029	1031	1034	1037	1039	1043	1050	1053	1056	1060	1061	1061	1064	1066	1070	1067	1065	1065	1062	1061	1061	1055	1052	1052	1049	1047	1047	1047	1047	1047	1050	1052	1052	1052	1052	1047	1047	1047	1052	1052	1052	1052	1054	1056	1056	1059	1061	1065	1067	1070	1074	1076	1079	1084	1084	1084	1088	1088	1088	1093	1091	1088	1088	1088	1088	1088	1086	1084	1084	1082	1079	1079	1079	1079	1079	1079	1079	1079	1079	1079	1079	1080	1084	1084	1084	1084	1084	1083	1079	1075	1073	1070	1064	1059	1052	1046	1042	1038	1033	1028	1021	1018	1016	1013	1013	1014	1017	1017	1018	1026	1031	1034	1034	1042	1047	1047	1055	1061	1065	1068	1070	1070	1070	1070	1065	1063	1061	1056	1056	1056	1052	1052	1052	1052	1052	1052	1052	1054	1056	1061	1061	1061	1069	1072	1074	1078	1081	1084	1087	1090	1093	1093	1093	1093	1089	1085	1079	1075	1073	1070	1070	1067	1061	1054	1051	1047	1044	1042	1038	1038	1037	1034	1031	1029	1026	1023	1019	1013	1005	998	981	971	964	955	945	939	929	921	915	906	904	902	899	899	899	899	897	896	896	896	896	896	894	893	893	893	893	890	890	890	890	890	890	890	890	890	890	890	890	890	890	890	890	890	890	890	890	890	887	886	886	886	886	886	884	883	883	883	883	883	883	883	883	883	883	883	885	886	886	889	890	890	892	894	896	900	903	909	916	920	926	933	939	947	954	959	969	979	986	993	995	997	1001	1001	1001	1001	1006	1009	1017	1022	1026	1034	1039	1043	1065	1070	1074	1079	1083	1088	1088	1090	1093	1088	1086	1084	1079	1077	1074	1066	1061	1056	1048	1042	1034	1019	1009	997	976	965	951	932	922	909	893	884	871	861	856	850	845	843	841	841	841	841	841	842	844	844	844	844	844	844	844	844	844	844	846	848	850	852	854	859	859	860	865	871	874	874	874	873	865	861	858	850	847	844	836	833	830	827	827	827	827	830	833	836	838	841	847	848	850	850	851	853	856	856	856	850	850	850	3386	3650	3650	3603	3597	3597	3552	3510	3447	3368	3339	3309	3238	3197	3141	3079	3053	3026	2997	2980	2954	2928	2911	2886	2836	2820	2820	2796	2781	2757	2715	2680	2612	2556	2518	2457	2409	2375	2319	2291	2277	2277	2225	2191	2158	2135	2117	2085	2075	2066	2051	2032	2017	2001	2001	2001	2001	2001	2001	2001	2001	2001	2001	1993	1985	1985	1993	2001	2018	2018	2018	2033	2034	2034	2034	2034	2034	2050	2051	2051	2051	2051	2051	2051	2051	2051	2036	2034	2034	2020	2012	2001	1988	1980
2409	2365	2353	2341	2279	2267	2256	2199	2180	2158	2107	2054	1985	1877	1839	1798	1722	1670	1601	1501	1456	1402	1344	1315	1279	1242	1223	1199	1176	1166	1154	1150	1149	1149	1149	1149	1149	1149	1149	1149	1149	1150	1154	1154	1154	1154	1154	1154	1154	1158	1161	1165	1169	1172	1176	1180	1182	1182	1185	1187	1187	1191	1080	0	0	0	0	0	0	0	0	43	1133	1128	1123	1123	551	0	0	0	0	0	0	0	1033	1072	1070	1070	1070	1070	1070	1068	1065	1065	1063	1061	1061	1061	1061	1057	1056	1056	1048	1044	1038	1035	1031	1026	1019	1017	1017	1014	1013	1013	1010	1009	1009	1009	1009	1009	1012	1013	1013	1013	1014	1017	1017	1017	1017	1020	1021	1021	1018	1017	1017	1017	1017	1017	1015	1013	1009	1007	1005	1005	1003	1001	1001	1003	1005	1005	1007	1009	1009	1009	1009	1013	1015	1017	1017	1019	1021	1021	1021	1021	1021	1021	1021	1021	1023	1026	1026	1026	1026	1026	1026	1026	1026	1026	1026	1022	1021	1021	1025	1026	1026	1026	1026	1026	1026	1027	1030	1030	1031	1034	1041	1044	1047	1047	1048	1052	1052	1053	1056	1060	1060	1056	1056	1055	1052	1049	1047	1047	1044	1043	1043	1040	1038	1038	1038	1039	1043	1043	1043	1047	1047	1047	1047	1047	1047	1047	1047	1047	1052	1052	1052	1056	1059	1061	1061	1065	1070	1074	1074	1074	1084	1084	1084	1088	1090	1093	1093	1091	1088	1088	1086	1084	1080	1077	1074	1071	1068	1065	1065	1065	1065	1065	1067	1070	1070	1070	1070	1073	1075	1079	1075	1074	1074	1067	1063	1056	1053	1049	1038	1032	1027	1017	1011	1007	997	994	992	985	982	980	977	977	978	981	981	982	989	991	994	1005	1012	1018	1026	1026	1027	1043	1048	1052	1052	1057	1061	1056	1054	1052	1047	1047	1047	1043	1043	1043	1043	1045	1047	1047	1047	1047	1052	1054	1056	1064	1067	1070	1074	1076	1079	1079	1081	1084	1084	1084	1084	1080	1077	1074	1071	1068	1065	1062	1058	1052	1048	1046	1043	1039	1037	1034	1034	1033	1030	1027	1025	1021	1018	1015	1009	1001	994	977	970	964	951	947	942	929	921	915	909	905	902	899	899	899	899	897	896	896	896	896	896	894	893	893	893	893	890	890	890	890	890	890	890	890	890	893	893	893	893	893	893	893	892	890	890	890	890	890	889	886	886	886	886	886	885	883	883	883	883	883	883	883	883	883	883	885	886	886	889	890	890	892	894	899	901	904	912	919	924	929	939	945	951	961	967	977	984	990	1001	1001	1001	1005	1005	1005	1009	1011	1013	1017	1022	1026	1030	1037	1043	1061	1061	1061	1065	1067	1070	1074	1074	1074	1070	1068	1065	1057	1052	1047	1039	1035	1030	1022	1016	1009	998	991	981	965	954	940	922	912	899	886	878	868	858	853	847	842	840	838	836	836	836	836	837	841	841	841	841	841	841	841	841	841	841	841	842	844	844	844	847	849	851	856	860	863	868	866	864	859	855	853	847	844	841	836	834	833	830	830	830	830	832	833	836	838	841	847	848	850	850	850	850	853	853	853	850	850	850	80	1513	3818	3818	3775	3704	3611	3578	3545	3503	3479	3447	3332	3281	3223	3156	3129	3102	3072	3043	2990	2962	2936	2886	2861	2845	2820	2774	2744	2698	2656	2623	2558	2505	2464	2386	2355	2337	2319	2264	2236	2236	2198	2172	2139	2117	2101	2085	2075	2066	2051	2041	2034	2034	2034	2034	2034	2034	2034	2034	2043	2051	2051	2051	2051	2051	2059	2068	2085	2085	2085	2085	2077	2068	2068	2068	2068	2068	2068	2068	2068	2068	2068	2053	2045	2034	2034	2028	2018	2018	2007	1985	1973	1965
2409	2376	2359	2341	2300	2284	2266	2209	2189	2168	2108	2061	2002	1891	1848	1798	1722	1678	1622	1528	1482	1426	1370	1339	1300	1259	1239	1214	1190	1179	1165	1159	1157	1157	1157	1157	1157	1155	1154	1154	1154	1154	1154	1154	1154	1154	1154	1154	1152	1154	1155	1160	1163	1166	1170	1174	1177	1179	1182	1184	1184	1186	1131	588	588	544	0	0	0	0	0	43	1128	1124	1120	1118	831	554	552	549	546	542	541	540	1054	1072	1070	1070	1070	1070	1068	1066	1065	1065	1063	1061	1061	1061	1061	1057	1056	1056	1048	1044	1038	1035	1031	1026	1019	1017	1017	1014	1012	1011	1009	1009	1009	1009	1009	1007	1008	1009	1011	1011	1011	1013	1014	1015	1015	1018	1019	1019	1018	1017	1015	1015	1015	1015	1014	1013	1009	1007	1005	1005	1003	1001	1001	1003	1005	1005	1006	1007	1009	1009	1009	1011	1013	1015	1017	1018	1019	1019	1020	1021	1021	1021	1021	1023	1025	1026	1026	1027	1028	1028	1028	1028	1028	1028	1028	1026	1026	1026	1028	1028	1028	1028	1028	1028	1030	1031	1032	1032	1033	1036	1041	1044	1047	1047	1048	1050	1050	1050	1052	1053	1053	1050	1048	1047	1045	1043	1042	1040	1039	1038	1038	1037	1036	1036	1036	1037	1040	1042	1043	1045	1045	1045	1045	1045	1045	1047	1047	1047	1050	1051	1052	1054	1056	1058	1061	1064	1068	1072	1072	1072	1079	1079	1079	1081	1082	1084	1079	1077	1074	1072	1070	1068	1064	1061	1058	1057	1056	1056	1056	1056	1056	1058	1060	1063	1065	1066	1066	1069	1071	1074	1071	1068	1065	1058	1053	1045	1039	1034	1024	1016	1011	1001	995	991	982	977	975	970	967	966	964	964	964	966	967	969	976	978	981	991	998	1004	1014	1014	1014	1026	1033	1039	1043	1048	1052	1052	1050	1050	1045	1045	1045	1043	1043	1043	1043	1044	1045	1045	1046	1047	1049	1052	1056	1060	1062	1066	1069	1070	1072	1074	1075	1077	1077	1077	1077	1075	1072	1068	1066	1064	1060	1057	1055	1050	1044	1041	1038	1037	1035	1032	1031	1030	1028	1023	1021	1019	1016	1013	1007	999	992	977	968	962	951	945	940	929	922	917	909	906	904	900	900	900	900	899	897	896	896	896	896	894	893	893	892	892	890	890	890	890	890	890	890	891	892	893	893	893	893	893	893	893	892	892	892	892	892	890	889	888	886	886	886	886	886	884	883	883	883	883	883	883	883	883	883	885	886	888	889	890	890	892	894	898	901	904	912	919	924	931	941	947	954	964	971	981	990	996	1003	1004	1005	1009	1009	1009	1011	1013	1015	1019	1023	1026	1030	1036	1041	1056	1056	1056	1063	1064	1066	1067	1065	1063	1057	1054	1052	1042	1038	1034	1024	1020	1016	1008	1003	997	986	979	970	955	946	934	917	908	896	883	876	866	857	851	844	840	839	837	835	834	834	834	835	837	838	839	840	840	840	840	840	840	840	840	840	841	842	843	844	847	849	853	856	858	862	861	860	856	852	850	847	844	841	836	834	833	830	830	830	830	832	833	837	839	841	845	847	848	848	849	850	853	853	853	852	674	425	40	1513	3818	3792	3757	3704	3634	3605	3571	3528	3503	3471	3355	3303	3244	3177	3149	3122	3076	3043	2990	2962	2932	2870	2821	2794	2759	2714	2686	2642	2602	2570	2508	2449	2408	2342	2327	2321	2330	2248	2206	2206	2170	2145	2121	2099	2084	2068	2058	2050	2042	2033	2026	2026	2031	2034	2042	2047	2051	2060	2069	2077	2077	2077	2077	2086	2090	2094	2103	2103	2103	2094	2090	2086	2086	2086	2086	2086	2082	2076	2069	2068	2068	2053	2045	2034	2034	2028	2018	2011	2001	1985	1973	1965
2409	2386	2365	2341	2320	2300	2277	2219	2199	2177	2109	2068	2018	1906	1856	1798	1722	1686	1644	1555	1509	1451	1396	1364	1320	1275	1254	1229	1205	1192	1176	1167	1165	1165	1165	1165	1165	1161	1160	1160	1160	1159	1154	1154	1154	1154	1154	1153	1149	1149	1150	1154	1158	1161	1165	1169	1172	1176	1180	1182	1182	1182	1181	1176	1176	1087	0	0	0	0	0	42	1123	1120	1118	1113	1110	1108	1103	1098	1093	1084	1082	1079	1074	1072	1070	1070	1070	1070	1065	1065	1065	1065	1063	1061	1061	1061	1061	1057	1056	1056	1048	1044	1038	1035	1031	1026	1019	1017	1017	1014	1012	1009	1009	1009	1009	1009	1008	1005	1005	1006	1009	1009	1009	1009	1012	1013	1013	1016	1017	1017	1017	1016	1013	1013	1013	1013	1013	1013	1009	1007	1005	1005	1003	1001	1001	1003	1005	1005	1005	1005	1009	1009	1009	1009	1011	1013	1017	1017	1017	1017	1019	1021	1021	1021	1021	1026	1026	1026	1026	1028	1030	1030	1030	1030	1030	1030	1030	1030	1030	1030	1030	1030	1030	1030	1030	1030	1033	1034	1034	1034	1035	1038	1042	1044	1047	1047	1047	1047	1047	1047	1047	1047	1046	1043	1040	1038	1038	1038	1037	1034	1034	1034	1034	1034	1034	1034	1034	1034	1038	1041	1043	1043	1043	1043	1043	1043	1043	1047	1047	1047	1047	1050	1052	1052	1054	1056	1061	1063	1065	1070	1070	1070	1074	1074	1074	1074	1074	1074	1066	1063	1061	1056	1054	1052	1048	1045	1043	1043	1044	1047	1047	1047	1047	1051	1053	1056	1060	1061	1061	1064	1066	1070	1066	1063	1056	1049	1044	1034	1024	1018	1009	1000	995	985	979	975	966	961	957	955	952	951	951	951	951	951	953	956	962	964	967	977	984	990	1001	1001	1001	1009	1018	1026	1034	1039	1043	1047	1047	1047	1043	1043	1043	1043	1043	1043	1043	1043	1043	1043	1045	1047	1047	1051	1056	1056	1058	1061	1065	1065	1065	1069	1070	1070	1070	1070	1070	1070	1067	1061	1061	1059	1056	1053	1051	1047	1040	1037	1034	1034	1033	1030	1027	1026	1026	1020	1017	1017	1014	1011	1005	997	990	977	967	960	951	944	939	929	923	918	909	907	906	902	902	902	902	900	899	896	896	896	896	894	893	893	891	890	890	890	890	890	890	890	890	891	893	893	893	893	893	893	893	893	893	893	893	893	893	890	890	890	887	886	886	886	886	886	884	883	883	883	883	883	883	883	883	885	887	890	890	890	890	892	894	896	900	904	912	919	925	933	942	949	958	968	975	985	995	1001	1005	1007	1009	1013	1013	1013	1013	1015	1017	1021	1024	1026	1030	1034	1038	1052	1052	1052	1061	1061	1061	1061	1057	1052	1043	1041	1038	1027	1024	1021	1010	1006	1001	994	990	985	974	967	958	946	939	929	912	904	893	880	873	865	855	849	841	839	837	836	834	833	833	833	833	833	835	836	838	838	838	838	838	838	838	838	838	838	840	841	841	845	847	850	852	853	856	856	856	853	849	847	847	844	841	836	834	833	830	830	830	830	832	833	838	839	841	844	845	847	847	848	850	853	853	853	853	499	0	0	1513	3818	3767	3739	3704	3657	3631	3597	3553	3528	3495	3378	3325	3265	3198	3170	3141	3080	3043	2990	2962	2927	2853	2781	2743	2698	2655	2628	2585	2547	2516	2457	2392	2352	2298	2298	2305	2341	2233	2177	2177	2141	2119	2103	2081	2066	2051	2041	2034	2034	2025	2018	2018	2027	2035	2051	2060	2069	2085	2095	2103	2103	2103	2103	2121	2121	2121	2121	2121	2121	2104	2103	2103	2103	2103	2103	2103	2096	2085	2070	2068	2068	2053	2045	2034	2034	2028	2018	2004	1996	1985	1973	1965
2457	2410	2388	2364	2321	2300	2277	2219	2199	2177	2125	2078	2018	1933	1885	1825	1757	1725	1688	1612	1569	1513	1454	1421	1379	1330	1305	1273	1242	1228	1211	1197	1190	1182	1182	1180	1176	1172	1170	1165	1161	1160	1160	1160	1159	1154	1151	1148	1144	1144	1144	1144	1147	1150	1154	1158	1161	1165	1169	1171	1171	1171	1171	1171	1171	1083	0	0	0	0	0	42	1123	1118	1113	1103	1100	1098	1093	1089	1084	1079	1077	1074	1070	1068	1065	1061	1061	1061	1065	1065	1065	1065	1063	1061	1061	1061	1061	1061	1059	1056	1053	1049	1043	1039	1034	1026	1022	1020	1017	1014	1012	1009	1009	1008	1005	1005	1005	1005	1005	1005	1005	1005	1005	1005	1005	1005	1005	1008	1009	1009	1009	1009	1009	1009	1009	1009	1009	1009	1009	1007	1005	1001	1001	1001	1001	1003	1005	1005	1005	1005	1005	1007	1009	1009	1011	1013	1013	1013	1013	1013	1013	1013	1017	1017	1017	1021	1023	1026	1030	1030	1030	1030	1030	1030	1034	1034	1034	1034	1034	1034	1034	1034	1034	1034	1034	1034	1037	1038	1038	1038	1038	1038	1042	1042	1038	1035	1034	1034	1034	1034	1034	1031	1029	1026	1023	1021	1021	1024	1026	1026	1026	1026	1026	1029	1030	1030	1032	1034	1038	1038	1038	1043	1043	1043	1043	1043	1043	1047	1047	1047	1047	1047	1047	1052	1052	1052	1061	1061	1061	1061	1061	1061	1056	1054	1052	1047	1045	1043	1038	1035	1030	1026	1024	1021	1021	1019	1017	1017	1017	1017	1020	1023	1026	1033	1037	1043	1046	1049	1052	1055	1056	1056	1049	1045	1038	1025	1018	1009	1000	993	981	970	964	955	949	946	940	935	932	929	927	926	926	926	926	929	931	933	937	939	941	951	955	959	973	973	974	993	1000	1005	1017	1022	1026	1034	1039	1043	1038	1038	1038	1038	1038	1038	1038	1040	1043	1043	1043	1043	1047	1049	1052	1052	1054	1056	1056	1056	1056	1056	1058	1061	1061	1059	1056	1056	1055	1052	1048	1046	1043	1043	1042	1038	1035	1032	1026	1026	1025	1021	1021	1020	1017	1014	1012	1009	1009	1007	1001	996	990	973	966	960	951	944	939	929	923	918	912	908	906	902	902	902	902	900	899	896	896	896	896	894	893	893	891	890	890	890	890	890	890	890	890	891	893	893	893	893	893	893	893	893	893	893	893	893	893	890	890	890	890	890	890	890	889	886	886	885	883	883	883	883	883	884	886	886	887	890	890	890	890	892	894	896	900	904	912	919	925	937	944	949	962	969	975	989	999	1005	1009	1011	1013	1013	1013	1013	1017	1019	1021	1021	1026	1030	1034	1036	1038	1047	1050	1052	1047	1045	1043	1043	1037	1030	1026	1020	1013	1005	1002	997	990	986	981	974	970	966	959	954	947	935	927	916	904	897	886	876	869	859	852	846	838	834	831	827	827	827	827	827	828	830	830	831	833	831	830	830	830	831	833	833	833	833	833	833	833	835	836	838	838	838	841	841	842	853	849	847	844	842	841	836	834	833	830	830	830	830	832	833	836	837	838	838	839	841	841	842	844	850	850	850	853	499	0	0	1513	3818	3767	3739	3704	3657	3631	3597	3553	3528	3495	3416	3371	3309	3239	3175	3064	2950	2901	2853	2756	2704	2640	2578	2539	2482	2411	2376	2341	2325	2310	2277	2248	2232	2216	2202	2190	2158	2134	2113	2068	2068	2066	2051	2040	2032	2018	2008	2001	2001	1992	1985	1985	2004	2020	2051	2060	2069	2103	2113	2121	2139	2149	2158	2158	2167	2177	2158	2158	2158	2158	2149	2139	2122	2121	2121	2104	2096	2085	2070	2068	2068	2053	2045	2034	2020	2018	2018	1990	1985	1985	1973	1965
2470	2422	2399	2375	2332	2311	2288	2229	2205	2177	2125	2085	2034	1948	1902	1846	1787	1756	1718	1645	1602	1547	1485	1452	1411	1360	1334	1300	1268	1252	1232	1215	1208	1200	1195	1191	1184	1180	1177	1170	1165	1161	1157	1155	1154	1152	1146	1143	1141	1139	1138	1138	1142	1144	1146	1150	1153	1160	1163	1166	1166	1166	1166	1166	1166	1121	577	574	572	566	564	583	1120	1117	1113	1103	1100	1098	1090	1087	1084	1079	1076	1072	1070	1068	1065	1061	1061	1061	1065	1065	1065	1065	1063	1061	1061	1061	1061	1061	1059	1056	1053	1050	1045	1039	1035	1030	1025	1022	1019	1016	1014	1011	1009	1008	1005	1005	1005	1003	1003	1003	1003	1002	1001	1001	1002	1003	1003	1006	1007	1007	1007	1007	1007	1008	1009	1009	1009	1009	1009	1007	1005	1001	1001	1001	1001	1002	1003	1003	1003	1003	1003	1004	1005	1005	1007	1009	1011	1011	1011	1011	1012	1013	1015	1016	1017	1021	1023	1026	1030	1030	1030	1030	1031	1032	1034	1034	1034	1036	1036	1036	1036	1036	1036	1036	1036	1036	1038	1039	1040	1040	1040	1040	1040	1039	1036	1031	1030	1030	1028	1028	1028	1026	1025	1022	1020	1019	1019	1021	1022	1024	1025	1026	1026	1027	1028	1030	1032	1034	1038	1038	1038	1040	1042	1043	1043	1043	1043	1045	1045	1045	1047	1046	1045	1048	1048	1048	1054	1054	1054	1052	1050	1048	1043	1041	1039	1034	1031	1028	1022	1018	1014	1012	1010	1007	1007	1005	1003	1003	1004	1005	1010	1013	1016	1024	1028	1034	1039	1042	1045	1049	1049	1047	1039	1034	1026	1013	1006	995	985	978	966	957	951	944	938	934	928	924	922	920	920	919	918	918	918	920	922	923	926	930	932	942	946	950	964	969	974	983	990	995	1005	1013	1020	1030	1034	1038	1038	1038	1038	1038	1038	1038	1038	1040	1043	1043	1043	1043	1047	1048	1050	1050	1050	1052	1054	1054	1054	1054	1055	1056	1056	1055	1052	1052	1050	1048	1043	1042	1040	1039	1037	1034	1031	1028	1024	1024	1022	1019	1018	1017	1015	1012	1010	1007	1007	1005	999	992	986	971	964	958	949	943	939	929	923	918	912	908	906	902	902	902	902	901	900	898	897	896	896	894	893	893	892	892	890	890	890	890	890	890	891	892	893	893	893	893	893	893	893	893	893	893	893	893	893	892	891	890	890	890	890	890	889	888	888	887	884	884	884	884	884	885	886	888	888	890	891	892	892	893	894	896	900	904	912	920	927	938	945	951	964	972	979	993	1002	1007	1011	1013	1015	1017	1017	1017	1019	1022	1024	1024	1028	1032	1034	1037	1041	1047	1048	1050	1047	1045	1043	1039	1032	1026	1020	1014	1007	998	993	987	980	975	970	963	959	955	947	942	936	926	920	911	900	892	882	873	867	858	850	845	838	833	830	826	825	824	824	824	825	826	827	828	830	829	828	828	828	829	830	830	830	830	831	832	832	832	834	838	838	838	841	841	842	847	844	842	840	838	837	834	832	830	828	829	830	830	831	832	834	836	837	837	838	840	841	842	844	848	848	848	458	249	0	0	756	1909	3576	3757	3704	3657	3640	3624	3579	3554	3520	3383	3307	3206	3111	3035	2910	2796	2735	2655	2570	2528	2480	2433	2403	2359	2309	2286	2268	2254	2240	2208	2194	2186	2178	2165	2154	2130	2107	2089	2060	2060	2057	2042	2037	2032	2018	2008	2001	2001	1992	1985	1985	2004	2019	2042	2056	2069	2103	2113	2122	2148	2158	2168	2168	2177	2186	2177	2173	2168	2168	2159	2148	2131	2126	2121	2104	2096	2085	2070	2068	2068	2053	2045	2034	2020	2015	2010	1989	1982	1978	1971	1962
2482	2434	2411	2386	2343	2322	2298	2240	2210	2177	2125	2092	2051	1963	1919	1866	1817	1787	1748	1677	1636	1581	1516	1483	1443	1390	1362	1327	1294	1276	1253	1234	1226	1217	1208	1202	1193	1188	1184	1176	1168	1163	1154	1150	1149	1149	1141	1138	1138	1135	1133	1133	1136	1138	1138	1142	1145	1154	1158	1160	1160	1160	1160	1160	1160	1160	1154	1148	1143	1133	1128	1123	1118	1115	1113	1103	1100	1098	1088	1086	1084	1079	1075	1070	1070	1068	1065	1061	1061	1061	1065	1065	1065	1065	1063	1061	1061	1061	1061	1061	1059	1056	1053	1050	1047	1040	1037	1034	1028	1024	1021	1018	1016	1013	1010	1008	1005	1005	1004	1001	1001	1001	1001	998	997	997	1000	1001	1001	1004	1005	1005	1005	1005	1005	1008	1009	1009	1009	1009	1009	1007	1005	1001	1001	1001	1001	1001	1001	1001	1001	1001	1001	1001	1001	1001	1003	1005	1009	1009	1009	1009	1011	1013	1013	1015	1017	1021	1023	1026	1030	1030	1030	1030	1032	1034	1034	1034	1034	1037	1038	1038	1038	1038	1038	1038	1038	1038	1038	1040	1043	1043	1043	1043	1039	1037	1034	1028	1026	1026	1022	1021	1021	1021	1020	1017	1017	1017	1017	1017	1018	1021	1024	1026	1026	1026	1027	1030	1032	1034	1038	1038	1038	1038	1041	1043	1043	1043	1043	1043	1043	1043	1047	1045	1043	1043	1043	1043	1047	1047	1047	1043	1039	1034	1030	1028	1026	1021	1018	1013	1006	1002	997	997	995	993	993	991	989	989	990	993	1000	1002	1005	1015	1020	1026	1032	1035	1038	1042	1042	1038	1029	1023	1013	1001	993	981	970	963	951	943	939	933	926	922	916	913	912	912	912	912	909	909	909	912	912	912	916	920	924	933	937	941	955	965	973	973	980	985	993	1004	1013	1026	1030	1034	1038	1038	1038	1038	1038	1038	1038	1040	1043	1043	1043	1043	1047	1047	1047	1047	1047	1047	1051	1052	1052	1052	1052	1052	1052	1050	1047	1047	1046	1043	1039	1038	1038	1035	1033	1030	1027	1025	1021	1021	1020	1017	1014	1013	1013	1010	1008	1005	1005	1003	997	989	982	969	962	956	947	943	939	929	923	918	912	908	906	902	902	902	902	902	902	899	897	896	896	894	893	893	893	893	890	890	890	890	890	890	893	893	893	893	893	893	893	893	893	893	893	893	893	893	893	893	892	890	890	890	890	890	890	890	890	889	886	886	886	886	886	886	886	889	890	890	892	893	893	893	894	896	900	904	912	922	928	940	947	953	966	976	983	997	1004	1009	1013	1015	1017	1021	1021	1021	1021	1024	1026	1026	1030	1034	1034	1039	1043	1047	1047	1047	1047	1045	1043	1034	1028	1021	1013	1008	1001	990	984	977	970	964	958	952	948	944	934	930	926	917	912	906	895	888	877	870	864	856	849	844	838	832	828	824	822	822	822	822	822	822	823	825	827	827	827	827	827	827	827	827	827	827	829	830	830	830	831	838	838	838	841	841	841	841	839	838	836	834	833	833	830	827	827	829	830	830	830	830	833	834	836	836	837	838	841	842	844	847	847	847	64	0	0	0	0	0	3386	3775	3704	3657	3650	3650	3605	3579	3545	3349	3243	3102	2982	2895	2757	2642	2568	2457	2385	2352	2319	2287	2267	2236	2207	2196	2196	2182	2169	2139	2139	2139	2139	2127	2118	2103	2080	2065	2051	2051	2049	2034	2034	2032	2018	2008	2001	2001	1992	1985	1985	2004	2019	2034	2053	2069	2103	2113	2122	2158	2168	2177	2177	2186	2196	2196	2187	2177	2177	2168	2158	2140	2131	2121	2104	2096	2085	2070	2068	2068	2053	2045	2034	2020	2012	2001	1987	1980	1970	1970	1960
2507	2458	2424	2386	2343	2312	2277	2238	2219	2196	2127	2092	2051	1978	1940	1894	1844	1818	1785	1722	1684	1633	1572	1545	1513	1513	1477	1402	1359	1336	1306	1280	1266	1247	1228	1218	1205	1196	1189	1176	1164	1158	1149	1145	1144	1144	1136	1132	1128	1128	1128	1128	1128	1129	1133	1133	1134	1144	1147	1150	1154	1154	1154	1154	1154	1154	1154	1148	1143	1133	1128	1123	1118	1115	1113	1103	1100	1098	1088	1086	1084	1079	1075	1070	1065	1065	1065	1061	1061	1061	1061	1063	1065	1065	1063	1061	1061	1061	1061	1061	1061	1061	1057	1053	1047	1044	1041	1038	1032	1029	1026	1022	1020	1017	1008	1004	1001	1001	1000	997	994	993	993	993	993	993	993	993	993	996	998	1001	1001	1001	1001	1004	1005	1005	1007	1009	1009	1007	1005	1001	1001	1001	1001	1001	1001	1001	1001	1001	1001	1001	1001	1001	1003	1005	1005	1007	1009	1009	1009	1009	1013	1015	1017	1021	1023	1026	1030	1030	1030	1030	1032	1034	1034	1036	1038	1038	1038	1038	1038	1040	1043	1043	1043	1043	1043	1043	1043	1039	1037	1034	1031	1029	1026	1022	1020	1017	1014	1013	1013	1010	1009	1009	1009	1010	1013	1013	1014	1017	1020	1022	1026	1026	1027	1030	1030	1030	1034	1034	1034	1038	1038	1038	1038	1038	1038	1038	1038	1038	1038	1038	1038	1034	1034	1034	1030	1028	1026	1013	1011	1009	1001	997	993	989	986	981	974	971	969	963	962	962	962	960	958	958	961	966	972	977	985	992	998	1009	1015	1018	1021	1028	1027	1021	1009	1002	993	978	969	955	944	937	926	919	915	912	908	905	902	900	898	896	896	896	896	896	896	896	896	896	899	903	907	912	918	924	937	945	951	951	959	967	985	993	1001	1017	1024	1030	1038	1038	1038	1038	1038	1038	1038	1040	1043	1043	1043	1043	1047	1045	1043	1043	1043	1043	1043	1043	1043	1043	1041	1038	1038	1038	1038	1035	1033	1030	1030	1029	1026	1026	1025	1021	1018	1017	1017	1014	1013	1013	1010	1008	1005	1005	1004	1001	998	995	989	984	978	966	959	953	944	940	936	929	923	918	912	908	906	902	902	902	906	904	902	899	897	896	896	896	896	893	893	893	893	893	893	893	893	893	893	893	893	893	893	893	893	893	893	893	893	893	893	893	893	893	892	890	890	890	890	890	890	890	890	890	890	887	886	886	886	887	890	890	891	893	893	893	893	893	894	896	900	904	912	922	928	940	947	953	966	976	983	997	1004	1010	1017	1017	1017	1021	1021	1021	1021	1024	1026	1026	1030	1034	1038	1041	1043	1043	1043	1043	1043	1039	1034	1026	1020	1013	998	992	985	974	968	962	952	946	940	937	934	929	924	920	916	907	902	896	888	882	874	867	861	853	846	842	838	832	828	824	822	822	822	822	822	822	822	822	824	824	824	824	824	825	827	827	827	827	829	830	830	830	830	830	832	833	833	833	833	833	831	830	830	830	830	830	827	824	824	824	824	827	827	827	827	828	830	830	831	833	836	838	841	844	845	847	853	853	853	80	0	0	0	1398	3704	3523	3495	3495	3495	3495	3495	3137	3064	3064	2975	2895	2757	2642	2568	2457	2385	2352	2319	2130	2068	2068	2068	2068	2068	2056	2051	2051	2051	2051	2051	2063	2065	2051	2040	2032	2018	2018	2016	2001	2001	1999	1985	1976	1968	1954	1954	1954	1954	1972	1987	2018	2027	2036	2085	2095	2104	2139	2158	2177	2196	2206	2216	2216	2207	2196	2178	2177	2177	2141	2131	2121	2104	2096	2085	2070	2061	2051	2051	2045	2034	2020	2012	2001	1987	1980	1970	1970	1960
2458	2411	2378	2342	2310	2285	2256	2218	2199	2177	2117	2090	2060	1992	1958	1916	1866	1839	1805	1745	1711	1666	1607	1580	1547	1519	1495	1458	1388	1365	1350	1299	1278	1256	1235	1223	1205	1196	1188	1174	1161	1155	1146	1141	1138	1138	1131	1127	1123	1123	1123	1123	1123	1123	1126	1129	1132	1138	1143	1147	1152	1153	1154	1154	1154	1154	1154	1150	1146	1138	1133	1128	1120	1118	1115	1108	1104	1100	1088	1086	1084	1079	1075	1070	1065	1065	1065	1061	1061	1061	1061	1063	1065	1065	1063	1061	1061	1061	1061	1061	1061	1061	1057	1053	1047	1044	1041	1038	1032	1029	1026	1022	1020	1017	1008	1004	1001	1001	1000	997	994	993	991	991	991	991	991	991	991	994	995	997	997	997	999	1002	1003	1005	1007	1009	1009	1007	1005	1001	1001	1001	1003	1002	1001	1001	1001	1001	1001	1001	1001	1001	1003	1005	1005	1006	1007	1009	1009	1009	1013	1015	1017	1021	1022	1024	1028	1028	1028	1030	1032	1034	1036	1037	1038	1038	1039	1040	1040	1041	1043	1043	1043	1043	1043	1042	1040	1037	1035	1032	1029	1027	1024	1019	1016	1013	1012	1011	1011	1010	1009	1009	1009	1009	1011	1012	1014	1017	1018	1020	1024	1025	1027	1030	1030	1030	1034	1034	1034	1036	1037	1038	1038	1038	1038	1036	1036	1036	1034	1032	1029	1026	1024	1024	1018	1015	1012	1001	998	995	987	983	978	974	970	966	959	957	954	950	949	948	948	947	946	946	948	953	961	966	974	981	988	999	1007	1011	1015	1022	1021	1015	1003	995	983	975	966	946	936	930	919	913	910	906	902	900	896	894	892	890	890	890	890	890	890	891	891	891	894	898	901	906	912	917	930	939	946	946	955	963	979	990	999	1015	1023	1030	1038	1040	1042	1042	1042	1040	1040	1042	1043	1043	1044	1045	1047	1045	1043	1043	1042	1040	1039	1038	1038	1038	1037	1034	1034	1033	1032	1030	1029	1026	1026	1024	1022	1020	1019	1017	1015	1014	1013	1011	1011	1009	1006	1005	1003	1002	1000	997	996	993	987	982	976	964	957	952	944	940	936	929	924	920	914	910	907	902	902	902	906	905	904	900	899	897	896	896	896	894	894	894	893	893	893	893	893	893	893	894	894	894	894	894	894	894	894	894	894	894	894	894	893	893	892	892	890	890	890	890	890	892	892	891	890	888	888	888	888	889	890	890	891	893	893	893	893	893	894	896	900	904	914	922	928	938	947	953	966	976	983	995	1004	1010	1015	1016	1017	1021	1021	1021	1021	1024	1026	1026	1030	1034	1038	1039	1041	1043	1043	1043	1043	1039	1034	1026	1019	1011	998	990	981	968	963	956	946	941	934	930	928	924	918	916	912	905	901	894	886	881	874	867	861	853	846	842	838	832	828	824	822	822	822	822	822	822	822	822	824	824	824	824	824	825	827	827	827	826	826	827	827	827	827	827	829	830	830	830	830	830	829	828	828	828	828	828	826	824	824	824	824	826	826	826	826	826	827	828	830	832	836	838	841	842	844	846	851	852	853	80	0	0	0	699	1852	3278	3495	3495	3475	3440	3380	3118	3064	3064	1776	1447	1378	1321	1284	1228	1193	1176	1160	1845	2068	2068	2021	2004	2004	2003	2002	2002	2013	2020	2026	2038	2043	2042	2032	2024	2010	2010	2008	2001	1996	1991	1978	1968	1961	1954	1950	1946	1946	1960	1971	2002	2015	2028	2068	2082	2095	2130	2149	2168	2186	2196	2206	2216	2207	2196	2178	2177	2177	2141	2135	2130	2105	2096	2085	2070	2061	2051	2051	2045	2034	2020	2012	2001	1987	1980	1970	1970	1962
2409	2365	2333	2298	2278	2258	2236	2198	2180	2158	2107	2088	2068	2007	1976	1939	1887	1859	1825	1769	1738	1700	1643	1615	1581	1525	1513	1513	1416	1394	1394	1319	1290	1266	1242	1227	1205	1196	1188	1171	1158	1152	1144	1136	1133	1133	1126	1122	1118	1118	1118	1118	1118	1118	1118	1124	1129	1133	1140	1145	1149	1152	1154	1154	1154	1154	1154	1151	1149	1144	1138	1133	1123	1120	1118	1113	1108	1103	1088	1086	1084	1079	1075	1070	1065	1065	1065	1061	1061	1061	1061	1063	1065	1065	1063	1061	1061	1061	1061	1061	1061	1061	1057	1053	1047	1044	1041	1038	1032	1029	1026	1022	1020	1017	1008	1004	1001	1001	1000	997	994	992	989	989	989	989	989	989	989	992	993	993	993	994	997	1000	1002	1005	1007	1009	1009	1007	1005	1001	1001	1001	1005	1003	1001	1001	1001	1001	1001	1001	1001	1001	1003	1005	1005	1005	1005	1009	1009	1009	1013	1015	1017	1021	1021	1021	1026	1026	1026	1030	1032	1034	1038	1038	1038	1038	1040	1043	1043	1043	1043	1043	1043	1043	1043	1041	1038	1035	1033	1030	1027	1025	1021	1015	1012	1009	1009	1009	1009	1009	1009	1009	1009	1009	1009	1012	1014	1017	1017	1018	1021	1024	1027	1030	1030	1030	1034	1034	1034	1034	1036	1038	1038	1038	1038	1034	1034	1034	1030	1025	1021	1017	1015	1013	1005	1001	997	989	985	981	973	968	962	958	955	951	945	942	940	937	935	933	933	933	933	933	936	940	949	955	962	971	978	989	999	1003	1009	1015	1015	1009	997	988	973	973	964	937	929	923	912	908	905	899	897	895	890	887	885	883	883	883	883	883	883	886	886	886	890	894	896	899	905	910	923	933	940	940	950	959	973	986	997	1013	1022	1030	1038	1042	1047	1047	1045	1043	1043	1043	1043	1043	1045	1047	1047	1045	1043	1043	1041	1038	1034	1034	1034	1034	1033	1030	1030	1029	1026	1026	1024	1021	1021	1020	1017	1014	1013	1013	1013	1012	1009	1009	1008	1005	1002	1001	1001	998	996	993	993	991	985	980	974	962	955	950	944	940	936	929	925	922	916	912	908	902	902	902	906	906	906	902	900	899	896	896	896	896	896	896	893	893	893	893	893	893	893	894	896	896	896	896	896	896	896	896	896	896	896	895	893	893	893	893	890	890	890	890	891	893	893	892	890	890	890	890	890	890	890	890	891	893	893	893	893	893	894	896	900	905	916	923	928	937	946	953	966	976	983	993	1003	1009	1013	1015	1017	1021	1021	1021	1021	1024	1026	1026	1030	1034	1038	1038	1038	1043	1043	1043	1043	1039	1034	1026	1018	1009	997	988	977	963	957	951	941	935	929	924	921	919	913	911	909	903	899	893	885	880	874	867	861	853	846	842	838	832	828	824	822	822	822	822	822	822	822	822	824	824	824	824	824	825	827	827	826	824	824	824	824	824	824	824	826	827	827	827	827	827	827	827	827	827	827	827	825	824	824	824	824	824	824	824	824	824	824	827	828	830	836	838	841	841	842	844	850	851	853	80	0	0	0	0	0	3033	3495	3495	3454	3385	3265	3098	3064	3064	578	0	0	0	0	0	0	0	0	1561	2068	2068	1973	1939	1939	1950	1954	1954	1976	1988	2001	2013	2021	2034	2023	2015	2001	2001	2001	2001	1991	1983	1970	1960	1954	1954	1945	1939	1939	1947	1956	1985	2003	2019	2051	2069	2086	2121	2140	2158	2177	2186	2196	2216	2207	2196	2178	2177	2177	2141	2139	2139	2106	2096	2085	2070	2061	2051	2051	2045	2034	2020	2012	2001	1987	1980	1970	1970	1965
2319	2257	2247	2236	2198	2179	2158	2140	2131	2121	2088	2071	2051	2006	1982	1954	1914	1887	1852	1805	1775	1735	1686	1662	1633	1582	1571	1571	1571	1097	0	0	0	0	0	318	1205	1188	1178	1165	1150	1143	1138	1131	1126	1118	1118	1117	1113	1110	1108	1108	1108	1109	1113	1116	1119	1128	1131	1134	1144	1147	1149	1154	1154	1154	1154	1151	1149	1144	1138	1133	1128	1123	1118	1113	1108	1103	1098	1093	1088	1084	1082	1079	1070	1070	1070	1065	1065	1065	1065	1065	1065	1065	1067	1070	1070	1070	1070	1070	1070	1070	1066	1064	1061	1057	1053	1047	1044	1041	1038	1032	1027	1021	1015	1011	1005	1002	1000	997	994	992	989	986	984	981	981	982	985	985	986	989	989	990	993	996	998	1001	1003	1005	1005	1005	1005	1005	1005	1005	1005	1003	1001	997	997	997	997	997	997	997	997	997	1001	1001	1001	1001	1003	1005	1009	1011	1013	1017	1019	1021	1021	1023	1026	1030	1030	1030	1037	1038	1038	1042	1043	1043	1043	1043	1043	1043	1041	1038	1038	1037	1034	1031	1029	1026	1022	1020	1017	1011	1009	1009	1009	1009	1009	1006	1005	1005	1008	1009	1009	1009	1010	1017	1017	1018	1021	1021	1022	1026	1028	1030	1030	1030	1030	1030	1030	1030	1034	1034	1034	1034	1030	1026	1017	1015	1013	1005	1001	997	985	979	973	966	959	951	944	939	933	929	926	923	917	914	912	909	909	909	909	909	909	915	919	923	935	939	944	956	962	969	982	987	993	999	1000	997	978	973	973	951	940	929	919	913	902	898	895	890	887	885	883	881	879	877	875	874	874	874	874	877	877	877	880	882	884	890	895	900	912	924	933	940	946	952	969	982	993	1013	1022	1030	1043	1047	1052	1052	1050	1047	1047	1049	1052	1047	1047	1047	1043	1041	1038	1034	1032	1030	1030	1028	1026	1026	1024	1021	1018	1017	1017	1014	1013	1013	1013	1012	1009	1009	1008	1005	1002	1001	1001	1001	1001	1001	998	996	993	993	992	989	986	984	981	976	970	958	953	950	944	940	936	929	925	922	916	912	909	906	906	906	906	906	906	902	902	902	899	897	896	896	896	896	896	896	896	896	895	893	893	894	896	893	893	893	893	893	893	893	893	893	896	895	893	893	893	893	893	893	893	893	893	893	893	893	893	891	890	890	892	893	893	893	893	893	893	893	893	893	894	896	903	908	916	923	928	937	944	949	962	972	979	989	999	1005	1009	1011	1014	1021	1021	1021	1021	1024	1026	1030	1032	1034	1038	1038	1038	1047	1047	1047	1043	1039	1034	1030	1020	1009	994	984	973	956	948	940	930	925	919	916	914	912	909	908	906	903	899	893	885	880	874	867	862	856	849	845	841	835	831	827	825	824	824	824	824	824	824	824	824	824	824	824	824	824	824	824	824	822	822	822	819	819	819	819	821	822	822	822	822	822	823	824	824	824	824	824	823	822	822	822	822	822	822	822	822	822	822	824	825	827	833	835	838	841	842	844	850	851	853	80	0	0	0	0	0	0	0	0	2927	3385	3265	3265	2218	0	0	0	0	0	0	0	0	468	1773	1773	1773	1773	1791	1804	1825	1844	1855	1866	1906	1930	1954	1975	1988	2001	2001	1999	1985	1985	1983	1970	1970	1968	1954	1936	1923	1909	1900	1894	1894	1902	1911	1939	1956	1971	2001	2018	2035	2085	2103	2121	2158	2167	2177	2177	2177	2177	2177	2168	2158	2140	2139	2139	2122	2106	2085	2070	2061	2051	2051	2045	2034	2020	2012	2001	2001	1996	1985	1973	1965
2288	2237	2222	2206	2178	2164	2148	2131	2122	2112	2087	2071	2051	1998	1978	1954	1914	1890	1859	1812	1786	1754	1703	1681	1655	1611	1592	1571	1563	1324	776	161	0	0	0	318	1205	1188	1177	1162	1149	1142	1136	1128	1123	1116	1116	1114	1108	1106	1105	1103	1103	1104	1108	1111	1114	1123	1126	1129	1138	1143	1147	1152	1152	1152	1154	1151	1149	1144	1138	1133	1128	1124	1120	1116	1110	1106	1100	1096	1090	1086	1083	1079	1075	1073	1072	1068	1068	1068	1068	1068	1068	1068	1069	1072	1072	1072	1072	1072	1073	1074	1072	1070	1068	1065	1061	1054	1050	1048	1045	1038	1034	1028	1021	1017	1011	1005	1002	997	994	992	989	986	984	981	980	979	981	982	984	987	987	988	991	994	996	999	1003	1005	1005	1005	1005	1005	1005	1005	1003	1001	999	997	996	995	995	995	995	995	995	995	999	999	999	999	1001	1003	1007	1009	1011	1015	1017	1019	1021	1022	1024	1028	1029	1030	1035	1036	1036	1040	1040	1040	1040	1040	1040	1040	1039	1036	1034	1033	1032	1029	1027	1024	1020	1018	1015	1010	1009	1009	1008	1007	1007	1006	1005	1005	1006	1007	1009	1009	1010	1015	1015	1016	1019	1019	1020	1024	1025	1026	1028	1028	1028	1028	1028	1028	1030	1030	1030	1028	1023	1019	1013	1008	1003	995	990	985	974	968	962	952	945	938	930	926	921	916	914	911	906	905	902	900	900	900	900	900	901	907	911	916	925	930	936	947	953	960	973	978	983	989	989	985	970	964	958	941	932	922	913	907	899	896	893	888	886	884	883	880	878	876	875	874	872	872	873	876	876	876	878	880	882	888	894	899	912	922	930	944	947	950	968	980	991	1011	1020	1028	1043	1047	1052	1052	1051	1050	1050	1051	1052	1045	1045	1045	1039	1037	1034	1030	1028	1026	1024	1023	1022	1018	1017	1015	1012	1011	1011	1008	1007	1007	1007	1006	1005	1005	1004	1001	999	998	997	997	997	997	996	994	991	990	989	987	984	982	979	974	969	958	953	950	944	940	936	929	925	922	916	913	910	906	906	906	906	906	906	902	902	902	899	898	897	896	896	896	896	896	896	896	895	894	894	895	896	893	893	893	893	893	893	893	893	893	896	895	893	893	893	893	893	893	893	893	893	893	893	893	893	892	892	892	893	893	893	893	893	894	893	893	893	893	894	896	903	908	916	922	926	935	943	949	960	968	975	985	995	1002	1007	1009	1012	1017	1018	1019	1021	1024	1026	1030	1033	1036	1040	1042	1043	1047	1048	1050	1045	1042	1038	1030	1021	1011	994	984	973	956	948	938	928	923	918	913	912	910	908	906	904	902	899	893	885	880	874	867	862	856	850	847	842	836	833	828	825	824	824	824	824	824	823	823	823	823	823	822	822	822	822	820	820	819	819	819	816	816	816	816	818	819	819	819	819	819	820	822	822	822	822	823	822	820	820	820	820	820	820	820	820	820	820	823	824	826	831	834	838	844	845	847	851	853	856	81	0	0	0	0	0	0	0	0	1463	1693	1632	1632	1109	0	0	0	0	674	845	833	833	1067	1720	1720	1720	1720	1741	1756	1780	1808	1823	1838	1883	1909	1939	1965	1980	1993	1998	1999	1985	1985	1983	1970	1970	1968	1954	1936	1922	1902	1893	1887	1887	1895	1903	1924	1941	1956	1993	2010	2027	2076	2095	2112	2148	2162	2177	2177	2177	2177	2177	2168	2158	2149	2144	2139	2122	2110	2094	2078	2070	2060	2052	2045	2034	2027	2017	2001	2001	1996	1985	1973	1965
2256	2217	2198	2177	2159	2149	2139	2122	2113	2103	2086	2071	2051	1991	1973	1954	1914	1893	1866	1818	1797	1773	1721	1700	1677	1640	1613	1571	1555	1551	1551	322	0	0	0	318	1205	1188	1177	1160	1148	1142	1133	1126	1121	1113	1113	1111	1103	1103	1102	1098	1098	1099	1103	1106	1109	1118	1121	1124	1133	1140	1144	1149	1149	1149	1154	1151	1149	1144	1138	1133	1128	1125	1123	1118	1113	1108	1103	1098	1093	1088	1084	1079	1079	1077	1074	1070	1070	1070	1070	1070	1070	1070	1072	1074	1074	1074	1074	1074	1076	1079	1079	1077	1074	1074	1070	1061	1057	1055	1052	1045	1040	1034	1028	1024	1017	1008	1003	997	994	992	989	986	984	981	978	977	977	980	982	985	985	986	989	992	994	997	1002	1005	1005	1005	1005	1005	1005	1005	1001	999	997	997	995	993	993	993	993	993	993	993	997	997	997	997	999	1001	1005	1007	1009	1013	1015	1017	1021	1021	1021	1026	1028	1030	1034	1034	1034	1037	1038	1038	1038	1038	1038	1038	1037	1034	1031	1030	1030	1027	1025	1021	1018	1016	1013	1010	1009	1009	1006	1005	1005	1005	1005	1005	1005	1006	1009	1009	1010	1013	1013	1014	1017	1017	1018	1021	1021	1022	1026	1026	1026	1026	1026	1026	1026	1026	1026	1021	1017	1013	1009	1001	993	985	979	973	962	957	951	937	932	926	916	913	909	902	901	899	896	895	893	890	890	890	890	891	893	898	903	909	915	920	929	938	944	951	963	968	973	979	979	973	961	954	944	930	924	916	906	901	896	894	892	886	884	883	883	879	876	874	874	874	871	871	871	874	874	874	877	879	881	886	892	897	912	920	927	947	947	948	966	978	989	1009	1018	1026	1043	1047	1052	1052	1052	1052	1052	1052	1052	1044	1043	1043	1035	1032	1030	1026	1024	1021	1017	1017	1017	1010	1009	1009	1006	1005	1005	1002	1001	1001	1001	1001	1001	1001	1000	997	997	996	993	993	993	993	993	992	989	986	985	985	982	980	977	972	967	958	953	950	944	940	936	929	925	922	916	914	911	906	906	906	906	906	906	902	902	902	899	899	899	896	896	896	896	896	896	896	896	896	896	896	896	893	893	893	893	893	893	893	893	893	896	895	893	893	893	893	893	893	893	893	893	893	893	893	893	893	893	893	893	893	893	893	894	896	894	893	893	893	894	896	903	908	916	921	925	933	942	949	958	965	971	981	991	998	1005	1007	1009	1013	1015	1017	1021	1024	1026	1030	1034	1038	1043	1045	1047	1047	1050	1052	1047	1045	1043	1030	1022	1013	994	984	973	956	947	937	927	922	916	910	909	909	906	904	902	902	899	893	885	880	874	867	862	856	851	848	844	838	834	830	825	824	824	824	824	824	823	822	822	822	821	819	819	819	819	817	816	816	816	816	814	814	814	814	815	816	816	816	816	816	818	819	819	819	819	822	820	819	819	819	819	819	819	819	819	819	819	822	823	824	830	834	838	846	848	850	853	855	859	81	0	0	0	0	0	0	0	0	0	0	0	0	0	0	0	0	0	1347	1690	1666	1666	1666	1666	1666	1666	1666	1691	1708	1735	1771	1790	1811	1859	1888	1924	1955	1973	1985	1996	1999	1985	1985	1983	1970	1970	1968	1954	1936	1921	1894	1886	1880	1880	1888	1895	1909	1925	1941	1985	2002	2019	2068	2086	2103	2139	2158	2177	2177	2177	2177	2177	2168	2158	2158	2150	2139	2122	2114	2103	2087	2078	2068	2053	2045	2034	2034	2022	2001	2001	1996	1985	1973	1965
2196	2177	2159	2139	2122	2113	2103	2086	2085	2085	2054	2044	2034	1990	1973	1954	1914	1893	1866	1830	1806	1773	1741	1723	1700	1654	1627	1591	1559	1551	1551	322	0	0	0	0	0	896	1180	1160	1148	1142	1133	1122	1117	1113	1106	1103	1103	1100	1097	1093	1093	1093	1093	1099	1104	1108	1114	1119	1128	1134	1139	1149	1149	1149	1154	1151	1149	1144	1141	1138	1128	1128	1128	1118	1115	1113	1108	1106	1103	1093	1091	1088	1084	1082	1079	1074	1074	1074	1074	1074	1074	1074	1076	1079	1079	1081	1084	1084	1084	1084	1087	1088	1088	1088	1085	1079	1072	1068	1065	1058	1053	1047	1040	1035	1026	1013	1007	1001	998	996	993	987	984	981	978	977	977	980	981	981	981	981	981	984	986	989	991	993	997	999	1001	997	997	997	997	995	993	989	989	989	989	989	989	989	989	989	993	993	993	997	997	997	1005	1005	1005	1009	1011	1013	1017	1017	1017	1021	1023	1026	1030	1032	1034	1034	1034	1034	1034	1034	1034	1034	1033	1030	1030	1029	1026	1022	1020	1017	1017	1016	1013	1010	1008	1005	1005	1005	1005	1005	1005	1005	1005	1006	1009	1009	1010	1013	1013	1014	1017	1017	1017	1017	1017	1017	1021	1021	1021	1021	1021	1021	1021	1019	1017	1009	1005	1001	989	983	977	962	956	951	937	932	926	916	911	906	896	893	890	883	882	880	877	877	877	877	877	877	877	879	883	886	890	896	904	909	916	924	930	937	945	949	955	961	960	955	943	937	929	921	917	912	905	901	896	894	892	886	884	883	883	879	876	874	874	874	871	871	871	874	874	874	877	879	881	886	892	897	912	920	927	947	947	948	966	976	985	1005	1016	1026	1038	1040	1043	1047	1045	1043	1043	1043	1043	1038	1036	1034	1030	1026	1021	1017	1015	1013	1009	1007	1005	1002	1000	997	997	997	997	994	993	993	993	993	993	990	989	989	989	989	989	989	989	989	989	988	985	982	981	981	978	976	973	970	967	958	953	950	944	940	936	929	927	925	919	915	912	909	909	909	909	907	906	906	904	902	902	900	899	899	899	899	899	899	899	896	896	896	896	896	896	896	895	893	893	893	893	896	896	896	896	895	893	893	893	893	893	893	893	893	894	896	896	896	896	894	893	893	895	896	896	896	896	896	894	893	893	893	894	896	903	908	916	921	925	933	940	946	955	962	967	977	984	990	997	999	1001	1005	1007	1010	1017	1019	1022	1030	1032	1034	1043	1045	1047	1052	1054	1056	1052	1052	1052	1038	1028	1017	1009	995	977	956	947	937	927	922	916	910	909	909	906	904	902	902	899	893	887	883	877	870	866	862	852	848	844	838	834	830	828	826	824	824	824	824	823	822	822	822	821	819	817	816	816	816	816	814	812	811	811	811	811	811	813	814	814	814	814	816	816	816	816	816	816	819	817	816	816	816	816	816	818	819	819	819	819	822	823	824	830	834	838	846	848	850	856	858	862	81	0	0	0	0	0	0	0	0	0	0	0	0	0	0	0	460	1523	1508	1504	1504	1519	1530	1551	1566	1576	1591	1622	1645	1688	1722	1743	1773	1818	1851	1909	1950	1973	1985	1996	2001	2001	1991	1985	1985	1976	1968	1954	1936	1921	1894	1886	1880	1880	1888	1895	1909	1917	1926	1970	1995	2019	2051	2077	2103	2139	2158	2177	2196	2196	2196	2196	2187	2177	2177	2169	2158	2140	2132	2121	2105	2096	2085	2070	2062	2051	2036	2034	2034	2020	2012	2001	1988	1980
2177	2158	2141	2121	2104	2099	2094	2077	2076	2076	2053	2044	2034	1990	1973	1954	1921	1897	1866	1830	1806	1773	1741	1721	1694	1648	1620	1581	1565	1324	776	161	0	0	0	0	0	896	1181	1162	1151	1143	1133	1122	1116	1110	1105	1103	1103	1098	1095	1090	1090	1090	1090	1095	1099	1103	1112	1119	1128	1134	1139	1144	1145	1147	1152	1150	1149	1144	1141	1138	1133	1132	1130	1123	1120	1118	1110	1108	1106	1096	1093	1090	1084	1083	1082	1077	1076	1076	1076	1076	1076	1076	1077	1079	1079	1081	1084	1084	1086	1088	1092	1093	1093	1095	1092	1084	1078	1075	1072	1065	1060	1052	1045	1038	1026	1015	1009	1003	1000	998	993	989	986	981	978	977	977	980	981	981	981	981	981	984	986	989	991	993	995	996	997	995	995	995	995	993	991	989	988	987	987	987	987	987	987	987	991	991	991	995	996	997	1003	1004	1005	1009	1011	1013	1015	1016	1017	1021	1023	1026	1028	1029	1030	1030	1030	1030	1030	1031	1032	1030	1029	1028	1028	1027	1026	1022	1020	1017	1017	1016	1013	1010	1008	1005	1005	1005	1005	1005	1005	1005	1006	1007	1009	1009	1010	1013	1013	1013	1013	1013	1013	1013	1014	1015	1017	1017	1017	1017	1017	1017	1015	1013	1011	1003	998	992	979	972	966	953	947	942	926	921	916	906	901	896	887	884	880	876	874	872	871	871	871	872	872	872	872	875	878	882	886	891	898	903	909	917	922	928	938	942	948	952	951	948	939	934	926	920	916	910	904	901	896	894	892	888	886	884	883	880	878	876	875	874	872	872	873	874	875	876	877	879	881	886	892	897	912	921	929	947	947	948	966	976	985	1003	1012	1022	1034	1037	1040	1042	1042	1040	1040	1040	1038	1036	1034	1032	1024	1021	1017	1013	1011	1007	1003	1001	999	996	994	993	991	991	991	989	989	989	987	987	987	985	985	985	985	985	985	985	985	985	985	985	983	980	979	979	976	974	971	969	966	958	953	950	944	940	936	931	928	925	921	917	914	910	910	910	910	909	907	906	905	904	902	901	900	899	899	899	899	899	899	898	898	898	896	896	896	896	895	893	893	893	893	896	896	896	896	895	894	893	893	893	893	894	894	894	895	896	896	896	898	895	894	894	897	898	898	898	898	898	895	894	894	894	895	896	903	908	916	921	925	933	939	944	953	960	965	975	981	986	993	995	997	1001	1005	1007	1013	1015	1018	1028	1030	1032	1040	1044	1047	1052	1054	1056	1054	1054	1054	1041	1032	1022	1009	1002	993	507	474	468	463	652	918	911	910	909	908	906	904	902	899	894	887	883	877	870	866	862	853	850	846	839	835	830	828	827	826	824	824	824	823	822	820	820	820	818	816	815	815	814	813	811	810	809	808	808	808	808	810	811	812	812	813	814	814	814	815	815	815	816	816	815	815	816	816	816	817	818	818	818	819	822	823	824	831	834	838	846	848	850	856	859	864	81	0	0	0	0	0	0	0	0	0	0	0	0	0	0	0	460	1523	1491	1482	1482	1503	1516	1537	1555	1567	1586	1613	1635	1677	1714	1738	1773	1818	1851	1909	1950	1973	1985	1996	2001	2001	1996	1993	1993	1983	1975	1954	1936	1921	1894	1886	1880	1880	1888	1895	1909	1917	1926	1970	1995	2019	2051	2077	2103	2139	2162	2186	2215	2216	2216	2216	2207	2196	2196	2188	2177	2159	2150	2140	2115	2108	2103	2080	2073	2068	2053	2048	2042	2028	2023	2018	2004	1996
2158	2139	2122	2103	2086	2085	2085	2069	2068	2068	2052	2044	2034	1990	1973	1954	1927	1902	1866	1830	1806	1773	1741	1719	1688	1642	1613	1571	1571	1097	0	0	0	0	0	0	0	896	1182	1165	1153	1145	1133	1122	1116	1108	1105	1103	1103	1096	1092	1088	1088	1088	1088	1091	1094	1098	1110	1119	1128	1134	1138	1138	1142	1144	1149	1149	1149	1144	1141	1138	1138	1135	1133	1128	1125	1123	1113	1111	1108	1098	1096	1093	1084	1084	1084	1079	1079	1079	1079	1079	1079	1079	1079	1079	1079	1081	1084	1084	1087	1093	1097	1098	1098	1102	1098	1088	1085	1082	1079	1072	1066	1056	1049	1041	1026	1016	1011	1005	1002	999	993	990	987	981	978	977	977	980	981	981	981	981	981	984	986	989	991	993	993	993	993	993	993	993	993	991	989	989	987	985	985	985	985	985	985	985	989	989	989	993	995	997	1001	1003	1005	1009	1011	1013	1013	1015	1017	1021	1023	1026	1026	1026	1026	1026	1026	1026	1026	1027	1030	1027	1026	1026	1026	1026	1026	1022	1020	1017	1017	1016	1013	1010	1008	1005	1005	1005	1005	1005	1005	1005	1008	1009	1009	1009	1010	1013	1013	1012	1009	1009	1009	1009	1011	1013	1013	1013	1013	1013	1013	1013	1009	1007	1005	997	990	984	969	962	955	944	938	933	916	911	906	896	891	886	877	874	871	868	867	865	865	865	865	868	868	868	868	870	874	879	882	886	892	896	902	910	914	919	930	935	940	943	943	940	935	930	923	918	914	909	904	901	896	894	892	890	887	885	883	881	879	877	875	874	874	874	874	874	876	877	877	879	881	886	892	897	912	922	930	947	947	948	966	976	985	1001	1009	1017	1030	1034	1038	1038	1038	1038	1038	1036	1034	1034	1032	1030	1018	1015	1013	1009	1006	1001	997	995	993	990	989	989	986	985	985	985	985	985	982	981	981	981	981	981	981	981	981	981	981	981	981	981	981	978	977	977	974	972	969	967	965	958	953	950	944	940	936	933	929	926	923	919	916	912	912	912	912	910	909	906	906	906	902	902	902	899	899	899	899	899	899	899	899	899	896	896	896	896	895	893	893	893	893	896	896	896	896	896	896	893	893	893	893	894	896	896	896	896	896	897	899	897	896	896	898	899	899	899	899	899	897	896	896	896	896	896	903	908	916	921	925	933	938	942	951	958	963	973	978	982	989	991	993	997	1002	1005	1009	1011	1014	1026	1028	1030	1038	1043	1047	1052	1054	1056	1056	1056	1056	1043	1035	1026	1010	1009	1009	57	0	0	0	381	919	913	911	909	909	908	906	903	900	896	888	883	877	870	866	862	855	851	847	840	836	830	828	827	827	825	824	824	823	821	819	819	818	816	815	814	814	812	810	808	808	808	806	806	806	806	807	808	811	811	811	811	811	811	814	814	814	814	814	814	814	815	816	816	816	816	816	817	819	822	823	824	833	835	838	846	848	850	856	860	865	82	0	0	0	0	0	0	0	0	0	0	0	0	0	0	0	460	1523	1473	1460	1460	1487	1502	1523	1544	1558	1581	1604	1624	1666	1707	1733	1773	1818	1851	1909	1950	1973	1985	1996	2001	2001	2001	2001	2001	1991	1981	1954	1936	1921	1894	1886	1880	1880	1888	1895	1909	1917	1926	1970	1995	2019	2051	2077	2103	2139	2167	2196	2235	2236	2236	2236	2227	2216	2216	2207	2196	2178	2169	2158	2124	2121	2121	2089	2085	2085	2070	2062	2051	2037	2034	2034	2021	2013
2121	2103	2095	2085	2085	2077	2068	2068	2068	2068	2052	2044	2034	2004	1989	1970	1929	1907	1880	1844	1815	1773	1731	1704	1666	1612	1576	1523	1478	1468	1468	305	0	0	0	0	0	0	287	1171	1155	1145	1133	1126	1120	1108	1105	1103	1103	1093	1087	1084	1084	1085	1088	1091	1094	1098	1104	1109	1118	1121	1124	1133	1136	1138	1144	1147	1149	1149	1146	1144	1138	1138	1138	1133	1128	1123	1118	1113	1108	1103	1101	1098	1088	1086	1084	1084	1082	1079	1079	1081	1084	1084	1084	1084	1084	1086	1088	1088	1092	1098	1098	1105	1118	1118	1113	1103	1099	1095	1088	1081	1075	1065	1058	1049	1030	1017	1012	1009	1006	1004	1001	995	991	985	982	981	981	981	981	981	978	977	977	980	981	981	983	985	985	985	985	985	985	985	985	985	985	981	981	981	981	981	981	981	983	985	985	985	985	989	991	993	997	999	1001	1005	1007	1009	1009	1011	1013	1013	1015	1017	1017	1019	1021	1021	1021	1021	1021	1023	1026	1026	1026	1026	1026	1024	1021	1021	1020	1017	1017	1016	1013	1013	1012	1009	1009	1008	1005	1005	1005	1005	1008	1009	1009	1009	1009	1009	1006	1005	1005	1002	1001	1001	1001	1001	1001	1001	1001	997	995	993	989	987	985	977	971	965	951	941	933	923	917	912	899	893	886	880	876	871	868	865	862	862	862	862	859	859	859	862	862	862	865	866	868	873	877	883	886	888	893	900	905	912	918	921	926	932	933	933	930	927	923	918	914	909	904	901	899	897	895	893	891	890	890	885	882	880	878	877	877	877	877	877	877	877	877	881	883	886	894	900	916	926	934	947	947	948	969	977	985	1001	1005	1009	1021	1025	1030	1030	1030	1030	1030	1028	1026	1026	1022	1017	1010	1007	1005	1001	999	997	990	989	989	986	984	981	978	977	977	977	977	977	977	977	977	974	973	973	973	973	973	976	977	977	977	976	973	973	973	973	973	972	969	964	961	958	953	950	944	941	939	933	931	928	923	921	918	912	912	912	912	912	912	909	907	906	906	904	902	902	902	902	902	902	902	899	899	899	899	898	896	896	896	896	896	896	896	896	896	896	896	896	896	896	896	896	896	896	896	896	896	896	898	900	902	900	899	899	901	902	902	902	901	899	899	898	896	896	897	899	904	908	916	921	924	929	936	942	951	955	959	969	974	977	981	986	989	993	995	998	1005	1007	1009	1017	1022	1026	1034	1039	1043	1052	1054	1056	1061	1061	1061	1052	1045	1038	1026	1026	1026	58	0	0	0	0	0	0	364	919	916	912	906	903	900	896	888	884	880	873	868	862	855	851	847	842	839	833	831	830	830	828	826	824	820	819	819	819	818	816	815	813	808	808	808	806	806	806	803	803	803	803	805	806	806	806	806	806	807	808	808	810	811	811	811	811	811	813	814	816	816	816	816	817	819	822	824	827	833	837	841	847	850	853	859	861	865	876	530	0	0	0	0	0	0	0	0	0	0	0	0	0	0	0	0	1157	1460	1460	1487	1502	1523	1544	1558	1581	1604	1624	1666	1707	1736	1785	1832	1866	1924	1955	1975	2001	2012	2020	2034	2024	2018	2018	2007	1999	1985	1966	1953	1939	1930	1924	1924	1932	1940	1954	1963	1971	2001	2027	2052	2085	2113	2139	2196	2216	2236	2256	2276	2298	2278	2277	2277	2238	2236	2236	2218	2208	2196	2162	2150	2139	2123	2114	2103	2087	2085	2085	2056	2051	2051	2037	2029
2112	2094	2086	2076	2068	2064	2060	2060	2060	2060	2044	2039	2034	2004	1989	1970	1929	1907	1880	1844	1815	1773	1726	1694	1650	1593	1556	1504	1458	1447	1447	300	180	636	617	607	594	594	592	586	1002	1148	1136	1127	1120	1108	1105	1103	1103	1093	1087	1084	1082	1082	1084	1087	1089	1091	1097	1102	1110	1115	1119	1128	1131	1134	1141	1144	1146	1146	1145	1144	1141	1139	1138	1133	1128	1123	1118	1113	1108	1106	1102	1098	1091	1090	1088	1084	1083	1082	1082	1083	1086	1086	1086	1086	1088	1090	1093	1093	1097	1103	1109	1114	1120	1120	1116	1106	1099	1095	1088	1081	1077	1072	1058	1048	1030	1017	1013	1011	1007	1004	1001	997	993	987	984	983	981	981	981	981	978	977	977	978	979	979	980	981	981	981	981	981	981	981	981	981	981	979	978	977	977	977	977	979	980	981	983	983	983	987	988	989	995	997	999	1003	1005	1007	1009	1010	1011	1013	1015	1017	1017	1019	1021	1021	1021	1021	1021	1022	1024	1024	1024	1024	1024	1023	1021	1021	1020	1017	1017	1016	1015	1013	1013	1011	1010	1009	1007	1007	1007	1007	1008	1009	1009	1008	1007	1005	1002	1001	999	996	995	995	995	995	993	993	993	989	987	985	979	976	973	966	960	954	940	932	924	912	907	902	891	886	882	874	870	865	862	861	859	858	858	858	856	857	858	860	860	860	863	865	866	872	875	880	884	887	892	898	902	909	914	917	921	927	928	930	928	926	923	918	915	910	907	904	900	899	898	896	894	893	892	888	886	883	880	878	878	878	878	878	878	879	880	883	885	888	895	902	918	927	936	949	954	958	969	977	985	999	1003	1007	1017	1021	1026	1026	1026	1026	1026	1024	1022	1020	1016	1011	1005	1003	1001	997	995	993	988	986	985	982	980	977	975	974	973	973	973	973	973	973	973	971	971	971	971	971	971	973	973	973	974	974	971	971	971	971	971	970	968	964	961	956	953	950	944	941	939	935	933	930	924	921	919	914	914	914	914	913	912	910	909	907	906	905	904	904	904	904	904	904	904	901	900	900	899	898	898	898	897	896	896	896	896	896	897	898	898	897	896	896	896	896	896	896	896	896	896	898	900	901	902	901	901	900	903	904	904	904	903	900	900	900	898	898	898	900	905	909	918	921	924	929	936	941	948	953	958	966	970	974	979	983	985	989	991	993	999	1002	1005	1013	1019	1024	1030	1034	1039	1050	1053	1056	1061	1063	1066	1061	1057	1052	1039	1038	1036	553	296	0	0	0	0	0	364	919	916	913	908	906	903	899	891	887	882	874	870	864	856	853	848	843	839	834	832	831	830	828	826	824	820	819	818	817	816	815	813	812	808	807	807	804	804	803	802	802	802	802	803	804	804	804	804	804	805	806	807	808	808	808	809	810	810	811	813	815	816	816	816	817	819	822	825	828	834	837	841	848	850	853	859	862	866	876	530	0	0	0	0	0	0	0	0	0	0	0	0	0	0	0	0	578	955	1526	1539	1547	1557	1579	1593	1612	1640	1663	1707	1745	1771	1812	1860	1892	1939	1976	1999	2026	2032	2037	2051	2046	2043	2043	2032	2024	2010	1995	1984	1970	1966	1963	1971	1975	1979	1986	1995	2003	2034	2057	2078	2122	2150	2178	2226	2241	2256	2287	2303	2320	2309	2304	2298	2259	2256	2256	2238	2228	2216	2190	2176	2158	2142	2133	2121	2105	2100	2094	2072	2065	2060	2045	2040
2103	2085	2077	2068	2052	2051	2051	2051	2051	2051	2035	2034	2034	2004	1989	1970	1929	1907	1880	1844	1815	1773	1721	1685	1633	1573	1537	1486	1437	1426	1426	296	360	1273	1234	1213	1187	1187	896	0	849	1150	1138	1127	1120	1108	1105	1103	1103	1093	1087	1084	1081	1079	1079	1082	1084	1084	1090	1094	1103	1109	1114	1123	1126	1129	1138	1141	1144	1144	1144	1144	1144	1141	1138	1133	1128	1123	1118	1113	1108	1108	1103	1098	1093	1093	1093	1085	1084	1084	1084	1086	1088	1088	1088	1088	1092	1095	1098	1098	1102	1108	1121	1123	1123	1123	1118	1108	1100	1095	1088	1081	1079	1079	1058	1046	1030	1017	1013	1013	1007	1004	1001	998	995	989	986	984	981	981	981	981	978	977	977	977	977	977	977	977	977	977	977	977	977	977	977	977	977	977	975	973	973	973	973	977	977	977	981	981	981	985	985	985	993	995	997	1001	1003	1005	1009	1009	1009	1013	1015	1017	1017	1019	1021	1021	1021	1021	1021	1021	1021	1021	1021	1021	1021	1021	1021	1021	1020	1017	1017	1017	1017	1014	1013	1013	1010	1009	1009	1009	1009	1009	1009	1009	1009	1006	1004	1001	998	996	993	990	989	989	989	989	985	985	985	981	979	976	969	965	962	955	949	943	929	922	916	902	897	893	883	880	877	868	864	859	856	856	856	853	853	853	853	854	856	859	859	859	862	863	865	870	873	877	882	885	890	895	899	906	911	913	916	922	924	926	926	925	923	918	915	912	910	907	902	902	901	899	897	895	893	891	889	886	882	880	880	880	880	880	880	880	883	885	886	890	897	903	919	929	938	951	961	969	969	977	985	997	1001	1005	1013	1017	1021	1021	1021	1021	1021	1019	1017	1013	1010	1005	1001	999	997	993	991	989	985	983	981	978	976	973	973	972	969	969	969	969	969	969	969	969	969	969	969	969	969	969	969	969	972	972	969	969	969	969	969	968	966	963	961	955	952	950	944	941	940	937	935	932	926	922	919	916	916	916	916	914	912	912	910	909	906	906	906	906	906	906	906	906	906	902	902	902	899	899	899	899	898	896	896	896	896	896	897	899	899	898	896	896	896	896	896	896	896	896	897	899	901	902	902	902	902	902	905	906	906	906	905	902	902	901	899	899	900	902	907	911	919	922	924	929	936	941	944	951	956	962	966	970	977	979	981	985	987	989	993	998	1001	1009	1016	1021	1026	1030	1034	1047	1052	1056	1061	1065	1070	1070	1068	1065	1052	1050	1047	1047	593	0	0	0	0	0	364	919	916	913	909	909	906	902	894	890	883	876	871	865	858	854	850	843	840	836	834	832	830	828	826	824	820	818	816	815	814	814	812	810	808	807	805	803	802	801	801	801	801	801	801	801	803	803	803	803	803	803	806	806	806	806	807	808	808	810	811	814	815	816	816	817	819	822	826	830	836	838	841	849	851	853	859	863	868	876	530	0	0	0	0	0	0	0	0	0	0	0	0	0	0	0	0	0	450	1591	1591	1591	1591	1614	1627	1644	1676	1702	1748	1784	1806	1838	1888	1917	1954	1997	2024	2051	2051	2054	2068	2068	2068	2068	2057	2049	2034	2024	2016	2001	2001	2002	2018	2018	2018	2018	2027	2035	2068	2086	2104	2158	2188	2216	2256	2266	2277	2318	2329	2341	2341	2331	2319	2279	2277	2277	2258	2248	2236	2218	2201	2177	2160	2151	2139	2123	2115	2103	2088	2079	2068	2054	2051
2085	2068	2060	2051	2035	2034	2034	2034	2034	2034	2034	2027	2018	2003	1989	1970	1929	1907	1880	1844	1810	1760	1719	1678	1612	1538	1495	1435	1390	1363	1327	1295	1275	1247	1215	1200	1187	1179	1173	1165	1157	1150	1138	1127	1120	1108	1101	1095	1084	1084	1083	1079	1076	1074	1074	1074	1075	1079	1082	1085	1093	1099	1104	1118	1121	1124	1133	1136	1138	1138	1141	1144	1144	1141	1138	1133	1128	1123	1118	1116	1113	1108	1103	1098	1093	1091	1088	1084	1084	1084	1084	1084	1084	1084	1084	1084	1088	1090	1093	1106	711	0	0	0	0	945	1132	1118	1094	1088	1088	1088	780	0	803	1035	1026	1013	1009	1009	1003	1000	997	994	991	985	982	981	981	981	980	973	973	973	973	970	969	969	969	969	969	969	969	969	969	969	973	973	973	973	971	969	969	969	969	973	975	977	981	981	981	981	983	985	989	991	993	1001	1003	1005	1009	1009	1009	1013	1015	1017	1017	1017	1017	1017	1017	1017	1017	1017	1017	1017	1017	1017	1020	1020	1017	1017	1017	1017	1017	1018	1021	1018	1017	1017	1014	1013	1013	1013	1012	1009	1006	1005	1005	1000	996	993	990	988	985	982	980	977	977	977	973	971	969	966	961	958	955	950	946	937	931	926	916	909	902	893	886	880	874	871	868	862	859	856	853	852	850	850	850	850	853	853	853	856	857	859	862	863	865	868	870	874	879	882	886	892	894	896	904	908	912	915	917	919	919	919	919	917	915	912	912	911	909	907	906	906	903	901	899	897	895	890	887	886	883	883	883	883	883	883	883	887	891	896	904	910	926	934	941	958	966	973	973	979	985	997	999	1001	1009	1009	1009	1009	1009	1009	1009	1007	1005	1001	999	997	993	991	989	985	983	981	977	975	973	973	972	969	966	966	966	966	965	962	962	962	962	962	962	962	962	962	962	965	966	966	966	966	966	966	966	966	966	965	962	962	961	955	952	950	944	941	940	937	935	933	929	925	923	919	919	919	916	916	916	916	914	912	909	909	909	909	909	909	909	909	909	906	906	906	902	902	902	899	899	899	899	899	899	899	899	899	899	899	899	896	896	896	896	896	896	898	899	899	901	903	906	906	906	906	906	906	906	906	906	906	906	905	902	902	903	906	910	913	919	922	924	929	934	937	940	944	948	955	959	963	969	971	973	977	979	981	985	990	993	1001	1008	1013	1017	1022	1026	1038	1045	1052	1061	1067	1074	1079	1079	1079	1070	1060	1047	1047	593	0	0	0	0	0	0	0	815	918	916	910	906	902	897	893	886	879	874	868	861	856	850	845	842	838	834	832	830	828	826	824	823	821	816	815	814	814	812	810	808	807	805	803	802	801	801	799	798	798	800	801	801	801	801	801	802	803	803	805	806	806	807	808	808	810	811	814	815	816	819	819	819	824	827	830	836	841	847	853	854	856	862	864	868	82	0	0	0	0	0	0	0	0	0	0	0	0	0	0	0	0	0	0	0	0	1306	1688	1688	1723	1735	1735	1772	1803	1866	1897	1912	1924	1967	1991	2018	2040	2054	2068	2079	2088	2103	2103	2103	2103	2103	2101	2085	2085	2083	2068	2068	2071	2103	2103	2104	2121	2162	2196	2196	2196	2198	2277	2277	2277	2319	2341	2364	2386	2386	2386	2386	2376	2364	2322	2310	2298	2279	2268	2256	2238	2220	2196	2196	2182	2158	2142	2133	2121	2121	2115	2103	2088	2080
2068	2060	2051	2042	2034	2034	2034	2034	2034	2034	2034	2027	2018	2003	1989	1970	1936	1912	1880	1844	1810	1760	1709	1665	1596	1520	1478	1422	1387	1359	1313	1284	1266	1241	1211	1198	1187	1179	1173	1165	1157	1150	1138	1127	1119	1106	1099	1093	1084	1084	1083	1076	1074	1072	1070	1070	1070	1074	1077	1080	1088	1094	1099	1110	1115	1119	1128	1131	1133	1136	1137	1138	1138	1137	1135	1128	1123	1118	1110	1107	1103	1096	1091	1086	1082	1078	1074	1073	1072	1072	1072	1077	1084	1084	1084	1084	1088	1090	1093	625	355	0	0	0	0	945	1135	1128	1096	1088	1088	657	390	0	801	1031	1018	1008	1005	1003	1000	999	997	993	990	985	982	981	979	978	976	971	971	971	971	969	967	966	966	965	964	964	964	964	964	964	968	968	968	968	966	966	966	967	968	970	971	973	977	978	979	981	982	983	989	991	993	1001	1003	1005	1009	1009	1009	1013	1015	1017	1017	1017	1017	1017	1017	1017	1017	1017	1017	1017	1017	1017	1019	1018	1017	1017	1017	1017	1017	1018	1019	1017	1017	1017	1014	1013	1011	1011	1010	1005	1002	1001	999	995	992	989	985	982	979	976	975	972	972	971	968	965	963	958	955	952	950	944	940	932	925	919	909	903	897	886	882	877	871	868	865	859	857	854	850	849	848	848	848	848	851	852	853	854	856	858	860	862	864	867	870	872	878	880	883	890	892	894	901	904	909	912	913	916	917	918	919	918	917	914	914	913	910	909	909	908	905	903	900	897	895	892	888	886	884	884	884	884	884	884	884	889	892	898	905	912	928	937	944	958	966	973	973	978	983	993	996	999	1003	1003	1003	1003	1003	1003	1003	1002	1001	997	995	993	989	987	985	981	979	977	975	973	971	970	968	966	964	963	962	962	961	960	960	960	958	958	958	958	958	959	960	962	962	962	963	964	964	964	964	964	964	964	962	961	959	955	952	950	944	941	940	937	935	933	929	926	924	921	920	919	918	918	917	916	915	914	910	910	910	909	909	909	909	910	910	908	908	908	904	904	904	901	900	900	900	900	900	900	900	900	900	900	899	898	898	898	898	898	898	899	899	900	902	903	906	906	906	908	908	908	908	908	908	908	908	907	904	904	905	908	911	913	919	923	925	929	933	936	940	944	948	955	958	961	966	968	970	975	977	979	983	988	991	999	1004	1009	1013	1017	1022	1034	1041	1048	1061	1067	1074	1079	1079	1079	1070	1060	1047	1045	818	522	39	0	0	0	187	472	872	921	918	913	910	906	899	894	888	880	875	868	862	858	852	847	843	838	835	834	832	829	827	824	823	821	816	815	814	814	812	810	807	805	804	802	801	801	801	799	798	798	799	800	800	800	800	800	800	801	802	803	804	804	806	807	808	810	811	814	815	816	819	820	820	825	828	832	837	842	848	854	856	858	863	866	870	82	0	0	0	0	0	0	0	0	0	0	0	0	0	0	0	0	0	0	0	0	653	844	844	862	1102	1822	1840	1865	1926	1947	1960	1979	2006	2024	2052	2069	2080	2094	2106	2113	2121	2127	2130	2130	2130	2128	2112	2112	2111	2104	2104	2106	2140	2145	2150	2158	2179	2197	2226	2237	2248	2298	2304	2309	2342	2364	2386	2409	2410	2410	2398	2382	2364	2332	2321	2308	2299	2285	2266	2248	2234	2216	2198	2189	2177	2161	2151	2140	2131	2124	2112	2097	2088
2051	2051	2043	2034	2034	2034	2034	2034	2034	2034	2034	2027	2018	2003	1989	1970	1943	1917	1880	1844	1810	1760	1699	1652	1581	1502	1462	1410	1385	1355	1299	1273	1257	1235	1207	1196	1187	1179	1173	1165	1157	1150	1138	1127	1119	1103	1096	1091	1084	1084	1082	1074	1071	1069	1065	1065	1066	1070	1072	1075	1084	1089	1094	1103	1109	1114	1123	1126	1128	1133	1133	1133	1133	1133	1133	1123	1118	1113	1103	1098	1093	1084	1079	1074	1070	1066	1061	1061	1061	1061	1061	1071	1084	1084	1084	1084	1088	1090	1093	144	0	0	0	0	0	945	1138	1138	1097	1088	1088	226	0	0	800	1027	1009	1003	1000	997	997	997	997	991	988	985	982	980	977	974	972	969	969	969	969	967	965	962	962	962	958	958	958	958	958	958	962	962	962	962	962	962	962	964	966	966	968	969	973	975	977	981	981	981	989	991	993	1001	1003	1005	1009	1009	1009	1013	1015	1017	1017	1017	1017	1017	1017	1017	1017	1017	1017	1017	1017	1017	1017	1017	1017	1017	1017	1017	1017	1017	1017	1017	1017	1017	1014	1012	1009	1009	1007	1001	998	996	993	990	988	985	980	976	973	970	969	966	966	966	962	960	957	951	949	947	944	938	933	926	918	912	902	897	893	880	877	874	868	865	862	856	855	853	847	847	847	847	847	847	850	851	853	853	854	856	859	860	862	867	869	871	876	878	880	888	891	893	898	901	906	908	910	912	915	917	919	919	918	916	916	915	912	912	911	909	907	905	902	898	895	893	888	886	886	886	886	886	886	886	886	890	894	899	907	913	929	939	948	958	966	973	973	977	981	989	993	997	997	997	997	997	997	997	997	997	997	993	991	989	985	983	981	977	975	973	973	971	969	966	965	962	962	961	958	958	958	958	958	957	955	955	955	955	955	956	958	958	958	958	961	962	962	962	962	962	962	962	962	959	957	955	952	950	944	941	940	937	935	933	929	927	926	923	921	919	919	919	919	916	916	916	912	912	912	909	909	909	909	910	912	909	909	909	906	906	906	902	902	902	902	902	902	902	902	902	902	901	899	899	899	899	899	899	899	899	900	902	902	903	906	906	907	909	909	909	909	909	909	909	909	908	906	906	907	909	911	913	919	924	927	929	932	934	940	944	948	955	957	958	962	964	967	973	975	977	981	986	989	997	1001	1005	1009	1013	1017	1030	1037	1043	1061	1067	1074	1079	1079	1079	1070	1060	1047	1043	1043	1043	79	0	0	0	374	944	928	923	919	916	913	909	901	896	890	882	876	868	863	859	853	848	844	838	836	835	833	831	829	824	823	821	816	815	814	814	812	810	806	804	803	801	801	801	801	799	798	798	798	798	798	798	798	798	798	798	801	801	801	803	805	806	808	810	811	814	815	816	819	820	822	827	830	833	838	843	850	856	857	859	865	867	871	82	0	0	0	0	0	0	0	0	0	0	0	0	0	0	0	0	0	0	0	0	0	0	0	0	468	1909	1909	1926	1985	1996	2008	2034	2046	2057	2085	2097	2106	2121	2133	2139	2139	2151	2158	2158	2158	2156	2139	2139	2139	2139	2139	2142	2177	2188	2196	2196	2196	2198	2256	2278	2298	2319	2330	2341	2364	2386	2409	2433	2433	2433	2410	2389	2364	2342	2331	2319	2319	2302	2277	2258	2248	2236	2201	2196	2196	2180	2170	2158	2142	2133	2121	2106	2097
2051	2051	2043	2034	2034	2034	2034	2034	2041	2051	2035	2034	2034	2004	1995	1985	1958	1937	1909	1860	1824	1773	1682	1624	1541	1460	1432	1410	1331	1301	1273	1267	1257	1235	1207	1195	1182	1177	1173	1165	1157	1150	1138	1124	1115	1103	1096	1090	1079	1073	1070	1070	1064	1060	1056	1056	1056	1056	1056	1057	1065	1070	1075	1088	1091	1094	1108	1111	1113	1118	1118	1118	1108	1105	1103	1088	1079	1070	1061	1054	1047	1043	1037	1030	1026	1024	1021	1021	1021	1021	1021	1021	1021	1021	616	0	0	0	0	0	0	0	0	0	0	0	0	0	0	0	0	816	1027	1021	1018	1011	993	990	988	985	985	985	985	982	980	977	977	976	973	970	969	969	964	962	962	959	958	955	955	955	951	951	951	951	951	951	951	953	955	955	955	955	955	955	955	962	962	962	969	971	973	977	979	981	989	991	993	1001	1004	1009	1009	1011	1013	1017	1017	1017	1021	1021	1021	1018	1017	1017	1017	1017	1017	1017	1017	1017	1017	1017	1017	1017	1017	1017	1017	1017	1017	1014	1012	1009	1006	1005	1005	1002	1000	997	994	992	989	984	980	977	974	972	969	965	962	962	960	958	955	950	947	944	942	939	929	926	922	912	907	902	893	889	886	877	874	871	862	861	859	856	853	850	847	846	844	844	844	844	847	848	850	853	853	853	856	858	862	865	867	871	876	878	880	885	888	893	895	898	902	905	907	909	909	911	916	916	916	916	916	916	916	916	915	912	910	908	906	901	898	896	892	889	886	886	886	886	888	890	893	895	897	906	914	920	937	945	952	962	966	969	973	973	973	981	985	989	985	985	985	985	985	985	985	985	985	985	983	981	977	975	973	969	969	969	966	964	962	962	961	958	958	957	955	955	955	955	952	951	951	951	951	951	951	952	955	955	955	955	955	956	958	958	958	958	958	958	958	958	957	955	952	950	947	945	943	940	938	937	933	931	929	926	924	923	919	919	919	919	917	916	912	912	912	912	912	912	912	912	912	909	909	909	909	909	909	906	906	906	906	906	906	906	906	906	906	904	902	902	902	902	902	902	902	902	902	902	905	907	909	909	909	909	909	909	909	911	912	912	912	912	912	912	912	912	917	920	923	925	927	929	932	934	940	943	945	951	953	956	962	964	966	969	971	973	977	982	985	993	997	1001	1009	1013	1017	1030	1037	1043	1056	1065	1074	1079	1079	1079	1074	1068	1061	1044	1039	1034	1018	1007	993	979	964	944	934	930	926	917	913	909	903	899	893	885	879	871	864	859	853	848	845	841	837	835	833	831	829	824	823	821	816	815	814	814	812	810	806	804	803	801	801	801	798	798	798	798	798	798	798	796	795	795	797	798	798	800	801	803	805	806	808	810	811	814	815	816	822	823	824	827	831	836	844	848	853	859	860	862	868	870	874	82	0	0	0	0	0	0	0	0	0	0	0	0	0	0	0	0	0	0	0	0	1699	2191	2177	2177	2177	2177	2123	2103	2103	2116	2121	2121	2121	2128	2158	2158	2158	2158	2171	2180	2196	2184	2177	2177	2177	2177	2177	2177	2177	2177	2177	2180	2216	2227	2236	2236	2247	2258	2298	2321	2341	2364	2375	2386	2386	2397	2409	2433	2433	2433	2410	2389	2364	2364	2354	2341	2321	2310	2298	2279	2261	2236	2218	2208	2196	2180	2177	2177	2161	2152	2139	2124	2115
2051	2051	2043	2034	2034	2034	2034	2034	2041	2051	2043	2042	2042	2020	2008	1993	1966	1945	1916	1867	1826	1766	1676	1615	1527	1457	1438	1426	1334	1301	1273	1260	1249	1229	1206	1195	1182	1177	1173	1165	1157	1150	1138	1124	1115	1103	1096	1090	1079	1073	1070	1070	1064	1060	1054	1052	1051	1050	1050	1051	1058	1064	1069	1079	1083	1087	1098	1101	1103	1106	1104	1103	1094	1088	1084	1068	1059	1050	1039	1034	1028	1022	1018	1014	1008	1006	1005	1003	1003	1003	1003	1004	1005	1003	801	492	56	0	0	0	0	0	0	0	0	0	0	0	0	152	502	911	1015	1009	1006	1000	985	983	982	979	979	979	981	978	976	973	972	971	970	967	966	966	962	960	958	956	954	951	950	949	948	946	946	946	947	948	949	950	951	953	954	955	955	955	955	962	962	962	969	971	973	977	979	981	989	992	995	1004	1008	1011	1013	1014	1015	1019	1019	1019	1021	1021	1021	1018	1017	1017	1017	1017	1017	1017	1017	1017	1017	1017	1017	1017	1017	1017	1017	1017	1017	1014	1012	1009	1006	1005	1003	1000	998	995	991	988	985	980	976	973	969	967	966	961	958	958	955	952	950	946	943	940	937	934	926	921	917	909	904	900	892	888	884	876	873	871	862	861	859	856	853	850	847	846	844	844	844	844	845	847	848	851	852	853	856	858	862	865	867	871	875	877	880	884	887	892	895	898	902	904	905	908	909	910	914	916	916	916	916	916	916	915	914	912	910	908	906	901	898	896	892	890	888	888	888	888	890	892	894	897	900	908	915	922	937	944	950	960	964	968	971	971	971	977	979	981	979	980	981	981	981	981	981	980	979	979	978	977	973	972	971	968	968	968	964	962	960	960	959	956	956	955	953	953	953	953	951	950	949	949	949	949	949	950	953	953	953	953	953	953	954	956	956	956	958	958	958	957	956	953	950	949	947	945	943	940	939	938	933	931	929	926	924	923	921	920	919	919	917	916	914	913	912	912	912	912	912	912	912	911	910	909	909	909	909	908	907	906	906	906	906	906	906	906	906	904	902	902	902	902	902	903	904	904	904	904	907	908	909	909	909	909	909	909	909	911	912	914	914	914	914	914	914	914	919	922	924	927	928	931	934	936	940	943	945	951	953	956	962	964	966	968	971	973	977	982	985	993	997	1001	1007	1012	1017	1030	1037	1043	1056	1065	1074	1081	1082	1082	1074	1070	1066	1049	1042	1034	1018	1007	993	979	967	951	940	935	930	921	917	912	904	899	893	885	879	871	864	860	854	849	845	841	837	835	833	831	829	826	823	821	816	815	814	812	811	810	807	805	804	802	801	801	798	798	798	798	798	798	798	796	795	795	797	798	798	800	801	803	805	806	808	810	811	814	816	818	822	823	824	830	833	837	847	850	854	860	862	864	869	872	876	83	0	0	0	0	0	0	0	0	0	0	0	0	0	0	0	0	0	0	0	0	1699	2191	2177	2177	2177	2177	2150	2144	2160	2166	2168	2168	2168	2172	2187	2187	2187	2187	2193	2198	2206	2200	2196	2196	2196	2196	2196	2196	2197	2206	2206	2210	2246	2252	2257	2267	2278	2289	2320	2337	2353	2375	2386	2398	2398	2409	2421	2433	2433	2433	2410	2394	2375	2365	2354	2341	2321	2310	2298	2279	2265	2246	2228	2218	2206	2189	2186	2186	2162	2152	2139	2132	2124
2051	2051	2043	2034	2034	2034	2034	2034	2041	2051	2051	2051	2051	2036	2021	2001	1974	1953	1924	1874	1828	1760	1670	1606	1513	1455	1443	1443	1338	1301	1273	1252	1240	1223	1204	1195	1182	1177	1173	1165	1157	1150	1138	1124	1115	1103	1096	1090	1079	1073	1070	1070	1064	1060	1052	1049	1046	1043	1043	1044	1052	1057	1062	1070	1075	1080	1088	1091	1093	1093	1090	1088	1079	1072	1065	1047	1038	1030	1017	1013	1009	1001	999	997	989	989	989	985	985	985	985	987	989	985	985	985	112	0	0	0	0	0	0	0	0	0	0	0	0	303	1005	1005	1003	997	994	989	977	977	976	973	973	974	977	974	972	969	967	966	966	963	962	962	959	958	955	952	950	947	945	944	944	942	940	940	942	944	947	947	947	951	953	955	955	955	955	962	962	962	969	971	973	977	979	981	989	993	997	1008	1011	1013	1017	1017	1017	1021	1021	1021	1021	1021	1021	1018	1017	1017	1017	1017	1017	1017	1017	1017	1017	1017	1017	1017	1017	1017	1017	1017	1017	1014	1012	1009	1006	1004	1001	998	996	993	987	984	981	976	972	969	964	962	962	958	955	955	950	947	944	942	940	937	932	929	923	917	912	906	902	899	890	886	883	874	872	871	862	861	859	856	853	850	847	846	844	844	844	844	844	845	847	850	851	853	856	858	862	865	867	871	874	876	880	882	885	890	895	898	902	902	903	906	908	910	912	915	916	916	916	916	916	913	912	912	910	908	906	901	898	896	892	890	890	890	890	890	892	893	896	900	903	909	917	924	937	943	948	958	962	966	969	969	969	973	973	973	973	975	977	977	977	977	977	975	973	973	973	973	969	969	969	966	966	966	962	960	958	958	957	955	955	954	951	951	951	951	951	950	947	947	947	947	947	948	951	951	951	951	951	951	951	954	955	955	957	958	958	956	954	951	948	947	947	945	943	940	940	939	933	931	929	926	924	923	923	921	919	919	917	916	916	914	912	912	912	912	912	912	912	912	911	909	909	909	909	909	908	906	906	906	906	906	906	906	906	904	902	902	902	902	902	903	906	906	906	906	908	909	909	909	909	909	909	909	909	911	913	916	916	916	916	916	916	916	921	924	926	928	930	933	936	937	940	943	945	951	953	956	962	964	966	966	970	973	977	982	985	993	997	1001	1005	1011	1017	1030	1037	1043	1056	1065	1074	1084	1084	1084	1074	1072	1070	1053	1044	1034	1018	1007	993	979	969	958	946	940	933	924	920	916	904	899	893	885	879	871	864	860	856	849	845	841	837	835	833	831	829	827	823	821	816	815	813	811	811	810	808	807	805	803	802	801	798	798	798	798	798	798	798	796	795	795	797	798	798	800	801	803	805	806	808	810	811	814	817	819	822	823	824	833	835	838	850	853	856	862	863	865	871	873	877	83	0	0	0	0	0	0	0	0	0	0	0	0	0	0	0	0	0	0	0	0	1699	2191	2177	2177	2177	2177	2177	2186	2216	2216	2216	2216	2216	2216	2216	2216	2216	2216	2216	2216	2216	2216	2216	2216	2216	2216	2216	2216	2218	2236	2236	2239	2277	2277	2278	2298	2309	2320	2341	2353	2364	2386	2398	2409	2409	2421	2433	2433	2433	2433	2410	2399	2386	2365	2354	2341	2321	2310	2298	2279	2269	2256	2238	2228	2216	2199	2196	2196	2164	2152	2139	2139	2133
2051	2051	2043	2034	2034	2042	2051	2051	2066	2085	2069	2068	2068	2053	2044	2034	2020	1994	1954	1890	1828	1735	1631	1578	1513	1513	1028	0	1043	1276	1253	1234	1226	1217	1198	1190	1182	1177	1175	1171	1163	1156	1144	1133	1124	1108	1098	1090	1079	1069	1065	1065	1056	1051	1043	1040	1038	1038	1038	1039	1043	1045	1048	1056	1061	1065	1070	1072	1074	1070	1067	1064	1047	1040	1034	1017	1007	997	985	979	973	973	971	969	966	966	966	966	964	962	962	964	966	966	966	966	966	967	969	969	622	0	0	337	993	993	993	993	990	989	989	989	989	989	986	982	973	970	969	969	969	969	969	967	966	966	963	962	962	962	961	958	956	954	951	948	947	944	942	940	940	940	940	940	940	940	944	946	947	951	953	955	955	957	958	962	966	969	973	975	977	985	987	989	997	1001	1005	1013	1016	1021	1021	1023	1026	1026	1026	1026	1026	1024	1021	1018	1017	1017	1017	1017	1017	1017	1017	1017	1014	1013	1013	1013	1013	1013	1013	1013	1013	1007	1004	1001	998	997	997	994	991	985	979	976	973	968	965	962	957	955	955	950	947	944	944	944	940	936	932	926	924	922	916	912	909	902	900	899	890	886	883	874	872	871	865	862	859	856	853	850	847	846	844	844	844	844	844	844	844	847	848	850	855	857	859	864	867	871	874	876	880	882	885	890	895	897	899	901	903	906	906	907	909	911	912	912	912	912	912	910	909	909	907	905	899	897	895	893	891	890	890	890	890	890	892	893	896	900	903	912	918	924	937	943	947	955	957	958	962	962	962	966	966	966	966	967	969	969	969	969	969	969	969	966	966	966	966	964	962	962	960	958	958	957	955	955	954	951	951	951	951	948	947	947	947	947	947	947	947	947	947	947	947	947	948	951	951	951	951	951	952	955	955	955	955	955	954	951	948	947	947	945	943	940	940	940	937	935	933	929	927	926	923	923	923	919	919	919	916	916	916	912	912	912	912	912	912	912	911	909	909	909	909	909	909	909	906	906	906	906	906	906	906	906	906	906	906	906	906	906	906	906	906	906	908	909	909	909	909	909	909	909	909	911	913	916	918	919	919	919	920	923	925	927	933	936	938	940	940	941	944	946	948	955	957	958	962	964	966	966	970	973	973	978	981	989	993	997	1005	1011	1017	1043	1050	1056	1084	1084	1084	1088	1088	1088	1084	1078	1070	1062	1055	1047	1031	1021	1009	987	977	966	953	946	937	927	922	916	908	902	893	882	877	871	864	860	856	851	848	844	839	837	833	831	829	827	825	823	819	817	815	811	811	810	808	808	808	806	804	803	801	801	801	801	799	798	798	798	798	798	798	798	801	802	803	803	805	806	808	811	814	816	819	822	824	827	830	836	840	844	853	856	859	862	863	865	871	873	877	83	0	0	0	0	0	0	0	0	0	0	0	0	0	0	0	0	0	0	0	0	1846	2374	2341	2341	2336	2319	2319	2319	2319	2304	2294	2277	2277	2277	2277	2263	2256	2256	2256	2256	2256	2243	2236	2236	2236	2238	2256	2256	2256	2256	2268	2279	2298	2298	2298	2298	2298	2300	2341	2353	2364	2364	2364	2364	2386	2397	2409	2409	2409	2409	2387	2376	2364	2342	2331	2319	2300	2289	2277	2258	2248	2236	2218	2216	2216	2199	2196	2196	2180	2171	2158	2158	2152
2042	2042	2035	2026	2026	2033	2042	2051	2062	2076	2061	2060	2060	2052	2044	2034	2020	1988	1939	1888	1828	1735	1631	1578	1513	1513	1028	0	1038	1270	1247	1230	1223	1214	1198	1190	1182	1177	1175	1171	1163	1156	1144	1133	1124	1110	1098	1090	1079	1069	1064	1058	1054	1050	1040	1038	1036	1034	1034	1035	1038	1040	1042	1052	1057	1061	1063	1064	1065	1058	1054	1049	1034	1026	1019	1001	992	983	974	969	964	962	961	960	957	956	956	956	955	953	953	954	956	958	959	960	962	963	966	967	795	486	488	658	989	991	991	991	989	989	989	987	987	987	982	979	973	970	969	968	968	967	966	964	963	960	959	958	956	956	956	954	954	952	948	945	943	942	941	940	940	940	940	940	940	940	944	946	947	951	953	955	956	958	960	966	969	973	977	979	981	989	991	993	1001	1005	1009	1017	1020	1024	1025	1027	1028	1028	1028	1028	1028	1026	1024	1020	1019	1019	1017	1017	1017	1017	1016	1015	1012	1011	1011	1011	1011	1011	1009	1009	1009	1004	1002	997	994	993	991	988	985	979	975	972	968	964	961	956	953	951	950	947	945	940	940	940	934	931	929	924	922	920	914	911	909	902	900	897	892	888	884	876	873	871	866	864	860	856	854	852	847	846	844	843	842	842	842	843	844	845	847	848	854	856	858	863	866	870	873	876	878	882	885	890	894	895	898	900	901	904	904	905	908	909	909	909	909	909	909	906	905	904	902	900	896	894	892	890	889	888	886	886	887	888	891	894	898	901	905	912	919	925	935	941	946	951	954	957	960	961	962	964	964	964	964	965	966	966	966	966	966	966	966	964	963	962	962	961	960	960	959	956	956	955	953	953	952	951	949	949	949	947	947	947	946	946	946	946	946	946	946	946	947	947	947	949	949	949	951	951	951	953	953	953	953	953	952	949	948	947	947	945	943	940	940	940	938	935	933	929	928	927	924	924	924	921	920	919	916	916	916	912	912	912	912	912	912	912	911	909	909	909	909	909	909	909	906	906	906	906	906	906	906	906	906	906	906	906	906	906	906	906	906	906	908	909	909	909	909	909	909	909	910	912	913	916	918	919	921	921	922	924	928	931	935	937	939	942	943	944	946	949	952	956	959	960	962	964	966	966	969	971	973	978	981	989	991	993	1005	1014	1022	1056	787	528	1104	1104	1104	1108	1107	1106	1094	1086	1077	1064	1057	1050	1035	1024	1011	993	982	970	955	948	940	929	924	918	906	900	892	881	876	870	863	860	856	851	848	842	839	837	833	831	829	827	825	823	820	817	815	812	812	812	810	808	808	806	805	804	802	802	802	802	801	800	800	800	800	800	800	801	802	803	803	804	806	807	810	812	814	818	820	823	826	828	830	836	840	846	853	856	860	863	865	866	871	874	878	83	0	0	0	0	0	0	0	0	0	0	0	0	0	0	0	0	0	0	0	0	1883	2425	2399	2390	2379	2352	2352	2352	2352	2337	2326	2309	2301	2298	2298	2284	2275	2266	2266	2265	2256	2250	2246	2246	2246	2247	2256	2256	2256	2256	2262	2268	2288	2288	2288	2288	2293	2299	2320	2331	2342	2342	2347	2352	2375	2381	2386	2386	2386	2386	2354	2343	2331	2320	2310	2298	2279	2273	2266	2248	2238	2226	2217	2212	2206	2197	2193	2186	2170	2161	2148	2148	2145
2034	2034	2026	2018	2018	2025	2034	2050	2058	2068	2052	2051	2051	2051	2044	2034	2020	1983	1924	1886	1828	1735	1631	1578	1513	1513	1028	0	1033	1263	1241	1227	1220	1211	1197	1190	1182	1177	1175	1171	1163	1156	1144	1133	1125	1113	1099	1090	1079	1069	1063	1052	1052	1050	1038	1035	1033	1030	1030	1030	1034	1034	1035	1047	1052	1056	1056	1056	1055	1047	1040	1034	1021	1013	1005	985	977	969	962	959	955	951	951	951	947	947	947	947	946	944	944	945	947	951	953	955	958	960	962	965	969	973	976	980	985	988	989	989	989	989	989	986	985	985	979	976	973	970	968	966	966	965	962	962	961	955	955	954	951	951	951	951	951	950	944	941	940	940	940	940	940	940	940	940	940	940	944	946	947	951	953	955	958	960	962	969	973	977	981	983	985	993	995	997	1005	1009	1013	1021	1023	1026	1030	1030	1030	1030	1030	1030	1030	1028	1026	1022	1021	1021	1018	1017	1017	1017	1016	1013	1010	1009	1009	1009	1009	1009	1006	1005	1005	1002	999	993	990	988	985	982	979	973	970	968	962	959	957	951	948	947	944	944	943	937	937	936	929	927	926	923	921	918	912	910	909	902	899	896	893	889	886	877	874	871	868	865	862	856	855	853	847	846	844	841	841	841	841	842	844	844	845	847	852	854	856	861	864	868	873	875	877	882	885	890	892	894	896	898	900	902	902	903	906	906	906	906	906	906	906	903	901	899	897	895	893	891	889	886	886	886	883	883	883	886	890	894	899	903	907	912	920	927	933	939	944	947	951	955	958	960	962	962	962	962	962	962	962	962	962	962	962	962	962	962	960	958	958	958	958	958	957	955	955	953	951	951	951	951	948	947	947	947	947	947	945	944	944	944	944	944	944	945	947	947	947	947	947	948	951	951	951	951	951	951	951	951	950	947	947	947	947	945	943	940	940	940	940	936	933	929	929	929	926	926	926	923	921	919	916	916	916	912	912	912	912	912	912	912	911	909	909	909	909	909	909	909	906	906	906	906	906	906	906	906	906	906	906	906	906	906	906	906	906	906	908	909	909	909	909	909	909	910	912	912	913	916	918	920	923	923	924	926	931	934	937	939	941	944	946	947	947	952	955	958	960	962	962	964	966	966	968	969	973	978	981	989	989	990	1005	1016	1027	1070	525	0	1123	1123	1123	1128	1126	1123	1104	1094	1084	1066	1059	1052	1039	1028	1013	999	987	973	957	951	944	931	925	919	905	898	890	879	874	868	863	860	856	851	847	841	839	837	833	831	829	827	825	824	822	818	816	814	814	813	811	809	808	806	806	806	803	803	803	803	803	803	803	802	801	801	802	803	803	803	803	806	807	808	811	813	814	819	822	824	827	828	830	836	841	847	853	857	862	865	866	868	871	875	880	83	0	0	0	0	0	0	0	0	0	0	0	0	0	0	0	0	0	0	0	0	1920	2475	2457	2439	2421	2386	2386	2386	2386	2370	2359	2341	2326	2319	2319	2305	2294	2277	2277	2274	2256	2256	2256	2256	2256	2256	2256	2256	2256	2256	2256	2258	2277	2277	2277	2277	2288	2298	2298	2309	2319	2319	2330	2341	2364	2364	2364	2364	2364	2364	2321	2309	2298	2298	2289	2277	2258	2256	2256	2238	2228	2216	2216	2208	2196	2196	2189	2177	2161	2152	2139	2139	2139
2018	2018	2018	2018	2018	2025	2034	2050	2058	2068	2052	2051	2051	2051	2044	2034	2020	1983	1924	1886	1811	1688	1623	1612	1612	274	0	0	1017	1246	1229	1224	1220	1211	1202	1197	1193	1185	1181	1176	1168	1161	1149	1141	1134	1118	1104	1095	1084	1071	1063	1052	1052	1050	1038	1035	1033	1030	1030	1030	1034	1034	1034	1038	1043	1047	1043	1040	1038	1030	1021	1012	993	985	977	958	951	944	944	942	940	933	933	933	933	933	933	937	937	937	940	942	944	950	953	955	958	960	962	965	969	973	976	980	985	988	989	989	989	989	989	986	985	985	979	976	973	970	968	966	966	965	962	962	961	955	952	950	947	947	947	947	947	947	944	941	940	940	940	940	940	940	940	944	946	947	951	953	955	958	960	962	966	968	969	977	981	985	989	993	997	1001	1003	1005	1013	1019	1026	1030	1033	1038	1038	1038	1038	1034	1034	1034	1030	1030	1030	1027	1024	1021	1018	1017	1017	1014	1012	1009	1006	1005	1005	1005	1004	1001	998	997	997	991	988	985	982	979	973	973	972	966	960	957	955	950	946	944	941	940	937	937	936	933	931	929	926	924	923	919	917	915	909	907	906	902	899	896	893	891	890	883	880	877	868	865	862	859	856	853	847	846	844	841	840	838	838	839	841	841	842	844	847	849	853	858	861	865	870	872	874	879	882	886	889	891	893	895	897	899	899	899	899	899	898	896	896	896	896	894	893	893	891	889	883	883	882	880	880	880	880	880	880	883	887	891	896	902	907	912	918	924	933	937	940	944	946	947	951	953	955	955	955	955	955	955	955	958	958	958	958	958	958	958	957	955	955	955	955	955	955	955	951	951	951	948	947	947	947	947	947	947	946	944	944	944	944	944	944	944	944	944	944	946	947	947	947	948	951	951	951	951	951	951	951	951	950	947	947	947	944	944	944	944	942	940	940	938	937	933	933	933	929	929	929	926	924	923	919	917	916	916	916	916	916	914	912	912	912	912	909	909	909	909	909	909	906	906	906	906	906	906	909	909	909	906	906	906	906	906	906	906	906	906	908	909	909	909	909	909	909	910	912	915	917	919	922	924	926	926	927	929	935	938	944	946	948	951	948	947	947	952	955	958	960	962	962	964	966	969	969	970	977	979	981	989	989	989	1001	1045	1087	1223	600	0	0	597	1217	1166	1155	1144	1109	1097	1084	1066	1061	1056	1044	1036	1026	1003	991	977	960	953	944	931	924	916	902	895	886	876	872	868	863	860	856	851	847	841	839	837	836	831	829	827	825	824	822	820	818	816	816	816	814	814	813	811	809	808	808	807	806	806	806	806	806	804	803	803	805	806	806	807	808	811	811	811	814	815	816	822	825	827	830	831	833	838	842	847	856	859	862	865	866	868	874	878	883	83	0	0	0	0	0	0	0	0	0	0	0	0	0	0	0	0	0	0	689	2433	2433	2439	2457	2457	2451	2433	2433	2433	2433	2416	2404	2386	2371	2360	2341	2326	2315	2298	2284	2274	2256	2256	2253	2236	2236	2236	2236	2236	2236	2236	2236	2238	2256	2245	2236	2236	2247	2257	2277	2288	2298	2298	2298	2298	2298	2298	2298	2319	2309	2298	2278	2267	2256	2256	2247	2236	2236	2228	2216	2216	2208	2196	2196	2189	2177	2177	2170	2158	2158	2152	2139	2139	2133
2010	2010	2010	2010	2010	2017	2026	2050	2058	2068	2060	2060	2060	2052	2044	2034	2020	1983	1924	1856	1783	1671	1639	1352	806	137	205	640	1135	1243	1226	1224	1220	1211	1204	1200	1196	1187	1182	1176	1170	1165	1154	1145	1136	1118	1106	1098	1086	1073	1065	1054	1054	1052	1042	1037	1033	1030	1030	1030	1034	1034	1034	1038	1041	1042	1038	1035	1031	1022	1012	1004	985	976	967	951	944	936	935	933	932	928	928	928	928	929	930	933	934	935	938	940	942	948	951	955	958	960	962	967	970	975	978	982	989	992	993	993	993	993	993	990	988	987	984	981	975	972	970	968	966	965	962	962	961	955	952	950	947	947	947	947	947	947	944	941	940	940	941	942	942	943	944	946	948	949	954	957	959	962	964	966	970	971	973	981	985	989	993	997	1001	1005	1008	1011	1019	1024	1030	1036	1039	1042	1042	1042	1040	1039	1038	1036	1034	1032	1030	1028	1025	1021	1019	1018	1017	1014	1012	1009	1006	1004	1001	1001	1000	999	996	994	993	987	984	981	977	973	968	966	964	960	956	954	950	945	943	940	939	938	935	935	934	931	930	929	926	924	923	919	917	915	909	907	906	902	900	897	894	893	891	884	881	877	870	867	864	859	856	853	849	846	844	840	838	837	837	838	838	839	840	841	845	848	852	857	859	862	867	870	872	877	880	883	887	888	890	892	894	896	896	896	896	895	894	893	892	891	891	889	888	886	884	883	878	877	877	876	876	876	877	878	879	882	886	889	894	900	905	910	917	922	930	933	937	940	943	946	948	949	951	951	952	953	953	953	953	954	954	954	954	954	954	954	954	953	953	953	953	953	953	953	949	949	949	947	947	947	947	947	947	947	946	944	944	944	944	944	944	944	944	944	944	946	947	947	947	948	951	951	951	951	951	951	951	951	950	947	947	947	944	944	944	944	942	940	940	939	938	935	934	933	931	930	929	928	926	924	921	919	917	916	916	916	916	915	914	912	912	912	911	910	909	909	909	909	906	906	906	906	906	906	909	909	909	906	906	906	906	906	906	906	906	906	908	909	909	909	909	909	909	910	912	915	917	919	923	925	928	928	928	931	936	940	944	946	948	951	951	951	951	955	957	960	962	964	966	967	968	969	969	970	979	981	983	989	989	989	1001	1068	1130	1275	625	0	748	992	1245	1172	1158	1144	1114	1101	1086	1069	1064	1058	1046	1037	1026	1003	992	979	960	953	944	930	923	914	900	893	883	874	871	866	862	859	854	850	846	841	839	837	836	833	831	828	826	825	823	821	820	818	818	817	815	814	814	812	812	811	810	809	808	808	808	807	807	806	806	806	806	807	808	809	810	811	812	813	815	816	818	823	825	827	832	833	834	839	843	847	856	859	862	865	866	868	874	878	883	83	0	0	0	0	0	0	0	0	0	0	0	0	0	0	0	357	1182	1182	1533	2421	2421	2427	2445	2445	2442	2433	2433	2433	2433	2424	2414	2386	2371	2358	2330	2323	2314	2288	2281	2274	2256	2250	2243	2226	2226	2226	2226	2226	2226	2226	2226	2227	2236	2230	2226	2226	2231	2237	2256	2262	2267	2267	2272	2277	2277	2277	2277	2287	2278	2267	2247	2237	2226	2226	2222	2216	2216	2208	2196	2196	2189	2177	2177	2173	2168	2168	2164	2158	2150	2145	2139	2139	2133
2001	2001	2001	2001	2001	2009	2018	2049	2058	2068	2068	2068	2068	2053	2044	2034	2020	1983	1924	1826	1755	1654	1654	1092	0	0	410	1279	1253	1240	1223	1223	1220	1211	1206	1203	1199	1190	1184	1176	1172	1169	1160	1149	1139	1118	1108	1100	1088	1076	1068	1056	1056	1055	1047	1039	1033	1030	1030	1030	1034	1034	1034	1038	1038	1038	1034	1029	1025	1013	1004	996	977	967	958	944	936	929	926	925	923	923	923	923	923	924	926	929	931	933	937	938	940	946	950	955	958	960	962	968	972	977	980	985	993	996	997	997	997	997	997	994	992	989	989	986	977	974	972	969	967	965	962	962	961	955	952	950	947	947	947	947	947	947	944	941	940	940	942	944	944	946	947	947	949	952	958	960	962	966	968	969	973	975	977	985	989	993	997	1001	1005	1009	1013	1017	1026	1030	1034	1042	1045	1047	1047	1045	1043	1043	1041	1038	1038	1035	1030	1030	1027	1021	1021	1020	1017	1014	1012	1009	1006	1003	997	997	997	997	994	992	989	983	980	977	971	967	962	959	957	955	952	950	944	941	939	937	937	936	933	933	932	929	929	929	926	924	923	919	917	915	909	907	906	902	900	899	896	894	893	886	881	877	871	868	865	859	856	853	850	847	844	838	837	836	836	836	836	838	838	838	843	846	850	855	857	859	864	867	871	876	878	880	885	886	886	889	891	893	893	893	893	891	890	890	887	886	886	884	882	880	878	876	874	872	871	871	871	871	874	876	877	880	884	887	893	898	903	909	915	920	926	930	933	937	941	944	944	946	947	947	949	951	951	951	951	951	951	951	951	951	951	951	951	951	951	951	951	951	951	951	947	947	947	947	947	947	947	947	947	947	946	944	944	944	944	944	944	944	944	944	944	946	947	947	947	948	951	951	951	951	951	951	951	951	950	947	947	947	944	944	944	944	942	940	940	940	940	937	935	933	933	931	929	929	927	926	923	921	919	916	916	916	916	916	916	912	912	912	912	911	909	909	909	909	906	906	906	906	906	906	909	909	909	906	906	906	906	906	906	906	906	906	908	909	909	909	909	909	909	910	912	915	917	919	924	927	929	929	930	933	938	941	944	946	948	951	954	955	955	957	959	962	964	966	969	969	969	969	969	970	981	983	985	989	989	989	1001	1091	1174	1327	651	0	1495	1386	1273	1178	1161	1144	1119	1104	1088	1071	1066	1061	1048	1038	1026	1003	993	981	961	953	944	928	921	912	898	891	880	873	869	865	860	857	853	848	845	841	839	837	836	834	832	830	828	826	824	823	821	819	819	818	816	815	814	814	814	814	811	811	811	811	809	808	808	808	808	808	808	808	811	811	811	811	813	814	816	818	819	824	826	827	833	834	836	841	844	847	856	859	862	865	866	868	874	878	883	83	0	0	0	0	0	0	0	0	0	0	0	0	0	0	0	714	2364	2364	2377	2409	2409	2415	2433	2433	2433	2433	2433	2433	2433	2433	2423	2386	2371	2356	2319	2319	2312	2277	2277	2274	2256	2243	2233	2216	2216	2216	2216	2216	2216	2216	2216	2216	2216	2216	2216	2216	2216	2217	2236	2236	2236	2236	2246	2256	2256	2256	2256	2256	2247	2236	2217	2207	2196	2196	2196	2196	2196	2188	2177	2177	2169	2158	2158	2158	2158	2158	2158	2158	2142	2139	2139	2139	2133
