0	0	0	0	0	0	0	0	0	0	0	0	0	0	0	0	0	0	0	0	0	0	0	0	0	0	0	0	0	0	0	0	0	0	0	0	0	0	0	0	0	0	0	0	0	0	0	0	0	0	0	0	0	0	0	0	0	0	0	0	0	0	0	0	0	0	0	0	0	0	0	0	0	0	0	0	0	0	0	0	0	0	0	0	0	0	0	0	0	0	0	0	0	0	0	0	0	0	0	6584	6584	6584	6568	6560	6544	6544	0	0	0	0	0	0	0	0	0	0	0	0	0	0	0	0	0	0	0	0	0	0	0	0	0	0	0	0	0	0	0	0	0	11704	11704	11936	12080	12232	12336	12432	12592	12648	12752	12752	12752	12752	12752	12752	12752	12808	12808	0	0	0	0	0	0	0	0	0	0	0	0	0	0	0	0	0	0	0	0	0	0	0	0	0	0	0	0	0	0	0	0	0	0	0	0	0	0	0	0	0	0	0	0	0	0	0	0	0	0	0	0	0	0	0	0	0	0	0	0	0	0	0	0	0	0	0	0	0	0	0	0	0	0	0	0	0	0	0	0	0	0	0	0	0	0	0	0	0	0	0	0	0	0	0	0	0	0	0	0	0	0	0	0	0	0	0	0	0	0	0	0	0	0	0	0	0	0	0	0	0	0	0	0	0	0	0	0	0	0	0	0	0	0	0	0	0	0	0	0	0	0	0	0	0	0	0	0	0	0	0	0	0	0	0	0	0	0	0	0	0	0	0	0	0	0	43432	41624	39960	39432	39432	0	0	0	0	0	0	0	0	0	0	0	0	0	0	0	15056	14832	14760	14544	14408	14336	14272	14200	14200	14136	14136	14072	14000	14000	13936	13936	13936	14000	14136	14272	14408	14616	14912	15216	15856	16112	16288	16288	16376	0	0	0	0	0	0	0	0	0	14336	14200	14072	14000	14000	14000	13936	13936	13936	13936	13936	13936	13936	13936	13936	13936	13936	13872	13808	13744	13688	13560	13496	13376	13320	13264	13200	13200	13144	13144	13144	13200	13200	13264	13320	13440	13496	13560	13624	13688	13688	13688	13688	13688	13688	13688	13688	13624	13624	13688	13688	13624	13560	13496	13376	13376	13376	13320	13320	13376	13376	13440	13560	13688	13872	14000	14136	14272	14408	14616	14688	14760	14832	14832	14832	14912	14912	14832	14832	14912	14912	14912	14832	14760	14688	14616	14616	14544	14480	14408	14408	14336	14336	14336	14272	14272	14272	14272	14336	14336	14336	14408	14408	14616	14688	14760	14832	14832	14832	14832	14832	14832	14984	15056	15216	15216	15368	15448	15528	15608	15608	15688	15776	15856	15856	15856	15856	15856	15776	15688	15688	15608	15608	15528	15448	15448	15448	15368	15368	15288	15288	15288	15288	15288	15288	15448	15448	15448	15448	15448	15448	15528	15608	15608	15608	15688	15776	15944	15944	16024	16112	16200	16288	16200	16200	16112	16112	16112	16112	16112	16024	16024	16024	15856	15856	15776	15776	15688	15688	15608	15528	15528	15528	15448	15448	15368	15216	15056	14984	14832	14688	14480	14336	14136	14072	14000	13872	13744	13688	13560	13560	13496	13496	13440	13440	13440	13440	13376	13376	13320	13320	13376	13376	13560	13688	13808	13936	14072	14272	14408	14544	14616	14688	14688	14688	14688	14616	14544	14480	14408	14336	14200	14072	13808	13624	13496	13264	13088	12920	12808	12696	12592	12536	12488	12432	12432	12384	12384	12336	12336	0	0	0	12808	12808	12976	13144	13264	13376	13496	13560	13560	13560	13496	13440	13376	13264	13264	13264	13264	13264	13320	13376	13376	13440	13440	13496	13496	13440	13440	13496	13560	13624	13688	13560	13496	13376	13264	13144	12976	12864	12752	12696	12696	12696	12696	12696	12752	12752	12808	12808	12808	12808	12808	12752	12752	12808	12808	12808	12864	12920	12920	13032	13088
0	0	0	0	0	0	0	0	0	0	0	0	0	0	0	0	0	0	0	0	0	0	0	0	0	0	0	0	0	0	0	0	0	0	0	0	0	0	0	0	0	0	0	0	0	0	0	0	0	0	0	0	0	0	0	0	0	0	0	0	0	0	0	0	0	0	0	0	0	0	0	0	0	0	0	0	0	0	0	0	0	0	0	0	0	0	0	0	0	0	0	0	0	0	0	0	0	0	0	6584	6584	6584	6568	6560	6544	6544	0	0	0	0	0	0	0	0	0	0	0	0	0	0	0	0	0	0	0	0	0	0	0	0	0	0	0	0	0	0	0	0	0	11704	11704	11936	12080	12184	12280	12384	12488	12592	12648	12696	12696	12696	12696	12696	12648	12648	12696	12808	0	0	0	0	0	0	0	0	0	0	0	0	0	0	0	0	0	0	0	0	0	0	0	0	0	0	0	0	0	0	0	0	0	0	0	0	0	0	0	0	0	0	0	0	0	0	0	0	0	0	0	0	0	0	0	0	0	0	0	0	0	0	0	0	0	0	0	0	0	0	0	0	0	0	0	0	0	0	0	0	0	0	0	0	0	0	0	0	0	0	0	0	0	0	0	0	0	0	0	0	0	0	0	0	0	0	0	0	0	0	0	0	0	0	0	0	0	0	0	0	0	0	0	0	0	0	0	0	0	0	0	0	0	0	0	0	0	0	0	0	0	0	0	0	0	0	0	0	0	0	0	0	0	0	0	0	0	0	0	0	0	0	0	0	0	0	0	0	0	0	0	0	0	0	0	0	0	0	0	0	0	0	0	0	0	15056	14832	14760	14544	14480	14408	14336	14272	14272	14272	14200	14200	14200	14136	14136	14136	14200	14272	14480	14544	14832	15056	15288	15608	15856	16112	16288	16200	16200	16200	16200	0	0	0	15136	14912	14760	14688	14480	14336	14272	14136	14136	14136	14072	14072	14072	14072	14072	14072	14072	14072	14072	14072	14000	14000	13872	13872	13744	13688	13624	13496	13376	13320	13320	13264	13264	13200	13200	13264	13320	13376	13440	13496	13624	13624	13688	13744	13744	13744	13744	13744	13688	13688	13688	13624	13624	13624	13624	13560	13496	13440	13376	13320	13320	13320	13320	13376	13376	13440	13560	13688	13872	14072	14136	14336	14544	14688	14832	14984	15056	15056	15056	15056	15056	15056	15056	15056	15056	14984	14912	14832	14760	14688	14616	14616	14544	14544	14408	14408	14408	14336	14336	14336	14336	14336	14408	14408	14480	14544	14544	14616	14760	14832	14912	14832	14832	14832	14832	14912	14984	15056	15216	15216	15368	15448	15528	15608	15688	15776	15856	15944	15944	15944	15944	15944	15856	15856	15688	15688	15608	15528	15448	15448	15448	15368	15288	15288	15288	15288	15288	15288	15288	15288	15288	15288	15288	15288	15288	15288	15368	15368	15448	15528	15608	15688	15776	15944	15944	16112	16200	16200	16200	16200	16200	16200	16200	16112	16112	15944	15944	15856	15776	15688	15608	15608	15528	15528	15528	15448	15448	15368	15368	15288	15136	15056	14912	14760	14616	14480	14272	14136	14072	14000	13872	13808	13688	13624	13624	13560	13560	13560	13496	13496	13496	13440	13440	13440	13440	13440	13560	13688	13808	13936	14072	14200	14408	14544	14616	14688	14760	14760	14832	14760	14688	14616	14544	14480	14336	14200	14072	13808	13624	13496	13320	13088	12920	12808	12696	12592	12536	12488	12432	12432	12384	12384	12488	12488	0	0	13264	13088	13088	13200	13320	13440	13560	13624	13624	13624	13560	13440	13376	13320	13264	13264	13320	13320	13320	13320	13376	13440	13496	13496	13560	13496	13496	13560	13560	13624	13688	13688	13624	13496	13376	13264	13144	12976	12864	12752	12696	12648	12648	12696	12696	12752	12752	12808	12808	12808	12808	12808	12808	12808	12808	12808	12808	12864	12920	12920	12976	13088
0	0	0	0	0	0	0	0	0	0	0	0	0	0	0	0	0	0	0	0	0	0	0	0	0	0	0	0	0	0	0	0	0	0	0	0	0	0	0	0	0	0	0	0	0	0	0	0	0	0	0	0	0	0	0	0	0	0	0	0	0	0	0	0	0	0	0	0	0	0	0	0	0	0	0	0	0	0	0	0	0	0	0	0	0	0	0	0	0	0	0	0	0	0	0	0	0	0	0	6528	6528	6528	6544	6544	6544	6528	6528	0	0	0	0	0	0	0	0	0	0	0	0	0	0	0	0	0	0	0	0	0	0	0	0	0	0	0	0	0	0	0	11352	11352	11664	11848	11984	12080	12184	12336	12432	12536	12592	12648	12648	12648	12648	12648	12648	12648	12696	12752	0	0	0	0	0	0	0	0	0	0	0	0	0	0	0	0	0	0	0	0	0	0	0	0	0	0	0	0	0	0	0	0	0	0	0	0	0	0	0	0	0	0	0	0	0	0	0	0	0	0	0	0	0	0	0	0	0	0	0	0	0	0	0	0	0	0	0	0	0	0	0	0	0	0	0	0	0	0	0	0	0	0	0	0	0	0	0	0	0	0	0	0	0	0	0	0	0	0	0	0	0	0	0	0	0	0	0	0	0	0	0	0	0	0	0	0	0	0	0	0	0	0	0	0	0	0	0	0	0	0	0	0	0	0	0	0	0	0	0	0	0	0	0	0	0	0	0	0	0	0	0	0	0	0	0	0	0	0	0	0	0	0	0	0	0	0	0	0	0	0	0	0	0	0	0	0	0	0	0	0	0	0	0	0	0	0	0	14760	14544	14480	14408	14408	14336	14336	14336	14336	14336	14336	14336	14336	14408	14408	14616	14760	15056	15216	15368	15608	15776	15944	16112	16112	16200	16112	16024	15944	15776	15776	15368	15136	14912	14760	14688	14616	14480	14336	14336	14272	14200	14200	14136	14136	14136	14136	14136	14136	14136	14136	14136	14072	14072	14000	13936	13872	13808	13688	13624	13560	13440	13376	13376	13320	13320	13320	13376	13376	13496	13560	13624	13744	13808	13872	13872	13936	13872	13872	13808	13744	13744	13688	13688	13688	13624	13624	13560	13496	13440	13376	13320	13320	13320	13320	13320	13376	13440	13560	13744	13872	14136	14272	14480	14688	14912	15136	15216	15368	15368	15368	15448	15448	15448	15448	15448	15448	15368	15216	15136	15056	14912	14832	14832	14760	14616	14544	14544	14544	14480	14480	14480	14480	14480	14544	14616	14616	14688	14760	14832	14912	14984	14984	15056	15056	15056	15056	15056	15216	15216	15288	15368	15528	15608	15688	15776	15856	15856	15944	15944	16024	16024	16024	16024	15944	15856	15856	15776	15688	15608	15528	15448	15448	15368	15288	15288	15288	15216	15216	15216	15216	15216	15216	15216	15136	15136	15136	15216	15216	15216	15288	15368	15448	15528	15688	15776	15776	15944	16024	16112	16112	16200	16200	16200	16200	16112	16024	15944	15856	15776	15688	15608	15528	15528	15368	15368	15288	15288	15288	15216	15216	15136	15056	14984	14832	14688	14544	14408	14272	14136	14072	14000	13936	13808	13744	13688	13688	13624	13624	13560	13560	13560	13560	13496	13496	13496	13496	13624	13688	13808	13936	14000	14136	14336	14480	14616	14688	14760	14832	14832	14832	14760	14760	14688	14616	14480	14272	14136	14000	13808	13624	13440	13320	13088	12976	12864	12752	12592	12536	12488	12488	12488	12488	12488	12488	12488	0	0	13264	13264	13440	13560	13624	13688	13744	13744	13744	13688	13560	13440	13376	13320	13264	13264	13320	13320	13376	13376	13440	13496	13560	13560	13624	13624	13560	13560	13624	13688	13744	13744	13624	13496	13376	13264	13144	12976	12864	12752	12696	12648	12648	12696	12752	12752	12752	12808	12864	12864	12864	12864	12808	12808	12864	12864	12864	12864	12920	12920	12976	13088
0	0	0	0	0	0	0	0	0	0	0	0	0	0	0	0	0	0	0	0	0	0	0	0	0	0	0	0	0	0	0	0	0	0	0	0	0	0	0	0	0	0	0	0	0	0	0	0	0	0	0	0	0	0	0	0	0	0	0	0	0	0	0	0	0	0	0	0	0	0	0	0	0	0	0	0	0	0	0	0	0	0	0	0	0	0	0	0	0	0	0	0	0	0	0	0	0	0	6512	6512	6528	6528	6544	6544	6544	6528	6528	6528	6528	0	0	0	0	0	0	0	0	0	0	0	0	0	0	0	0	0	0	0	0	0	0	0	0	0	0	0	0	11056	11056	11312	11616	11848	11984	12080	12184	12280	12432	12536	12592	12648	12648	12592	12592	12592	12592	12648	12648	12752	0	0	0	0	0	0	0	0	0	0	0	0	0	0	0	0	0	0	0	0	0	0	0	0	0	0	0	0	0	0	0	0	0	0	0	0	0	0	0	0	0	0	0	0	0	0	0	0	0	0	0	0	0	0	0	0	0	0	0	0	0	0	0	0	0	0	0	0	0	0	0	0	0	0	0	0	0	0	0	0	0	0	0	0	0	0	0	0	0	0	0	0	0	0	0	0	0	0	0	0	0	0	0	0	0	0	0	0	0	0	0	0	0	0	0	0	0	0	0	0	0	0	0	0	0	0	0	0	0	0	0	0	0	0	0	0	0	0	0	0	0	0	0	0	0	0	0	0	0	0	0	0	0	0	0	0	0	0	0	0	0	0	0	0	0	0	0	0	0	0	0	0	0	0	0	0	0	0	0	0	0	0	0	0	0	0	0	14616	14480	14408	14408	14408	14408	14408	14408	14408	14480	14480	14480	14544	14616	14760	14912	15136	15288	15448	15608	15776	15944	16112	16112	16112	16112	15944	15856	15776	15608	15448	15368	15056	14984	14832	14760	14616	14544	14480	14408	14336	14272	14272	14200	14200	14200	14200	14200	14200	14272	14272	14200	14200	14136	14136	14072	14000	13872	13872	13744	13688	13624	13496	13496	13440	13440	13496	13496	13560	13624	13688	13744	13872	13872	13936	14000	14000	13936	13936	13872	13808	13808	13744	13744	13688	13688	13624	13560	13496	13440	13376	13264	13264	13264	13320	13320	13440	13560	13688	13872	14072	14272	14480	14760	14984	15136	15368	15528	15688	15688	15688	15776	15776	15776	15856	15856	15776	15688	15608	15448	15288	15216	15056	15056	14912	14832	14760	14688	14688	14616	14616	14616	14616	14688	14688	14832	14832	14912	14984	15056	15216	15288	15288	15288	15288	15288	15216	15216	15368	15368	15368	15448	15448	15608	15688	15776	15856	15856	15944	15944	15944	16024	16024	16024	15944	15944	15856	15776	15688	15608	15528	15448	15448	15368	15288	15288	15288	15216	15136	15136	15216	15216	15136	15136	15056	15056	15056	15056	15056	15056	15056	15136	15216	15368	15528	15528	15608	15688	15856	15944	16024	16024	16112	16112	16112	16112	16024	15944	15856	15688	15608	15448	15288	15288	15288	15136	15056	15056	15056	15056	15056	14984	14912	14832	14760	14616	14480	14336	14200	14136	14072	14000	13936	13808	13744	13744	13688	13688	13624	13624	13560	13560	13560	13560	13560	13560	13624	13688	13744	13872	14000	14136	14272	14408	14544	14688	14688	14760	14832	14912	14832	14760	14760	14616	14544	14408	14200	14072	13936	13808	13624	13440	13264	13144	12976	12864	12752	12696	12696	12648	12648	12648	12696	12696	12864	0	0	14072	13744	13744	13872	13872	13872	13808	13808	13744	13744	13688	13440	13320	13320	13320	13264	13264	13320	13376	13440	13440	13496	13624	13624	13624	13688	13688	13624	13624	13688	13744	13744	13808	13624	13496	13376	13264	13144	12976	12864	12752	12696	12696	12696	12696	12752	12752	12808	12864	12864	12864	12864	12864	12864	12864	12920	12920	12920	12920	12920	12920	12976	13088
0	0	0	0	0	0	0	0	0	0	0	0	0	0	0	0	0	0	0	0	0	0	0	0	0	0	0	0	0	0	0	0	0	0	0	0	0	0	0	0	0	0	0	0	0	0	0	0	0	0	0	0	0	0	0	0	0	0	0	0	0	0	0	0	0	0	0	0	0	0	0	0	0	0	0	0	0	0	0	0	0	0	0	0	0	0	0	0	0	0	0	0	0	0	0	0	0	0	6504	6504	6504	6504	6528	6528	6512	6512	6512	6512	6512	6512	6528	0	0	0	0	0	0	0	0	0	0	0	0	0	0	0	0	0	0	0	0	0	0	0	0	0	0	11056	11056	11312	11616	11848	11936	12080	12184	12280	12432	12536	12592	12592	12592	12592	12592	12592	12592	12592	12648	12696	0	0	0	0	0	0	0	0	0	0	0	0	0	0	0	0	0	0	0	0	0	0	0	0	0	0	0	0	0	0	0	0	0	0	0	0	0	0	0	0	0	0	0	0	0	0	0	0	0	0	0	0	0	0	0	0	0	0	0	0	0	0	0	0	0	0	0	0	0	0	0	0	0	0	0	0	0	0	0	0	0	0	0	0	0	0	0	0	0	0	0	0	0	0	0	0	0	0	0	0	0	0	0	0	0	0	0	0	0	0	0	0	0	0	0	0	0	0	0	0	0	0	0	0	0	0	0	0	0	0	0	0	0	0	0	0	0	0	0	0	0	0	0	0	0	0	0	0	0	0	0	0	0	0	0	0	0	0	0	0	0	0	0	0	0	0	0	0	0	0	0	0	0	0	0	0	0	0	0	0	0	0	0	0	0	0	0	14616	14480	14408	14408	14408	14408	14480	14480	14544	14544	14616	14688	14760	14832	14984	15288	15448	15688	15776	15856	15944	16112	16112	16112	15944	15944	15856	15776	15688	15528	15448	15216	15056	14912	14832	14760	14688	14544	14480	14408	14408	14336	14336	14336	14272	14272	14272	14336	14336	14336	14336	14336	14336	14272	14272	14200	14136	14072	14000	13936	13872	13744	13744	13688	13624	13624	13624	13688	13744	13808	13808	13872	13936	14000	14072	14072	14072	14000	14000	13936	13872	13872	13808	13744	13744	13688	13624	13560	13496	13440	13376	13264	13264	13264	13320	13376	13496	13624	13744	14000	14272	14480	14760	15056	15288	15448	15688	15856	15944	16024	16024	16024	16112	16200	16288	16288	16200	16112	15944	15776	15688	15528	15368	15216	15216	15056	14984	14912	14912	14832	14832	14832	14832	14912	14984	15056	15136	15216	15288	15368	15448	15528	15528	15528	15528	15528	15448	15448	15448	15448	15448	15448	15448	15528	15608	15688	15776	15856	15856	15856	15856	15944	15944	15944	15944	15944	15856	15776	15688	15608	15528	15448	15448	15368	15368	15288	15288	15216	15136	15136	15216	15216	15136	15056	15056	14984	14984	14912	14912	14912	14912	14984	15136	15216	15368	15448	15448	15528	15688	15776	15856	15944	16024	16024	16024	15944	15856	15776	15688	15608	15448	15288	15216	15056	15056	14984	14912	14912	14912	14912	14832	14832	14760	14616	14616	14480	14408	14272	14200	14072	14000	13936	13936	13872	13808	13744	13744	13688	13688	13624	13624	13624	13624	13624	13688	13688	13744	13808	13872	14000	14136	14200	14336	14480	14616	14616	14688	14688	14760	14832	14832	14760	14688	14616	14544	14336	14200	14000	13872	13688	13560	13376	13264	13144	13032	12864	12808	12808	12752	12752	12752	12808	12976	13088	0	0	0	14072	14072	14480	14272	14136	14000	13936	13808	13744	13560	13560	13440	13264	13264	13320	13320	13320	13376	13440	13496	13496	13624	13688	13688	13688	13744	13744	13688	13688	13744	13744	13744	13744	13624	13496	13376	13264	13144	12976	12864	12752	12696	12696	12696	12696	12752	12752	12808	12864	12864	12920	12920	12920	12864	12864	12920	12920	12920	12920	12920	12976	12976	13088
0	0	0	0	0	0	0	0	0	0	0	0	0	0	0	0	0	0	0	0	0	0	0	0	0	0	0	0	0	0	0	0	0	0	0	0	0	0	0	0	0	0	0	0	0	0	0	0	0	0	0	0	0	0	0	0	0	0	0	0	0	0	0	0	0	0	0	0	0	0	0	0	0	0	0	0	0	0	0	0	0	0	0	0	0	0	0	0	0	0	0	0	0	0	0	0	0	0	6504	6504	6504	6504	6528	6528	6512	6512	6512	6512	6512	6512	6528	0	0	0	0	0	0	0	0	0	0	0	0	0	0	0	0	0	0	0	0	0	0	0	0	0	0	11056	11056	11352	11664	11848	11936	12080	12184	12232	12336	12432	12488	12488	12488	12536	12536	12536	12488	12488	12592	12696	0	0	0	0	0	0	0	0	0	0	0	0	0	0	0	0	0	0	0	0	0	0	0	0	0	0	0	0	0	0	0	0	0	0	0	0	0	0	0	0	0	0	0	0	0	0	0	0	0	0	0	0	0	0	0	0	0	0	0	0	0	0	0	0	0	0	0	0	0	0	0	0	0	0	0	0	0	0	0	0	0	0	0	0	0	0	0	0	0	0	0	0	0	0	0	0	0	0	0	0	0	0	0	0	0	0	0	0	0	0	0	0	0	0	0	0	0	0	0	0	0	0	0	0	0	0	0	0	0	0	0	0	0	0	0	0	0	0	0	0	0	0	0	0	0	0	0	0	0	0	0	0	0	0	0	0	0	0	0	0	0	0	0	0	0	0	0	0	0	0	0	0	0	0	0	0	0	0	0	0	0	0	0	0	0	0	0	0	14480	14200	14200	14272	14408	14408	14480	14616	14688	14760	14832	14984	15056	15368	15608	15776	15944	16024	16112	16200	16200	16200	16024	15944	15944	15856	15688	15608	15528	15368	15216	15056	14912	14832	14760	14688	14616	14544	14480	14480	14408	14336	14336	14336	14336	14336	14408	14408	14408	14408	14408	14408	14408	14408	14336	14272	14272	14136	14136	14000	14000	13936	13872	13808	13808	13808	13808	13808	13872	13872	13936	14000	14072	14136	14136	14072	14072	14000	14000	13936	13872	13808	13808	13744	13688	13624	13560	13496	13440	13376	13320	13320	13320	13376	13440	13560	13744	13936	14200	14480	14760	15056	15288	15528	15688	15856	16024	16200	16200	16288	16376	16464	16560	16560	16560	16464	16464	16288	16200	16024	15856	15608	15448	15448	15288	15216	15136	15056	14984	14984	14984	15056	15136	15216	15288	15368	15448	15528	15688	15776	15776	15688	15688	15688	15608	15528	15528	15448	15448	15448	15448	15448	15448	15528	15608	15688	15776	15776	15776	15856	15944	15944	15944	15856	15856	15776	15776	15688	15608	15528	15448	15448	15368	15368	15368	15288	15288	15288	15288	15288	15216	15136	15056	14984	14984	14912	14912	14832	14832	14832	14832	14984	15056	15216	15288	15368	15448	15608	15688	15776	15856	15856	15944	15944	15856	15856	15688	15608	15448	15288	15216	15056	14912	14912	14832	14760	14760	14688	14688	14688	14616	14616	14544	14480	14408	14336	14200	14136	14072	14000	13936	13936	13872	13808	13808	13808	13744	13744	13688	13688	13688	13688	13688	13688	13744	13808	13872	13936	14072	14200	14272	14408	14480	14544	14544	14616	14616	14688	14760	14832	14760	14688	14616	14544	14336	14200	14000	13872	13688	13560	13376	13264	13200	13088	12976	12976	12976	12976	13032	13088	0	0	0	0	14272	14272	14336	14480	14480	14272	14072	14000	13808	13744	13560	13440	13440	13264	13200	13200	13200	13264	13320	13376	13440	13560	13624	13744	13744	13744	13744	13808	13808	13744	13744	13744	13744	13744	13744	13624	13496	13320	13200	13032	12920	12808	12752	12696	12696	12696	12752	12752	12808	12864	12920	12920	12976	12976	12976	12976	13032	13032	13032	13032	13032	12976	12976	13032	13088
0	0	0	0	0	0	0	0	0	0	0	0	0	0	0	0	0	0	0	0	0	0	0	0	0	0	0	0	0	0	0	0	0	0	0	0	0	0	0	0	0	0	0	0	0	0	0	0	0	0	0	0	0	0	0	0	0	0	0	0	0	0	0	0	0	0	0	0	0	0	0	0	0	0	0	0	0	0	0	0	0	0	0	0	0	0	0	0	0	0	0	0	0	0	0	0	0	0	0	6392	6392	6400	6448	6472	6488	6504	0	0	0	6672	6672	0	0	0	0	0	0	0	0	0	0	0	0	0	0	0	0	0	0	0	0	0	0	0	0	0	0	0	0	11568	11568	11848	11896	12080	12184	12232	12336	12432	12488	12488	12488	12536	12536	12432	12432	12432	12488	12696	0	0	0	0	0	0	0	0	0	0	0	0	0	0	0	0	0	0	0	0	0	0	0	0	0	0	0	0	0	0	0	0	0	0	0	0	0	0	0	0	0	0	0	0	0	0	0	0	0	0	0	0	0	0	0	0	0	0	0	0	0	0	0	0	0	0	0	0	0	0	0	0	0	0	0	0	0	0	0	0	0	0	0	0	0	0	0	0	0	0	0	0	0	0	0	0	0	0	0	0	0	0	0	0	0	0	0	0	0	0	0	0	0	0	0	0	0	0	0	0	0	0	0	0	0	0	0	0	0	0	0	0	0	0	0	0	0	0	0	0	0	0	0	0	0	0	0	0	0	0	0	0	0	0	0	0	0	0	0	0	0	0	0	0	0	0	0	0	0	0	0	0	0	0	0	0	0	0	0	0	0	0	0	0	0	0	0	0	0	14200	14136	14136	14200	14200	14408	14480	14616	14760	14984	15136	15288	15608	15856	15944	16112	16200	16200	16288	16200	16112	16024	15856	15776	15776	15688	15528	15448	15288	15216	15056	14912	14832	14760	14688	14616	14544	14544	14480	14408	14408	14408	14336	14336	14408	14408	14480	14480	14480	14480	14480	14544	14544	14480	14480	14336	14336	14272	14200	14136	14072	14000	13936	13936	13936	13936	13936	13936	14000	14000	14072	14072	14136	14136	14072	14072	14000	14000	13936	13936	13808	13808	13744	13744	13624	13560	13496	13440	13376	13320	13320	13376	13440	13496	13688	13872	14136	14336	14688	14984	15288	15528	15688	15944	16112	16200	16288	16376	16464	16560	16648	16744	16744	16832	16832	16648	16560	16464	16376	16200	15944	15776	15776	15608	15448	15368	15288	15216	15216	15288	15288	15368	15368	15528	15608	15688	15776	15856	15944	15944	15944	15856	15776	15776	15688	15528	15528	15448	15368	15368	15368	15368	15448	15528	15688	15776	15776	15776	15856	15856	15856	15944	15856	15856	15776	15776	15688	15688	15608	15528	15528	15448	15448	15448	15448	15448	15368	15368	15368	15288	15216	15136	14984	14984	14912	14832	14760	14760	14760	14832	14912	14984	15136	15216	15288	15368	15448	15528	15608	15688	15776	15856	15856	15776	15688	15528	15448	15288	15136	15056	14912	14760	14760	14688	14616	14616	14544	14544	14544	14480	14480	14408	14408	14272	14200	14136	14072	14000	14000	13936	13936	13936	13872	13808	13808	13808	13744	13744	13688	13688	13744	13744	13808	13872	13872	13936	14000	14136	14272	14336	14408	14480	14480	14544	14544	14616	14688	14760	14760	14760	14688	14688	14544	14408	14200	14000	13872	13688	13560	13440	13320	13264	13200	13200	13200	13200	13264	13376	0	14136	14136	14272	14544	14272	14272	14336	14480	14480	14272	14072	13936	13808	13624	13440	13264	13264	13144	13088	13088	13144	13264	13320	13376	13440	13560	13624	13744	13808	13808	13808	13872	13808	13808	13808	13808	13808	13744	13688	13560	13440	13320	13144	13032	12920	12808	12752	12696	12696	12696	12752	12808	12864	12920	12976	12976	13032	13032	13032	13088	13088	13088	13088	13088	13088	13032	13032	13032	13088
0	0	0	0	0	0	0	0	0	0	0	0	0	0	0	0	0	0	0	0	0	0	0	0	0	0	0	0	0	0	0	0	0	0	0	0	0	0	0	0	0	0	0	0	0	0	0	0	0	0	0	0	0	0	0	0	0	0	0	0	0	0	0	0	0	0	0	0	0	0	0	0	0	0	0	0	0	0	0	0	0	0	0	0	0	0	0	0	0	0	0	0	0	0	0	0	0	0	0	6392	6392	6400	6448	6472	6488	6504	0	0	0	6672	6672	0	0	0	0	0	0	0	0	0	0	0	0	0	0	0	0	0	0	0	0	0	0	0	0	0	0	0	0	11568	11568	11800	11896	12032	0	0	0	0	0	0	0	12336	12336	12384	12384	12432	12488	0	0	0	0	0	0	0	0	0	0	0	0	0	0	0	0	0	0	0	0	0	0	0	0	0	0	0	0	0	0	0	0	0	0	0	0	0	0	0	0	0	0	0	0	0	0	0	0	0	0	0	0	0	0	0	0	0	0	0	0	0	0	0	0	0	0	0	0	0	0	0	0	0	0	0	0	0	0	0	0	0	0	0	0	0	0	0	0	0	0	0	0	0	0	0	0	0	0	0	0	0	0	0	0	0	0	0	0	0	0	0	0	0	0	0	0	0	0	0	0	0	0	0	0	0	0	0	0	0	0	0	0	0	0	0	0	0	0	0	0	0	0	0	0	0	0	0	0	0	0	0	0	0	0	0	0	0	0	0	0	0	0	0	0	0	0	0	0	0	0	0	0	0	0	0	0	0	0	0	0	0	0	0	0	0	0	0	0	0	0	0	14000	14000	14136	14200	14272	14336	14544	14760	14984	15216	15368	15688	15944	16112	16200	16288	16288	16288	16200	16112	15944	15856	15688	15688	15608	15528	15368	15216	15136	15056	14912	14832	14760	14688	14544	14544	14480	14480	14480	14480	14408	14408	14408	14408	14480	14544	14544	14616	14616	14616	14616	14616	14616	14544	14480	14480	14408	14408	14336	14200	14200	14136	14136	14072	14072	14072	14072	14072	14136	14136	14136	14136	14136	14072	14072	14072	14000	14000	13936	13872	13872	13808	13744	13688	13624	13560	13496	13440	13440	13440	13496	13560	13624	13808	14000	14272	14616	14912	15216	15528	15688	15944	16112	16288	16376	16464	16648	16648	16744	16832	16832	16928	17024	17024	16928	16832	16744	16560	16376	16200	16024	15776	15776	15608	15608	15448	15448	15368	15368	15448	15448	15528	15608	15776	15856	15856	15944	16024	16024	16024	15944	15944	15776	15688	15608	15448	15368	15368	15368	15368	15368	15448	15528	15608	15608	15688	15688	15776	15856	15856	15944	15944	15856	15856	15776	15776	15688	15688	15528	15528	15528	15528	15528	15528	15528	15528	15528	15448	15368	15288	15136	15056	14984	14912	14832	14760	14760	14760	14832	14832	14984	15056	15136	15216	15216	15368	15448	15528	15608	15688	15776	15688	15608	15528	15448	15288	15136	14984	14832	14760	14616	14544	14544	14480	14408	14408	14408	14408	14336	14272	14272	14272	14200	14200	14136	14072	14000	14000	13936	13936	13936	13872	13872	13808	13808	13744	13744	13744	13744	13744	13744	13808	13872	13936	14000	14072	14200	14336	14336	14408	14480	14480	14480	14544	14544	14616	14688	14760	14760	14760	14688	14544	14408	14200	14000	13872	13688	13560	13496	13376	13376	13376	13376	13376	13496	13624	13744	14336	14136	14136	14272	14544	14544	14616	14616	14616	14544	14336	14136	13936	13808	13624	13440	13264	13088	13088	13088	13088	13144	13264	13320	13376	13440	13560	13688	13808	13808	13808	13872	13872	13808	13808	13872	13872	13872	13744	13688	13560	13440	13320	13144	13032	12920	12808	12752	12696	12696	12696	12752	12808	12864	12920	12976	13032	13032	13032	13088	13088	13088	13088	13088	13088	13088	13032	13032	13032	13088
0	0	0	0	0	0	0	0	0	0	0	0	0	0	0	0	0	0	0	0	0	0	0	0	0	0	0	0	0	0	0	0	0	0	0	0	0	0	0	0	0	0	0	0	0	0	0	0	0	0	0	0	0	0	0	0	0	0	0	0	0	0	0	0	0	0	0	0	0	0	0	0	0	0	0	0	0	0	0	0	0	0	0	0	0	0	0	0	0	0	0	0	0	0	0	0	0	0	0	0	0	0	0	0	0	6656	6656	6704	6784	6840	6920	7000	0	7136	7136	0	0	0	0	0	0	0	0	0	0	0	0	0	0	0	0	0	0	0	0	0	0	0	0	11800	11800	11800	11896	12032	12080	12184	12280	12280	12280	12336	12384	12336	12336	12384	12384	12432	12648	0	0	0	0	0	0	0	0	0	0	0	0	0	0	0	0	0	0	0	0	0	0	0	0	0	0	0	0	0	0	0	0	0	0	0	0	0	0	0	0	0	0	0	0	0	0	0	0	0	0	0	0	0	0	0	0	0	0	0	0	0	0	0	0	0	0	0	0	0	0	0	0	0	0	0	0	0	0	0	0	0	0	0	0	0	0	0	0	0	0	0	0	0	0	0	0	0	0	0	0	0	0	0	0	0	0	0	0	0	0	0	0	0	0	0	0	0	0	0	0	0	0	0	0	0	0	0	0	0	0	0	0	0	0	0	0	0	0	0	0	0	0	0	0	0	0	0	0	0	0	0	0	0	0	0	0	0	0	0	0	0	0	0	0	0	0	0	0	0	0	0	0	0	0	0	0	0	0	0	0	0	0	0	0	0	0	0	0	0	0	0	14000	13808	13808	13872	14072	14136	14336	14688	14984	15216	15448	15856	16112	16288	16376	16376	16376	16288	16200	16024	15944	15776	15608	15528	15528	15448	15288	15216	15136	15056	14912	14832	14760	14616	14544	14480	14408	14408	14408	14408	14408	14408	14408	14480	14480	14544	14616	14616	14616	14688	14688	14688	14688	14616	14616	14544	14544	14544	14408	14408	14336	14272	14272	14272	14200	14200	14200	14200	14200	14136	14136	14072	14072	14072	14072	14072	14000	14000	13936	13936	13872	13872	13808	13744	13688	13624	13560	13560	13560	13560	13560	13624	13808	13936	14200	14480	14760	15136	15448	15688	15944	16112	16288	16376	16464	16648	16648	16744	16832	16928	16928	17024	17128	17128	17024	17024	16832	16744	16560	16376	16112	15856	15856	15688	15688	15528	15528	15448	15448	15528	15528	15688	15776	15856	15944	15944	16024	16024	16112	16024	16024	15856	15776	15688	15608	15448	15368	15368	15368	15368	15368	15368	15368	15448	15528	15528	15608	15688	15776	15776	15856	15944	15944	15944	15944	15944	15944	15856	15776	15776	15776	15776	15776	15688	15688	15688	15688	15608	15528	15368	15216	15136	15056	14984	14832	14760	14760	14760	14760	14832	14984	15056	15056	15136	15216	15288	15368	15448	15528	15608	15688	15608	15528	15448	15368	15288	15136	14984	14760	14760	14616	14544	14544	14408	14408	14336	14336	14272	14272	14200	14200	14136	14136	14136	14072	14000	14000	13936	13936	13936	13936	13936	13872	13808	13808	13808	13744	13688	13688	13744	13744	13808	13936	14000	14072	14136	14272	14336	14336	14408	14480	14480	14480	14480	14544	14616	14688	14760	14760	14760	14760	14616	14544	14336	14072	13872	13744	13624	13560	13496	13496	13496	13560	13624	13744	14272	14480	14336	14336	14480	14760	14760	14760	14760	14760	14688	14616	14408	14200	14000	13808	13624	13440	13264	13088	13088	13088	13088	13200	13264	13320	13440	13496	13560	13688	13808	13808	13872	13872	13872	13872	13872	13872	13872	13872	13808	13688	13560	13440	13320	13264	13088	12920	12864	12808	12752	12752	12752	12808	12808	12920	12920	12976	12976	12976	13032	13032	13088	13088	13088	13088	13088	13032	13032	13032	13032	13032
0	0	0	0	0	0	0	0	0	0	0	0	0	0	0	0	0	0	0	0	0	0	0	0	0	0	0	0	0	0	0	0	0	0	0	0	0	0	0	0	0	0	0	0	0	0	0	0	0	0	0	0	0	0	0	0	0	0	0	0	0	0	0	0	0	0	0	0	0	0	0	0	0	0	0	0	0	0	0	0	0	0	0	0	0	0	0	0	0	0	0	0	0	0	0	0	0	0	0	0	0	0	6528	6528	6656	6656	6656	6704	6784	6840	6920	7000	7184	7136	7136	7272	7312	0	0	0	0	0	0	0	0	0	0	0	0	0	0	0	0	0	0	0	0	0	0	11800	11800	11848	11936	12032	12080	12184	12280	12280	12280	12336	12384	12384	12384	12432	12488	12592	12976	0	0	0	0	0	0	0	0	0	0	0	0	0	0	0	0	0	0	0	0	0	0	0	0	0	0	0	0	0	0	0	0	0	0	0	0	0	0	0	0	0	0	0	0	0	0	0	0	0	0	0	0	0	0	0	0	0	0	0	0	0	0	0	0	0	0	0	0	0	0	0	0	0	0	0	0	0	0	0	0	0	0	0	0	0	0	0	0	0	0	0	0	0	0	0	0	0	0	0	0	0	0	0	0	0	0	0	0	0	0	0	0	0	0	0	0	0	0	0	0	0	0	0	0	0	0	0	0	0	0	0	0	0	0	0	0	0	0	0	0	0	0	0	0	0	0	0	0	0	0	0	0	0	0	0	0	0	0	0	0	0	0	0	0	0	0	0	0	0	0	0	0	0	0	0	0	0	0	0	0	0	0	0	0	0	0	0	0	0	0	0	13496	13496	13624	13688	13872	14000	14200	14544	14912	15216	15528	15856	16112	16376	16464	16376	16376	16288	16200	16024	15856	15688	15608	15528	15528	15448	15288	15216	15136	15056	14912	14832	14760	14616	14480	14480	14408	14408	14336	14336	14408	14408	14408	14408	14480	14544	14616	14616	14616	14688	14688	14688	14688	14688	14688	14616	14616	14616	14544	14544	14480	14408	14408	14336	14336	14272	14200	14200	14200	14136	14072	14000	14000	14000	14000	14072	14072	14000	13936	13936	13936	13872	13872	13808	13744	13688	13624	13624	13624	13688	13688	13744	13936	14136	14336	14688	14984	15288	15688	15944	16112	16288	16464	16464	16560	16648	16744	16744	16832	16928	16928	17024	17128	17128	17024	17024	16928	16832	16648	16376	16200	15944	15856	15776	15688	15608	15528	15528	15528	15608	15608	15688	15856	15944	15944	16112	16112	16112	16112	16024	16024	15856	15776	15688	15528	15448	15368	15288	15288	15288	15288	15216	15216	15288	15368	15448	15448	15528	15688	15776	15776	15944	16024	16024	16112	16112	16200	16112	16112	16024	16024	16024	16024	15944	15944	15856	15856	15776	15608	15528	15368	15136	15136	15056	14832	14760	14760	14760	14760	14912	14984	14984	15056	15136	15136	15216	15368	15448	15448	15528	15608	15608	15528	15448	15368	15216	15056	14984	14760	14760	14616	14544	14544	14408	14408	14336	14336	14272	14272	14200	14136	14136	14136	14072	14072	14000	14000	13936	13936	13936	13936	13936	13872	13808	13808	13808	13744	13688	13688	13744	13808	13808	13872	14000	14072	14136	14272	14336	14336	14408	14408	14480	14480	14480	14544	14616	14688	14760	14760	14832	14760	14688	14480	14272	14072	13872	13744	13688	13624	13624	13624	13688	13744	13872	14072	14272	14480	14544	14688	14760	14760	14832	14912	14832	14760	14760	14616	14408	14200	14000	13808	13624	13440	13320	13144	13144	13144	13144	13264	13320	13440	13496	13560	13624	13744	13808	13808	13808	13808	13808	13872	13808	13808	13872	13744	13688	13560	13440	13320	13264	13144	13032	12864	12808	12696	12696	12752	12752	12752	12808	12864	12864	12920	12920	12976	12976	12976	13032	13088	13088	13088	13032	13032	12976	12976	12920	12920
0	0	0	0	0	0	0	0	0	0	0	0	0	0	0	0	0	0	0	0	0	0	0	0	0	0	0	0	0	0	0	0	0	0	0	0	0	0	0	0	0	0	0	0	0	0	0	0	0	0	0	0	0	0	0	0	0	0	0	0	0	0	0	0	0	0	0	0	0	0	0	0	0	0	0	0	0	0	0	0	0	0	0	0	0	0	0	0	0	0	0	0	0	0	0	0	0	0	0	0	0	0	6528	6528	6656	6736	6792	6856	6952	7032	7088	7152	7184	7224	7240	7272	7312	7344	0	0	0	0	0	0	0	0	0	0	0	0	0	0	0	0	0	0	0	0	0	11896	11896	11896	11936	12032	12080	12184	12280	12280	12280	12336	12432	12488	12536	12592	12752	12976	13440	14408	14984	0	0	0	0	0	0	0	14984	14336	13688	13688	0	0	0	0	0	0	0	0	0	0	0	0	0	0	0	0	0	0	0	0	0	0	0	0	0	0	0	0	0	0	0	0	0	0	0	0	0	0	0	0	0	0	0	0	0	0	0	0	0	0	0	0	0	0	0	0	0	0	0	0	0	0	0	0	0	0	0	0	0	0	0	0	0	0	0	0	0	0	0	0	0	0	0	0	0	0	0	0	0	0	0	0	0	0	0	0	0	0	0	0	0	0	0	0	0	0	0	0	0	0	0	0	0	0	0	0	0	0	0	0	0	0	0	0	0	0	0	0	0	0	0	0	0	0	0	0	0	0	0	0	0	0	0	0	0	0	0	0	0	0	0	0	0	0	0	0	0	0	0	0	0	0	0	0	0	0	0	0	0	0	0	0	0	0	0	0	0	0	13440	13440	13560	13624	13808	13936	14200	14480	14832	15216	15528	15856	16200	16376	16464	16376	16288	16200	16112	15944	15856	15688	15608	15528	15528	15448	15368	15288	15216	15136	14984	14832	14760	14616	14480	14408	14336	14336	14336	14336	14336	14336	14336	14408	14480	14544	14616	14616	14616	14616	14688	14688	14688	14688	14616	14616	14616	14616	14616	14544	14544	14480	14480	14408	14336	14272	14200	14136	14072	14072	14000	13936	13936	13936	13936	13936	13936	13936	13936	13936	13936	13936	13872	13872	13808	13744	13744	13688	13688	13744	13808	13872	14000	14200	14544	14760	15136	15448	15776	16024	16200	16200	16376	16464	16560	16560	16560	16648	16648	16744	16744	16832	16832	16832	16928	16832	16832	16744	16560	16376	16200	16024	15856	15856	15776	15608	15608	15528	15528	15608	15688	15776	15944	15944	15944	16112	16112	16112	16112	16024	15944	15856	15776	15608	15448	15368	15288	15216	15216	15136	15136	15136	15136	15216	15288	15288	15368	15448	15608	15776	15776	15944	16024	16112	16288	16376	16376	16376	16288	16288	16288	16288	16288	16112	16112	16024	16024	15944	15776	15608	15448	15288	15136	15056	14984	14832	14832	14832	14832	14912	14984	14984	15056	15136	15136	15216	15288	15368	15448	15528	15608	15608	15528	15448	15368	15216	15056	14984	14912	14760	14688	14616	14616	14544	14480	14336	14336	14272	14272	14200	14136	14136	14136	14072	14072	14000	13936	13936	13936	13936	13936	13936	13936	13872	13808	13808	13744	13688	13688	13744	13744	13808	13872	13936	14072	14136	14200	14336	14336	14336	14408	14408	14408	14480	14480	14616	14688	14688	14760	14760	14760	14544	14408	14200	14000	13808	13744	13688	13688	13688	13688	13936	14000	14136	14336	14544	14688	14760	14832	14912	14912	14912	14912	14832	14832	14688	14616	14336	14200	14072	13872	13688	13496	13320	13264	13264	13264	13264	13320	13440	13496	13560	13624	13688	13744	13808	13808	13808	13808	13808	13808	13744	13744	13744	13688	13560	13376	13264	13144	13088	13032	12864	12752	12696	12592	12592	12648	12648	12648	12696	12696	12808	12864	12864	12864	12920	12920	12976	13032	13032	12976	12976	12976	12920	12920	12864	12808
0	0	0	0	0	0	0	0	0	0	0	0	0	0	0	0	0	0	0	0	0	0	0	0	0	0	0	0	0	0	0	0	0	0	0	0	0	0	0	0	0	0	0	0	0	0	0	0	0	0	0	0	0	0	0	0	0	0	0	0	0	0	0	0	0	0	0	0	0	0	0	0	0	0	0	0	0	0	0	0	0	0	0	0	0	0	0	0	0	0	0	0	0	0	0	0	0	0	0	0	0	0	0	6688	6688	6840	6840	6920	6984	7088	7136	7184	7224	7256	7272	7312	7328	7344	0	0	0	0	0	0	0	0	0	0	0	0	0	0	0	0	0	0	0	11664	11664	11896	11896	11896	11936	12032	12080	12184	12280	12280	12336	12432	12536	12696	12752	12920	13144	13440	13936	14408	14984	16024	16648	17224	17528	0	0	0	14984	14336	13688	13376	13144	13144	13144	0	0	0	0	0	0	0	0	0	0	0	0	0	0	0	0	0	0	0	0	0	0	0	0	0	0	0	0	0	0	0	0	0	0	0	0	0	0	0	0	0	0	0	0	0	0	0	0	0	0	0	0	0	0	0	0	0	0	0	0	0	0	0	0	0	0	0	0	0	0	0	0	0	0	0	0	0	0	0	0	0	0	0	0	0	0	0	0	0	0	0	0	0	0	0	0	0	0	0	0	0	0	0	0	0	0	0	0	0	0	0	0	0	0	0	0	0	0	0	0	0	0	0	0	0	0	0	0	0	0	0	0	0	0	0	0	0	0	0	0	0	0	0	0	0	0	0	0	0	0	0	0	0	0	0	0	0	0	0	0	0	0	0	0	0	0	0	0	0	0	0	0	0	0	0	13440	13440	13496	13624	13744	13936	14136	14408	14760	15056	15448	15776	16024	16200	16288	16288	16200	16200	16024	15856	15856	15688	15608	15608	15608	15528	15448	15368	15288	15136	14984	14832	14688	14544	14408	14336	14272	14272	14272	14272	14272	14272	14336	14336	14408	14480	14544	14544	14544	14544	14544	14544	14616	14544	14544	14544	14544	14544	14544	14544	14544	14480	14480	14336	14272	14200	14136	14072	14072	14000	13936	13872	13872	13872	13936	13936	13936	13936	13936	13936	13936	13936	13872	13872	13808	13808	13744	13744	13744	13808	13808	14000	14136	14336	14616	14912	15136	15448	15688	15944	16024	16200	16200	16288	16376	16376	16464	16464	16464	16560	16560	16648	16648	16744	16744	16744	16744	16648	16560	16376	16200	15944	15856	15856	15688	15608	15608	15528	15528	15528	15608	15608	15688	15944	15944	16112	16024	16024	16024	15944	15856	15776	15688	15528	15448	15288	15216	15136	15056	15056	15056	15056	15056	15136	15136	15216	15288	15448	15608	15776	15856	16024	16200	16288	16376	16560	16560	16648	16648	16648	16648	16560	16560	16376	16376	16288	16288	16112	16024	15776	15528	15448	15288	15136	15056	14984	14912	14912	14912	14912	14984	14984	15056	15056	15056	15136	15216	15288	15448	15528	15528	15608	15528	15448	15368	15288	15136	14984	14912	14832	14760	14616	14616	14616	14544	14480	14408	14336	14272	14200	14200	14136	14136	14072	14072	14000	13936	13936	13936	13936	13936	13936	13936	13872	13808	13808	13744	13688	13688	13688	13744	13744	13808	13936	14000	14072	14136	14272	14272	14336	14336	14336	14336	14408	14480	14544	14616	14688	14688	14760	14688	14544	14408	14200	14000	13808	13744	13688	13688	13688	13744	13936	14072	14200	14408	14616	14760	14760	14912	14912	14912	14912	14832	14832	14760	14688	14544	14336	14200	14072	13936	13744	13560	13376	13320	13320	13376	13376	13440	13496	13560	13624	13624	13688	13744	13744	13744	13744	13744	13744	13744	13744	13744	13688	13560	13440	13264	13200	13088	13032	12976	12808	12696	12648	12592	12592	12648	12648	12648	12696	12696	12808	12808	12864	12864	12864	12920	12920	12976	12976	12976	12976	12920	12864	12864	12864	12808
0	0	0	0	0	0	0	0	0	0	0	0	0	0	0	0	0	0	0	0	0	0	0	0	0	0	0	0	0	0	0	0	0	0	0	0	0	0	0	0	0	0	0	0	0	0	0	0	0	0	0	0	0	0	0	0	0	0	0	0	0	0	0	0	0	0	0	0	0	0	0	0	0	0	0	0	0	0	0	0	0	0	0	0	0	0	0	0	0	0	0	0	0	0	0	0	0	0	0	0	0	0	0	0	0	0	7000	7000	7064	7152	7184	7224	7256	7272	7312	7328	7344	7344	0	0	0	0	0	0	0	0	0	0	0	0	0	0	0	0	0	0	0	11664	11664	11752	11896	11936	12032	12080	12184	12336	12384	12488	12536	12648	12808	12976	13088	13200	13496	13872	14336	14832	15448	16024	16648	17224	17424	16928	16376	16376	15136	14544	13872	13376	13144	13144	13144	13088	13032	13032	0	0	0	0	0	0	0	0	0	0	0	0	0	0	0	0	0	0	0	0	0	0	0	0	0	0	0	0	0	0	0	0	0	0	0	0	0	0	0	0	0	0	0	0	0	0	0	0	0	0	0	0	0	0	0	0	0	0	0	0	0	0	0	0	0	0	0	0	0	0	0	0	0	0	0	0	0	0	0	0	0	0	0	0	0	0	0	0	0	0	0	0	0	0	0	0	0	0	0	0	0	0	0	0	0	0	0	0	0	0	0	0	0	0	0	0	0	0	0	0	0	0	0	0	0	0	0	0	0	0	0	0	0	0	0	0	0	0	0	0	0	0	0	0	0	0	0	0	0	0	0	0	0	0	0	0	0	0	0	0	0	0	0	0	0	0	0	0	0	0	0	13376	13376	13440	13440	13624	13688	13872	14072	14336	14616	14984	15288	15608	15856	15944	16112	16024	16024	15944	15856	15776	15688	15608	15608	15528	15528	15528	15448	15368	15216	15136	14984	14832	14688	14480	14408	14272	14272	14200	14200	14200	14200	14200	14200	14272	14336	14408	14480	14408	14408	14408	14480	14480	14480	14480	14480	14480	14480	14480	14480	14480	14408	14408	14408	14336	14272	14200	14136	14072	14000	14000	13872	13872	13872	13872	13936	13936	13936	13936	13936	13936	13936	13936	13872	13872	13872	13808	13808	13872	13872	13872	13936	14000	14272	14408	14688	14912	15216	15448	15608	15856	15856	16024	16112	16112	16112	16200	16200	16288	16288	16288	16376	16376	16376	16560	16560	16560	16560	16560	16376	16288	16112	15944	15776	15688	15688	15608	15528	15448	15448	15528	15608	15608	15688	15856	15856	15856	15944	15944	15856	15776	15688	15608	15608	15448	15368	15216	15136	15056	15056	15056	14984	14984	14984	15056	15136	15136	15288	15448	15608	15776	15856	16112	16288	16464	16648	16832	16832	16928	16928	16928	16928	16928	16832	16744	16648	16560	16464	16376	16112	15856	15688	15448	15288	15136	14984	14912	14832	14832	14832	14832	14912	14984	14984	15056	15056	15136	15216	15288	15368	15448	15528	15528	15528	15448	15368	15288	15216	15056	14984	14912	14832	14760	14688	14688	14616	14544	14480	14408	14336	14272	14200	14200	14136	14072	14072	14000	14000	13936	13936	14000	14000	14000	13936	13872	13808	13808	13744	13688	13688	13688	13744	13744	13808	13872	13936	14000	14136	14200	14200	14200	14272	14272	14272	14336	14408	14480	14544	14544	14616	14616	14616	14408	14272	14136	13936	13808	13744	13688	13688	13744	13808	14000	14200	14272	14480	14616	14760	14832	14832	14832	14912	14912	14832	14832	14760	14688	14544	14408	14200	14072	13936	13808	13688	13560	13496	13496	13496	13496	13560	13624	13624	13688	13688	13688	13744	13744	13744	13744	13744	13744	13744	13744	13688	13688	13560	13440	13264	13144	13032	12976	12864	12752	12648	12592	12592	12592	12648	12648	12648	12696	12696	12808	12808	12864	12864	12864	12920	12920	12976	12976	12920	12920	12920	12864	12864	12864	12808
0	0	0	0	0	0	0	0	0	0	0	0	0	0	0	0	0	0	0	0	0	0	0	0	0	0	0	0	0	0	0	0	0	0	0	0	0	0	0	0	0	0	0	0	0	0	0	0	0	0	0	0	0	0	0	0	0	0	0	0	0	0	0	0	0	0	0	0	0	0	0	0	0	0	0	0	0	0	0	0	0	0	0	0	0	0	0	0	0	0	0	0	0	0	0	0	0	0	0	0	0	0	0	0	0	0	7032	7032	7104	7168	7200	7240	7256	7288	7312	7328	7344	7360	0	0	0	0	0	0	0	0	0	0	0	0	0	0	0	0	0	0	0	0	11752	11752	11896	11936	12032	12080	12184	12336	12432	12592	12696	12808	13032	13144	13376	13560	13808	14200	14688	15216	15688	16200	16648	17128	17320	16832	16288	15776	15776	14544	13936	13496	13200	13200	13144	13032	12976	12920	12920	0	0	0	0	0	0	0	0	0	0	0	0	0	0	0	0	0	0	0	0	0	0	0	0	0	0	0	0	0	0	0	0	0	0	0	0	0	0	0	0	0	0	0	0	0	0	0	0	0	0	0	0	0	0	0	0	0	0	0	0	0	0	0	0	0	0	0	0	0	0	0	0	0	0	0	0	0	0	0	0	0	0	0	0	0	0	0	0	0	0	0	0	0	0	0	0	0	0	0	0	0	0	0	0	0	0	0	0	0	0	0	0	0	0	0	0	0	0	0	0	0	0	0	0	0	0	0	0	0	0	0	0	0	0	0	0	0	0	0	0	0	0	0	0	0	0	0	0	0	0	0	0	0	0	0	0	0	0	0	0	0	0	0	0	0	0	0	0	0	13264	13264	13264	13320	13376	13496	13624	13744	13936	14200	14480	14760	15056	15368	15608	15776	15776	15776	15776	15688	15608	15608	15528	15528	15448	15448	15448	15448	15368	15288	15216	15056	14912	14760	14616	14480	14336	14200	14200	14136	14136	14136	14136	14136	14200	14200	14272	14336	14336	14336	14336	14336	14336	14336	14336	14336	14336	14336	14336	14336	14408	14408	14408	14408	14408	14336	14272	14200	14136	14072	14000	14000	13872	13872	13872	13872	13936	13936	13936	13936	13936	13936	14000	14000	14000	14000	14000	14000	14000	14000	14000	14072	14072	14200	14408	14544	14760	14984	15216	15368	15528	15688	15776	15776	15944	16024	16024	16112	16024	16024	16112	16112	16112	16200	16288	16376	16376	16464	16464	16464	16376	16288	16112	15944	15776	15688	15688	15608	15528	15448	15448	15448	15528	15528	15608	15608	15608	15688	15776	15776	15688	15688	15608	15528	15448	15368	15288	15216	15136	15056	15056	14984	14984	14984	14984	15056	15056	15136	15288	15448	15608	15776	15944	16200	16464	16648	16832	17024	17128	17224	17224	17224	17224	17224	17128	17024	16928	16744	16648	16464	16200	15856	15608	15368	15216	15056	14912	14832	14760	14760	14760	14832	14832	14912	14912	14984	14984	15056	15216	15216	15368	15448	15528	15528	15528	15448	15368	15288	15216	15056	14984	14984	14912	14912	14760	14760	14688	14616	14616	14544	14408	14336	14272	14200	14200	14136	14072	14072	14000	14000	14000	14000	14000	14000	13936	13872	13808	13808	13744	13688	13688	13688	13688	13688	13688	13808	13872	13936	14000	14072	14136	14136	14136	14136	14200	14272	14336	14408	14480	14480	14544	14544	14480	14272	14200	14000	13872	13808	13688	13688	13744	13808	13936	14072	14272	14336	14480	14616	14760	14760	14832	14832	14832	14912	14832	14832	14832	14688	14544	14408	14272	14136	14072	13872	13744	13624	13624	13624	13624	13624	13688	13688	13688	13688	13744	13744	13808	13744	13744	13808	13808	13744	13744	13744	13688	13688	13560	13376	13264	13144	13032	12976	12864	12752	12648	12592	12592	12592	12648	12648	12648	12696	12752	12808	12808	12864	12864	12920	12920	12920	12976	12920	12920	12920	12920	12864	12864	12864	12808
0	0	0	0	0	0	0	0	0	0	0	0	0	0	0	0	0	0	0	0	0	0	0	0	0	0	0	0	0	0	0	0	0	0	0	0	0	0	0	0	0	0	0	0	0	0	0	0	0	0	0	0	0	0	0	0	0	0	0	0	0	0	0	0	0	0	0	0	0	0	0	0	0	0	0	0	0	0	0	0	0	0	0	0	0	0	0	0	0	0	0	0	0	0	0	0	0	0	0	0	0	0	0	0	0	0	7088	7088	7168	7240	7256	7288	7288	7328	7344	7344	7360	7360	0	0	0	0	0	0	0	0	0	0	0	0	0	0	0	0	0	0	0	0	11800	11800	11896	11936	12032	12136	12232	12384	12592	12696	12864	13032	13264	13440	13624	13872	14136	14480	14984	15448	15856	16288	16832	17024	17224	16744	16112	15608	15608	14544	14000	13496	13200	13200	13088	13032	12976	12920	12920	0	0	0	0	0	0	0	0	0	0	0	0	0	0	0	0	0	0	832	832	832	832	832	832	0	0	0	0	0	0	0	0	0	0	0	0	0	0	0	0	0	0	0	0	0	0	0	0	0	0	0	0	0	0	0	0	0	0	0	0	0	0	0	0	0	0	0	0	0	0	0	0	0	0	0	0	0	0	0	0	0	0	0	0	0	0	0	0	0	0	0	0	0	0	0	0	0	0	0	0	0	0	0	0	0	0	0	0	0	0	0	0	0	0	0	0	0	0	0	0	0	0	0	0	0	0	0	0	0	0	0	0	0	0	0	0	0	0	0	0	0	0	0	0	0	0	0	0	0	0	0	0	0	0	0	0	0	0	0	0	0	0	0	0	0	0	0	0	13200	13200	13200	13264	13320	13376	13496	13624	13688	13872	14072	14336	14616	14832	15136	15288	15448	15528	15528	15448	15448	15368	15288	15288	15288	15288	15288	15288	15216	15216	15216	15056	14984	14832	14688	14544	14408	14272	14136	14136	14072	14072	14072	14136	14136	14136	14136	14200	14272	14272	14272	14272	14272	14272	14272	14272	14336	14272	14272	14336	14336	14336	14336	14408	14336	14336	14336	14272	14200	14136	14072	14000	13936	13872	13872	13872	13872	13936	13936	13936	13936	13936	14000	14000	14136	14136	14136	14136	14136	14200	14200	14200	14272	14272	14408	14544	14688	14912	14984	15216	15368	15528	15608	15688	15688	15776	15776	15776	15856	15856	15856	15944	15944	15944	16024	16112	16200	16288	16288	16376	16376	16376	16288	16112	15944	15776	15688	15688	15608	15528	15448	15448	15368	15368	15368	15368	15448	15448	15528	15528	15608	15528	15528	15448	15368	15368	15288	15216	15216	15136	15056	15056	14984	14984	15056	15056	15056	15056	15136	15288	15448	15608	15856	16112	16288	16648	16832	17024	17320	17320	17528	17528	17528	17528	17424	17320	17224	17024	16928	16648	16464	16112	15856	15528	15288	15056	14984	14912	14832	14760	14760	14760	14760	14832	14832	14912	14912	14912	14984	15056	15216	15288	15368	15448	15448	15448	15448	15368	15288	15216	15056	15056	15056	14984	14984	14912	14912	14832	14760	14688	14616	14544	14480	14336	14336	14272	14200	14136	14136	14072	14072	14072	14000	14000	14000	13936	13936	13808	13744	13688	13688	13688	13624	13624	13624	13624	13744	13808	13872	13872	13936	13936	14000	14000	14072	14072	14200	14200	14336	14336	14336	14408	14408	14272	14136	13936	13808	13688	13688	13624	13624	13688	13744	13872	14072	14200	14336	14408	14544	14616	14688	14688	14760	14832	14832	14832	14832	14832	14688	14616	14480	14336	14272	14136	14000	13872	13744	13688	13688	13688	13688	13688	13688	13688	13744	13744	13744	13808	13872	13872	13872	13808	13808	13808	13744	13688	13560	13440	13320	13144	13032	12976	12920	12864	12752	12648	12648	12648	12648	12696	12696	12752	12808	12864	12864	12864	12920	12920	12920	12920	12976	12976	12920	12920	12920	12920	12864	12864	12808	12808
0	0	0	0	0	0	0	0	0	0	0	0	0	0	0	0	0	0	0	0	0	0	0	0	0	0	0	0	0	0	0	0	0	0	0	0	0	0	0	0	0	0	0	0	0	0	0	0	0	0	0	0	0	0	0	0	0	0	0	0	0	0	0	0	0	0	0	0	0	0	0	0	0	0	0	0	0	0	0	0	0	0	0	0	0	0	0	0	0	0	0	0	0	0	0	0	0	0	0	0	0	0	0	0	0	0	7240	7240	7312	7328	7344	7360	7384	7384	7400	7400	7416	7416	0	0	0	0	0	0	0	0	0	0	0	0	0	0	0	0	0	0	0	0	11800	11800	11896	11936	12032	12136	12280	12488	12648	12864	13032	13264	13440	13688	13872	14136	14408	14760	15216	15608	16024	16464	16832	17024	17128	16648	16112	15608	15608	14616	13936	13496	13264	13200	13088	13032	13032	0	0	0	0	0	0	0	0	0	0	0	0	0	0	0	0	0	0	832	832	832	832	832	832	832	832	832	832	0	0	0	0	0	0	0	0	0	0	0	0	0	0	0	0	0	0	0	0	0	0	0	0	0	0	0	0	0	0	0	0	0	0	0	0	0	0	0	0	0	0	0	0	0	0	0	0	0	0	0	0	0	0	0	0	0	0	0	0	0	0	0	0	0	0	0	0	0	0	0	0	0	0	0	0	0	0	0	0	0	0	0	0	0	0	0	0	0	0	0	0	0	0	0	0	0	0	0	0	0	0	0	0	0	0	0	0	0	0	0	0	0	0	0	0	0	0	0	0	0	0	0	0	0	0	0	0	0	0	0	0	0	0	0	0	0	0	0	0	0	0	13144	13144	13144	13200	13264	13320	13440	13560	13688	13872	14000	14200	14408	14760	14912	15056	15216	15288	15288	15216	15136	15056	15056	15056	15056	15136	15136	15136	15136	15136	15056	14984	14912	14760	14616	14480	14336	14200	14136	14072	14072	14072	14072	14072	14072	14072	14136	14136	14200	14272	14272	14272	14200	14200	14200	14272	14272	14272	14272	14272	14272	14336	14336	14336	14336	14336	14336	14272	14136	14136	14072	14000	13936	13936	13936	13936	13936	13936	14000	14000	14000	14000	14136	14200	14272	14336	14408	14408	14408	14480	14480	14480	14544	14616	14616	14760	14912	14984	15216	15288	15368	15448	15528	15608	15608	15608	15608	15688	15688	15688	15776	15776	15776	15856	15944	15944	16024	16024	16200	16376	16376	16376	16288	16112	15944	15776	15688	15688	15608	15528	15448	15368	15288	15288	15216	15216	15288	15288	15288	15288	15368	15368	15368	15368	15288	15288	15288	15216	15136	15136	15136	15136	15136	15056	15056	15056	15056	15136	15136	15288	15448	15688	15944	16112	16464	16744	17024	17224	17424	17528	17632	17736	17736	17736	17736	17632	17424	17128	16928	16744	16464	16112	15776	15448	15136	14984	14912	14912	14832	14760	14760	14760	14760	14760	14832	14832	14832	14832	14912	15056	15136	15288	15288	15448	15448	15448	15448	15368	15368	15216	15136	15056	15056	15056	15056	15056	14984	14984	14984	14832	14760	14688	14616	14480	14408	14336	14272	14200	14136	14136	14072	14072	14072	14000	14000	13936	13936	13808	13744	13688	13688	13688	13624	13624	13624	13624	13688	13744	13744	13744	13808	13808	13872	13936	13936	14000	14072	14136	14200	14272	14272	14272	14272	14136	13936	13808	13688	13624	13560	13560	13560	13624	13744	13808	14000	14136	14272	14272	14408	14544	14544	14616	14688	14688	14760	14760	14832	14760	14688	14616	14480	14408	14336	14272	14136	14000	13936	13872	13808	13808	13808	13744	13744	13744	13808	13808	13808	13872	13936	13936	13936	13872	13808	13808	13744	13688	13560	13376	13264	13144	13032	12976	12864	12808	12752	12696	12648	12648	12696	12752	12752	12864	12864	12864	12920	12920	12976	12976	13032	13032	12976	12976	12920	12920	12920	12920	12864	12864	12808	12808
0	0	0	0	0	0	0	0	0	0	0	0	0	0	0	0	0	0	0	0	0	0	0	0	0	0	0	0	0	0	0	0	0	0	0	0	0	0	0	0	0	0	0	0	0	0	0	0	0	0	0	0	0	0	0	0	0	0	0	0	0	0	0	0	0	0	0	0	0	0	0	0	0	0	0	0	0	0	0	0	0	0	0	0	0	0	0	0	0	0	0	0	0	0	0	0	0	0	0	0	0	0	0	0	0	0	0	7416	7416	7440	7440	7440	7456	7456	7472	7472	7472	7472	0	0	0	0	0	0	0	0	0	0	0	0	0	0	0	0	0	0	0	0	11848	11848	11936	12032	12080	12184	12336	12536	12752	12976	13200	13440	13688	13936	14136	14408	14760	15056	15528	15944	16288	16648	17024	17224	17128	16648	16200	15608	15288	14760	13936	13560	13264	13200	13032	12920	12808	12752	12696	12696	12752	12808	12920	13032	13088	0	0	0	0	0	0	0	0	0	0	832	832	832	832	832	832	832	832	832	832	0	0	0	0	0	0	0	0	0	0	0	0	0	0	0	0	0	0	0	0	0	0	0	0	0	0	0	0	0	0	0	0	0	0	0	0	0	0	0	0	0	0	0	0	0	0	0	0	0	0	0	0	0	0	0	0	0	0	0	0	0	0	0	0	0	0	0	0	0	0	0	0	0	0	0	0	0	0	0	0	0	0	0	0	0	0	0	0	0	0	0	0	0	0	0	0	0	0	0	0	0	0	0	0	0	0	0	0	0	0	0	0	0	0	0	0	0	0	0	0	0	0	0	0	0	0	0	0	0	0	0	0	0	0	0	0	0	0	0	0	0	0	13144	13144	13144	13144	13200	13264	13440	13496	13624	13872	14000	14136	14336	14616	14760	14912	15056	15056	15056	14984	14984	14912	14832	14832	14832	14832	14912	14912	14912	14912	14912	14832	14760	14616	14480	14408	14272	14200	14136	14072	14072	14072	14072	14072	14072	14072	14136	14136	14136	14200	14200	14200	14200	14200	14200	14200	14272	14272	14272	14272	14272	14336	14336	14336	14408	14336	14272	14272	14136	14136	14072	14000	14000	14000	13936	13936	14000	14000	14072	14072	14136	14200	14272	14336	14408	14480	14544	14616	14616	14616	14616	14616	14688	14760	14760	14912	14984	15136	15216	15288	15368	15448	15528	15608	15608	15608	15608	15608	15688	15688	15688	15688	15776	15776	15856	15944	16024	16024	16200	16200	16288	16376	16288	16112	16024	15856	15776	15776	15688	15528	15448	15368	15288	15216	15216	15216	15216	15216	15216	15288	15368	15368	15368	15288	15288	15288	15288	15216	15136	15136	15136	15136	15136	15136	15136	15136	15136	15136	15216	15288	15448	15688	15944	16200	16464	16832	17128	17320	17528	17632	17736	17736	17840	17840	17840	17736	17528	17224	16928	16744	16376	16024	15688	15368	15136	14984	14912	14912	14832	14760	14760	14760	14760	14760	14760	14832	14832	14832	14912	14984	15056	15136	15288	15368	15448	15448	15448	15448	15448	15288	15288	15216	15216	15216	15216	15216	15216	15216	15136	15136	15056	14912	14832	14688	14544	14480	14408	14336	14272	14200	14200	14136	14072	14000	14000	13936	13936	13808	13744	13688	13688	13688	13624	13624	13560	13560	13624	13688	13688	13688	13744	13744	13808	13808	13872	13936	14000	14072	14136	14136	14136	14136	14072	13936	13808	13688	13560	13496	13496	13560	13560	13624	13744	13808	13936	14136	14200	14200	14336	14408	14480	14480	14616	14616	14688	14688	14760	14760	14688	14616	14544	14480	14480	14408	14272	14136	14072	14000	14000	13936	13936	13936	13872	13872	13872	13936	13936	14000	14000	14000	14000	13936	13936	13872	13744	13688	13496	13376	13200	13088	13032	12920	12864	12808	12752	12696	12696	12696	12752	12808	12864	12976	12976	13032	13032	13032	13088	13088	13088	13088	13032	13032	13032	13032	13032	12976	12920	12920	12920	12920
0	0	0	0	0	0	0	0	0	0	0	0	0	0	0	0	0	0	0	0	0	0	0	0	0	0	0	0	0	0	0	0	0	0	0	0	0	0	0	0	0	0	0	0	0	0	0	0	0	0	0	0	0	0	0	0	0	0	0	0	0	0	0	0	0	0	0	0	0	0	0	0	0	0	0	0	0	0	0	0	0	0	0	0	0	0	0	0	0	0	0	0	0	0	0	0	0	0	0	0	0	0	0	0	0	0	0	0	0	0	0	0	0	7472	7472	7472	7496	0	0	0	0	0	0	0	0	0	0	0	0	0	0	0	0	0	11752	11752	11752	11800	11848	11848	11936	12032	12080	12184	12336	12488	12696	12920	13144	13496	13744	14072	14336	14616	14984	15368	15688	16024	16288	16648	17024	17024	16928	16648	16112	15528	15056	14544	13872	13496	13320	13200	12864	12752	12696	12592	12592	12592	12648	12752	12864	12976	13088	0	0	0	0	0	0	0	0	0	832	832	832	832	832	832	832	832	832	832	0	0	0	0	0	0	0	0	0	0	0	0	0	0	0	0	0	0	0	0	0	0	0	0	0	0	0	0	0	0	0	0	0	0	0	0	0	0	0	0	0	0	0	0	0	0	0	0	0	0	0	0	0	0	0	0	0	0	0	0	0	0	0	0	0	0	0	0	0	0	0	0	0	0	0	0	0	0	0	0	0	0	0	0	0	0	0	0	0	0	0	0	0	0	0	0	0	0	0	0	0	0	0	0	0	0	0	0	0	0	0	0	0	0	0	0	0	0	0	0	0	0	0	0	0	0	0	0	0	0	0	0	0	0	0	0	0	0	0	0	0	0	0	0	13088	13088	13144	13200	13264	13440	13496	13624	13872	14000	14136	14336	14480	14616	14760	14832	14912	14832	14832	14760	14688	14616	14616	14616	14616	14688	14688	14688	14688	14688	14688	14616	14616	14480	14336	14272	14200	14136	14072	14072	14072	14072	14072	14072	14072	14072	14072	14136	14136	14200	14200	14200	14200	14200	14200	14272	14272	14272	14272	14272	14336	14336	14336	14408	14336	14272	14272	14136	14136	14072	14072	14072	14000	14000	14000	14072	14136	14136	14136	14272	14336	14408	14480	14544	14616	14616	14688	14688	14688	14688	14760	14760	14832	14832	14984	15056	15216	15288	15368	15448	15528	15608	15608	15608	15608	15608	15608	15608	15608	15688	15688	15776	15776	15856	15944	16024	16024	16112	16200	16288	16376	16288	16200	16024	15944	15776	15776	15776	15608	15448	15368	15216	15216	15136	15136	15136	15136	15216	15216	15288	15288	15288	15288	15288	15288	15216	15216	15216	15216	15216	15288	15216	15216	15136	15136	15136	15216	15216	15288	15448	15688	15944	16200	16560	16832	17128	17320	17424	17632	17632	17736	17736	17840	17736	17632	17424	17224	16928	16648	16376	16024	15608	15368	15056	14912	14912	14912	14832	14832	14760	14760	14760	14760	14760	14688	14688	14760	14760	14832	14984	15136	15216	15368	15368	15448	15528	15528	15528	15368	15368	15288	15288	15368	15368	15448	15368	15368	15368	15288	15216	15056	14984	14832	14688	14616	14544	14408	14408	14336	14272	14200	14136	14072	14000	13936	13936	13872	13808	13688	13688	13688	13624	13624	13560	13560	13624	13624	13688	13688	13688	13744	13808	13808	13808	13872	13936	14000	14072	14000	14000	14000	13936	13872	13688	13560	13496	13496	13496	13560	13560	13624	13744	13808	13936	14072	14136	14136	14200	14336	14408	14480	14544	14616	14688	14688	14760	14760	14688	14616	14616	14544	14480	14480	14336	14272	14136	14072	14072	14072	14072	14000	13936	13936	13936	14000	14000	14072	14136	14136	14072	14000	13936	13872	13808	13688	13496	13376	13200	13088	13032	12920	12864	12808	12752	12752	12752	12752	12808	12920	12976	13032	13088	13088	13144	13200	13200	13264	13264	13264	13200	13200	13144	13144	13144	13088	13032	13032	13032	13032
0	0	0	0	0	0	0	0	0	0	0	0	0	0	0	0	0	0	0	0	0	0	0	0	0	0	0	0	0	0	0	0	0	0	0	0	0	0	0	0	0	0	0	0	0	0	0	0	0	0	0	0	0	0	0	0	0	0	0	0	0	0	0	0	0	0	0	0	0	0	0	0	0	0	0	0	0	0	0	0	0	0	0	0	0	0	0	0	0	0	0	0	0	0	0	0	0	0	0	0	0	0	0	0	0	0	0	0	0	0	0	0	0	0	0	0	0	0	0	0	0	0	0	0	0	0	0	0	0	0	0	0	0	12032	11752	11752	11752	11800	11848	11848	11896	11984	12032	12136	12280	12488	12648	12864	13088	13376	13688	14000	14336	14616	14984	15368	15608	15944	16200	16560	16832	16928	16648	16200	15608	15056	14616	14136	13624	13264	13264	0	12864	12592	12488	12488	12488	12488	12536	12648	12752	12864	0	0	0	0	0	0	0	0	0	0	832	832	832	832	832	832	832	832	832	832	832	0	0	0	0	0	0	0	0	0	0	0	0	0	0	0	0	0	0	0	0	0	0	0	0	0	0	0	0	0	0	0	0	0	0	0	0	0	0	0	0	0	0	0	0	0	0	0	0	0	0	0	0	0	0	0	0	0	0	0	0	0	0	0	0	0	0	0	0	0	0	0	0	0	0	0	0	0	0	0	0	0	0	0	0	0	0	0	0	0	0	0	0	0	0	0	0	0	0	0	0	0	0	0	0	0	0	0	0	0	0	0	0	0	0	0	0	0	0	0	0	0	0	0	0	0	0	0	0	0	0	0	0	0	0	0	0	0	0	0	0	0	0	0	13088	13088	13144	13264	13320	13440	13560	13744	13872	14000	14072	14272	14336	14480	14616	14760	14760	14688	14616	14616	14544	14480	14408	14408	14408	14480	14480	14480	14480	14544	14544	14544	14480	14480	14336	14336	14200	14136	14136	14072	14072	14072	14072	14072	14072	14072	14072	14136	14136	14136	14136	14200	14200	14200	14200	14200	14272	14272	14272	14336	14336	14336	14408	14408	14336	14336	14272	14200	14200	14136	14136	14136	14136	14136	14136	14200	14272	14336	14336	14408	14544	14616	14688	14688	14760	14760	14760	14832	14832	14832	14832	14912	14984	14984	15056	15216	15288	15368	15448	15528	15608	15608	15608	15608	15608	15608	15608	15608	15608	15688	15688	15688	15776	15856	15944	16024	16024	16112	16288	16376	16376	16376	16288	16112	16024	15944	15776	15776	15608	15528	15368	15216	15136	15136	15056	15056	15056	15056	15136	15216	15216	15288	15288	15288	15288	15216	15216	15216	15216	15288	15288	15288	15288	15216	15216	15216	15216	15288	15288	15448	15688	15944	16200	16560	16744	17024	17224	17424	17528	17528	17528	17632	17736	17632	17528	17424	17128	16832	16560	16288	15944	15608	15368	15056	14912	14912	14912	14832	14832	14832	14832	14760	14760	14760	14688	14688	14760	14760	14832	14912	15056	15216	15288	15368	15448	15528	15528	15528	15448	15448	15448	15448	15528	15528	15608	15528	15528	15528	15448	15448	15288	15136	15056	14912	14832	14688	14616	14544	14480	14408	14336	14200	14072	14072	14000	13936	13872	13808	13744	13744	13688	13688	13624	13624	13624	13624	13624	13688	13688	13688	13744	13744	13744	13808	13872	13936	14000	14000	13936	13872	13872	13872	13744	13624	13560	13496	13496	13560	13624	13624	13688	13808	13872	14000	14000	14072	14136	14200	14200	14336	14408	14480	14616	14688	14688	14760	14760	14688	14688	14616	14616	14544	14544	14408	14336	14272	14200	14136	14072	14072	14072	14000	14000	14072	14136	14136	14200	14272	14200	14200	14072	14000	13936	13808	13688	13496	13440	13264	13144	13032	12976	12976	12920	12864	12864	12864	12920	12920	13032	13088	13200	13264	13264	13320	13320	13320	13440	13440	13440	13440	13376	13320	13320	13264	13264	13200	13144	13144	13144
0	0	0	0	0	0	0	0	0	0	0	0	0	0	0	0	0	0	0	0	0	0	0	0	0	0	0	0	0	0	0	0	0	0	0	0	0	0	0	0	0	0	0	0	0	0	0	0	0	0	0	0	0	0	0	0	0	0	0	0	0	0	0	0	0	0	0	0	0	0	0	0	0	0	0	0	0	0	0	0	0	0	0	0	0	0	0	0	0	0	0	0	0	0	0	0	0	0	0	0	0	0	0	0	0	0	0	0	0	0	0	0	0	0	0	0	0	0	0	0	0	0	0	0	0	0	0	0	0	0	0	0	0	12032	11752	11752	11752	11800	11800	11848	11896	11936	12032	12136	12280	12432	12648	12808	13088	13264	13496	13808	14136	14544	14760	15136	15448	15688	16024	16376	16648	16928	16648	16200	15216	14760	14272	13872	13320	13032	12752	12648	12536	12488	12384	12384	12384	12432	12488	12536	12696	12752	0	0	0	0	0	0	0	0	0	0	832	832	832	832	832	832	832	832	832	832	832	832	0	0	0	0	0	0	0	0	0	0	0	0	0	0	0	0	0	0	0	0	0	0	0	0	0	0	0	0	0	0	0	0	0	0	0	0	0	0	0	0	0	0	0	0	0	0	0	0	0	0	0	0	0	0	0	0	0	0	0	0	0	0	0	0	0	0	0	0	0	0	0	0	0	0	0	0	0	0	0	0	0	0	0	0	0	0	0	0	0	0	0	0	0	0	0	0	0	0	0	0	0	0	0	0	0	0	0	0	0	0	0	0	0	0	0	0	0	0	0	0	0	0	0	0	0	0	0	0	0	0	0	0	0	0	0	0	0	0	0	0	0	0	0	13032	13032	13200	13264	13376	13496	13688	13808	13936	14072	14200	14336	14408	14544	14616	14616	14616	14544	14480	14408	14408	14336	14272	14272	14336	14336	14408	14408	14480	14480	14480	14480	14408	14408	14336	14272	14200	14200	14136	14136	14136	14136	14136	14136	14136	14136	14136	14136	14136	14136	14200	14200	14200	14200	14200	14272	14272	14272	14336	14336	14408	14408	14408	14408	14336	14272	14272	14272	14200	14200	14272	14272	14336	14336	14408	14480	14480	14544	14616	14760	14760	14760	14832	14832	14832	14912	14912	14912	14912	14912	14984	15056	15056	15136	15288	15368	15448	15528	15528	15608	15608	15608	15608	15608	15608	15608	15608	15608	15608	15688	15688	15776	15856	15944	16024	16112	16288	16288	16376	16464	16464	16376	16200	16112	15944	15776	15608	15608	15448	15288	15216	15136	15056	15056	14984	14984	14984	15056	15216	15216	15216	15216	15216	15288	15288	15288	15288	15288	15288	15288	15368	15368	15368	15368	15288	15288	15368	15368	15528	15688	15944	16200	16464	16648	16928	17128	17224	17320	17320	17424	17424	17424	17424	17424	17224	16928	16744	16464	16200	15944	15688	15368	15136	15056	15056	15056	14984	14912	14912	14832	14832	14832	14832	14760	14760	14760	14760	14832	14912	15056	15136	15288	15368	15448	15528	15528	15528	15448	15448	15448	15448	15608	15608	15688	15688	15688	15688	15608	15528	15448	15368	15216	15056	14984	14912	14832	14760	14688	14544	14480	14272	14200	14136	14072	14000	13872	13808	13808	13744	13744	13744	13688	13688	13688	13688	13688	13688	13688	13688	13744	13744	13744	13808	13872	13936	14000	14000	13936	13872	13808	13808	13688	13624	13560	13560	13560	13624	13688	13688	13808	13872	13936	14000	14000	14072	14072	14136	14200	14272	14336	14480	14544	14616	14688	14760	14760	14688	14688	14688	14616	14616	14616	14480	14336	14272	14200	14136	14136	14136	14136	14136	14072	14072	14200	14200	14336	14408	14272	14272	14136	14072	13936	13872	13808	13624	13496	13376	13264	13200	13144	13088	13088	13032	13032	13032	13088	13144	13264	13264	13376	13440	13440	13496	13496	13496	13560	13624	13624	13560	13496	13440	13440	13440	13320	13320	13264	13264	13264
0	0	0	0	0	0	0	0	0	0	0	0	0	0	0	0	0	0	0	0	0	0	0	0	0	0	0	0	0	0	0	0	0	0	0	0	0	0	0	0	0	0	0	0	0	0	0	0	0	0	0	0	0	0	0	0	0	0	0	0	0	0	0	0	0	0	0	0	0	0	0	0	0	0	0	0	0	0	0	0	0	0	0	0	0	0	0	0	0	0	0	0	0	0	0	0	0	0	0	0	0	0	0	0	0	0	0	0	0	0	0	0	0	0	0	0	0	0	0	0	0	0	0	0	0	0	0	0	0	0	0	0	0	0	0	0	11800	11800	11800	11848	11848	11896	11984	12080	12184	12384	12536	12696	12920	13088	13320	13624	13872	14272	14616	14912	15216	15448	16024	16376	16648	17024	0	0	15216	14760	14272	13872	13320	13032	12752	12592	12488	12432	12384	12384	12384	12432	12488	12536	12696	12752	0	0	0	0	0	0	0	0	832	832	832	832	832	832	832	832	832	832	832	832	832	832	840	840	840	0	0	0	0	0	0	0	0	0	0	0	0	0	0	0	0	0	0	0	0	0	0	0	0	0	0	0	0	0	0	0	0	0	0	0	0	0	0	0	0	0	0	0	0	0	0	0	0	0	0	0	0	0	0	0	0	0	0	0	0	0	0	0	0	0	0	0	0	0	0	0	0	0	0	0	0	0	0	0	0	0	0	0	0	0	0	0	0	0	0	0	0	0	0	0	0	0	0	0	0	0	0	0	0	0	0	0	0	0	0	0	0	0	0	0	0	0	0	0	0	0	0	0	0	0	0	0	0	0	0	0	0	0	0	0	0	0	0	0	0	12920	12920	13200	13264	13264	13376	13624	13808	13936	14072	14200	14336	14408	14544	14616	14616	14616	14480	14408	14336	14272	14200	14200	14200	14200	14272	14336	14408	14480	14480	14480	14480	14408	14408	14408	14336	14272	14200	14200	14200	14200	14200	14136	14136	14136	14136	14136	14136	14136	14136	14136	14136	14200	14200	14200	14200	14200	14272	14272	14336	14336	14336	14408	14408	14408	14408	14336	14336	14336	14336	14408	14408	14480	14544	14616	14616	14616	14688	14760	14832	14912	14912	14912	14912	14984	14984	14984	14984	14984	15056	15056	15136	15216	15288	15288	15368	15448	15528	15608	15608	15608	15608	15608	15608	15608	15608	15608	15608	15608	15608	15688	15776	15944	15944	16024	16200	16288	16376	16376	16464	16464	16376	16200	16112	15944	15856	15608	15608	15448	15288	15136	15056	14984	14912	14912	14912	14912	14984	15056	15136	15136	15216	15216	15288	15288	15288	15288	15288	15368	15368	15448	15448	15368	15368	15368	15368	15368	15368	15528	15608	15856	16112	16288	16560	16648	16832	17024	17024	17128	17128	17224	17224	17224	17224	17024	16832	16560	16376	16200	15944	15688	15368	15216	15136	15136	15136	15056	15056	15056	14984	14912	14912	14832	14760	14760	14760	14760	14832	14912	15056	15136	15288	15368	15448	15528	15608	15608	15528	15528	15528	15528	15688	15776	15856	15856	15856	15856	15776	15688	15608	15528	15448	15288	15216	15136	15056	14984	14912	14760	14616	14408	14272	14200	14136	14072	13936	13872	13872	13872	13872	13872	13808	13744	13744	13744	13744	13744	13744	13744	13744	13744	13808	13808	13872	13936	14000	14000	13872	13872	13808	13808	13688	13560	13560	13560	13560	13688	13744	13808	13872	13936	14000	14000	14000	14072	14072	14136	14200	14272	14336	14480	14544	14616	14688	14760	14760	14760	14688	14688	14688	14616	14616	14544	14408	14336	14200	14200	14200	14136	14136	14136	14136	14136	14272	14336	14408	14480	14408	14336	14200	14136	14072	14000	13872	13744	13624	13496	13440	13376	13320	13264	13264	13200	13200	13200	13320	13376	13440	13496	13560	13624	13688	13688	13688	13688	13744	13744	13744	13744	13688	13624	13624	13560	13496	13440	13376	13376	13376
0	0	0	0	0	0	0	0	0	0	0	0	0	0	0	0	0	0	0	0	0	0	0	0	0	0	0	0	0	0	0	0	0	0	0	0	0	0	0	0	0	0	0	0	0	0	0	0	0	0	0	0	0	0	0	0	0	0	0	0	0	0	0	0	0	0	0	0	0	0	0	0	0	0	0	0	0	0	0	0	0	0	0	0	0	0	0	0	0	0	0	0	0	0	0	0	0	0	0	0	0	0	0	0	0	0	0	0	0	0	0	0	0	0	0	0	0	0	0	0	0	0	0	0	0	0	0	0	0	0	0	0	0	0	0	0	0	0	11752	11752	11848	11848	11936	12032	12184	12336	12488	12648	12808	12976	13144	13440	13624	14000	14336	14688	14912	15448	0	0	0	0	0	0	0	0	0	0	12864	12696	12536	12488	12384	12336	12336	12336	12336	12336	12488	0	0	0	0	0	0	0	0	0	0	0	832	832	832	832	832	832	832	832	832	832	832	832	840	840	840	840	840	0	0	0	0	0	0	0	0	0	0	0	0	0	0	0	0	0	0	0	0	0	0	0	0	0	0	0	0	0	0	0	0	0	0	0	0	0	0	0	0	0	0	0	0	0	0	0	0	0	0	0	0	0	0	0	0	0	0	0	0	0	0	0	0	0	0	0	0	0	0	0	0	0	0	0	0	0	0	0	0	0	0	0	0	0	0	0	0	0	0	0	0	0	0	0	0	0	0	0	0	0	0	0	0	0	0	0	0	0	0	0	0	0	0	0	0	0	0	0	0	0	0	0	0	0	0	0	0	0	0	0	0	0	0	0	0	0	0	0	0	12920	12920	0	13264	13264	13376	13624	13872	14072	14200	14336	14480	14616	14688	14688	14616	14616	14480	14408	14272	14200	14136	14136	14200	14200	14272	14336	14408	14480	14480	14544	14544	14544	14480	14480	14408	14336	14336	14272	14272	14200	14200	14200	14136	14136	14136	14136	14072	14072	14072	14072	14072	14136	14136	14136	14136	14136	14136	14136	14200	14272	14272	14272	14336	14336	14336	14408	14408	14480	14480	14544	14616	14688	14688	14688	14760	14760	14832	14912	14984	14984	15056	15056	15056	15056	15056	15056	15056	15056	15056	15056	15136	15216	15288	15368	15448	15448	15528	15608	15608	15608	15608	15608	15608	15608	15608	15608	15608	15608	15608	15688	15776	15856	15944	16112	16200	16288	16376	16376	16464	16464	16376	16288	16112	15944	15856	15688	15688	15448	15288	15136	15056	14984	14912	14912	14912	14912	14912	15056	15056	15056	15056	15216	15216	15216	15288	15288	15368	15448	15448	15528	15448	15448	15368	15368	15368	15368	15368	15448	15608	15776	16024	16200	16288	16464	16648	16744	16832	16832	16832	16928	17024	17024	17024	16832	16648	16560	16376	16200	15944	15688	15528	15368	15288	15288	15288	15216	15216	15136	15056	15056	14984	14984	14912	14832	14832	14832	14912	14984	15056	15216	15288	15368	15448	15608	15688	15688	15688	15688	15776	15776	15856	15944	15944	16024	16024	16024	15944	15856	15776	15688	15608	15528	15448	15368	15288	15216	15136	14984	14760	14544	14408	14336	14272	14200	14072	14000	14000	14000	14000	14000	13936	13872	13872	13872	13808	13808	13808	13808	13872	13872	13872	13872	13936	14000	14072	14000	13872	13872	13808	13808	13688	13560	13560	13560	13624	13688	13744	13808	13872	13936	14000	14000	14000	14072	14072	14136	14272	14336	14408	14544	14544	14688	14760	14760	14832	14832	14760	14760	14760	14760	14688	14544	14408	14336	14336	14272	14272	14200	14200	14200	14200	14200	14408	14408	14480	14544	14480	14408	14336	14200	14136	14072	13936	13808	13744	13624	13560	13560	13496	13440	13440	13376	13376	13376	13496	13560	13624	13624	13744	13744	13808	13872	13808	13808	13872	13872	13872	13872	13744	13744	13744	13688	13560	13560	13496	13496	13496
0	0	0	0	0	0	0	0	0	0	0	0	0	0	0	0	0	0	0	0	0	0	0	0	0	0	0	0	0	0	0	0	0	0	0	0	0	0	0	0	0	0	0	0	0	0	0	0	0	0	0	0	0	0	0	0	0	0	0	0	0	0	0	0	0	0	0	0	0	0	0	0	0	0	0	0	0	0	0	0	0	0	0	0	0	0	0	0	0	0	0	0	0	0	0	0	0	0	0	0	0	0	0	0	0	0	0	0	0	0	0	0	0	0	0	0	0	0	0	0	0	0	0	0	0	0	0	0	0	0	0	0	0	0	0	0	0	0	11704	11704	11800	11800	11896	11984	12136	12280	12432	12536	12696	12864	12976	13200	13440	13744	14072	14336	14616	14912	15288	15776	0	0	0	0	0	13808	13320	12864	12696	12536	12488	12384	12336	12280	12280	12280	12280	12280	12336	12432	0	0	0	0	0	0	0	0	0	0	832	832	832	832	832	832	832	832	832	832	832	832	840	840	840	840	0	0	0	0	0	0	0	0	0	0	0	0	0	0	0	0	0	0	0	0	0	0	0	0	0	0	0	0	0	0	0	0	0	0	0	0	0	0	0	0	0	0	0	0	0	0	0	0	0	0	0	0	0	0	0	0	0	0	0	0	0	0	0	0	0	0	0	0	0	0	0	0	0	0	0	0	0	0	0	0	0	0	0	0	0	0	0	0	0	0	0	0	0	0	0	0	0	0	0	0	0	0	0	0	0	0	0	0	0	0	0	0	0	0	0	0	0	0	0	0	0	0	0	0	0	0	0	0	0	0	0	0	0	0	0	0	0	0	0	0	0	0	0	0	0	14000	14000	14200	14336	14480	14616	14688	14688	14760	14832	14832	14688	14616	14544	14408	14272	14200	14136	14136	14136	14200	14272	14336	14408	14480	14544	14616	14616	14616	14616	14544	14480	14480	14408	14408	14336	14272	14272	14200	14200	14136	14136	14136	14072	14072	14072	14072	14072	14000	14000	14000	14000	14072	14072	14136	14136	14136	14136	14200	14200	14272	14272	14336	14408	14408	14480	14544	14616	14688	14760	14832	14832	14912	14912	15056	15056	15056	15136	15136	15136	15136	15056	15056	15056	15056	15056	15056	15136	15216	15288	15368	15368	15448	15528	15528	15608	15608	15608	15608	15608	15608	15608	15608	15608	15608	15608	15688	15856	15856	16024	16112	16200	16288	16376	16376	16376	16464	16376	16288	16112	15944	15776	15688	15448	15448	15288	15136	14984	14984	14912	14832	14832	14832	14832	14912	14912	14984	14984	15056	15136	15136	15288	15288	15368	15448	15528	15528	15528	15528	15448	15448	15448	15448	15448	15448	15608	15776	15944	16112	16200	16288	16376	16464	16560	16648	16648	16648	16744	16744	16832	16744	16648	16464	16376	16200	15944	15776	15688	15528	15528	15448	15448	15448	15448	15368	15288	15216	15136	15136	14984	14984	14912	14912	14984	15056	15136	15216	15368	15448	15528	15688	15688	15776	15856	15856	15856	15944	15944	16024	16112	16112	16112	16024	16024	16024	15944	15856	15776	15776	15688	15608	15528	15448	15368	15136	14912	14688	14544	14480	14408	14272	14200	14136	14136	14136	14200	14200	14136	14072	14072	14000	14000	14000	14000	14000	14000	14000	14000	14000	14072	14136	14136	14072	14000	13936	13872	13872	13808	13744	13744	13744	13744	13808	13936	13936	14000	14000	14000	14000	14000	14072	14136	14136	14272	14336	14408	14544	14616	14688	14760	14832	14832	14832	14832	14832	14760	14760	14760	14616	14480	14408	14336	14336	14272	14272	14272	14272	14272	14272	14408	14480	14544	14544	14480	14408	14336	14272	14200	14136	14000	13936	13872	13808	13744	13688	13688	13688	13624	13624	13624	13624	13688	13744	13808	13808	13872	13936	13936	13936	14000	14000	14000	14000	14000	14000	13936	13872	13872	13744	13744	13688	13624	13624	13624
0	0	0	0	0	0	0	0	0	0	0	0	0	0	0	0	0	0	0	0	0	0	0	0	0	0	0	0	0	0	0	0	0	0	0	0	0	0	0	0	0	0	0	0	0	0	0	0	0	0	0	0	0	0	0	0	0	0	0	0	0	0	0	0	0	0	0	0	0	0	0	0	0	0	0	0	0	0	0	0	0	0	0	0	0	0	0	0	0	0	0	0	0	0	0	0	0	0	0	0	0	0	14136	13688	13376	13144	13032	12864	12864	12864	12808	12808	12752	12752	12696	12696	0	0	0	0	0	0	0	0	0	0	0	0	0	0	0	0	11352	11264	11264	11264	11312	11440	11568	11664	11752	11800	11848	11984	12136	12280	12384	12536	12648	12808	12976	13144	13376	13688	14000	14272	14544	14912	15288	15776	16112	16288	16288	15216	15216	13808	13320	12696	12536	12488	12384	12336	12336	12280	12232	12232	12232	12232	12232	12280	0	0	0	0	0	0	0	0	0	0	0	832	832	832	832	832	832	832	832	832	832	832	840	840	840	0	0	0	0	0	0	0	0	0	0	0	0	0	0	0	0	0	0	0	0	0	0	0	0	0	0	0	0	0	0	0	0	0	0	0	0	0	0	0	0	0	0	0	0	0	0	0	0	0	0	0	0	0	0	0	0	0	0	0	0	0	0	0	0	0	0	0	0	0	0	0	0	0	0	0	0	0	0	0	0	0	0	0	0	0	0	0	0	0	0	0	0	0	0	0	0	0	0	0	0	0	0	0	0	0	0	0	0	0	0	0	0	0	0	0	0	0	0	0	0	0	0	0	0	0	0	0	0	0	0	0	0	0	0	0	0	0	0	0	0	0	0	0	0	0	0	0	0	14984	14984	15056	15136	15136	15136	15136	15216	15136	14912	14832	14616	14480	14408	14336	14200	14136	14136	14200	14272	14408	14480	14616	14688	14760	14760	14760	14760	14688	14688	14616	14480	14408	14408	14336	14336	14200	14200	14136	14136	14136	14072	14000	14000	14000	14000	13936	13936	14000	14000	14000	14000	14000	14000	14000	14000	14072	14136	14136	14136	14272	14336	14408	14480	14544	14616	14760	14832	14912	14984	14984	14984	15136	15136	15136	15136	15136	15136	15136	15136	15136	15136	15056	15056	15056	15136	15216	15288	15288	15368	15448	15528	15528	15608	15608	15608	15608	15608	15608	15608	15608	15608	15608	15688	15776	15856	15944	16024	16112	16200	16288	16288	16376	16376	16376	16376	16200	16112	15944	15776	15608	15368	15368	15216	15056	14984	14912	14832	14832	14760	14760	14760	14832	14912	14912	14912	14984	15056	15136	15136	15216	15368	15368	15528	15528	15528	15528	15528	15528	15448	15448	15448	15448	15528	15688	15856	15944	16024	16112	16200	16288	16288	16376	16376	16464	16560	16560	16648	16648	16560	16464	16376	16200	16024	15944	15856	15688	15688	15688	15688	15688	15608	15608	15448	15448	15368	15288	15216	15136	15056	15056	15136	15136	15288	15368	15448	15528	15688	15776	15856	15944	16024	16024	16112	16112	16112	16112	16200	16200	16200	16200	16200	16112	16024	16024	15944	15944	15856	15776	15688	15608	15448	15288	15056	14832	14688	14616	14544	14480	14336	14336	14336	14408	14408	14408	14336	14272	14272	14272	14200	14200	14200	14200	14200	14136	14136	14136	14136	14200	14200	14136	14072	14000	14000	14000	13936	13872	13872	13872	13872	13872	13936	13936	14000	14000	14000	14000	14000	14072	14136	14200	14272	14408	14480	14616	14688	14760	14832	14912	14912	14912	14912	14912	14912	14912	14832	14688	14544	14480	14408	14408	14336	14336	14336	14336	14336	14336	14480	14544	14544	14544	14544	14480	14408	14336	14272	14200	14072	14000	13936	13936	13872	13872	13808	13808	13808	13808	13808	13808	13872	13872	13936	14000	14000	14000	14072	14072	14072	14072	14072	14072	14072	14072	14000	13936	13936	13872	13872	13744	13688	13688	13688
0	0	0	0	0	0	0	0	0	0	0	0	0	0	0	0	0	0	0	0	0	0	0	0	0	0	0	0	0	0	0	0	0	0	0	0	0	0	0	0	0	0	0	0	0	0	0	0	0	0	0	0	0	0	0	0	0	0	0	0	0	0	0	0	0	0	0	0	0	0	0	0	0	0	0	0	0	0	0	0	0	0	0	0	0	0	0	0	0	0	0	0	0	0	0	0	0	0	0	0	0	0	14136	13688	13376	13144	13032	12864	12864	12864	12808	12808	12752	12752	12696	12592	12488	12488	0	0	0	0	0	0	0	0	0	0	0	0	0	0	11096	11056	11056	11144	11224	11392	11480	11616	11704	11848	11848	11984	12136	12280	12384	12536	12648	12808	12976	13144	13376	13688	14000	14272	14544	14912	15288	15608	16024	16288	16024	15216	15216	0	13376	12696	12536	12488	12384	12336	12336	12232	12184	12184	12136	12136	12232	12280	0	0	0	0	0	0	0	0	0	0	0	0	832	832	832	832	832	832	832	832	832	840	840	840	840	0	0	0	0	0	0	0	0	0	0	0	0	0	0	0	0	0	0	0	0	0	11264	11056	11056	0	0	0	0	0	0	0	0	0	0	0	0	0	0	0	0	0	0	0	0	0	0	0	0	0	0	0	0	0	0	0	0	0	0	0	0	0	0	0	0	0	0	0	0	0	0	0	0	0	0	0	0	0	0	0	0	0	0	0	0	0	0	0	0	0	0	0	0	0	0	0	0	0	0	0	0	0	0	0	0	0	0	0	0	0	0	0	0	0	0	0	0	0	0	0	0	0	0	0	0	0	0	0	0	0	0	0	0	0	0	0	0	0	0	0	0	0	0	0	0	0	0	0	0	0	0	0	16024	15608	15528	15528	15448	15368	15136	15056	14912	14688	14480	14408	14272	14272	14272	14336	14408	14480	14544	14616	14760	14832	14832	14832	14832	14760	14688	14688	14616	14544	14408	14408	14336	14272	14200	14200	14136	14136	14072	14000	14000	14000	13936	13936	13936	13936	13936	13936	13936	13872	13872	13936	13936	13936	14000	14072	14072	14136	14336	14408	14480	14544	14688	14760	14912	14984	14984	15056	15056	15136	15136	15136	15056	15056	15136	15136	15136	15136	15056	15056	15056	15056	15136	15216	15288	15288	15368	15448	15528	15528	15608	15608	15608	15688	15688	15688	15688	15688	15688	15776	15776	15776	15856	16024	16024	16200	16288	16288	16288	16464	16464	16376	16376	16200	16112	15944	15688	15608	15368	15368	15216	15056	14912	14912	14760	14760	14760	14760	14760	14760	14832	14832	14832	14912	14984	14984	15056	15136	15288	15368	15448	15528	15528	15528	15528	15528	15528	15448	15448	15528	15528	15688	15776	15856	15856	15944	16024	16112	16112	16200	16200	16288	16376	16464	16464	16464	16464	16376	16376	16200	16200	16112	16024	15944	15944	15944	15944	15856	15776	15776	15688	15608	15528	15448	15368	15288	15288	15216	15216	15288	15368	15448	15528	15688	15776	15856	15944	16112	16112	16112	16112	16200	16112	16112	16112	16112	16112	16112	16024	16024	16024	16024	16024	16024	15944	15944	15856	15776	15608	15368	15216	15056	14912	14760	14688	14616	14544	14544	14544	14616	14688	14616	14616	14544	14480	14480	14408	14408	14408	14408	14408	14336	14272	14272	14272	14272	14272	14200	14136	14072	14072	14136	14072	14000	14000	14000	14072	14136	14136	14072	14072	14072	14072	14072	14072	14136	14200	14272	14408	14480	14544	14688	14760	14912	14984	14984	14984	14984	14984	14984	14984	14912	14912	14760	14688	14616	14480	14408	14408	14408	14336	14336	14336	14336	14480	14480	14544	14544	14480	14408	14408	14336	14272	14200	14200	14136	14072	14000	14000	14000	14000	14000	13936	13936	14000	14000	14072	14072	14136	14136	14136	14136	14136	14136	14072	14072	14000	14000	14000	14072	14072	14000	14000	13936	13936	13936	13872	13872	13872
0	0	0	0	0	0	0	0	0	0	0	0	0	0	0	0	0	0	0	0	0	0	0	0	0	0	0	0	0	0	0	0	0	0	0	0	0	0	0	0	0	0	0	0	0	0	0	0	0	0	0	0	0	0	0	0	0	0	0	0	0	0	0	0	0	0	0	0	0	0	0	0	0	0	0	0	0	0	0	0	0	0	0	0	0	0	0	0	0	0	0	0	0	0	0	0	0	0	0	0	0	0	0	14136	13688	13440	13200	13032	12976	12920	12920	12864	12808	12808	12696	12592	12488	12488	12536	0	0	0	0	0	0	0	0	0	0	0	0	0	11096	11056	11056	11144	11184	11352	11440	11616	11704	11848	11848	11984	12136	12280	12432	12592	12752	12864	13032	13264	13440	13744	14000	14272	14544	14912	15288	15608	16024	16376	16024	15688	15688	0	13376	12864	12648	12536	12432	12384	12336	12232	12184	12184	12136	12136	0	0	0	0	0	0	0	0	0	0	0	0	0	0	832	832	832	832	832	832	832	832	832	832	840	840	840	0	0	0	0	0	0	0	0	0	0	0	0	0	0	0	0	0	12488	12232	12032	11800	11264	11056	11056	11096	11096	0	0	0	0	0	0	0	0	0	0	0	0	0	0	0	0	0	0	0	0	0	0	0	0	0	0	0	0	0	0	0	0	0	0	0	0	0	0	0	0	0	0	0	0	0	0	0	0	0	0	0	0	0	0	0	0	0	0	0	0	0	0	0	0	0	0	0	0	0	0	0	0	0	0	0	0	0	0	0	0	0	0	0	0	0	0	0	0	0	0	0	0	0	0	0	0	0	0	0	0	0	0	0	0	17320	17320	17424	17424	17528	17528	17528	17528	17528	17528	17632	17736	17632	17424	17224	17128	16928	16928	16744	16560	16560	16024	15944	15856	15776	15776	15688	15528	15368	15056	14832	14688	14544	14408	14336	14336	14408	14480	14544	14616	14688	14832	14912	14912	14912	14912	14832	14760	14688	14616	14544	14480	14408	14336	14336	14200	14200	14136	14136	14072	14000	13936	13936	13936	13936	13872	13872	13872	13872	13872	13808	13808	13808	13808	13872	13936	13936	14000	14072	14136	14336	14408	14544	14616	14760	14832	14912	14984	15056	15056	15136	15136	15136	15056	15056	15056	15056	15056	15056	15056	15056	15056	15136	15136	15216	15288	15288	15368	15448	15528	15528	15608	15688	15688	15688	15688	15688	15776	15776	15776	15856	15856	15856	15944	16024	16112	16200	16288	16288	16376	16464	16464	16376	16376	16200	16112	15856	15688	15528	15368	15216	15216	15056	14912	14832	14760	14760	14688	14688	14688	14760	14760	14832	14832	14832	14912	14984	14984	15136	15136	15288	15368	15448	15448	15448	15448	15448	15528	15448	15448	15528	15528	15608	15776	15776	15856	15856	15856	16024	16024	16112	16112	16200	16288	16288	16376	16376	16376	16376	16376	16288	16288	16200	16112	16112	16024	16024	16024	16024	15944	15944	15856	15776	15688	15608	15528	15448	15368	15368	15368	15448	15448	15528	15608	15688	15856	15944	16112	16112	16112	16200	16112	16112	16024	16024	16024	15944	15944	15944	15944	15944	15944	15856	15856	15856	15944	15944	15944	15776	15608	15448	15216	15136	14984	14912	14832	14760	14688	14688	14760	14760	14832	14832	14832	14760	14760	14688	14688	14616	14616	14544	14544	14480	14408	14408	14408	14408	14336	14272	14200	14200	14200	14200	14200	14200	14200	14200	14200	14200	14200	14136	14136	14136	14072	14072	14136	14200	14272	14408	14544	14616	14688	14832	14912	15056	15056	15056	15136	15136	15136	15136	15056	15056	14984	14832	14760	14688	14616	14544	14480	14408	14336	14336	14336	14336	14408	14408	14408	14480	14408	14408	14408	14408	14336	14272	14272	14200	14200	14200	14136	14136	14136	14136	14136	14136	14136	14200	14200	14200	14272	14200	14136	14072	14072	14072	14000	13936	13936	13936	13936	14000	14000	14000	13936	13936	13936	14000	14000	13936	13936
0	0	0	0	0	0	0	0	0	0	0	0	0	0	0	0	0	0	0	0	0	0	0	0	0	0	0	0	0	0	0	0	0	0	0	0	0	0	0	0	0	0	0	0	0	0	0	0	0	0	0	0	0	0	0	0	0	0	0	0	0	0	0	0	0	0	0	0	0	0	0	0	0	0	0	0	0	0	0	0	0	0	0	0	0	0	0	0	0	0	0	0	0	0	0	0	0	17944	17736	17024	16288	15608	15056	14544	14000	13688	13376	13264	13144	13088	13032	13032	13032	13032	12920	12808	12752	12536	12536	0	0	0	0	0	0	0	0	0	0	0	0	0	0	0	11144	11144	11144	11312	11440	11568	11704	11848	12032	12032	12184	12336	12536	12696	12864	12976	13144	13376	13560	13872	14072	14336	14616	14984	15368	15688	16024	16376	16112	15688	15688	14688	13688	13200	12920	12808	12648	12536	12488	12384	12280	12280	0	0	0	0	0	0	0	0	0	0	0	0	0	0	0	0	0	832	832	832	832	832	832	832	832	832	840	0	0	0	0	0	0	0	0	0	0	0	0	0	0	0	0	0	12976	12808	12488	12232	12032	11800	11616	11392	11184	11096	11096	11704	11936	0	0	0	0	0	0	0	0	0	0	0	0	0	0	0	0	0	0	0	0	0	0	0	0	0	0	0	0	0	0	0	0	0	0	0	0	0	0	0	0	0	0	0	0	0	0	0	0	0	0	0	0	0	0	0	0	0	0	0	0	0	0	0	0	0	0	0	0	0	0	0	0	0	0	0	0	0	0	0	0	0	0	0	0	0	0	0	0	0	0	0	0	0	0	0	0	0	0	0	0	0	17224	17224	17320	17424	17424	17528	17528	17528	17528	17528	17528	17632	17632	17632	17424	17224	17128	16928	16928	16744	16560	16560	16200	16112	15944	15856	15776	15688	15528	15368	15216	14984	14832	14688	14544	14480	14480	14480	14544	14544	14616	14760	14832	14912	14984	14984	14912	14832	14832	14760	14688	14616	14544	14480	14408	14336	14272	14200	14136	14136	14072	14000	13936	13936	13872	13872	13872	13808	13808	13808	13808	13808	13808	13808	13808	13808	13808	13872	13872	14000	14000	14136	14272	14408	14544	14688	14760	14832	14912	15056	15056	15136	15136	15136	15056	15056	15056	15056	15056	15056	15056	15056	15136	15136	15136	15216	15288	15368	15448	15448	15528	15608	15688	15688	15776	15776	15776	15776	15776	15856	15856	15944	15944	15944	16024	16112	16200	16288	16288	16376	16464	16464	16464	16376	16376	16200	16024	15856	15688	15528	15368	15216	15216	15056	14912	14832	14760	14760	14688	14688	14688	14760	14760	14760	14832	14832	14912	14984	14984	15056	15136	15288	15368	15368	15448	15448	15448	15448	15528	15448	15448	15528	15528	15608	15776	15776	15776	15776	15856	15944	16024	16024	16024	16112	16200	16288	16376	16376	16376	16376	16376	16288	16288	16288	16288	16200	16200	16200	16200	16112	16112	16024	15944	15944	15776	15688	15688	15608	15528	15528	15528	15528	15608	15608	15776	15776	15856	15944	16024	16024	16024	16024	15944	15944	15856	15856	15776	15776	15776	15776	15776	15776	15776	15776	15776	15776	15776	15776	15776	15608	15528	15368	15216	15136	14984	14984	14912	14832	14832	14832	14912	14984	15056	15056	14984	14912	14912	14832	14832	14760	14760	14760	14688	14616	14544	14544	14544	14544	14408	14336	14272	14272	14272	14336	14336	14336	14336	14336	14336	14336	14272	14200	14200	14200	14136	14136	14200	14272	14408	14544	14688	14688	14832	14984	15136	15136	15216	15216	15216	15216	15216	15216	15216	15136	15056	14984	14912	14760	14688	14544	14480	14336	14336	14336	14336	14336	14408	14408	14408	14408	14408	14408	14408	14408	14408	14336	14336	14272	14272	14336	14272	14272	14272	14272	14272	14272	14336	14336	14336	14272	14272	14136	14136	14072	14000	13936	13872	13808	13808	13744	13744	13808	13808	13808	13808	13808	13808	13872	13936	13936	13936
0	0	0	0	0	0	0	0	0	0	0	0	0	0	0	0	0	0	0	0	0	0	0	0	0	0	0	0	0	0	0	0	0	0	0	0	0	0	0	0	0	0	0	0	0	0	0	0	0	0	0	0	0	0	0	0	0	0	0	0	0	0	0	0	0	0	0	0	0	0	0	0	0	0	0	0	0	0	0	0	0	0	0	0	0	0	0	0	0	0	0	0	0	17528	17528	17632	17736	17736	17424	17024	16288	15608	15056	14544	14200	13872	13624	13376	13320	13264	13200	13200	13200	13200	13088	13088	12976	12976	0	0	0	0	0	0	0	0	0	0	0	0	0	0	0	0	0	11144	11144	11264	11392	11568	11704	11848	12032	12032	12232	12432	12648	12808	13032	13200	13320	13560	13744	14000	14200	14544	14832	15136	15528	15776	16112	16464	16288	16288	0	14688	14200	13744	13440	13264	13032	12864	12752	12696	12536	12536	0	0	0	0	0	0	0	0	0	0	0	0	0	0	0	0	0	0	0	0	0	0	0	0	0	0	0	0	0	0	0	0	0	0	0	0	0	0	0	0	0	0	13320	13200	12976	12808	12648	12432	12232	12032	11848	11704	11568	11568	11568	11704	11936	13032	13032	13808	0	0	0	0	0	0	0	0	0	0	0	0	0	0	0	0	0	0	0	0	0	0	0	0	0	0	0	0	0	0	0	0	0	0	0	0	0	0	0	0	0	0	0	0	0	0	0	0	0	0	0	0	0	0	0	0	0	0	0	0	0	0	0	0	0	0	0	0	0	0	0	0	0	0	0	0	0	0	0	0	0	0	0	0	0	0	0	0	0	0	0	0	0	0	0	0	0	16648	16648	16928	17224	17320	17424	17424	17528	17528	17632	17632	17632	17632	17632	17632	17528	17528	17424	17224	17224	17024	16744	16648	16376	16112	15944	15856	15776	15608	15528	15448	15216	15056	14912	14832	14688	14544	14544	14544	14616	14688	14760	14832	14912	14984	14984	14984	14984	14912	14832	14760	14688	14616	14544	14480	14480	14336	14272	14200	14200	14136	14072	14072	14000	13936	13872	13872	13872	13808	13808	13808	13808	13808	13744	13744	13744	13744	13744	13808	13808	13808	13808	13936	14072	14200	14336	14688	14760	14832	14912	14984	14984	15056	15136	15056	15056	15056	15056	15136	15136	15136	15136	15136	15136	15136	15216	15216	15288	15368	15448	15528	15608	15688	15688	15776	15856	15856	15856	15944	15944	15944	15944	16024	16024	16024	16112	16200	16288	16376	16376	16464	16464	16464	16464	16376	16376	16200	16024	15856	15688	15528	15368	15216	15216	15056	14912	14832	14760	14760	14688	14688	14760	14760	14760	14760	14760	14832	14832	14912	14984	15056	15136	15216	15288	15368	15368	15448	15448	15448	15448	15448	15448	15528	15608	15608	15688	15776	15776	15776	15856	15944	15944	15944	16024	16112	16112	16288	16288	16376	16376	16376	16376	16376	16376	16376	16376	16288	16288	16288	16288	16200	16200	16112	16112	16024	15944	15856	15776	15688	15688	15688	15608	15608	15688	15776	15776	15856	15944	15944	15944	15856	15856	15776	15688	15688	15608	15608	15608	15528	15528	15528	15528	15528	15528	15528	15528	15528	15528	15608	15608	15448	15288	15136	15056	14984	14912	14912	14832	14832	14832	14912	14984	15056	15136	15136	15056	15056	15056	14984	14984	14912	14912	14912	14832	14760	14688	14616	14616	14616	14544	14408	14408	14408	14408	14480	14480	14480	14480	14480	14480	14408	14336	14272	14272	14200	14200	14272	14272	14408	14544	14616	14760	14912	14984	15136	15216	15288	15368	15288	15288	15288	15288	15288	15288	15216	15136	15056	14912	14832	14688	14616	14544	14336	14336	14336	14336	14336	14336	14336	14336	14336	14336	14336	14408	14480	14480	14480	14480	14480	14480	14480	14480	14480	14408	14408	14408	14408	14408	14408	14336	14272	14200	14136	14072	14000	13936	13808	13744	13744	13744	13688	13688	13808	13808	13808	13808	13808	13808	13808	13872	13936	13936
0	0	0	0	0	0	0	0	0	0	0	0	0	0	0	0	0	0	0	0	0	0	0	0	0	0	0	0	0	0	0	0	0	0	0	0	0	0	0	0	0	0	0	0	0	0	0	0	0	0	0	0	0	0	0	0	0	0	0	0	0	0	0	0	0	0	0	0	0	0	0	0	0	0	0	0	0	0	0	0	0	0	0	0	0	0	0	0	0	0	0	0	0	17528	17528	17632	17320	17320	17320	17024	16376	15856	15216	14832	14832	14072	13808	13624	13496	13440	13376	13376	13376	13320	13264	13144	12976	12976	0	0	0	0	0	0	0	0	0	0	0	0	0	0	0	0	11096	11096	11144	11264	11392	11568	11704	11896	12080	12280	12280	12536	12752	12920	13144	13320	13496	13688	13936	14136	14336	14688	14984	15368	15688	15944	16288	16560	16560	16560	16288	15776	14832	14408	14072	13808	13560	13376	13264	13264	0	0	0	0	0	0	0	0	0	0	0	0	0	0	0	0	0	0	0	0	0	0	0	0	0	0	0	0	0	0	0	0	0	0	0	0	0	0	0	0	0	0	0	13496	13320	13200	13088	12920	12752	12592	12384	12184	12184	0	11800	11752	11752	0	0	13032	13032	13808	0	0	0	0	0	0	16024	16024	16200	16288	16288	16288	16288	0	0	0	0	0	0	0	0	0	0	0	0	0	0	0	0	0	0	0	0	0	0	0	0	0	0	0	0	0	0	0	0	0	0	0	0	0	0	0	0	0	0	0	0	0	0	0	0	0	0	0	0	0	0	0	0	0	0	0	0	0	0	0	0	0	0	0	0	0	0	0	0	0	0	0	0	0	0	0	0	0	0	0	0	16464	16464	16832	17128	17224	17320	17424	17528	17528	17632	17632	17632	17632	17632	17632	17424	17424	17224	17024	16928	16832	16648	16376	16376	16200	15776	15688	15688	15608	15528	15448	15288	15216	15056	14984	14912	14760	14760	14760	14760	14832	14832	14912	14984	14984	14984	14984	14984	14912	14832	14760	14688	14616	14544	14480	14408	14336	14272	14272	14200	14136	14072	14072	14000	13936	13936	13872	13872	13808	13808	13744	13744	13744	13744	13688	13688	13688	13688	13624	13624	13688	13688	13808	14072	14200	14336	14544	14688	14688	14832	14912	14912	14984	15056	15056	15056	15056	15056	15056	15136	15136	15136	15136	15136	15216	15216	15288	15368	15448	15528	15528	15608	15688	15776	15856	15944	15944	16024	16024	16024	16112	16112	16200	16200	16200	16200	16288	16288	16376	16464	16464	16464	16464	16464	16376	16376	16200	16024	15856	15776	15528	15448	15216	15136	15056	14984	14912	14760	14760	14688	14688	14760	14760	14760	14760	14760	14832	14832	14912	14984	15056	15136	15136	15288	15288	15368	15368	15448	15448	15448	15448	15448	15528	15608	15608	15688	15776	15776	15776	15856	15856	15944	15944	16024	16112	16112	16200	16288	16376	16376	16376	16376	16376	16376	16376	16376	16376	16376	16288	16288	16200	16200	16112	16112	16112	16024	15944	15856	15856	15776	15776	15776	15776	15776	15776	15776	15856	15856	15856	15856	15776	15688	15608	15528	15448	15368	15368	15288	15288	15288	15288	15288	15288	15288	15288	15288	15288	15368	15368	15368	15216	15056	14984	14912	14912	14832	14832	14760	14760	14760	14832	14984	15056	15136	15136	15136	15136	15136	15136	15056	15056	15056	15056	14984	14832	14760	14688	14688	14616	14616	14544	14544	14480	14480	14616	14616	14616	14616	14544	14544	14480	14408	14336	14336	14336	14336	14336	14408	14480	14616	14760	14912	15056	15136	15288	15368	15448	15448	15448	15448	15448	15448	15448	15368	15288	15216	15136	15056	14912	14760	14688	14544	14408	14336	14336	14336	14336	14336	14336	14336	14336	14336	14336	14408	14480	14544	14544	14544	14544	14544	14544	14616	14544	14544	14480	14480	14480	14480	14408	14408	14272	14200	14136	14000	13936	13808	13744	13688	13688	13688	13624	13624	13744	13744	13688	13688	13688	13688	13808	13872	13872	13872
0	0	0	0	0	0	0	0	0	0	0	0	0	0	0	0	0	0	0	0	0	0	0	0	0	0	0	0	0	0	0	0	0	0	0	0	0	0	0	0	0	0	0	0	0	0	0	0	0	0	0	0	0	0	0	0	0	0	0	0	0	0	0	0	0	0	0	0	0	0	0	0	0	0	0	0	0	0	0	0	0	0	0	0	0	0	0	0	0	0	0	16928	16928	16928	16928	17024	17128	17128	17128	17128	16832	16376	15944	15944	15136	14760	14480	14200	14072	14000	14000	14272	14272	14200	14072	14000	13872	13808	13808	0	0	0	0	0	0	0	0	0	0	0	0	0	0	11016	11016	11056	11144	11264	11440	11568	11704	11896	12080	12336	12336	12592	12864	13032	13264	13440	13624	13808	14000	14272	14480	14760	15056	15448	15856	16200	16464	16744	16928	16648	16288	15776	15448	14984	14760	14480	14480	15216	0	0	0	0	0	0	0	0	0	0	0	0	0	0	0	0	0	0	0	0	0	0	0	0	0	0	0	0	0	0	0	0	0	0	0	0	0	0	15216	14912	14688	14336	13936	13744	13624	13496	13376	13320	13200	13032	12864	12648	12488	12488	12488	12384	11984	11984	12536	0	13624	13624	14336	15136	15608	16112	0	16464	16288	16112	16024	16024	16112	16200	16200	16200	16200	16200	16288	16376	16464	16648	16648	16832	0	0	0	0	0	0	0	0	0	0	0	0	0	0	0	0	0	0	0	0	0	0	0	0	0	0	0	0	0	0	0	0	0	0	0	0	0	0	0	0	0	0	0	0	0	0	0	0	0	0	0	0	0	0	0	0	0	0	0	0	0	0	0	0	0	0	0	0	0	0	0	0	0	0	0	0	0	16288	16288	16744	17024	17224	17320	17424	17528	17528	17528	17632	17632	17632	17528	17528	17424	17224	17024	16832	16744	16744	16648	16376	16376	15608	15528	15368	15368	15368	15368	15288	15216	15136	15136	15056	14912	14912	14912	14832	14832	14832	14832	14912	14912	14912	14912	14912	14912	14832	14760	14688	14616	14544	14480	14480	14408	14336	14272	14272	14200	14136	14072	14072	14000	13936	13936	13872	13872	13808	13808	13744	13744	13688	13688	13624	13560	13560	13560	13560	13624	13688	13688	13808	13936	14000	14200	14336	14544	14616	14760	14760	14832	14912	14984	14984	14984	15056	15056	15056	15056	15136	15136	15136	15136	15216	15216	15288	15368	15448	15528	15608	15688	15776	15856	15944	16024	16024	16112	16200	16200	16200	16200	16376	16288	16288	16288	16376	16464	16560	16560	16560	16560	16560	16464	16376	16376	16200	16024	15856	15776	15528	15368	15288	15136	15136	14984	14912	14832	14760	14760	14760	14760	14760	14760	14760	14760	14832	14832	14912	14912	14984	15056	15136	15216	15288	15368	15368	15448	15448	15528	15528	15528	15608	15608	15688	15688	15776	15776	15776	15856	15856	15944	15944	16024	16112	16200	16200	16288	16288	16288	16376	16376	16376	16376	16376	16376	16376	16288	16288	16200	16200	16112	16112	16112	16024	15944	15944	15944	15944	15856	15856	15856	15856	15856	15856	15856	15776	15776	15776	15688	15528	15448	15368	15288	15288	15216	15216	15136	15136	15136	15136	15136	15136	15136	15056	15056	15136	15136	15136	15136	15056	14912	14832	14832	14760	14760	14760	14760	14760	14760	14832	14912	14984	15056	15056	15136	15136	15216	15216	15216	15136	15136	15136	15056	14912	14832	14760	14688	14616	14616	14544	14544	14616	14616	14688	14688	14688	14688	14688	14616	14544	14480	14336	14336	14408	14408	14408	14480	14616	14760	14912	15056	15216	15288	15448	15528	15608	15608	15608	15608	15608	15608	15528	15528	15448	15288	15216	15136	15056	14912	14760	14616	14408	14336	14336	14336	14408	14408	14408	14336	14336	14408	14408	14480	14480	14544	14544	14616	14616	14616	14688	14688	14688	14688	14616	14544	14544	14480	14408	14272	14200	14072	14000	13872	13872	13744	13688	13688	13624	13624	13624	13624	13744	13688	13624	13624	13688	13688	13744	13808	13872	13872
0	0	0	0	0	0	0	0	0	0	0	0	0	0	0	0	0	0	0	0	0	0	0	0	0	0	0	0	0	0	0	0	0	0	0	0	0	0	0	0	0	0	0	0	0	0	0	0	0	0	0	0	0	0	0	0	0	0	0	0	0	0	0	0	0	0	0	0	0	0	0	0	0	0	0	0	0	0	0	0	0	0	0	0	0	0	0	0	0	0	0	16832	16744	16744	16832	16928	16928	16928	16928	16928	16832	16744	16376	16112	15776	15528	15136	14912	14544	14408	14336	14272	14272	14200	14072	14000	13872	13808	13808	0	0	0	0	0	0	0	0	0	0	0	0	0	0	11016	11016	11056	11144	11264	11440	11616	11752	11936	12184	12432	12432	12696	12920	13144	13320	13496	13688	13872	14136	14336	14544	14760	15136	15528	15856	16288	16648	16928	17224	17128	16928	16464	16200	16200	15608	15368	15216	15216	16288	0	0	0	0	0	0	0	0	0	0	0	0	0	0	0	0	0	0	0	0	0	0	0	0	0	0	0	0	0	0	0	0	0	0	0	0	15944	15216	14912	14688	14336	13936	13744	13624	13560	13496	13376	13264	13088	12976	12864	12696	12536	12488	12384	12384	12384	12536	13560	13624	13624	14336	15136	15608	16112	16648	16464	16288	16112	16024	16024	16024	16112	16112	16112	16112	16112	16200	16288	16376	16464	16648	16832	17128	0	0	0	0	0	0	0	0	0	0	0	0	0	0	0	0	0	0	0	0	0	0	0	0	0	0	0	0	0	0	0	0	0	0	0	0	0	0	0	0	0	0	0	0	0	0	0	0	0	13560	13560	13320	13320	13376	13440	13560	13744	14000	0	0	0	0	0	0	0	0	0	0	0	0	0	0	13744	13744	14272	0	15776	15776	16200	16560	16832	17024	17224	17320	17320	17424	17424	17528	17320	17320	17224	17024	16744	16560	16376	16200	15944	15688	15528	15368	15288	15136	15136	15136	15136	15136	15216	15216	15136	15136	15056	14984	14912	14912	14832	14832	14832	14832	14832	14832	14832	14760	14760	14760	14688	14688	14616	14544	14480	14480	14408	14336	14336	14272	14200	14200	14136	14136	14072	14000	14000	13936	13936	13872	13808	13808	13744	13744	13688	13624	13624	13560	13560	13560	13560	13560	13560	13560	13624	13744	13872	14000	14136	14336	14408	14616	14688	14760	14832	14912	14912	14984	14984	14984	15056	15056	15136	15136	15136	15136	15216	15216	15288	15368	15448	15528	15608	15688	15776	15856	16024	16112	16112	16200	16288	16376	16376	16376	16464	16464	16464	16464	16464	16560	16560	16648	16648	16560	16560	16560	16464	16288	16112	15944	15776	15688	15528	15368	15288	15136	15136	15056	14984	14912	14912	14832	14832	14760	14760	14760	14760	14832	14832	14832	14912	14912	14984	15056	15136	15216	15288	15368	15448	15448	15528	15528	15528	15608	15608	15688	15776	15776	15776	15776	15776	15856	15944	15944	15944	16024	16112	16200	16288	16288	16288	16288	16376	16376	16376	16376	16376	16376	16288	16288	16200	16200	16112	16112	16024	16024	16024	15944	15944	15944	15944	15856	15856	15856	15856	15856	15856	15776	15776	15688	15608	15528	15448	15288	15216	15136	15136	15056	14984	14912	14912	14912	14912	14912	14912	14912	14912	14912	14912	14912	14984	14912	14832	14760	14688	14688	14688	14616	14616	14616	14616	14616	14760	14832	14912	14984	14984	15056	15056	15136	15136	15216	15216	15216	15136	15056	14912	14832	14688	14616	14544	14544	14544	14544	14616	14688	14760	14832	14832	14832	14832	14760	14688	14544	14544	14544	14544	14544	14616	14616	14760	14912	15056	15216	15288	15368	15448	15608	15688	15688	15688	15688	15688	15688	15688	15608	15448	15368	15288	15216	15136	14984	14832	14616	14408	14336	14336	14336	14408	14408	14408	14480	14480	14480	14480	14544	14688	14688	14760	14760	14760	14760	14832	14760	14760	14616	14544	14480	14408	14336	14272	14136	14072	14000	13872	13808	13744	13688	13688	13560	13560	13560	13560	13560	13688	13688	13624	13624	13624	13688	13744	13808	13872	13936
