2423	2409	2409	2400	2386	2386	2386	2386	2367	2364	2364	2364	2364	2364	2327	2299	2256	2207	2168	2103	2048	2016	1970	1890	1845	1785	1785	1805	1866	1816	1798	1798	509	0	0	0	0	0	865	1267	1235	1215	1202	1182	1171	1164	1154	1148	1143	1133	1133	1133	1138	1135	1133	1128	1125	1123	1123	1120	1118	1108	1108	1108	1103	1100	1098	1098	559	0	0	0	0	0	0	0	0	0	0	0	0	0	0	0	0	0	450	1193	1193	1193	1193	1198	1201	1205	1210	1211	1211	1221	1223	1223	1228	1231	1235	1244	1247	1247	1257	1263	1273	1277	1279	1279	1284	1285	1279	1275	1271	1260	1251	1244	1229	1221	1213	1193	1182	1175	1165	1158	1153	1149	1146	1143	1133	1130	1128	1128	1125	1123	1123	1126	1128	1138	1141	1144	1154	1160	1165	1182	1190	1199	1223	1223	1223	1240	1244	1247	1247	1253	1260	1260	1262	1266	1296	1294	1286	1274	1265	1253	1237	1226	1211	1201	1193	1182	1164	1155	1144	1139	1138	1138	1151	1159	1171	1193	1204	1217	1235	1246	1260	1279	1292	1313	1318	1320	1320	1320	1317	1306	1297	1290	1273	1264	1257	1241	1233	1227	1211	1200	1192	1182	1175	1170	1165	1162	1160	1160	1160	1160	1154	1154	1154	1160	1163	1165	1171	1174	1176	1182	1187	1193	1199	1202	1205	1205	1202	1199	1193	1190	1187	1182	1180	1176	1171	1169	1165	1165	1163	1160	1160	1162	1165	1165	1165	1165	1165	1167	1171	1171	1171	1171	1171	1172	1176	1176	1179	1187	1187	1190	1199	1203	1205	1205	1209	1212	1217	1221	1223	1223	1219	1217	1217	1213	1211	1211	1211	1210	1205	1205	1205	1205	1201	1199	1199	1199	1199	1193	1190	1187	1187	1181	1176	1165	1162	1160	1154	1151	1149	1138	1133	1128	1118	1113	1108	1098	1098	1098	1085	1084	1084	1075	1072	1070	1070	1070	1070	1074	1076	1079	1083	1085	1088	1096	1100	1103	1115	1121	1128	1141	1147	1154	1163	1171	1187	1196	1204	1217	1222	1226	1235	1235	1235	1235	1235	1235	1235	1227	1223	1223	1219	1216	1211	1211	1211	1211	1211	1211	1211	1211	1211	1211	1211	1212	1217	1217	1217	1217	1214	1211	1211	1208	1205	1205	1205	1205	1205	1205	1205	1205	1205	1205	1205	1205	1205	1211	1214	1217	1223	1223	1223	1223	1225	1229	1234	1235	1235	1235	1235	1235	1240	1241	1241	1246	1247	1247	1247	1247	1247	1247	1245	1241	1241	1241	1241	1241	1239	1235	1235	1235	1235	1231	1229	1229	1225	1223	1223	1223	1223	1223	1223	1223	1223	1223	1223	1223	1227	1231	1241	1241	1242	1247	1247	1247	1247	1247	1247	1247	1247	1247	1247	1244	1241	1241	1241	1241	1241	1244	1247	1253	1256	1260	1266	1272	1279	1286	1295	1306	1319	1326	1334	1340	1347	1356	1370	1374	1379	1406	1439	1486	1560	1613	1688	1804	1879	1985	2129	2239	2409	2552	2619	2698	2769	2771	2727	2705	2690	2669	2647	2620	2558	2502	2471	2433	2416	2409	2409	2393	2378	2341	2312	2291	2256	2230	2207	2158	2134	2114	2068	2047	2028	1985	1948	1920	1880	1880	1877	1838	1815	1796	1760	1746	1734	1700	1682	1666	1644	1644	1644	1644	1639	1633	1633	1633	1633	1633	1643	1654	1654	1664	1677	1687	1703	1723	1734	1740	1748	1770	1778	1785	1796	1803	1811	1823	1825	1825	1836	1842	1852	1852	1852	1852	1863	1866	1866	1866	1870	1880	1880	1880	1880	1880	1883	1894	1905	1909	1909	1919	1924	1924	1944	1954	1954	1965	1970	1970	1980	1987	2001	2001	2001	2001	2001	2001	2001	2001	2001	2001	2001	2001	2001	2001	2001	2001	2001	2001	2001	1993	1985	1970	1970	1970	1954	1954	1954	1954	1954	1954	1954	1961	1970	1970	1970	1970	1984	1991	2001	2016	2024	2034	2049	2057	2068	2082	2085	2085	2085	2091	2103	2103	2103	2103	2103	2108	2121	2107	2103	2103	2103	2103	2103	2090	2085	2085	2073	2068	2068	2056	2051	2051
2386	2386	2366	2355	2341	2341	2325	2298	2298	2298	2298	2280	2263	2236	2171	2129	2068	1988	1943	1880	1825	1811	1811	1854	1845	1785	1785	1347	0	0	0	0	931	1292	1266	1240	1223	1199	1187	1178	1160	1153	1148	1144	1140	1138	1138	1138	1137	1133	1133	1133	1138	1135	1133	1128	1125	1123	1118	1115	1113	1103	1100	1098	1093	1093	1093	1093	1093	1093	21	0	0	0	0	0	0	0	0	0	0	0	0	0	0	1048	1182	1182	1186	1187	1187	1192	1195	1199	1204	1207	1211	1211	1213	1217	1222	1225	1229	1234	1238	1247	1252	1253	1253	1258	1261	1266	1266	1265	1260	1255	1251	1241	1233	1227	1217	1209	1202	1182	1175	1170	1160	1156	1153	1149	1142	1138	1133	1130	1128	1123	1123	1123	1123	1126	1128	1133	1136	1138	1149	1155	1160	1171	1179	1187	1211	1211	1211	1228	1234	1241	1247	1253	1260	1260	1262	1266	1272	1268	1260	1243	1234	1223	1207	1199	1187	1173	1165	1154	1141	1133	1123	1123	1123	1123	1131	1139	1154	1171	1180	1193	1211	1223	1241	1255	1264	1279	1289	1292	1286	1286	1285	1279	1270	1264	1253	1241	1233	1223	1215	1209	1193	1186	1181	1171	1167	1164	1154	1154	1154	1149	1149	1149	1149	1149	1149	1154	1157	1160	1165	1168	1171	1176	1179	1182	1187	1190	1193	1199	1194	1187	1182	1179	1176	1171	1169	1165	1165	1163	1160	1155	1154	1154	1154	1156	1160	1160	1160	1160	1164	1165	1165	1170	1171	1171	1171	1172	1176	1181	1183	1187	1192	1194	1199	1203	1206	1211	1211	1212	1217	1217	1217	1217	1217	1217	1217	1213	1210	1205	1205	1205	1205	1201	1199	1199	1195	1193	1193	1193	1193	1187	1184	1182	1176	1170	1165	1160	1157	1154	1149	1143	1138	1133	1131	1128	1118	1113	1108	1098	1098	1098	1085	1084	1084	1079	1077	1074	1074	1076	1079	1083	1086	1088	1092	1095	1098	1106	1110	1113	1125	1131	1138	1147	1152	1160	1173	1179	1187	1201	1207	1211	1216	1218	1223	1227	1229	1229	1229	1228	1223	1223	1222	1217	1217	1216	1211	1211	1210	1205	1205	1205	1205	1205	1206	1211	1211	1211	1211	1211	1211	1211	1211	1211	1205	1205	1205	1205	1205	1205	1205	1205	1205	1205	1205	1205	1211	1211	1211	1217	1220	1223	1223	1226	1229	1229	1231	1235	1235	1237	1241	1241	1241	1241	1246	1247	1247	1247	1247	1247	1247	1247	1247	1247	1245	1241	1241	1241	1241	1236	1235	1235	1235	1234	1229	1229	1228	1223	1223	1223	1223	1223	1223	1223	1219	1217	1217	1217	1218	1223	1223	1224	1229	1233	1236	1241	1241	1241	1241	1241	1241	1241	1241	1241	1241	1241	1241	1241	1241	1241	1241	1244	1247	1253	1256	1260	1266	1272	1279	1292	1302	1313	1326	1333	1341	1355	1359	1364	1384	1389	1394	1430	1464	1513	1589	1654	1748	1872	1965	2103	2265	2381	2558	2719	2786	2853	2906	2901	2853	2803	2780	2757	2648	2592	2532	2425	2376	2341	2325	2315	2298	2283	2265	2216	2202	2190	2158	2145	2134	2103	2081	2064	2034	2013	1996	1954	1927	1906	1880	1864	1852	1852	1821	1797	1773	1752	1734	1700	1682	1666	1654	1649	1644	1644	1644	1644	1644	1644	1644	1644	1649	1654	1665	1671	1677	1698	1715	1735	1747	1758	1773	1784	1790	1798	1809	1821	1838	1850	1852	1852	1864	1866	1866	1866	1870	1880	1880	1880	1880	1891	1894	1894	1905	1909	1909	1920	1924	1924	1935	1939	1939	1949	1954	1954	1975	1985	1985	1996	2001	2001	2001	2001	2001	2001	2001	2001	2001	2001	2001	1992	1985	1985	1985	1985	1985	1985	1985	1985	1985	1985	1985	1985	1985	1970	1970	1970	1970	1970	1970	1970	1970	1970	1970	1977	1985	1985	1985	1985	1999	2008	2018	2032	2040	2051	2051	2057	2068	2082	2085	2085	2085	2091	2103	2103	2103	2103	2089	2085	2085	2085	2085	2085	2085	2081	2068	2055	2051	2051	2051	2047	2034	2023	2015	2001
2364	2364	2344	2329	2309	2291	2266	2228	2204	2194	2183	2153	2130	2095	2026	1985	1926	1887	1878	1880	1825	1811	1811	1132	922	892	892	674	0	464	627	618	1072	1247	1226	1206	1193	1174	1167	1161	1149	1145	1143	1141	1139	1138	1138	1138	1138	1136	1136	1136	1138	1135	1133	1128	1125	1123	1118	1114	1110	1103	1099	1095	1090	1089	1088	1088	1091	1093	557	549	552	556	560	564	572	575	580	582	584	586	55	233	588	1112	1179	1179	1184	1184	1184	1189	1192	1196	1201	1204	1208	1210	1213	1217	1222	1224	1226	1233	1237	1244	1249	1250	1250	1253	1255	1260	1260	1258	1254	1249	1245	1235	1227	1221	1214	1204	1196	1182	1175	1170	1160	1156	1153	1149	1142	1138	1133	1130	1128	1123	1123	1123	1123	1124	1126	1130	1133	1136	1144	1149	1154	1166	1176	1187	1211	1211	1211	1228	1234	1241	1244	1247	1250	1250	1253	1256	1260	1255	1248	1231	1221	1208	1193	1184	1174	1160	1152	1141	1128	1121	1113	1113	1113	1113	1123	1131	1146	1161	1170	1184	1200	1210	1226	1242	1251	1263	1273	1276	1273	1271	1268	1263	1257	1251	1241	1231	1224	1214	1206	1200	1184	1180	1175	1166	1162	1159	1152	1150	1149	1146	1146	1146	1146	1146	1147	1152	1153	1155	1162	1165	1168	1174	1176	1179	1184	1186	1188	1190	1186	1182	1177	1174	1170	1168	1166	1162	1160	1159	1157	1152	1152	1152	1152	1153	1157	1160	1160	1160	1164	1165	1165	1167	1169	1171	1171	1172	1176	1181	1183	1187	1192	1194	1199	1203	1206	1211	1211	1212	1217	1217	1217	1217	1217	1216	1214	1212	1210	1205	1205	1205	1202	1200	1199	1196	1194	1193	1190	1189	1187	1184	1183	1182	1176	1170	1165	1157	1154	1151	1146	1142	1138	1133	1131	1128	1118	1113	1108	1101	1100	1100	1092	1090	1088	1084	1082	1081	1081	1082	1084	1088	1090	1093	1100	1102	1106	1112	1116	1120	1131	1136	1144	1152	1157	1162	1173	1180	1190	1199	1204	1208	1213	1215	1217	1219	1221	1223	1223	1222	1220	1220	1219	1214	1214	1213	1208	1208	1208	1205	1205	1205	1205	1205	1205	1208	1208	1208	1208	1208	1208	1208	1210	1211	1205	1203	1202	1202	1202	1202	1202	1202	1202	1205	1205	1205	1208	1209	1211	1217	1220	1223	1226	1229	1232	1232	1234	1238	1241	1243	1247	1247	1247	1247	1250	1250	1250	1250	1249	1247	1247	1246	1244	1244	1242	1238	1238	1238	1238	1236	1234	1232	1232	1231	1229	1227	1225	1223	1221	1220	1220	1220	1220	1220	1218	1217	1217	1217	1217	1220	1222	1223	1226	1230	1233	1238	1238	1238	1238	1238	1238	1238	1238	1238	1241	1241	1241	1241	1241	1241	1241	1244	1247	1253	1256	1260	1269	1276	1282	1295	1305	1316	1326	1335	1345	1362	1368	1375	1396	1401	1406	1446	1482	1532	1615	1682	1780	1922	2020	2160	2331	2450	2628	2785	2852	2922	2962	2949	2886	2835	2804	2757	2637	2573	2494	2390	2347	2330	2322	2310	2277	2256	2239	2206	2180	2164	2148	2136	2123	2086	2069	2055	2026	2005	1989	1954	1922	1899	1873	1857	1845	1845	1822	1803	1773	1756	1740	1712	1693	1677	1660	1654	1649	1649	1649	1649	1649	1649	1649	1655	1657	1660	1671	1679	1688	1710	1724	1742	1759	1770	1786	1797	1803	1812	1823	1834	1852	1864	1866	1866	1878	1880	1880	1880	1884	1894	1894	1897	1902	1907	1909	1909	1920	1924	1924	1935	1939	1939	1950	1954	1954	1965	1971	1978	1994	2002	2002	2012	2016	2010	2010	2010	2010	2004	2001	2001	1996	1993	1993	1988	1984	1978	1978	1978	1978	1982	1985	1985	1985	1985	1985	1985	1985	1970	1970	1970	1970	1970	1970	1970	1970	1970	1977	1981	1985	1992	1997	2002	2009	2016	2026	2041	2046	2051	2058	2066	2076	2084	2085	2085	2085	2088	2094	2094	2094	2094	2087	2083	2076	2076	2074	2068	2068	2064	2051	2045	2041	2034	2034	2031	2018	2006	2000	1993
2341	2341	2321	2302	2277	2241	2207	2158	2110	2090	2068	2026	1996	1954	1881	1840	1785	1785	1814	1880	1825	1811	1811	410	0	0	0	0	0	927	1254	1235	1213	1201	1187	1172	1162	1149	1146	1143	1138	1138	1138	1138	1138	1138	1138	1138	1138	1138	1138	1138	1138	1135	1133	1128	1125	1123	1118	1113	1108	1103	1098	1093	1088	1086	1084	1084	1088	1093	1093	1098	1103	1113	1120	1128	1143	1151	1160	1165	1167	1171	110	466	1176	1176	1176	1176	1181	1182	1182	1186	1189	1193	1198	1201	1205	1210	1213	1217	1222	1223	1223	1232	1237	1241	1246	1247	1247	1247	1248	1253	1253	1252	1247	1243	1239	1229	1221	1216	1211	1199	1191	1182	1175	1170	1160	1156	1153	1149	1142	1138	1133	1130	1128	1123	1123	1123	1123	1123	1123	1128	1131	1133	1138	1144	1149	1160	1173	1187	1211	1211	1211	1228	1234	1241	1241	1241	1241	1241	1243	1247	1247	1242	1235	1219	1208	1193	1178	1170	1160	1146	1139	1128	1116	1110	1103	1103	1103	1103	1115	1124	1138	1150	1160	1176	1189	1197	1211	1229	1238	1247	1256	1260	1260	1255	1252	1247	1243	1239	1229	1221	1215	1205	1197	1191	1176	1173	1170	1160	1156	1154	1149	1146	1144	1144	1144	1144	1144	1144	1144	1149	1149	1149	1160	1163	1165	1171	1173	1176	1182	1182	1182	1182	1179	1176	1171	1168	1165	1165	1163	1160	1155	1154	1154	1150	1149	1149	1149	1151	1154	1159	1160	1160	1164	1165	1165	1165	1167	1171	1171	1172	1176	1181	1183	1187	1192	1194	1199	1203	1206	1211	1211	1212	1217	1217	1217	1217	1217	1216	1211	1211	1210	1205	1205	1204	1199	1199	1198	1193	1193	1192	1187	1184	1182	1182	1182	1182	1176	1170	1165	1154	1151	1149	1144	1141	1138	1133	1131	1128	1118	1113	1108	1103	1103	1103	1098	1096	1093	1088	1088	1088	1088	1088	1088	1092	1095	1098	1107	1110	1113	1117	1121	1128	1136	1142	1149	1158	1162	1165	1174	1181	1193	1198	1201	1205	1210	1211	1211	1211	1212	1217	1217	1217	1217	1217	1216	1211	1211	1210	1205	1205	1205	1205	1205	1205	1205	1205	1205	1205	1205	1205	1205	1205	1205	1205	1208	1211	1205	1202	1199	1199	1199	1199	1199	1199	1199	1205	1205	1205	1205	1208	1211	1217	1220	1223	1229	1232	1235	1235	1237	1241	1246	1249	1253	1253	1253	1253	1253	1253	1253	1253	1251	1247	1247	1245	1241	1241	1239	1235	1235	1235	1235	1235	1233	1229	1229	1229	1229	1225	1223	1223	1219	1217	1217	1217	1217	1217	1217	1217	1217	1217	1217	1217	1221	1223	1223	1227	1230	1235	1235	1235	1235	1235	1235	1235	1235	1235	1241	1241	1241	1241	1241	1241	1241	1244	1247	1253	1256	1260	1273	1279	1286	1299	1309	1320	1327	1337	1349	1369	1377	1386	1408	1413	1418	1462	1499	1551	1640	1710	1811	1972	2074	2216	2396	2518	2698	2851	2917	2990	3019	2996	2920	2868	2828	2757	2627	2554	2457	2355	2319	2319	2319	2306	2256	2228	2212	2196	2157	2139	2139	2127	2113	2068	2057	2047	2018	1997	1981	1954	1918	1891	1866	1850	1838	1838	1823	1809	1773	1759	1747	1723	1705	1688	1666	1660	1654	1654	1654	1654	1654	1654	1654	1666	1666	1666	1676	1687	1700	1721	1733	1748	1771	1783	1798	1810	1816	1825	1836	1848	1866	1878	1880	1880	1892	1894	1894	1894	1899	1909	1909	1913	1924	1924	1924	1924	1935	1939	1939	1950	1954	1954	1965	1970	1970	1980	1988	2001	2013	2018	2018	2029	2032	2018	2018	2018	2018	2007	2001	2001	1991	1985	1985	1985	1984	1970	1970	1970	1970	1978	1985	1985	1985	1985	1985	1985	1985	1970	1970	1970	1970	1970	1970	1970	1970	1970	1984	1985	1985	2000	2008	2018	2018	2024	2034	2049	2051	2051	2066	2074	2085	2085	2085	2085	2085	2085	2085	2085	2085	2085	2085	2080	2068	2068	2064	2051	2051	2047	2034	2034	2030	2018	2018	2014	2001	1990	1985	1985
2192	2158	2124	2087	2034	1991	1951	1894	1845	1819	1785	1764	1760	1760	1848	1840	1785	1785	1246	0	0	384	1356	1317	1294	1260	1232	1216	1193	1177	1167	1154	1147	1143	1138	1135	1132	1128	1128	1128	1128	1135	1138	1138	1138	1138	1138	1138	1138	1138	1138	1139	1144	1140	1137	1128	1125	1122	1113	1110	1107	1093	1090	1088	1084	1081	1079	1079	1083	1088	1093	1098	1103	1113	1120	1128	1143	1151	1160	1165	1167	1171	110	464	1171	1171	1173	1176	1176	1178	1182	1182	1184	1187	1197	1199	1199	1209	1213	1217	1217	1219	1223	1228	1231	1235	1235	1235	1235	1239	1242	1247	1243	1240	1235	1231	1227	1217	1213	1209	1199	1195	1191	1182	1175	1170	1165	1162	1159	1149	1146	1143	1138	1132	1128	1128	1125	1123	1123	1123	1123	1128	1131	1133	1138	1144	1149	1160	1168	1176	1193	1199	1205	1205	1210	1217	1217	1220	1223	1229	1229	1229	1224	1216	1205	1189	1181	1171	1156	1146	1133	1120	1113	1103	1095	1090	1084	1084	1085	1088	1100	1107	1118	1133	1142	1154	1167	1175	1187	1196	1203	1217	1226	1229	1229	1225	1223	1223	1219	1216	1211	1203	1198	1193	1186	1180	1165	1162	1159	1154	1148	1144	1144	1140	1138	1138	1138	1138	1138	1138	1138	1144	1147	1149	1154	1157	1160	1165	1165	1165	1171	1171	1171	1171	1168	1165	1160	1157	1154	1154	1152	1149	1149	1149	1149	1145	1144	1144	1148	1149	1149	1153	1156	1160	1160	1162	1165	1165	1167	1171	1175	1178	1182	1182	1185	1193	1198	1199	1199	1203	1206	1211	1215	1217	1217	1217	1217	1217	1217	1216	1211	1211	1210	1205	1205	1204	1199	1199	1198	1193	1193	1192	1187	1184	1182	1182	1182	1182	1176	1170	1165	1154	1151	1149	1144	1141	1138	1133	1131	1128	1123	1118	1113	1113	1111	1108	1108	1106	1103	1103	1103	1103	1103	1103	1103	1107	1110	1113	1122	1125	1128	1132	1135	1138	1147	1153	1160	1169	1173	1176	1181	1183	1187	1192	1195	1199	1199	1199	1199	1203	1205	1205	1205	1205	1205	1209	1211	1211	1211	1210	1205	1205	1205	1205	1205	1205	1205	1201	1199	1199	1199	1199	1199	1199	1199	1205	1205	1205	1199	1196	1193	1193	1193	1193	1193	1196	1199	1199	1199	1199	1199	1202	1205	1217	1220	1223	1229	1232	1235	1241	1243	1247	1247	1249	1253	1253	1253	1253	1253	1253	1253	1248	1247	1247	1237	1235	1235	1230	1229	1229	1229	1229	1229	1229	1227	1223	1223	1223	1223	1223	1223	1223	1219	1217	1217	1217	1217	1217	1213	1211	1211	1211	1211	1211	1215	1218	1223	1223	1224	1229	1229	1229	1229	1229	1229	1235	1235	1235	1235	1238	1241	1241	1241	1241	1247	1247	1247	1253	1256	1260	1279	1282	1286	1305	1312	1320	1333	1344	1356	1377	1385	1394	1416	1425	1435	1488	1535	1601	1707	1866	2121	2121	2204	2364	2547	2682	2886	3000	3049	3102	3042	2986	2886	2763	2727	2727	2487	2409	2409	2224	2158	2158	611	440	2121	2121	2118	2103	2091	2085	2085	2074	2065	2051	2040	2030	2001	1991	1980	1939	1912	1891	1866	1850	1838	1838	1823	1810	1785	1771	1759	1735	1723	1712	1688	1688	1688	1677	1677	1677	1677	1677	1677	1677	1682	1688	1699	1710	1723	1746	1758	1773	1796	1809	1825	1825	1835	1852	1864	1876	1894	1894	1899	1909	1909	1914	1924	1936	1939	1939	1939	1943	1954	1954	1954	1954	1966	1970	1970	1981	1985	1985	1996	2001	2001	2024	2034	2034	2034	2037	2051	2051	2048	2034	2024	2018	2018	2007	1999	1985	1985	1984	1970	1970	1970	1970	1970	1970	1970	1970	1970	1970	1978	1985	1985	1985	1985	1985	1985	1985	1985	1985	1985	1985	1985	1985	2000	2001	2001	2017	2025	2034	2034	2041	2051	2051	2057	2068	2068	2068	2068	2082	2085	2085	2085	2085	2085	2071	2068	2068	2068	2063	2051	2051	2047	2034	2034	2030	2018	2018	2014	2001	2001	1998	1985	1985	1979	1954
2065	2026	1984	1949	1904	1860	1837	1808	1834	1819	1785	1764	1760	1760	1073	920	892	892	623	0	502	820	1292	1259	1240	1212	1188	1175	1158	1146	1140	1134	1130	1128	1126	1126	1126	1126	1126	1126	1128	1135	1138	1138	1138	1138	1138	1140	1141	1141	1141	1141	1144	1139	1135	1126	1121	1118	1110	1108	1105	1090	1087	1083	1079	1078	1076	1076	1081	1086	1093	1098	1103	1113	1120	1128	1143	1151	1160	1162	1166	1171	641	817	1171	1171	1172	1174	1174	1175	1176	1179	1182	1187	1194	1197	1199	1206	1210	1214	1216	1219	1223	1228	1230	1232	1230	1229	1229	1233	1236	1238	1236	1234	1229	1225	1221	1214	1210	1206	1199	1195	1191	1182	1175	1170	1165	1162	1159	1152	1148	1146	1141	1136	1133	1130	1129	1128	1128	1128	1128	1130	1132	1133	1138	1144	1149	1160	1168	1176	1190	1196	1202	1202	1206	1211	1214	1215	1217	1220	1219	1217	1212	1205	1196	1178	1170	1160	1146	1136	1123	1110	1103	1094	1085	1081	1077	1077	1078	1081	1092	1100	1110	1122	1129	1138	1153	1161	1174	1182	1189	1202	1208	1211	1211	1209	1208	1208	1206	1204	1199	1193	1189	1182	1177	1171	1157	1155	1154	1149	1144	1141	1138	1137	1136	1136	1136	1136	1136	1137	1138	1141	1145	1149	1154	1156	1157	1162	1162	1162	1165	1166	1166	1168	1164	1160	1155	1152	1149	1149	1148	1146	1146	1146	1146	1144	1144	1144	1146	1147	1149	1153	1155	1157	1159	1162	1165	1165	1167	1171	1175	1178	1182	1184	1187	1193	1198	1200	1202	1206	1209	1211	1215	1217	1217	1217	1217	1217	1217	1216	1214	1212	1211	1208	1206	1205	1202	1202	1201	1196	1194	1192	1187	1184	1182	1182	1180	1179	1174	1167	1162	1154	1151	1149	1144	1141	1138	1133	1132	1130	1126	1122	1118	1116	1114	1113	1111	1109	1108	1108	1108	1108	1110	1110	1110	1115	1117	1120	1127	1130	1133	1140	1143	1146	1153	1157	1162	1171	1174	1176	1181	1183	1184	1189	1191	1193	1193	1193	1193	1197	1199	1199	1201	1202	1202	1206	1208	1208	1208	1207	1202	1202	1202	1202	1202	1202	1202	1198	1196	1196	1194	1193	1193	1195	1196	1202	1202	1202	1196	1193	1190	1190	1190	1190	1190	1193	1196	1196	1196	1196	1199	1202	1205	1214	1218	1223	1229	1232	1235	1241	1243	1247	1247	1249	1253	1253	1252	1250	1250	1250	1250	1247	1246	1244	1237	1234	1232	1230	1229	1229	1227	1226	1226	1226	1224	1220	1220	1221	1223	1223	1222	1220	1218	1217	1217	1217	1217	1217	1213	1211	1211	1211	1211	1211	1215	1217	1220	1222	1224	1229	1229	1229	1229	1229	1229	1235	1235	1235	1235	1238	1241	1241	1241	1241	1247	1249	1250	1256	1260	1263	1279	1284	1290	1309	1316	1324	1337	1347	1360	1378	1387	1398	1420	1430	1443	1493	1538	1601	1712	1832	2015	2097	2194	2352	2534	2657	2837	2934	2962	2978	2922	2870	2778	2716	2658	2546	2426	2392	2409	2224	2158	2158	611	440	2121	2091	2076	2068	2062	2060	2060	2054	2049	2034	2029	2023	2001	1991	1980	1939	1912	1892	1873	1853	1838	1838	1827	1816	1792	1781	1771	1742	1729	1717	1694	1694	1694	1688	1688	1688	1688	1688	1688	1694	1697	1700	1711	1722	1736	1759	1774	1792	1810	1822	1838	1845	1853	1866	1885	1895	1909	1915	1919	1924	1924	1929	1939	1952	1954	1954	1960	1964	1970	1970	1972	1978	1984	1986	1986	1997	2002	2002	2013	2018	2018	2035	2044	2051	2051	2052	2060	2060	2056	2034	2024	2017	2010	1999	1992	1985	1980	1977	1970	1970	1970	1970	1970	1970	1970	1970	1970	1970	1974	1978	1985	1985	1985	1985	1985	1985	1985	1985	1985	1985	1989	1993	2001	2005	2010	2025	2029	2034	2034	2041	2051	2059	2063	2068	2068	2068	2068	2082	2085	2085	2085	2085	2085	2071	2068	2068	2061	2057	2051	2044	2040	2034	2028	2022	2010	2004	2000	1993	1988	1984	1978	1972	1965	1946
1938	1894	1843	1812	1773	1729	1723	1723	1823	1819	1785	1764	1760	1760	299	0	0	0	0	0	1003	1256	1229	1201	1186	1165	1145	1134	1123	1116	1113	1113	1113	1113	1113	1116	1119	1123	1123	1124	1128	1135	1138	1138	1138	1138	1138	1142	1144	1144	1144	1144	1144	1138	1132	1123	1117	1113	1108	1105	1102	1088	1083	1079	1074	1074	1074	1074	1079	1084	1093	1098	1103	1113	1120	1128	1143	1151	1160	1160	1165	1171	1171	1171	1171	1171	1171	1171	1171	1171	1171	1175	1180	1187	1192	1195	1199	1204	1207	1211	1216	1219	1223	1228	1229	1229	1224	1223	1223	1227	1229	1229	1229	1228	1223	1219	1216	1211	1207	1204	1199	1195	1191	1182	1175	1170	1165	1162	1159	1154	1151	1149	1144	1140	1138	1133	1133	1133	1133	1133	1133	1133	1133	1133	1138	1144	1149	1160	1168	1176	1187	1193	1199	1199	1202	1205	1211	1211	1211	1211	1209	1205	1200	1194	1187	1167	1159	1149	1135	1126	1113	1100	1093	1084	1076	1073	1070	1070	1071	1074	1085	1092	1103	1111	1116	1123	1139	1148	1160	1168	1175	1187	1191	1193	1193	1193	1193	1193	1193	1192	1187	1184	1180	1171	1167	1163	1149	1149	1148	1144	1140	1138	1133	1133	1133	1133	1133	1133	1133	1136	1138	1138	1144	1149	1154	1154	1154	1160	1160	1160	1160	1160	1160	1165	1160	1154	1149	1147	1144	1144	1144	1144	1144	1144	1144	1144	1144	1144	1144	1146	1149	1153	1154	1154	1159	1162	1165	1165	1167	1171	1175	1178	1182	1186	1189	1193	1198	1200	1205	1209	1211	1211	1215	1217	1217	1217	1217	1217	1217	1217	1217	1213	1211	1211	1207	1205	1205	1205	1204	1199	1195	1192	1187	1184	1182	1182	1179	1176	1171	1165	1160	1154	1151	1149	1144	1141	1138	1133	1133	1133	1128	1126	1123	1118	1118	1118	1113	1113	1113	1113	1113	1113	1118	1118	1118	1122	1125	1128	1132	1135	1138	1147	1151	1154	1159	1162	1165	1174	1176	1176	1181	1182	1182	1186	1187	1187	1187	1187	1187	1191	1193	1193	1197	1199	1199	1203	1205	1205	1205	1204	1199	1199	1199	1199	1199	1199	1199	1195	1193	1193	1189	1187	1187	1191	1193	1199	1199	1199	1193	1190	1187	1187	1187	1187	1187	1190	1193	1193	1193	1193	1199	1202	1205	1211	1216	1223	1229	1232	1235	1241	1243	1247	1247	1249	1253	1253	1251	1247	1247	1247	1247	1247	1245	1241	1236	1233	1229	1229	1229	1229	1224	1223	1223	1223	1221	1217	1217	1218	1223	1223	1222	1217	1217	1217	1217	1217	1217	1217	1213	1211	1211	1211	1211	1211	1215	1217	1217	1221	1224	1229	1229	1229	1229	1229	1229	1235	1235	1235	1235	1238	1241	1241	1241	1241	1247	1250	1253	1260	1263	1266	1279	1286	1293	1312	1319	1327	1340	1351	1364	1378	1389	1402	1424	1436	1451	1498	1541	1601	1717	1797	1909	2074	2184	2341	2521	2632	2788	2868	2876	2853	2801	2754	2669	2669	2588	2364	2364	2375	2409	2224	2158	2158	611	440	2121	2060	2034	2034	2034	2034	2034	2034	2032	2018	2018	2016	2001	1991	1980	1939	1912	1893	1880	1855	1838	1838	1831	1823	1798	1791	1784	1748	1735	1723	1700	1700	1700	1700	1700	1700	1700	1700	1700	1712	1712	1712	1722	1734	1748	1771	1789	1811	1824	1836	1852	1864	1871	1880	1905	1914	1924	1937	1939	1939	1939	1944	1954	1967	1970	1970	1982	1985	1985	1985	1989	2001	2001	2001	2001	2014	2018	2018	2029	2034	2034	2046	2054	2068	2068	2068	2068	2068	2063	2034	2024	2016	2001	1991	1985	1985	1976	1970	1970	1970	1970	1970	1970	1970	1970	1970	1970	1970	1970	1970	1985	1985	1985	1985	1985	1985	1985	1985	1985	1985	1992	2001	2001	2008	2018	2033	2034	2034	2034	2041	2051	2066	2068	2068	2068	2068	2068	2082	2085	2085	2085	2085	2085	2071	2068	2068	2055	2051	2051	2038	2034	2034	2022	2014	2001	1989	1985	1985	1974	1970	1970	1959	1951	1939
1838	1894	1843	1812	1773	1729	1723	1723	228	0	0	0	463	1364	1364	926	0	0	364	1205	1187	1174	1154	1138	1129	1118	1110	1107	1103	1103	1103	1103	1103	1105	1113	1113	1114	1118	1121	1124	1128	1131	1134	1138	1142	1144	1144	1144	1144	1144	1144	1144	1144	1138	1132	1123	1115	1108	1103	1100	1097	1084	1079	1074	1070	1070	1070	1070	1074	1079	1088	1093	1098	1103	1110	1118	1137	1143	1149	1154	1156	1160	1165	1165	1165	1165	1165	1165	1165	1165	1165	1174	1176	1176	1185	1187	1187	1192	1197	1205	1210	1211	1211	1216	1217	1217	1212	1211	1211	1211	1211	1211	1211	1210	1205	1201	1199	1199	1195	1193	1193	1189	1186	1182	1178	1175	1171	1171	1170	1165	1162	1159	1154	1151	1148	1133	1133	1133	1133	1133	1133	1133	1133	1133	1138	1144	1149	1160	1165	1171	1182	1187	1193	1193	1196	1199	1205	1205	1205	1199	1197	1193	1183	1178	1171	1151	1141	1128	1115	1106	1093	1081	1076	1070	1066	1062	1056	1056	1058	1061	1071	1077	1084	1095	1101	1108	1116	1122	1133	1141	1146	1154	1162	1165	1165	1165	1165	1165	1169	1170	1165	1162	1159	1154	1148	1143	1138	1135	1132	1128	1128	1128	1123	1123	1123	1123	1123	1123	1128	1128	1128	1133	1136	1138	1149	1149	1149	1149	1149	1149	1149	1151	1154	1154	1152	1149	1139	1138	1138	1138	1138	1138	1138	1138	1138	1138	1138	1138	1138	1142	1149	1153	1154	1154	1159	1162	1165	1165	1167	1171	1175	1178	1182	1186	1189	1193	1198	1200	1205	1205	1206	1211	1211	1211	1211	1211	1211	1211	1211	1211	1211	1211	1211	1211	1207	1205	1205	1201	1199	1199	1192	1187	1187	1184	1182	1176	1176	1176	1171	1165	1160	1154	1151	1149	1144	1144	1144	1138	1136	1133	1133	1131	1128	1128	1128	1128	1128	1128	1128	1128	1128	1128	1128	1128	1128	1137	1138	1138	1143	1148	1154	1159	1162	1165	1170	1171	1171	1175	1176	1176	1176	1176	1176	1181	1182	1182	1182	1182	1182	1186	1187	1187	1187	1188	1193	1193	1194	1199	1199	1199	1199	1195	1193	1193	1193	1193	1193	1189	1187	1187	1184	1182	1182	1185	1187	1187	1190	1193	1187	1184	1182	1182	1182	1182	1182	1182	1182	1187	1187	1187	1193	1196	1199	1211	1214	1217	1228	1232	1235	1241	1243	1247	1252	1253	1253	1253	1251	1247	1247	1247	1247	1247	1245	1241	1236	1233	1229	1229	1229	1229	1224	1223	1223	1223	1221	1217	1217	1218	1223	1223	1222	1217	1217	1217	1217	1217	1217	1217	1213	1211	1211	1211	1211	1211	1215	1217	1217	1221	1224	1229	1229	1230	1235	1235	1235	1235	1238	1241	1241	1241	1241	1241	1244	1247	1253	1253	1253	1260	1266	1273	1279	1288	1299	1319	1326	1334	1348	1359	1371	1385	1396	1410	1433	1445	1460	1516	1557	1612	1845	1880	1880	2040	2139	2277	2407	2490	2612	2682	2680	2640	2640	2595	2482	2482	2451	2364	2181	2121	2121	560	0	0	1390	1939	1939	2005	2025	1985	1985	1988	2001	2001	2001	2001	1991	1985	1985	1976	1966	1939	1912	1893	1880	1864	1851	1838	1838	1836	1811	1804	1797	1760	1747	1735	1723	1723	1723	1723	1723	1723	1723	1729	1735	1735	1735	1735	1747	1759	1773	1808	1817	1825	1862	1872	1880	1892	1905	1924	1937	1944	1954	1968	1970	1970	1982	1985	1985	1998	2001	2001	2014	2018	2018	2030	2034	2034	2034	2038	2051	2051	2051	2051	2063	2072	2085	2085	2085	2085	2085	2082	2068	2068	2065	2051	2040	2030	2001	1991	1985	1985	1976	1970	1970	1970	1970	1970	1970	1970	1970	1970	1970	1970	1970	1970	1985	1985	1985	1985	1985	1985	1985	1985	1985	2000	2001	2001	2017	2018	2018	2033	2041	2051	2051	2058	2068	2068	2068	2068	2083	2085	2085	2085	2085	2085	2071	2068	2068	2054	2051	2051	2038	2034	2034	2022	2014	2001	2001	1997	1985	1985	1982	1970	1970	1967	1954	1944	1936	1924
1445	947	922	906	886	864	862	862	114	233	650	641	865	1302	1293	1067	594	585	761	1174	1159	1150	1136	1124	1118	1110	1105	1102	1100	1100	1100	1100	1102	1105	1110	1110	1112	1118	1120	1121	1126	1130	1134	1138	1142	1144	1144	1144	1144	1144	1144	1144	1141	1135	1130	1120	1113	1108	1103	1099	1095	1082	1076	1072	1070	1070	1070	1070	1073	1076	1086	1090	1096	1103	1109	1116	1132	1139	1146	1151	1154	1157	1159	1161	1162	1162	1162	1162	1162	1162	1162	1169	1172	1174	1183	1184	1184	1189	1193	1199	1204	1206	1208	1210	1211	1211	1206	1205	1205	1205	1205	1205	1203	1201	1196	1194	1193	1193	1191	1190	1190	1188	1186	1182	1178	1176	1174	1174	1173	1165	1162	1159	1154	1151	1148	1138	1137	1136	1136	1136	1136	1136	1136	1136	1138	1144	1149	1160	1165	1171	1182	1186	1190	1193	1194	1196	1199	1198	1196	1191	1188	1184	1175	1168	1160	1141	1131	1118	1105	1097	1086	1076	1071	1066	1061	1058	1054	1054	1055	1056	1067	1072	1079	1088	1094	1100	1108	1114	1123	1131	1136	1144	1149	1152	1154	1156	1157	1157	1159	1159	1157	1155	1154	1149	1142	1138	1133	1130	1128	1126	1124	1123	1120	1120	1120	1120	1120	1121	1123	1124	1126	1130	1133	1136	1144	1145	1146	1146	1146	1146	1149	1150	1152	1152	1149	1146	1138	1138	1138	1136	1136	1136	1138	1138	1138	1138	1138	1138	1138	1142	1149	1153	1154	1154	1159	1162	1165	1165	1167	1171	1175	1178	1182	1184	1186	1190	1195	1197	1202	1202	1203	1208	1208	1208	1208	1208	1208	1208	1208	1208	1208	1208	1208	1205	1203	1202	1202	1198	1196	1196	1191	1187	1187	1182	1179	1176	1176	1176	1171	1166	1162	1154	1151	1149	1146	1146	1146	1141	1138	1136	1136	1134	1133	1133	1133	1133	1133	1133	1133	1133	1133	1133	1136	1136	1136	1143	1144	1146	1149	1152	1157	1162	1163	1165	1167	1168	1168	1172	1174	1174	1174	1174	1174	1176	1177	1179	1179	1179	1179	1183	1184	1184	1184	1185	1188	1189	1191	1193	1195	1195	1193	1191	1190	1190	1190	1190	1190	1187	1184	1184	1181	1179	1179	1182	1184	1184	1186	1187	1184	1180	1176	1176	1176	1177	1179	1179	1179	1182	1183	1184	1190	1193	1196	1208	1212	1217	1228	1232	1235	1241	1245	1250	1253	1253	1253	1253	1252	1250	1250	1249	1247	1247	1245	1241	1236	1234	1232	1230	1229	1229	1224	1223	1223	1223	1221	1217	1217	1218	1223	1223	1222	1220	1218	1217	1217	1217	1217	1217	1215	1213	1211	1211	1211	1211	1215	1217	1217	1221	1224	1229	1231	1232	1235	1237	1238	1238	1241	1244	1244	1244	1244	1244	1247	1250	1256	1258	1260	1263	1269	1276	1286	1294	1302	1323	1330	1338	1352	1361	1371	1385	1398	1414	1437	1447	1460	1516	1557	1612	1766	1822	1880	2004	2091	2218	2340	2416	2522	2577	2574	2536	2518	2491	2434	2471	2416	2234	2110	2070	2070	1238	940	940	1656	1937	1932	1965	1980	1985	1980	1979	1986	1990	1992	1986	1980	1978	1978	1968	1959	1939	1912	1893	1880	1864	1851	1838	1838	1836	1811	1807	1803	1772	1759	1747	1729	1729	1729	1736	1736	1736	1736	1738	1742	1747	1748	1748	1765	1778	1792	1816	1829	1846	1877	1886	1894	1914	1925	1939	1959	1968	1978	1984	1988	1994	2000	2004	2010	2016	2020	2026	2033	2034	2034	2047	2051	2051	2051	2053	2060	2066	2068	2068	2081	2087	2094	2094	2094	2094	2094	2091	2076	2071	2065	2051	2035	2023	2001	1991	1985	1985	1976	1970	1970	1970	1970	1970	1970	1970	1970	1970	1970	1970	1970	1970	1985	1985	1985	1985	1985	1985	1985	1989	1993	2001	2005	2010	2018	2021	2026	2041	2046	2051	2059	2063	2068	2068	2068	2068	2083	2085	2085	2085	2085	2085	2071	2068	2068	2054	2051	2051	2038	2034	2034	2022	2014	2001	2001	1997	1985	1985	1982	1970	1970	1967	1954	1944	1936	1924
1052	0	0	0	0	0	0	0	0	466	1299	1282	1266	1241	1221	1207	1187	1169	1159	1144	1131	1125	1118	1110	1107	1103	1099	1098	1098	1098	1098	1098	1102	1104	1108	1108	1110	1118	1118	1119	1123	1130	1134	1138	1142	1144	1144	1144	1144	1144	1144	1143	1138	1132	1127	1118	1112	1108	1103	1098	1092	1079	1074	1070	1070	1070	1070	1070	1072	1074	1084	1088	1093	1103	1108	1113	1127	1135	1144	1149	1151	1154	1154	1156	1160	1160	1160	1160	1160	1160	1160	1164	1167	1171	1180	1182	1182	1186	1189	1193	1198	1201	1205	1205	1205	1205	1200	1199	1199	1199	1199	1199	1195	1192	1187	1187	1187	1187	1187	1187	1187	1187	1186	1182	1178	1176	1176	1176	1175	1165	1162	1159	1154	1151	1149	1144	1141	1138	1138	1138	1138	1138	1138	1138	1138	1144	1149	1160	1165	1171	1182	1184	1187	1193	1193	1193	1193	1190	1187	1182	1180	1176	1166	1159	1149	1130	1120	1108	1095	1088	1079	1071	1067	1061	1057	1055	1052	1052	1052	1052	1062	1068	1074	1082	1086	1093	1101	1105	1113	1120	1125	1133	1137	1139	1144	1147	1149	1149	1149	1149	1149	1149	1148	1144	1137	1132	1128	1125	1123	1123	1120	1118	1118	1118	1118	1118	1118	1118	1118	1121	1123	1128	1131	1133	1138	1141	1144	1144	1144	1144	1149	1149	1149	1149	1147	1144	1138	1138	1138	1133	1133	1133	1138	1138	1138	1138	1138	1138	1138	1142	1149	1153	1154	1154	1159	1162	1165	1165	1167	1171	1175	1178	1182	1182	1183	1187	1192	1194	1199	1199	1200	1205	1205	1205	1205	1205	1205	1205	1205	1205	1205	1205	1204	1199	1199	1199	1199	1195	1193	1193	1189	1187	1187	1181	1176	1176	1176	1176	1171	1168	1165	1154	1151	1149	1149	1149	1149	1144	1141	1138	1138	1138	1138	1138	1138	1138	1138	1138	1138	1138	1138	1138	1143	1144	1144	1148	1151	1154	1154	1156	1160	1164	1165	1165	1165	1165	1165	1170	1171	1171	1171	1171	1171	1171	1172	1176	1176	1176	1176	1180	1182	1182	1182	1182	1182	1185	1187	1187	1191	1192	1187	1187	1187	1187	1187	1187	1187	1184	1182	1182	1178	1176	1176	1180	1182	1182	1182	1182	1182	1176	1171	1171	1171	1171	1176	1176	1176	1176	1179	1182	1187	1190	1193	1205	1210	1217	1228	1232	1235	1241	1246	1253	1253	1253	1253	1253	1253	1253	1253	1251	1247	1247	1245	1241	1236	1235	1235	1230	1229	1229	1224	1223	1223	1223	1221	1217	1217	1218	1223	1223	1223	1223	1219	1217	1217	1217	1217	1217	1217	1216	1211	1211	1211	1211	1215	1217	1217	1221	1224	1229	1233	1235	1235	1239	1241	1241	1244	1247	1247	1247	1247	1247	1250	1253	1260	1263	1266	1266	1272	1279	1293	1299	1306	1326	1333	1341	1355	1363	1371	1385	1399	1418	1441	1450	1460	1516	1557	1612	1688	1765	1880	1969	2044	2158	2274	2341	2433	2473	2467	2433	2396	2386	2386	2460	2382	2103	2039	2018	2018	1916	1880	1880	1922	1936	1924	1924	1936	1985	1975	1970	1970	1980	1983	1970	1970	1970	1970	1960	1952	1939	1912	1893	1880	1864	1851	1838	1838	1836	1811	1811	1810	1785	1772	1760	1735	1735	1735	1748	1748	1748	1748	1748	1748	1760	1760	1760	1784	1796	1811	1824	1842	1866	1891	1900	1909	1936	1945	1954	1981	1991	2001	2001	2007	2018	2018	2023	2034	2034	2039	2051	2051	2051	2051	2064	2068	2068	2068	2068	2068	2081	2085	2085	2098	2103	2103	2103	2103	2103	2103	2100	2085	2074	2065	2051	2030	2016	2001	1991	1985	1985	1976	1970	1970	1970	1970	1970	1970	1970	1970	1970	1970	1970	1970	1970	1985	1985	1985	1985	1985	1985	1985	1993	2001	2001	2009	2018	2018	2025	2034	2050	2051	2051	2066	2068	2068	2068	2068	2068	2083	2085	2085	2085	2085	2085	2071	2068	2068	2054	2051	2051	2038	2034	2034	2022	2014	2001	2001	1997	1985	1985	1982	1970	1970	1967	1954	1944	1936	1924
0	0	0	504	1273	1250	1242	1235	1225	1217	1205	1190	1180	1165	1156	1149	1138	1130	1125	1118	1110	1108	1108	1100	1098	1098	1098	1097	1093	1093	1093	1093	1097	1099	1103	1106	1109	1113	1113	1115	1123	1130	1134	1138	1138	1138	1138	1138	1138	1138	1138	1138	1138	1132	1127	1118	1112	1108	1103	1098	1092	1079	1074	1070	1070	1070	1070	1070	1072	1074	1084	1088	1093	1103	1108	1113	1127	1132	1138	1148	1151	1154	1154	1156	1160	1160	1158	1154	1154	1154	1154	1159	1164	1171	1171	1173	1176	1181	1184	1187	1192	1195	1199	1199	1199	1199	1194	1193	1193	1189	1187	1187	1187	1186	1182	1182	1182	1182	1182	1182	1182	1185	1186	1182	1178	1176	1176	1176	1176	1176	1169	1165	1160	1156	1154	1149	1149	1149	1149	1149	1149	1149	1149	1149	1149	1152	1154	1165	1170	1176	1182	1184	1187	1187	1185	1182	1182	1179	1176	1166	1163	1160	1146	1138	1128	1115	1105	1093	1081	1076	1070	1062	1058	1052	1048	1046	1043	1043	1046	1052	1059	1064	1070	1077	1080	1084	1091	1095	1103	1110	1115	1123	1127	1130	1138	1138	1139	1144	1147	1148	1144	1144	1143	1138	1132	1127	1123	1120	1118	1118	1115	1113	1108	1108	1108	1108	1108	1109	1118	1118	1118	1123	1126	1128	1133	1136	1138	1138	1138	1138	1138	1141	1144	1144	1141	1138	1133	1133	1133	1133	1133	1133	1133	1133	1133	1133	1133	1133	1137	1140	1144	1148	1151	1154	1159	1162	1165	1170	1171	1171	1175	1178	1182	1182	1183	1187	1192	1193	1193	1193	1194	1199	1199	1199	1199	1199	1199	1199	1199	1199	1199	1199	1199	1199	1195	1193	1193	1189	1187	1187	1184	1182	1182	1178	1176	1171	1171	1171	1171	1168	1165	1160	1157	1154	1154	1154	1154	1149	1149	1149	1144	1144	1144	1144	1144	1144	1149	1149	1149	1149	1149	1149	1149	1149	1149	1153	1156	1160	1160	1160	1160	1160	1160	1160	1160	1162	1165	1165	1165	1165	1165	1165	1165	1165	1165	1165	1165	1165	1165	1169	1171	1171	1171	1171	1171	1174	1176	1176	1180	1182	1182	1178	1176	1176	1176	1177	1182	1178	1176	1176	1176	1176	1176	1176	1176	1176	1179	1182	1176	1173	1171	1165	1165	1165	1171	1171	1171	1171	1173	1176	1182	1184	1187	1204	1213	1223	1229	1234	1241	1247	1249	1253	1259	1260	1260	1260	1257	1253	1253	1253	1253	1253	1251	1247	1242	1239	1235	1235	1233	1229	1229	1227	1223	1223	1223	1223	1223	1223	1223	1227	1228	1223	1223	1223	1223	1223	1222	1217	1217	1217	1217	1217	1217	1217	1217	1219	1229	1229	1230	1235	1239	1241	1241	1245	1247	1247	1250	1253	1253	1257	1260	1260	1263	1266	1266	1270	1273	1279	1286	1293	1306	1313	1320	1333	1341	1349	1363	1371	1379	1393	1404	1418	1441	1450	1460	1507	1539	1581	1655	1704	1773	1888	1994	2158	2190	2272	2433	2473	2439	2341	2290	2254	2196	2124	2085	2034	1974	1939	1894	1873	1866	1866	1876	1883	1894	1904	1912	1924	1934	1942	1954	1965	1970	1970	1960	1954	1954	1954	1951	1924	1906	1893	1880	1872	1864	1838	1838	1837	1825	1825	1823	1785	1779	1773	1773	1773	1773	1785	1779	1773	1773	1779	1785	1785	1791	1798	1810	1817	1825	1850	1864	1880	1906	1921	1939	1952	1966	1985	2014	2024	2034	2034	2040	2051	2051	2051	2051	2065	2068	2068	2081	2085	2085	2085	2085	2085	2099	2103	2103	2103	2103	2103	2116	2121	2121	2108	2103	2103	2103	2100	2085	2074	2065	2051	2030	2018	2018	1997	1985	1985	1976	1970	1970	1970	1970	1970	1970	1970	1970	1970	1970	1970	1978	1985	1985	1985	1985	1985	1993	2001	2001	2001	2001	2017	2025	2034	2034	2034	2034	2050	2051	2051	2066	2068	2068	2068	2074	2085	2085	2085	2085	2085	2085	2085	2085	2085	2085	2071	2063	2051	2038	2034	2034	2022	2014	2001	2001	1997	1985	1985	1982	1970	1970	1967	1954	1944	1936	1924
596	591	586	837	1219	1203	1197	1192	1187	1181	1172	1164	1157	1146	1140	1135	1128	1122	1118	1113	1107	1106	1106	1100	1097	1096	1096	1094	1090	1090	1091	1093	1095	1097	1100	1104	1106	1110	1112	1114	1120	1127	1131	1136	1137	1138	1138	1138	1138	1138	1138	1138	1133	1129	1125	1116	1111	1108	1100	1096	1092	1079	1075	1072	1070	1070	1070	1070	1072	1074	1081	1086	1090	1103	1108	1113	1125	1131	1138	1148	1150	1152	1154	1155	1157	1157	1156	1154	1152	1152	1152	1156	1160	1166	1168	1170	1174	1178	1181	1184	1189	1192	1196	1198	1198	1196	1191	1190	1190	1186	1184	1184	1184	1184	1182	1182	1182	1182	1182	1182	1182	1184	1184	1182	1180	1179	1179	1179	1179	1179	1174	1170	1166	1162	1159	1154	1154	1154	1154	1154	1154	1154	1154	1154	1154	1157	1160	1168	1172	1176	1179	1180	1182	1182	1180	1179	1174	1171	1168	1158	1155	1152	1138	1130	1120	1107	1099	1088	1078	1073	1066	1060	1055	1050	1047	1046	1043	1043	1045	1050	1057	1061	1068	1073	1076	1082	1088	1093	1100	1108	1113	1120	1124	1127	1133	1135	1137	1141	1145	1146	1144	1144	1143	1136	1131	1127	1120	1119	1117	1113	1111	1110	1106	1106	1106	1106	1106	1106	1113	1114	1116	1120	1123	1126	1130	1133	1136	1136	1136	1136	1138	1139	1141	1141	1139	1136	1133	1133	1133	1133	1133	1133	1133	1133	1133	1133	1133	1133	1137	1140	1144	1148	1150	1152	1156	1159	1162	1165	1166	1168	1172	1175	1179	1179	1180	1184	1189	1190	1190	1190	1191	1193	1195	1195	1193	1193	1194	1196	1196	1196	1196	1196	1196	1196	1192	1190	1190	1188	1187	1187	1184	1182	1179	1177	1176	1171	1171	1171	1171	1168	1165	1162	1160	1157	1157	1157	1157	1152	1150	1149	1147	1146	1146	1146	1146	1146	1149	1149	1149	1149	1149	1149	1151	1152	1152	1156	1158	1160	1162	1162	1160	1160	1160	1160	1160	1160	1160	1160	1160	1160	1160	1160	1160	1160	1160	1160	1160	1160	1160	1162	1162	1162	1162	1163	1166	1167	1168	1170	1175	1176	1176	1175	1174	1174	1174	1174	1179	1177	1176	1174	1174	1174	1174	1174	1174	1176	1178	1179	1174	1170	1168	1162	1162	1163	1168	1168	1168	1171	1173	1176	1182	1184	1187	1204	1213	1223	1231	1236	1241	1247	1249	1253	1259	1260	1260	1260	1257	1253	1253	1253	1253	1253	1252	1250	1245	1242	1238	1238	1236	1232	1230	1228	1226	1226	1225	1223	1223	1223	1223	1227	1228	1223	1223	1223	1223	1223	1222	1220	1220	1220	1220	1220	1220	1220	1222	1224	1232	1234	1236	1241	1243	1244	1247	1251	1254	1254	1257	1260	1260	1263	1266	1266	1270	1273	1276	1278	1280	1286	1293	1300	1309	1318	1327	1341	1346	1352	1367	1372	1379	1393	1404	1418	1437	1446	1456	1499	1527	1566	1634	1681	1748	1849	1929	2048	2111	2176	2286	2337	2319	2250	2209	2178	2124	2068	2037	1994	1947	1921	1887	1866	1859	1859	1869	1877	1894	1904	1912	1924	1934	1940	1946	1957	1963	1970	1960	1954	1954	1949	1944	1924	1910	1900	1887	1875	1864	1845	1845	1844	1832	1828	1824	1798	1791	1785	1779	1779	1779	1792	1789	1786	1786	1791	1798	1798	1801	1804	1817	1824	1832	1857	1871	1887	1914	1928	1946	1960	1974	1993	2015	2027	2042	2050	2054	2060	2067	2068	2068	2075	2079	2086	2092	2094	2094	2094	2094	2094	2101	2103	2103	2110	2112	2112	2118	2121	2121	2115	2110	2103	2097	2091	2076	2071	2065	2051	2030	2018	2018	2002	1992	1985	1976	1970	1970	1970	1970	1970	1970	1970	1970	1974	1978	1978	1981	1985	1985	1989	1993	1993	1997	2001	2009	2010	2010	2018	2025	2034	2034	2038	2042	2050	2051	2051	2066	2068	2068	2076	2080	2085	2085	2085	2085	2093	2094	2094	2087	2085	2085	2071	2065	2060	2046	2040	2034	2028	2019	2001	2001	1997	1985	1985	1982	1970	1970	1967	1954	1944	1938	1932
1192	1182	1172	1169	1165	1155	1152	1149	1149	1145	1138	1138	1135	1128	1124	1121	1118	1114	1111	1108	1104	1103	1103	1099	1097	1093	1093	1092	1088	1088	1089	1093	1093	1094	1098	1101	1104	1108	1111	1114	1118	1125	1129	1133	1136	1138	1138	1138	1138	1138	1138	1137	1128	1125	1122	1113	1110	1107	1098	1095	1092	1079	1076	1074	1070	1070	1070	1070	1072	1074	1079	1083	1088	1102	1108	1113	1122	1130	1138	1148	1149	1149	1154	1154	1154	1154	1154	1154	1150	1149	1149	1153	1156	1160	1164	1167	1171	1175	1178	1182	1186	1189	1193	1198	1197	1193	1188	1187	1187	1183	1182	1182	1182	1182	1182	1182	1182	1182	1182	1182	1182	1182	1182	1182	1182	1182	1182	1182	1182	1182	1178	1176	1171	1167	1165	1160	1160	1160	1160	1160	1160	1160	1160	1160	1160	1163	1165	1171	1173	1176	1176	1176	1176	1176	1176	1176	1166	1163	1160	1150	1147	1144	1130	1122	1113	1100	1093	1084	1075	1069	1061	1057	1053	1047	1047	1046	1043	1043	1044	1047	1054	1059	1065	1069	1072	1079	1086	1090	1098	1105	1110	1118	1122	1124	1128	1131	1134	1138	1142	1144	1144	1144	1142	1133	1130	1127	1118	1118	1117	1108	1108	1108	1103	1103	1103	1103	1103	1103	1108	1111	1113	1118	1121	1123	1128	1131	1133	1133	1133	1133	1138	1138	1138	1138	1136	1133	1133	1133	1133	1133	1133	1133	1133	1133	1133	1133	1133	1133	1137	1140	1144	1148	1149	1149	1153	1156	1160	1160	1162	1165	1170	1172	1176	1176	1178	1182	1186	1187	1187	1187	1187	1187	1191	1192	1187	1187	1188	1193	1193	1193	1193	1193	1193	1193	1189	1187	1187	1187	1187	1187	1184	1181	1176	1176	1176	1171	1171	1171	1171	1168	1165	1165	1162	1160	1160	1160	1160	1154	1152	1149	1149	1149	1149	1149	1149	1149	1149	1149	1149	1149	1149	1149	1154	1154	1154	1159	1160	1160	1164	1163	1160	1160	1160	1160	1160	1158	1154	1154	1154	1154	1154	1154	1154	1154	1154	1154	1154	1154	1154	1154	1154	1154	1154	1155	1160	1160	1161	1165	1169	1171	1171	1171	1171	1171	1171	1172	1176	1176	1175	1171	1171	1171	1171	1171	1171	1176	1176	1176	1171	1168	1165	1160	1160	1160	1165	1165	1165	1171	1173	1176	1182	1184	1187	1204	1213	1223	1234	1238	1241	1247	1249	1253	1259	1260	1260	1260	1257	1253	1253	1253	1253	1253	1253	1253	1248	1245	1241	1241	1239	1235	1230	1229	1229	1229	1227	1223	1223	1223	1223	1227	1228	1223	1223	1223	1223	1223	1223	1223	1223	1223	1223	1223	1223	1223	1227	1230	1235	1239	1242	1247	1247	1248	1253	1257	1260	1260	1263	1266	1266	1270	1273	1273	1276	1279	1286	1286	1286	1293	1299	1306	1313	1323	1334	1348	1352	1356	1370	1374	1379	1393	1404	1418	1433	1441	1451	1490	1516	1551	1613	1658	1723	1810	1864	1939	2032	2079	2139	2201	2198	2158	2129	2101	2051	2012	1989	1954	1920	1902	1880	1859	1852	1852	1862	1872	1894	1904	1912	1924	1934	1939	1939	1949	1956	1970	1960	1954	1954	1945	1937	1924	1915	1908	1894	1878	1865	1852	1852	1851	1838	1831	1824	1811	1804	1798	1785	1785	1785	1798	1798	1798	1798	1804	1811	1811	1811	1811	1824	1831	1838	1864	1878	1894	1921	1936	1954	1968	1982	2001	2016	2030	2051	2065	2068	2068	2082	2085	2085	2085	2090	2103	2103	2103	2103	2103	2103	2103	2103	2103	2103	2116	2121	2121	2121	2121	2121	2121	2118	2103	2091	2082	2068	2068	2065	2051	2030	2018	2018	2007	1999	1985	1976	1970	1970	1970	1970	1970	1970	1970	1970	1978	1985	1985	1985	1985	1985	1993	2001	2001	2001	2001	2018	2018	2018	2018	2025	2034	2034	2041	2051	2051	2051	2051	2066	2068	2068	2083	2085	2085	2085	2085	2085	2100	2103	2103	2088	2085	2085	2071	2068	2068	2055	2046	2034	2034	2025	2001	2001	1997	1985	1985	1982	1970	1970	1967	1954	1944	1939	1939
1106	1103	1103	1103	1103	1103	1105	1108	1112	1115	1118	1118	1118	1118	1114	1113	1113	1109	1106	1103	1099	1097	1093	1089	1088	1088	1085	1084	1084	1084	1085	1088	1088	1089	1093	1096	1099	1103	1106	1109	1113	1120	1124	1128	1131	1133	1133	1133	1133	1133	1133	1133	1128	1122	1118	1113	1107	1103	1098	1095	1092	1079	1076	1074	1070	1070	1070	1070	1072	1074	1079	1083	1088	1098	1103	1108	1122	1127	1133	1138	1140	1144	1149	1149	1149	1149	1149	1149	1149	1149	1149	1153	1156	1160	1164	1165	1165	1170	1173	1176	1181	1183	1187	1187	1186	1182	1182	1181	1176	1176	1177	1182	1182	1181	1176	1176	1176	1176	1176	1177	1182	1182	1182	1182	1182	1182	1182	1182	1183	1187	1187	1187	1182	1178	1176	1171	1171	1171	1171	1168	1165	1165	1165	1165	1165	1168	1171	1171	1173	1176	1176	1174	1171	1165	1165	1165	1160	1157	1154	1145	1139	1133	1119	1114	1108	1090	1086	1084	1068	1062	1056	1053	1050	1047	1044	1043	1043	1043	1044	1047	1051	1055	1061	1064	1067	1074	1078	1081	1088	1095	1100	1108	1112	1115	1123	1126	1129	1133	1136	1138	1138	1138	1137	1133	1127	1122	1118	1115	1112	1108	1105	1103	1098	1098	1098	1098	1098	1098	1103	1103	1103	1113	1116	1118	1123	1126	1128	1128	1128	1128	1133	1133	1133	1138	1136	1133	1128	1128	1128	1128	1130	1133	1133	1133	1133	1133	1135	1138	1138	1140	1144	1144	1146	1149	1149	1151	1154	1154	1156	1160	1164	1167	1171	1171	1172	1176	1181	1182	1182	1182	1183	1187	1187	1187	1187	1187	1188	1193	1193	1193	1193	1193	1193	1193	1189	1187	1187	1187	1187	1187	1184	1181	1176	1176	1176	1171	1171	1171	1171	1168	1165	1165	1162	1160	1160	1160	1160	1154	1152	1149	1149	1149	1149	1149	1149	1149	1154	1154	1154	1154	1154	1154	1159	1160	1160	1160	1162	1165	1165	1163	1160	1155	1154	1154	1150	1149	1149	1149	1147	1144	1144	1142	1138	1138	1138	1138	1138	1138	1138	1142	1144	1144	1144	1145	1149	1149	1150	1154	1158	1160	1160	1160	1160	1160	1163	1166	1171	1171	1170	1165	1165	1165	1165	1165	1165	1171	1171	1171	1165	1165	1165	1160	1160	1160	1160	1163	1165	1165	1168	1171	1176	1181	1187	1204	1213	1223	1234	1238	1241	1247	1249	1253	1253	1253	1253	1253	1251	1247	1247	1247	1247	1247	1247	1247	1247	1247	1247	1242	1239	1235	1235	1235	1235	1230	1229	1229	1229	1229	1229	1229	1229	1229	1225	1223	1223	1227	1229	1229	1229	1229	1229	1229	1229	1229	1233	1236	1241	1245	1248	1253	1257	1261	1266	1270	1273	1273	1276	1279	1279	1283	1286	1286	1290	1293	1299	1303	1306	1306	1313	1320	1334	1337	1341	1355	1363	1371	1379	1382	1386	1393	1401	1410	1424	1433	1443	1473	1498	1532	1583	1618	1666	1736	1779	1838	1909	1944	1985	2025	2024	2001	1964	1950	1939	1904	1887	1866	1855	1852	1852	1852	1852	1852	1862	1872	1894	1904	1912	1924	1934	1939	1939	1939	1941	1954	1954	1952	1939	1939	1939	1939	1921	1908	1894	1886	1879	1866	1866	1865	1852	1844	1838	1825	1825	1825	1811	1811	1811	1825	1825	1825	1825	1825	1825	1825	1825	1825	1850	1852	1852	1878	1886	1894	1921	1930	1939	1966	1976	1985	1999	2013	2034	2048	2051	2051	2065	2073	2085	2100	2103	2103	2117	2116	2103	2103	2103	2103	2103	2103	2103	2103	2103	2103	2103	2103	2103	2103	2103	2103	2091	2082	2068	2057	2048	2034	2024	2018	2018	2007	2001	2001	1991	1985	1985	1985	1985	1985	1985	1985	1985	1985	1986	2001	2001	2001	2001	2001	2001	2018	2018	2018	2018	2018	2018	2033	2034	2034	2034	2041	2051	2051	2058	2068	2068	2068	2068	2083	2085	2085	2085	2085	2085	2100	2103	2103	2103	2103	2103	2075	2068	2068	2055	2046	2034	2034	2030	2018	2005	2001	2001	2001	1997	1985	1985	1982	1970	1959	1954	1954
1090	1088	1091	1092	1094	1095	1097	1100	1105	1107	1110	1113	1113	1113	1111	1110	1108	1104	1101	1098	1094	1092	1090	1085	1084	1084	1082	1082	1082	1082	1082	1084	1085	1087	1088	1093	1096	1098	1101	1104	1110	1117	1121	1123	1128	1130	1130	1130	1130	1128	1128	1128	1123	1119	1115	1113	1107	1103	1098	1095	1093	1082	1078	1074	1072	1072	1072	1072	1073	1074	1081	1085	1088	1098	1103	1108	1120	1125	1130	1137	1139	1141	1148	1149	1149	1149	1149	1149	1149	1149	1149	1153	1156	1160	1162	1163	1165	1170	1172	1174	1178	1181	1184	1186	1186	1182	1182	1181	1176	1176	1177	1179	1179	1178	1174	1174	1174	1174	1175	1177	1179	1179	1179	1182	1182	1182	1182	1182	1182	1184	1184	1184	1179	1177	1176	1174	1174	1174	1174	1172	1170	1170	1170	1170	1170	1172	1174	1174	1175	1176	1171	1169	1168	1160	1160	1160	1155	1152	1149	1139	1133	1126	1114	1109	1103	1088	1084	1082	1067	1062	1056	1053	1050	1047	1044	1043	1043	1043	1044	1047	1051	1054	1058	1062	1065	1070	1075	1079	1086	1093	1098	1106	1109	1113	1120	1124	1127	1133	1136	1138	1138	1138	1137	1133	1127	1122	1118	1115	1112	1106	1102	1100	1098	1097	1096	1096	1096	1096	1098	1101	1103	1108	1112	1116	1120	1123	1126	1128	1128	1128	1130	1130	1130	1135	1134	1133	1128	1128	1128	1128	1129	1130	1133	1133	1133	1133	1134	1136	1138	1139	1141	1144	1145	1146	1146	1148	1152	1152	1153	1157	1159	1161	1166	1167	1169	1174	1176	1177	1179	1179	1180	1184	1184	1185	1187	1187	1188	1190	1190	1190	1190	1190	1190	1193	1191	1190	1190	1188	1187	1187	1184	1182	1179	1177	1176	1171	1171	1171	1171	1169	1168	1165	1164	1162	1160	1160	1160	1157	1156	1154	1152	1150	1149	1149	1149	1149	1154	1154	1154	1154	1154	1154	1159	1160	1160	1160	1161	1162	1162	1161	1157	1152	1151	1149	1147	1146	1144	1141	1140	1138	1137	1135	1133	1133	1133	1133	1133	1133	1133	1135	1136	1136	1138	1139	1141	1143	1145	1149	1153	1155	1157	1157	1157	1160	1162	1163	1168	1168	1168	1165	1163	1162	1162	1164	1165	1168	1168	1168	1165	1164	1162	1160	1160	1160	1160	1161	1162	1165	1168	1171	1176	1181	1187	1204	1213	1223	1234	1238	1241	1244	1246	1250	1250	1251	1253	1250	1248	1244	1241	1241	1241	1241	1241	1241	1241	1241	1241	1239	1237	1235	1235	1234	1232	1230	1229	1229	1227	1226	1226	1226	1227	1229	1227	1226	1226	1228	1229	1229	1229	1229	1229	1231	1232	1232	1238	1241	1244	1250	1254	1260	1264	1267	1272	1277	1280	1283	1285	1286	1286	1290	1292	1292	1296	1300	1306	1310	1313	1313	1320	1327	1337	1343	1348	1360	1367	1375	1382	1384	1386	1390	1397	1406	1417	1425	1434	1461	1483	1514	1559	1588	1628	1690	1726	1775	1846	1879	1918	1950	1952	1940	1916	1906	1896	1878	1869	1859	1854	1852	1852	1852	1852	1852	1867	1877	1894	1904	1912	1924	1934	1939	1939	1939	1941	1954	1949	1946	1939	1939	1939	1939	1925	1915	1902	1893	1886	1873	1873	1873	1866	1858	1852	1846	1842	1838	1824	1824	1824	1838	1838	1838	1838	1838	1838	1838	1838	1838	1851	1855	1859	1878	1886	1894	1921	1927	1932	1959	1968	1978	1991	2005	2026	2040	2042	2042	2064	2071	2076	2091	2097	2103	2110	2109	2103	2103	2103	2103	2096	2094	2094	2094	2094	2094	2094	2094	2094	2094	2092	2086	2079	2074	2060	2054	2048	2034	2024	2018	2018	2007	2001	2001	1996	1993	1993	1993	1993	1993	1993	1993	1993	1993	1993	2001	2001	2001	2010	2010	2010	2018	2018	2018	2018	2022	2026	2034	2034	2034	2042	2046	2051	2051	2058	2068	2068	2068	2068	2083	2085	2085	2093	2094	2094	2102	2103	2103	2103	2103	2103	2082	2076	2076	2063	2057	2051	2044	2040	2034	2022	2016	2010	2010	2006	1993	1993	1990	1978	1972	1968	1962
1074	1074	1079	1081	1084	1088	1090	1093	1097	1100	1103	1107	1108	1108	1108	1106	1103	1099	1096	1093	1089	1088	1088	1081	1079	1079	1079	1079	1079	1079	1079	1079	1083	1084	1084	1090	1093	1093	1096	1100	1108	1115	1118	1118	1124	1128	1128	1128	1127	1123	1123	1123	1118	1115	1113	1113	1107	1103	1098	1095	1093	1084	1079	1074	1074	1074	1074	1074	1074	1074	1084	1086	1088	1098	1103	1108	1117	1122	1128	1137	1138	1138	1148	1149	1149	1149	1149	1149	1149	1149	1149	1153	1156	1160	1160	1162	1165	1170	1171	1171	1175	1178	1182	1186	1186	1182	1182	1181	1176	1176	1176	1176	1176	1175	1171	1171	1171	1171	1174	1176	1176	1176	1177	1182	1182	1182	1182	1182	1182	1182	1182	1181	1176	1176	1176	1176	1176	1176	1176	1176	1176	1176	1176	1176	1176	1176	1176	1176	1176	1176	1165	1165	1165	1154	1154	1154	1149	1147	1144	1134	1127	1118	1109	1104	1098	1086	1082	1079	1067	1062	1056	1053	1050	1047	1044	1043	1043	1043	1044	1047	1051	1053	1056	1060	1062	1065	1072	1076	1084	1091	1095	1103	1107	1110	1118	1121	1125	1133	1136	1138	1138	1138	1137	1133	1127	1122	1118	1115	1112	1103	1100	1098	1098	1095	1093	1093	1093	1093	1093	1098	1103	1103	1108	1113	1118	1121	1123	1128	1128	1128	1128	1128	1128	1133	1133	1133	1128	1128	1128	1128	1128	1128	1133	1133	1133	1133	1133	1133	1137	1138	1138	1143	1144	1144	1144	1146	1149	1149	1151	1154	1154	1156	1160	1164	1167	1171	1171	1172	1176	1176	1177	1182	1182	1183	1187	1187	1187	1187	1187	1187	1187	1187	1188	1193	1193	1193	1193	1189	1187	1187	1184	1182	1182	1178	1176	1171	1171	1171	1171	1171	1171	1165	1165	1165	1160	1160	1160	1160	1160	1160	1154	1152	1149	1149	1149	1149	1154	1154	1154	1154	1154	1154	1159	1160	1160	1160	1160	1160	1160	1158	1154	1150	1147	1144	1144	1142	1138	1134	1133	1133	1129	1128	1128	1128	1128	1128	1128	1128	1128	1128	1128	1128	1132	1133	1133	1136	1139	1144	1147	1150	1154	1154	1155	1160	1160	1161	1165	1165	1165	1165	1162	1160	1160	1163	1165	1165	1165	1165	1165	1162	1160	1160	1160	1160	1160	1160	1160	1165	1168	1171	1176	1181	1187	1204	1213	1223	1234	1238	1241	1241	1243	1247	1247	1249	1253	1248	1245	1241	1236	1235	1235	1235	1235	1235	1235	1235	1235	1235	1235	1235	1235	1233	1229	1229	1229	1229	1224	1223	1223	1223	1224	1229	1229	1229	1229	1229	1229	1229	1229	1229	1229	1233	1235	1235	1243	1247	1247	1255	1261	1266	1270	1274	1279	1283	1287	1293	1293	1293	1293	1296	1299	1299	1303	1306	1313	1317	1320	1320	1327	1334	1341	1348	1356	1364	1371	1379	1386	1386	1386	1386	1393	1402	1409	1416	1426	1448	1468	1495	1535	1559	1591	1644	1674	1712	1783	1815	1852	1875	1880	1880	1869	1862	1852	1852	1852	1852	1852	1852	1852	1852	1852	1852	1872	1883	1894	1904	1912	1924	1934	1939	1939	1939	1941	1954	1944	1939	1939	1939	1939	1939	1930	1923	1909	1900	1893	1880	1880	1880	1880	1872	1866	1866	1859	1852	1838	1838	1838	1852	1852	1852	1852	1852	1852	1852	1852	1852	1852	1858	1866	1879	1886	1894	1921	1924	1924	1951	1960	1970	1983	1997	2018	2032	2034	2034	2062	2068	2068	2082	2090	2103	2103	2103	2103	2103	2103	2103	2089	2085	2085	2085	2085	2085	2085	2085	2085	2085	2082	2068	2068	2065	2051	2051	2048	2034	2024	2018	2018	2007	2001	2001	2001	2001	2001	2001	2001	2001	2001	2001	2001	2001	2001	2001	2001	2001	2018	2018	2018	2018	2018	2018	2018	2026	2034	2034	2034	2034	2050	2051	2051	2051	2058	2068	2068	2068	2068	2083	2085	2085	2101	2103	2103	2103	2103	2103	2103	2103	2103	2088	2085	2085	2072	2068	2068	2055	2051	2051	2038	2030	2018	2018	2014	2001	2001	1998	1985	1985	1982	1970
1061	1061	1069	1072	1074	1078	1081	1084	1087	1090	1093	1097	1098	1098	1098	1096	1093	1089	1088	1088	1085	1083	1079	1075	1074	1074	1074	1074	1074	1074	1074	1074	1074	1075	1079	1079	1080	1084	1090	1094	1098	1101	1105	1113	1116	1119	1123	1123	1123	1123	1120	1118	1118	1115	1113	1113	1107	1103	1103	1100	1098	1088	1088	1088	1079	1079	1079	1084	1084	1084	1088	1090	1093	1103	1108	1113	1118	1120	1123	1132	1135	1138	1143	1144	1144	1144	1144	1144	1144	1146	1149	1149	1151	1154	1159	1162	1165	1165	1167	1171	1175	1178	1182	1182	1180	1176	1176	1175	1171	1171	1171	1171	1167	1165	1165	1165	1166	1171	1171	1171	1171	1171	1172	1176	1176	1176	1176	1176	1176	1176	1176	1176	1176	1173	1171	1171	1171	1171	1171	1174	1176	1176	1176	1176	1176	1176	1176	1176	1174	1171	1160	1157	1154	1144	1144	1144	1134	1131	1128	1119	1116	1113	1099	1094	1088	1084	1080	1074	1066	1064	1061	1053	1050	1047	1044	1043	1043	1043	1043	1043	1046	1048	1052	1055	1058	1065	1069	1072	1079	1083	1086	1093	1104	1109	1113	1120	1124	1128	1131	1134	1138	1138	1137	1133	1127	1122	1118	1112	1107	1103	1100	1098	1093	1093	1093	1088	1088	1088	1093	1093	1093	1098	1101	1103	1113	1116	1118	1123	1123	1123	1123	1125	1128	1128	1128	1128	1128	1126	1123	1123	1125	1128	1133	1133	1133	1133	1133	1133	1129	1128	1128	1132	1133	1133	1137	1138	1138	1143	1146	1149	1149	1150	1154	1154	1156	1160	1164	1166	1171	1175	1176	1176	1176	1176	1176	1180	1182	1182	1182	1182	1182	1182	1182	1182	1182	1182	1182	1178	1176	1176	1176	1176	1171	1171	1171	1171	1171	1171	1165	1165	1165	1165	1162	1160	1160	1160	1160	1160	1157	1154	1149	1149	1149	1144	1144	1144	1144	1144	1144	1149	1151	1154	1154	1154	1154	1154	1154	1154	1154	1152	1149	1145	1142	1138	1134	1131	1128	1124	1123	1123	1119	1118	1118	1118	1118	1118	1118	1118	1118	1118	1118	1118	1122	1123	1123	1126	1129	1133	1136	1139	1144	1147	1149	1149	1152	1154	1154	1158	1160	1160	1160	1160	1160	1160	1160	1160	1163	1165	1160	1160	1160	1154	1154	1154	1160	1160	1160	1165	1168	1171	1176	1181	1187	1199	1207	1217	1228	1232	1235	1241	1241	1241	1241	1241	1241	1241	1239	1235	1230	1229	1229	1229	1229	1229	1234	1235	1235	1230	1229	1229	1229	1227	1223	1223	1223	1223	1223	1222	1217	1217	1218	1223	1223	1223	1223	1223	1224	1229	1229	1230	1235	1239	1241	1241	1245	1249	1260	1264	1267	1279	1283	1287	1293	1297	1300	1306	1306	1306	1313	1313	1313	1313	1317	1320	1327	1331	1334	1334	1341	1349	1356	1363	1371	1379	1382	1386	1386	1386	1386	1386	1389	1394	1408	1416	1426	1434	1447	1468	1491	1508	1532	1565	1588	1622	1659	1681	1712	1731	1743	1760	1770	1773	1773	1782	1788	1798	1818	1828	1838	1848	1855	1866	1886	1897	1909	1909	1912	1924	1934	1939	1939	1949	1954	1954	1944	1939	1939	1939	1939	1939	1930	1923	1909	1909	1909	1909	1901	1894	1894	1894	1894	1894	1887	1880	1866	1866	1866	1880	1873	1866	1866	1866	1866	1866	1866	1866	1866	1866	1866	1879	1886	1894	1908	1909	1909	1922	1935	1954	1968	1975	1985	1999	2007	2018	2031	2039	2051	2065	2073	2085	2085	2085	2085	2085	2085	2085	2085	2081	2068	2068	2068	2068	2068	2068	2068	2068	2068	2068	2056	2051	2051	2040	2032	2018	2018	2018	2018	2007	2001	2001	2001	2001	2001	2001	2001	2001	2001	2001	2001	2001	2002	2018	2018	2018	2018	2018	2018	2018	2026	2034	2034	2034	2034	2050	2051	2051	2051	2051	2051	2067	2068	2068	2083	2085	2085	2085	2085	2085	2101	2103	2103	2103	2109	2121	2121	2115	2103	2103	2103	2103	2089	2085	2085	2072	2068	2068	2055	2051	2051	2038	2034	2034	2034	2031	2018	2018	2015	2001
1057	1058	1065	1067	1070	1074	1076	1079	1083	1084	1086	1090	1091	1091	1093	1092	1088	1084	1084	1084	1080	1078	1076	1073	1072	1072	1070	1070	1070	1070	1070	1070	1071	1073	1074	1076	1077	1082	1086	1090	1096	1099	1102	1110	1114	1116	1120	1120	1120	1120	1119	1118	1118	1115	1113	1113	1110	1108	1106	1103	1100	1093	1093	1093	1086	1086	1086	1088	1088	1088	1090	1093	1096	1105	1109	1113	1118	1120	1123	1130	1134	1138	1141	1141	1141	1141	1141	1141	1144	1145	1146	1146	1149	1154	1159	1162	1165	1165	1167	1171	1175	1177	1179	1179	1178	1174	1171	1170	1168	1168	1168	1168	1166	1165	1165	1165	1166	1168	1168	1168	1168	1170	1171	1174	1174	1174	1174	1174	1174	1174	1174	1174	1174	1172	1171	1171	1171	1171	1171	1172	1174	1176	1176	1176	1176	1175	1174	1174	1171	1168	1157	1152	1146	1136	1134	1131	1126	1123	1120	1114	1110	1106	1096	1092	1086	1080	1076	1072	1064	1062	1061	1053	1050	1047	1045	1044	1043	1043	1043	1043	1046	1048	1050	1053	1056	1060	1064	1068	1074	1078	1082	1090	1098	1102	1108	1113	1117	1123	1126	1129	1133	1133	1133	1130	1126	1122	1118	1112	1107	1103	1100	1098	1093	1092	1090	1088	1088	1088	1090	1090	1091	1096	1098	1101	1110	1113	1116	1120	1120	1120	1123	1124	1126	1128	1128	1128	1128	1126	1123	1123	1125	1128	1130	1130	1130	1130	1130	1128	1126	1126	1126	1130	1130	1130	1133	1134	1136	1138	1140	1144	1144	1145	1149	1151	1153	1157	1159	1161	1166	1169	1170	1170	1173	1174	1174	1176	1177	1179	1179	1179	1176	1176	1176	1176	1176	1176	1176	1173	1170	1170	1170	1170	1166	1166	1166	1166	1166	1165	1160	1160	1160	1160	1158	1157	1157	1156	1154	1154	1152	1149	1147	1145	1144	1139	1138	1138	1138	1138	1138	1143	1145	1146	1149	1149	1149	1149	1149	1149	1149	1147	1144	1139	1137	1133	1129	1126	1123	1119	1118	1118	1114	1113	1113	1113	1113	1113	1113	1113	1113	1113	1113	1113	1115	1116	1118	1120	1122	1128	1131	1134	1136	1141	1144	1144	1147	1149	1152	1155	1157	1157	1157	1157	1157	1157	1157	1160	1161	1162	1160	1158	1157	1154	1154	1154	1157	1159	1160	1165	1168	1171	1176	1181	1187	1199	1207	1217	1228	1232	1235	1238	1238	1238	1238	1238	1238	1238	1236	1232	1227	1226	1226	1229	1229	1229	1231	1232	1232	1230	1229	1229	1227	1225	1223	1223	1222	1220	1220	1219	1217	1217	1218	1220	1220	1221	1223	1223	1224	1229	1231	1233	1235	1239	1242	1247	1251	1255	1263	1269	1273	1279	1285	1290	1296	1302	1307	1313	1313	1313	1320	1320	1320	1324	1327	1331	1334	1338	1342	1345	1351	1356	1363	1369	1375	1382	1386	1390	1390	1388	1386	1386	1389	1394	1408	1415	1422	1434	1447	1468	1491	1508	1532	1565	1587	1617	1658	1679	1706	1725	1738	1760	1770	1773	1773	1782	1788	1798	1818	1828	1838	1848	1855	1866	1886	1897	1909	1919	1925	1932	1942	1946	1946	1951	1954	1954	1944	1939	1939	1939	1939	1939	1930	1923	1916	1912	1909	1909	1905	1902	1902	1902	1901	1894	1890	1887	1873	1873	1873	1880	1877	1873	1866	1866	1866	1866	1866	1866	1866	1866	1866	1872	1879	1887	1900	1902	1902	1915	1925	1939	1952	1960	1970	1983	1994	2010	2023	2031	2042	2049	2059	2076	2076	2076	2076	2070	2068	2068	2068	2066	2060	2060	2060	2060	2060	2060	2060	2060	2060	2060	2048	2042	2042	2032	2025	2018	2018	2018	2018	2013	2009	2001	2001	2001	2001	2001	2001	2001	2001	2001	2001	2001	2002	2018	2018	2018	2018	2022	2026	2026	2030	2034	2034	2038	2042	2051	2051	2051	2051	2051	2051	2067	2068	2068	2083	2085	2085	2085	2085	2085	2101	2103	2103	2111	2115	2121	2121	2118	2112	2112	2109	2103	2096	2094	2094	2080	2076	2076	2070	2066	2060	2053	2051	2051	2051	2048	2034	2034	2031	2018
1054	1056	1061	1063	1065	1069	1072	1074	1078	1079	1079	1083	1084	1084	1087	1087	1084	1080	1079	1079	1075	1074	1074	1071	1070	1070	1066	1065	1065	1065	1065	1065	1069	1070	1070	1073	1075	1079	1082	1086	1093	1096	1100	1108	1111	1114	1118	1118	1118	1118	1118	1118	1118	1115	1113	1113	1113	1113	1108	1105	1103	1098	1098	1098	1093	1093	1093	1093	1093	1093	1093	1095	1098	1108	1110	1113	1118	1120	1123	1128	1132	1138	1138	1138	1138	1138	1138	1138	1143	1144	1144	1144	1147	1154	1159	1162	1165	1165	1167	1171	1175	1176	1176	1176	1175	1171	1166	1165	1165	1165	1165	1165	1165	1165	1165	1165	1165	1165	1165	1165	1165	1169	1171	1171	1171	1171	1171	1171	1171	1171	1171	1171	1171	1171	1171	1171	1171	1171	1171	1171	1171	1176	1176	1176	1176	1173	1171	1171	1168	1165	1154	1146	1138	1128	1123	1118	1118	1116	1113	1108	1104	1098	1093	1089	1084	1075	1072	1070	1062	1061	1061	1053	1050	1047	1047	1046	1043	1043	1043	1043	1046	1047	1047	1051	1053	1056	1060	1063	1070	1073	1077	1088	1092	1095	1103	1106	1110	1118	1121	1124	1128	1128	1128	1128	1125	1122	1118	1112	1107	1103	1100	1098	1093	1090	1088	1088	1088	1088	1088	1088	1088	1093	1096	1098	1108	1111	1113	1118	1118	1118	1123	1123	1123	1128	1128	1128	1128	1126	1123	1123	1125	1128	1128	1128	1128	1128	1126	1123	1123	1123	1123	1127	1128	1128	1128	1130	1133	1133	1135	1138	1138	1140	1144	1148	1150	1154	1154	1155	1160	1164	1165	1165	1169	1171	1171	1171	1172	1176	1176	1175	1171	1171	1171	1171	1171	1171	1171	1167	1165	1165	1165	1165	1160	1160	1160	1160	1160	1160	1154	1154	1154	1154	1154	1154	1154	1151	1149	1149	1147	1144	1144	1141	1138	1133	1133	1133	1133	1133	1133	1138	1138	1138	1143	1144	1144	1144	1144	1144	1144	1142	1138	1134	1131	1128	1124	1121	1118	1114	1113	1113	1109	1108	1108	1108	1108	1108	1108	1108	1108	1108	1108	1108	1108	1109	1113	1113	1115	1123	1126	1128	1128	1135	1138	1138	1142	1145	1149	1152	1154	1154	1154	1154	1154	1154	1154	1160	1160	1160	1160	1157	1154	1154	1154	1154	1154	1157	1160	1165	1168	1171	1176	1181	1187	1199	1207	1217	1228	1232	1235	1235	1235	1235	1235	1235	1235	1235	1233	1229	1224	1223	1223	1228	1229	1229	1229	1229	1229	1229	1229	1229	1224	1223	1223	1223	1221	1217	1217	1217	1217	1217	1217	1217	1217	1218	1223	1223	1224	1229	1233	1235	1235	1239	1243	1253	1257	1261	1266	1274	1279	1279	1287	1294	1299	1307	1314	1320	1320	1320	1327	1327	1327	1334	1338	1341	1341	1345	1349	1356	1360	1364	1371	1375	1379	1386	1390	1394	1394	1391	1386	1386	1389	1394	1408	1413	1418	1433	1447	1468	1491	1508	1532	1565	1585	1612	1657	1677	1700	1719	1734	1760	1770	1773	1773	1782	1788	1798	1818	1828	1838	1848	1855	1866	1886	1897	1909	1930	1939	1939	1949	1954	1954	1954	1954	1954	1944	1939	1939	1939	1939	1939	1930	1924	1924	1915	1909	1909	1909	1909	1909	1909	1908	1894	1894	1894	1880	1880	1880	1880	1880	1880	1866	1866	1866	1866	1866	1866	1866	1866	1866	1866	1872	1880	1893	1894	1894	1907	1915	1924	1937	1944	1954	1968	1981	2001	2015	2023	2034	2034	2044	2068	2068	2068	2068	2055	2051	2051	2051	2051	2051	2051	2051	2051	2051	2051	2051	2051	2051	2051	2039	2034	2034	2023	2018	2018	2018	2018	2018	2018	2016	2001	2001	2001	2001	2001	2001	2001	2001	2001	2001	2001	2002	2018	2018	2018	2018	2026	2034	2034	2034	2034	2034	2042	2051	2051	2051	2051	2051	2051	2051	2067	2068	2068	2083	2085	2085	2085	2085	2085	2101	2103	2103	2118	2121	2121	2121	2121	2121	2121	2116	2103	2103	2103	2103	2089	2085	2085	2085	2081	2068	2068	2068	2068	2068	2064	2051	2051	2048	2034
1043	1043	1047	1049	1052	1056	1056	1056	1060	1062	1065	1065	1067	1070	1073	1074	1074	1071	1070	1070	1070	1069	1065	1065	1065	1065	1065	1064	1061	1061	1062	1065	1065	1065	1065	1068	1071	1074	1077	1081	1088	1091	1095	1103	1106	1109	1113	1113	1114	1118	1118	1118	1118	1118	1118	1118	1115	1113	1113	1113	1113	1108	1108	1108	1103	1103	1103	1098	1098	1098	1103	1103	1103	1108	1110	1113	1118	1120	1123	1128	1130	1133	1138	1138	1138	1138	1138	1138	1143	1144	1144	1144	1147	1154	1154	1154	1154	1159	1160	1160	1164	1167	1171	1166	1165	1165	1161	1160	1160	1160	1160	1160	1160	1160	1160	1160	1160	1160	1160	1160	1160	1163	1165	1165	1165	1165	1165	1165	1165	1165	1169	1171	1171	1167	1165	1165	1165	1165	1165	1168	1171	1176	1176	1176	1171	1168	1165	1160	1155	1149	1138	1133	1128	1114	1111	1108	1108	1104	1098	1093	1091	1088	1084	1082	1079	1075	1072	1070	1062	1061	1061	1057	1055	1052	1048	1046	1043	1043	1043	1043	1043	1044	1047	1051	1052	1052	1052	1054	1061	1068	1071	1074	1081	1086	1093	1096	1099	1103	1110	1113	1113	1116	1118	1118	1115	1113	1113	1110	1107	1098	1095	1093	1088	1086	1084	1084	1084	1084	1084	1084	1084	1088	1091	1093	1098	1103	1108	1108	1108	1108	1113	1115	1118	1123	1123	1123	1123	1123	1123	1123	1123	1123	1123	1123	1123	1119	1118	1118	1118	1118	1118	1118	1118	1118	1118	1120	1123	1127	1128	1128	1132	1133	1133	1137	1140	1144	1148	1150	1154	1154	1154	1154	1158	1160	1160	1163	1165	1165	1162	1160	1160	1160	1160	1160	1160	1159	1154	1154	1154	1154	1154	1154	1154	1154	1154	1149	1149	1149	1149	1149	1149	1149	1146	1144	1144	1141	1138	1138	1136	1133	1133	1131	1128	1123	1123	1123	1123	1123	1123	1128	1128	1128	1128	1128	1128	1128	1130	1133	1133	1129	1123	1119	1118	1118	1114	1111	1108	1104	1101	1098	1098	1098	1098	1098	1098	1098	1094	1093	1093	1097	1098	1098	1098	1099	1103	1103	1104	1108	1111	1114	1118	1121	1125	1133	1133	1134	1138	1145	1149	1149	1149	1149	1149	1152	1154	1160	1160	1160	1160	1157	1154	1154	1154	1154	1154	1157	1160	1165	1168	1171	1176	1181	1187	1199	1204	1211	1222	1226	1229	1229	1229	1229	1229	1229	1229	1224	1221	1217	1217	1217	1217	1222	1223	1223	1228	1229	1229	1229	1227	1223	1223	1223	1223	1218	1217	1217	1217	1216	1211	1211	1212	1217	1217	1218	1223	1223	1224	1229	1233	1236	1241	1245	1248	1253	1261	1267	1273	1281	1287	1293	1301	1307	1313	1317	1321	1334	1334	1334	1341	1341	1341	1349	1349	1349	1356	1360	1364	1364	1367	1371	1379	1382	1386	1394	1394	1394	1394	1391	1386	1386	1386	1386	1400	1408	1418	1433	1444	1460	1483	1496	1513	1554	1575	1601	1645	1661	1677	1696	1714	1748	1768	1773	1773	1792	1801	1811	1831	1841	1852	1873	1883	1894	1916	1930	1954	1965	1970	1970	1980	1985	1985	1985	1983	1970	1970	1968	1954	1954	1954	1954	1945	1939	1939	1930	1923	1909	1909	1909	1909	1909	1908	1894	1894	1894	1894	1894	1894	1894	1887	1880	1866	1866	1866	1866	1866	1866	1866	1866	1866	1866	1866	1866	1866	1872	1880	1892	1900	1909	1922	1929	1939	1952	1959	1970	1982	1990	2001	2015	2023	2034	2034	2034	2034	2034	2030	2018	2018	2018	2018	2018	2018	2018	2018	2018	2018	2018	2018	2018	2018	2018	2018	2018	2018	2018	2007	2001	2001	2001	2001	2001	2001	2001	2001	2001	2001	2001	2001	2001	2001	2001	2002	2018	2018	2018	2018	2026	2034	2034	2034	2034	2034	2042	2051	2051	2051	2051	2067	2068	2068	2068	2068	2068	2083	2085	2085	2085	2092	2103	2103	2109	2121	2121	2121	2121	2121	2121	2121	2121	2121	2121	2121	2121	2121	2121	2116	2103	2103	2103	2103	2103	2099	2085	2085	2085	2085	2085	2082	2068
1037	1038	1040	1042	1045	1049	1050	1050	1053	1055	1056	1058	1060	1063	1065	1065	1065	1063	1063	1063	1065	1065	1063	1063	1063	1063	1063	1063	1061	1061	1062	1065	1065	1065	1065	1068	1070	1072	1077	1080	1086	1091	1094	1100	1104	1106	1110	1112	1113	1116	1116	1116	1116	1116	1116	1118	1118	1118	1118	1118	1118	1113	1112	1110	1108	1107	1106	1100	1100	1100	1105	1106	1106	1108	1110	1113	1118	1120	1123	1128	1130	1133	1138	1138	1138	1138	1138	1138	1141	1141	1141	1144	1146	1149	1151	1152	1152	1154	1155	1157	1159	1161	1166	1163	1162	1162	1161	1160	1160	1160	1160	1160	1158	1157	1157	1157	1157	1157	1157	1157	1157	1161	1162	1162	1162	1162	1162	1162	1163	1165	1167	1168	1168	1166	1165	1165	1165	1165	1165	1168	1171	1174	1174	1173	1168	1165	1162	1157	1150	1144	1136	1130	1123	1111	1107	1103	1098	1096	1093	1089	1087	1086	1082	1080	1076	1073	1071	1070	1064	1062	1061	1059	1056	1052	1048	1046	1045	1043	1043	1043	1043	1044	1047	1049	1050	1050	1051	1054	1058	1064	1066	1070	1076	1080	1086	1089	1092	1096	1101	1104	1108	1110	1111	1113	1110	1108	1108	1105	1102	1096	1092	1090	1086	1083	1082	1082	1082	1082	1082	1082	1082	1084	1086	1089	1093	1098	1103	1106	1106	1106	1110	1113	1116	1120	1120	1120	1120	1120	1120	1120	1119	1118	1118	1118	1118	1116	1116	1116	1113	1113	1113	1113	1113	1113	1115	1116	1118	1122	1123	1123	1127	1128	1128	1132	1134	1138	1142	1145	1149	1149	1150	1152	1154	1155	1157	1159	1160	1160	1158	1157	1154	1154	1154	1154	1154	1154	1149	1149	1149	1149	1147	1146	1146	1146	1146	1144	1144	1144	1144	1144	1144	1144	1141	1138	1138	1136	1133	1133	1131	1128	1126	1123	1120	1118	1117	1116	1116	1116	1116	1120	1120	1120	1123	1123	1123	1123	1124	1126	1126	1123	1118	1116	1114	1110	1108	1106	1100	1098	1096	1093	1093	1092	1091	1091	1091	1091	1089	1088	1088	1090	1091	1091	1092	1094	1096	1097	1099	1103	1106	1109	1113	1116	1120	1128	1130	1131	1133	1140	1144	1144	1145	1146	1146	1149	1152	1157	1157	1157	1157	1155	1154	1154	1154	1154	1157	1159	1160	1165	1168	1171	1176	1180	1184	1196	1201	1208	1216	1220	1223	1220	1220	1220	1220	1220	1220	1217	1215	1211	1211	1211	1211	1216	1218	1220	1225	1226	1226	1226	1225	1223	1221	1220	1220	1215	1214	1214	1214	1213	1211	1211	1212	1214	1214	1215	1220	1222	1224	1229	1233	1236	1241	1247	1251	1256	1265	1270	1276	1284	1290	1296	1304	1310	1316	1323	1328	1338	1338	1338	1345	1347	1349	1352	1355	1357	1364	1366	1368	1368	1369	1371	1379	1382	1386	1390	1390	1390	1390	1388	1386	1386	1386	1386	1400	1408	1418	1433	1444	1460	1483	1496	1513	1550	1571	1601	1641	1658	1677	1696	1714	1748	1763	1768	1773	1792	1801	1811	1837	1850	1866	1881	1894	1916	1933	1945	1970	1981	1987	1994	1999	2002	2002	2002	1999	1986	1980	1976	1970	1970	1969	1962	1953	1946	1939	1935	1930	1909	1909	1909	1909	1909	1908	1894	1894	1894	1887	1887	1887	1887	1884	1880	1866	1863	1859	1859	1856	1852	1852	1852	1852	1852	1855	1859	1859	1865	1873	1879	1885	1894	1907	1917	1932	1944	1952	1962	1975	1982	1993	2006	2014	2026	2026	2026	2026	2026	2022	2010	2010	2010	2010	2010	2010	2010	2010	2010	2010	2010	2011	2018	2018	2017	2010	2010	2010	2010	2004	2001	2001	2001	2001	2001	2001	2001	2001	2001	2001	2001	2001	2001	2010	2010	2010	2018	2018	2018	2018	2026	2034	2034	2034	2034	2042	2047	2051	2051	2051	2051	2067	2068	2068	2076	2076	2076	2084	2089	2094	2094	2097	2103	2111	2115	2121	2121	2124	2130	2130	2130	2130	2130	2130	2130	2130	2130	2130	2130	2128	2121	2121	2119	2112	2112	2110	2103	2103	2103	2103	2103	2101	2094
1032	1034	1034	1036	1038	1042	1043	1043	1046	1047	1047	1051	1053	1056	1056	1056	1056	1056	1056	1056	1060	1061	1061	1061	1061	1061	1061	1061	1061	1061	1062	1065	1065	1065	1065	1068	1070	1070	1076	1080	1084	1090	1094	1098	1101	1104	1108	1111	1113	1113	1113	1113	1113	1113	1113	1118	1121	1123	1123	1123	1123	1118	1115	1113	1113	1110	1108	1103	1103	1103	1108	1108	1108	1108	1110	1113	1118	1120	1123	1128	1130	1133	1138	1138	1138	1138	1138	1138	1138	1138	1138	1143	1144	1144	1148	1149	1149	1149	1151	1154	1154	1156	1160	1160	1160	1160	1160	1160	1160	1160	1160	1160	1156	1154	1154	1154	1154	1154	1154	1154	1154	1158	1160	1160	1160	1160	1160	1160	1161	1165	1165	1165	1165	1165	1165	1165	1165	1165	1165	1168	1171	1171	1171	1171	1165	1162	1160	1154	1146	1138	1133	1126	1118	1108	1103	1098	1089	1088	1088	1084	1084	1084	1079	1077	1074	1070	1070	1070	1066	1064	1061	1061	1058	1052	1048	1047	1047	1044	1043	1043	1043	1044	1047	1047	1047	1047	1051	1053	1056	1060	1062	1065	1071	1075	1079	1082	1085	1088	1091	1095	1103	1103	1104	1108	1105	1103	1103	1100	1097	1093	1090	1088	1084	1081	1079	1079	1079	1079	1079	1079	1079	1079	1082	1084	1088	1093	1098	1103	1103	1103	1108	1110	1113	1118	1118	1118	1118	1118	1118	1118	1116	1113	1113	1113	1113	1113	1113	1113	1109	1108	1108	1108	1108	1108	1112	1113	1113	1117	1118	1118	1122	1123	1123	1127	1129	1133	1137	1139	1144	1144	1145	1149	1149	1150	1154	1154	1154	1154	1154	1153	1149	1149	1149	1149	1149	1148	1144	1144	1144	1144	1140	1138	1138	1138	1138	1138	1138	1138	1138	1138	1138	1138	1135	1133	1133	1130	1128	1128	1126	1123	1118	1116	1113	1113	1111	1108	1108	1108	1108	1113	1113	1113	1118	1118	1118	1118	1118	1118	1118	1116	1113	1113	1110	1103	1103	1100	1093	1093	1091	1088	1088	1087	1084	1084	1084	1084	1084	1084	1084	1084	1084	1084	1087	1088	1088	1091	1094	1098	1101	1104	1108	1111	1115	1123	1126	1128	1128	1134	1138	1138	1142	1144	1144	1147	1149	1154	1154	1154	1154	1154	1154	1154	1154	1154	1160	1160	1160	1165	1168	1171	1176	1179	1182	1193	1198	1205	1211	1214	1217	1211	1211	1211	1211	1211	1211	1211	1209	1205	1205	1205	1205	1210	1213	1217	1222	1223	1223	1223	1223	1223	1218	1217	1217	1212	1211	1211	1211	1211	1211	1211	1211	1211	1211	1212	1217	1221	1224	1229	1233	1236	1241	1249	1254	1260	1268	1274	1279	1288	1294	1299	1307	1314	1320	1328	1335	1341	1341	1341	1349	1353	1356	1356	1360	1364	1371	1371	1371	1371	1371	1371	1379	1382	1386	1386	1386	1386	1386	1386	1386	1386	1386	1386	1400	1408	1418	1433	1444	1460	1483	1496	1513	1545	1568	1601	1637	1655	1677	1696	1714	1748	1758	1764	1773	1792	1801	1811	1842	1859	1880	1890	1904	1939	1950	1960	1985	1996	2004	2018	2018	2018	2018	2018	2015	2001	1991	1985	1985	1985	1983	1970	1960	1953	1939	1939	1937	1909	1909	1909	1909	1909	1908	1894	1894	1894	1880	1880	1880	1880	1880	1880	1866	1859	1852	1852	1846	1838	1838	1838	1838	1838	1844	1852	1852	1858	1866	1866	1871	1880	1892	1905	1924	1937	1944	1954	1967	1975	1985	1998	2006	2018	2018	2018	2018	2018	2014	2001	2001	2001	2001	2001	2001	2001	2001	2001	2001	2001	2004	2018	2018	2015	2001	2001	2001	2001	2001	2001	2001	2001	2001	2001	2001	2001	2001	2001	2001	2001	2001	2002	2018	2018	2018	2018	2018	2018	2018	2026	2034	2034	2034	2034	2051	2051	2051	2051	2051	2051	2067	2068	2068	2084	2085	2085	2085	2092	2103	2103	2103	2103	2119	2121	2121	2121	2127	2139	2139	2139	2139	2139	2139	2139	2139	2139	2139	2139	2139	2139	2139	2135	2121	2121	2121	2121	2121	2121	2121	2121	2121	2121
1021	1021	1026	1026	1026	1026	1028	1030	1030	1031	1034	1037	1040	1043	1043	1044	1047	1047	1049	1052	1052	1052	1052	1055	1056	1056	1060	1061	1061	1061	1062	1065	1065	1065	1065	1068	1070	1070	1076	1080	1084	1087	1090	1098	1101	1104	1108	1108	1109	1113	1113	1113	1113	1113	1113	1118	1118	1118	1118	1118	1118	1118	1118	1118	1118	1115	1113	1113	1113	1113	1113	1115	1118	1118	1118	1118	1123	1125	1128	1133	1135	1138	1138	1138	1138	1138	1138	1138	1138	1138	1138	1138	1138	1138	1138	1138	1138	1143	1144	1144	1148	1149	1149	1153	1154	1154	1154	1154	1154	1158	1160	1160	1156	1153	1149	1149	1149	1149	1149	1149	1149	1152	1154	1154	1154	1154	1154	1154	1155	1160	1160	1160	1160	1160	1160	1160	1160	1160	1165	1165	1165	1165	1162	1160	1160	1157	1154	1144	1139	1133	1123	1116	1108	1098	1096	1093	1088	1088	1088	1080	1077	1074	1074	1072	1070	1070	1068	1065	1065	1064	1061	1061	1059	1056	1053	1050	1047	1047	1046	1043	1043	1044	1047	1047	1046	1043	1043	1044	1047	1051	1053	1056	1060	1062	1065	1068	1072	1079	1079	1081	1088	1088	1088	1088	1091	1092	1088	1088	1088	1084	1081	1079	1074	1074	1074	1074	1074	1074	1074	1072	1070	1070	1075	1079	1084	1086	1088	1093	1095	1098	1098	1100	1103	1103	1105	1108	1113	1111	1108	1108	1108	1108	1103	1103	1103	1103	1101	1098	1098	1098	1098	1098	1098	1098	1102	1103	1103	1107	1108	1108	1112	1113	1113	1117	1119	1123	1127	1129	1133	1133	1133	1133	1137	1138	1138	1142	1143	1138	1138	1138	1138	1138	1138	1138	1135	1133	1133	1133	1132	1128	1128	1128	1128	1128	1128	1128	1128	1128	1123	1123	1123	1123	1123	1123	1118	1118	1118	1113	1111	1108	1103	1101	1098	1098	1096	1093	1093	1095	1098	1098	1100	1103	1103	1103	1103	1107	1108	1108	1104	1103	1103	1099	1096	1093	1089	1087	1084	1080	1079	1079	1079	1079	1079	1079	1079	1079	1075	1074	1074	1074	1074	1074	1078	1079	1079	1082	1085	1088	1091	1095	1103	1106	1109	1113	1116	1119	1123	1129	1133	1133	1133	1133	1138	1138	1138	1144	1147	1149	1154	1154	1154	1154	1154	1154	1154	1157	1160	1165	1168	1171	1176	1176	1176	1187	1190	1193	1199	1199	1199	1199	1197	1193	1193	1193	1193	1188	1187	1187	1187	1189	1193	1198	1201	1205	1210	1211	1211	1211	1211	1211	1211	1211	1211	1206	1205	1205	1205	1205	1205	1205	1205	1205	1209	1212	1217	1221	1223	1223	1231	1236	1241	1245	1249	1260	1264	1268	1279	1288	1294	1299	1307	1314	1320	1328	1335	1349	1349	1349	1356	1360	1364	1364	1364	1364	1371	1367	1364	1364	1367	1371	1371	1375	1379	1386	1383	1379	1379	1379	1379	1379	1382	1386	1400	1408	1418	1433	1444	1460	1475	1490	1513	1545	1568	1601	1637	1655	1677	1705	1723	1748	1758	1767	1785	1805	1818	1838	1859	1873	1894	1927	1946	1970	1981	1992	2018	2029	2037	2051	2051	2051	2051	2051	2048	2034	2024	2016	2001	1991	1983	1970	1960	1954	1954	1936	1923	1909	1909	1908	1894	1894	1893	1880	1873	1866	1866	1866	1866	1852	1852	1852	1838	1838	1838	1838	1832	1825	1825	1825	1825	1825	1830	1838	1838	1838	1838	1850	1857	1866	1878	1890	1909	1922	1929	1939	1951	1959	1970	1982	1990	2001	2001	2001	2001	1989	1985	1985	1985	1985	1985	1985	1985	1985	1985	1985	1985	1985	1988	2001	2001	2001	2001	2001	2001	2001	2001	2001	2001	2001	2001	2001	2001	2001	2001	2001	2001	2001	2001	2001	2001	2001	2001	2001	2001	2001	2018	2018	2018	2034	2034	2034	2051	2051	2051	2051	2059	2068	2068	2075	2085	2085	2085	2085	2101	2103	2103	2103	2103	2103	2119	2121	2121	2136	2139	2139	2155	2158	2158	2158	2158	2158	2158	2158	2158	2158	2158	2158	2158	2158	2158	2158	2158	2158	2158	2162	2177	2177	2173	2158
1017	1017	1019	1020	1020	1020	1021	1024	1025	1027	1030	1033	1035	1036	1038	1040	1042	1045	1046	1050	1051	1052	1052	1055	1056	1056	1060	1061	1061	1061	1062	1065	1065	1065	1065	1068	1070	1072	1077	1080	1084	1087	1090	1098	1101	1104	1108	1108	1109	1113	1113	1113	1113	1113	1113	1118	1118	1118	1118	1118	1118	1118	1118	1118	1118	1117	1116	1116	1116	1116	1116	1118	1120	1120	1120	1120	1123	1125	1128	1133	1135	1138	1138	1138	1138	1138	1138	1138	1138	1138	1138	1138	1138	1138	1138	1137	1136	1138	1139	1141	1143	1144	1146	1148	1150	1152	1152	1152	1152	1156	1157	1157	1153	1150	1146	1146	1146	1146	1146	1147	1149	1151	1152	1152	1152	1152	1152	1152	1152	1157	1159	1160	1160	1160	1160	1160	1160	1160	1162	1164	1165	1162	1161	1160	1157	1153	1149	1141	1136	1130	1121	1113	1106	1098	1095	1090	1086	1085	1084	1079	1077	1074	1072	1071	1070	1070	1068	1065	1065	1064	1063	1061	1060	1058	1055	1053	1050	1050	1048	1045	1043	1044	1045	1043	1042	1040	1040	1041	1042	1046	1048	1050	1055	1057	1058	1062	1064	1070	1071	1073	1079	1079	1079	1081	1084	1086	1084	1082	1081	1079	1076	1074	1072	1071	1070	1070	1070	1070	1070	1068	1068	1068	1070	1072	1079	1081	1084	1088	1091	1093	1093	1095	1098	1098	1100	1103	1105	1104	1103	1103	1103	1103	1101	1100	1098	1098	1097	1096	1096	1096	1096	1096	1096	1096	1098	1098	1098	1102	1103	1103	1105	1106	1108	1112	1114	1116	1121	1124	1126	1127	1128	1128	1132	1133	1133	1135	1135	1133	1133	1133	1133	1131	1130	1130	1129	1128	1128	1126	1125	1123	1123	1123	1120	1120	1120	1120	1120	1120	1118	1117	1116	1116	1116	1115	1110	1110	1110	1106	1103	1100	1098	1096	1093	1091	1090	1088	1088	1090	1091	1091	1092	1094	1095	1096	1096	1098	1098	1098	1096	1096	1096	1093	1091	1086	1084	1082	1079	1075	1074	1074	1074	1074	1074	1074	1074	1074	1073	1071	1070	1070	1070	1072	1075	1076	1076	1080	1082	1086	1089	1092	1098	1103	1106	1110	1114	1116	1120	1125	1128	1130	1130	1131	1136	1137	1138	1144	1147	1149	1152	1153	1154	1154	1154	1154	1154	1157	1160	1162	1165	1168	1170	1172	1174	1179	1181	1184	1190	1190	1190	1188	1186	1184	1184	1184	1182	1179	1179	1179	1179	1181	1184	1190	1192	1196	1201	1203	1205	1205	1205	1205	1205	1205	1205	1203	1202	1202	1202	1202	1202	1202	1203	1205	1207	1209	1214	1218	1221	1223	1229	1233	1238	1242	1245	1254	1260	1265	1276	1282	1287	1296	1304	1310	1320	1328	1335	1349	1351	1353	1360	1362	1364	1368	1366	1364	1368	1364	1360	1360	1362	1364	1367	1369	1372	1378	1377	1375	1375	1377	1379	1379	1380	1382	1397	1404	1414	1433	1444	1460	1475	1490	1513	1550	1573	1606	1642	1660	1682	1711	1732	1766	1782	1791	1805	1826	1839	1859	1881	1896	1924	1946	1962	1986	1997	2008	2034	2046	2054	2068	2068	2068	2068	2062	2057	2042	2032	2024	2010	1999	1991	1978	1963	1953	1946	1933	1923	1909	1905	1901	1887	1887	1886	1873	1866	1859	1859	1855	1852	1845	1845	1845	1832	1832	1832	1832	1825	1818	1818	1818	1818	1818	1824	1832	1837	1838	1838	1850	1857	1866	1878	1888	1902	1921	1927	1932	1944	1951	1962	1975	1982	1993	1993	1991	1986	1979	1978	1978	1978	1978	1978	1978	1978	1978	1978	1979	1985	1985	1987	1993	1998	2001	2001	2001	2001	2001	2001	2001	2001	2001	2001	2001	2001	2001	2001	2001	2001	2001	1996	1993	1993	1993	1993	2001	2001	2001	2010	2010	2010	2026	2030	2034	2042	2047	2051	2051	2059	2068	2068	2075	2085	2085	2089	2094	2102	2107	2112	2112	2112	2112	2128	2130	2130	2138	2142	2148	2164	2168	2168	2168	2168	2168	2168	2168	2168	2168	2168	2168	2175	2177	2177	2177	2177	2177	2177	2179	2186	2186	2187	2187
1013	1013	1013	1013	1013	1013	1015	1017	1020	1023	1026	1029	1030	1030	1033	1035	1038	1042	1044	1047	1051	1052	1052	1055	1056	1056	1060	1061	1061	1061	1062	1065	1065	1065	1065	1068	1071	1074	1077	1080	1084	1087	1090	1098	1101	1104	1108	1108	1109	1113	1113	1113	1113	1113	1113	1118	1118	1118	1118	1118	1118	1118	1118	1118	1118	1118	1118	1118	1118	1118	1118	1120	1123	1123	1123	1123	1123	1125	1128	1133	1135	1138	1138	1138	1138	1138	1138	1138	1138	1138	1138	1138	1138	1138	1138	1136	1133	1133	1135	1138	1138	1140	1144	1144	1145	1149	1149	1149	1149	1153	1154	1154	1150	1148	1144	1144	1144	1144	1144	1145	1149	1149	1149	1149	1149	1149	1149	1149	1150	1154	1158	1160	1160	1160	1160	1160	1160	1160	1160	1163	1165	1160	1160	1160	1154	1149	1144	1138	1133	1128	1118	1111	1103	1098	1093	1088	1084	1082	1079	1079	1077	1074	1070	1070	1070	1070	1068	1065	1065	1065	1065	1062	1061	1061	1057	1055	1052	1052	1050	1047	1044	1043	1043	1039	1038	1038	1038	1038	1038	1042	1043	1043	1049	1052	1052	1055	1057	1061	1064	1066	1070	1070	1071	1074	1077	1079	1079	1076	1074	1074	1072	1070	1070	1067	1065	1065	1065	1065	1065	1065	1065	1065	1065	1065	1074	1077	1079	1084	1086	1088	1088	1090	1093	1093	1095	1098	1098	1098	1098	1098	1098	1098	1098	1096	1093	1093	1093	1093	1093	1093	1093	1093	1093	1093	1093	1093	1093	1097	1098	1098	1098	1099	1103	1107	1108	1108	1116	1118	1118	1122	1123	1123	1127	1128	1128	1128	1128	1128	1128	1128	1128	1125	1123	1123	1123	1123	1123	1120	1118	1118	1118	1118	1113	1113	1113	1113	1113	1113	1113	1110	1108	1108	1108	1108	1103	1103	1103	1098	1096	1093	1093	1091	1088	1084	1084	1084	1084	1084	1084	1084	1084	1084	1088	1088	1088	1088	1088	1088	1088	1088	1088	1088	1085	1079	1079	1077	1074	1071	1070	1070	1070	1070	1070	1070	1070	1070	1070	1069	1065	1065	1066	1070	1073	1074	1074	1077	1080	1084	1087	1089	1093	1100	1104	1108	1111	1114	1118	1121	1124	1128	1128	1128	1133	1136	1138	1144	1147	1149	1149	1152	1154	1154	1154	1154	1154	1157	1160	1160	1162	1165	1165	1168	1171	1171	1173	1176	1182	1182	1182	1176	1176	1176	1176	1174	1171	1171	1171	1171	1171	1173	1176	1181	1184	1187	1192	1195	1199	1199	1199	1199	1199	1199	1199	1199	1199	1199	1199	1199	1199	1199	1200	1205	1205	1206	1211	1215	1218	1223	1227	1230	1235	1239	1242	1247	1255	1262	1273	1277	1281	1293	1301	1307	1320	1328	1335	1349	1353	1356	1364	1364	1364	1371	1367	1364	1364	1360	1356	1356	1356	1356	1364	1364	1364	1371	1371	1371	1371	1374	1379	1379	1379	1379	1393	1400	1410	1432	1444	1460	1475	1490	1513	1554	1578	1612	1647	1665	1688	1716	1742	1785	1806	1815	1825	1846	1859	1880	1902	1920	1954	1966	1977	2001	2013	2025	2051	2063	2071	2085	2085	2085	2085	2074	2065	2051	2040	2032	2018	2007	1999	1985	1966	1953	1939	1930	1923	1909	1901	1893	1880	1880	1879	1866	1859	1852	1852	1845	1838	1838	1838	1838	1825	1825	1825	1825	1819	1811	1811	1811	1811	1811	1817	1825	1837	1838	1838	1850	1857	1866	1878	1885	1894	1919	1924	1924	1936	1944	1954	1967	1975	1985	1985	1981	1970	1970	1970	1970	1970	1970	1970	1970	1970	1970	1970	1973	1985	1985	1985	1985	1996	2001	2001	2001	2001	2001	2001	2001	2001	2001	2001	2001	2001	2001	2001	2001	2001	2001	1992	1985	1985	1985	1986	2001	2001	2001	2001	2001	2001	2018	2026	2034	2034	2042	2051	2051	2059	2068	2068	2075	2085	2085	2092	2103	2103	2110	2121	2121	2121	2121	2137	2139	2139	2139	2145	2158	2174	2177	2177	2177	2177	2177	2177	2177	2177	2177	2177	2177	2191	2196	2196	2196	2196	2196	2196	2196	2196	2196	2200	2216
1005	1005	1005	1005	1005	1005	1007	1009	1009	1012	1017	1020	1023	1026	1029	1033	1038	1042	1044	1047	1051	1053	1056	1056	1057	1061	1061	1061	1061	1064	1066	1070	1070	1070	1070	1070	1071	1074	1081	1084	1084	1090	1094	1098	1101	1104	1108	1108	1109	1113	1113	1113	1113	1113	1113	1118	1118	1118	1123	1123	1123	1123	1123	1123	1123	1123	1123	1123	1123	1123	1123	1123	1123	1123	1125	1128	1133	1135	1138	1144	1144	1144	1144	1144	1144	1144	1144	1144	1139	1138	1138	1138	1138	1138	1134	1133	1133	1133	1133	1133	1133	1134	1138	1138	1140	1144	1144	1144	1144	1144	1145	1149	1145	1143	1138	1138	1138	1138	1138	1138	1138	1142	1144	1144	1144	1144	1144	1147	1150	1154	1154	1154	1154	1158	1160	1160	1160	1160	1160	1160	1160	1160	1157	1154	1149	1143	1138	1133	1126	1118	1113	1108	1103	1089	1086	1084	1079	1077	1074	1074	1072	1070	1065	1063	1061	1061	1061	1061	1061	1061	1061	1064	1062	1056	1053	1050	1047	1044	1041	1038	1038	1038	1038	1032	1029	1026	1026	1027	1030	1030	1031	1034	1037	1038	1038	1041	1043	1043	1046	1048	1052	1055	1056	1056	1059	1061	1061	1063	1065	1061	1058	1056	1056	1056	1056	1056	1056	1056	1056	1056	1056	1056	1059	1061	1065	1068	1070	1074	1074	1074	1079	1079	1079	1084	1086	1088	1088	1088	1088	1088	1088	1088	1088	1088	1088	1088	1086	1084	1084	1084	1084	1084	1085	1088	1088	1088	1088	1092	1093	1093	1097	1098	1098	1098	1099	1103	1107	1108	1108	1108	1109	1113	1113	1113	1113	1113	1113	1113	1113	1113	1113	1113	1113	1113	1110	1108	1108	1108	1108	1108	1108	1108	1103	1103	1103	1103	1103	1103	1103	1100	1098	1098	1098	1098	1093	1093	1093	1088	1086	1084	1079	1077	1074	1070	1070	1070	1070	1070	1070	1070	1070	1070	1074	1074	1074	1074	1074	1074	1078	1079	1079	1075	1073	1070	1070	1068	1065	1065	1065	1065	1065	1065	1065	1065	1065	1065	1062	1061	1061	1064	1065	1065	1069	1070	1070	1073	1075	1079	1082	1085	1088	1095	1099	1103	1106	1109	1113	1116	1119	1123	1123	1123	1128	1134	1138	1144	1147	1149	1149	1152	1154	1154	1154	1154	1154	1154	1154	1160	1160	1160	1160	1162	1165	1165	1165	1165	1171	1168	1165	1165	1163	1160	1155	1154	1154	1154	1154	1154	1159	1160	1160	1164	1169	1176	1181	1182	1182	1186	1187	1187	1187	1187	1187	1187	1187	1187	1192	1193	1193	1193	1194	1199	1203	1206	1211	1215	1218	1223	1223	1224	1229	1233	1236	1241	1245	1249	1260	1268	1274	1286	1294	1300	1313	1325	1335	1349	1353	1356	1364	1364	1364	1364	1360	1356	1349	1349	1349	1349	1349	1349	1349	1352	1356	1356	1360	1364	1364	1364	1364	1364	1367	1371	1392	1400	1410	1432	1444	1460	1475	1493	1523	1564	1592	1633	1689	1711	1735	1755	1780	1825	1846	1860	1880	1902	1913	1924	1935	1947	1970	1993	2008	2034	2046	2055	2068	2092	2103	2103	2115	2118	2103	2091	2082	2068	2057	2049	2034	2024	2014	1985	1976	1967	1939	1930	1922	1894	1886	1879	1866	1858	1852	1852	1845	1838	1838	1831	1825	1825	1818	1811	1811	1805	1798	1798	1798	1798	1798	1798	1798	1810	1811	1811	1824	1830	1838	1850	1857	1866	1878	1885	1894	1907	1909	1909	1921	1929	1939	1951	1954	1954	1954	1959	1970	1970	1970	1970	1970	1970	1970	1970	1970	1970	1970	1970	1970	1980	1985	1985	1996	2001	2001	2001	2001	2001	2001	2001	2001	2001	2001	2001	2001	2001	2001	2001	2001	2001	1992	1985	1985	1985	1985	1985	1985	1985	1985	1993	2001	2001	2009	2018	2034	2042	2051	2051	2059	2068	2068	2075	2085	2085	2092	2103	2119	2121	2121	2137	2139	2139	2139	2146	2158	2158	2164	2177	2177	2177	2177	2192	2196	2196	2196	2196	2196	2196	2196	2196	2211	2216	2216	2216	2216	2216	2216	2220	2236	2236	2236	2236
1001	1001	1001	1002	1003	1003	1005	1007	1009	1011	1015	1020	1023	1026	1029	1033	1038	1042	1044	1047	1051	1054	1058	1058	1059	1061	1063	1063	1063	1064	1066	1070	1070	1070	1070	1071	1072	1074	1081	1084	1084	1090	1094	1098	1101	1104	1108	1110	1111	1113	1115	1116	1116	1116	1116	1118	1119	1121	1123	1123	1123	1123	1123	1123	1123	1123	1123	1123	1123	1123	1123	1123	1123	1125	1128	1130	1133	1135	1138	1144	1145	1146	1144	1144	1144	1144	1144	1144	1141	1140	1138	1138	1138	1138	1134	1133	1133	1133	1133	1133	1133	1134	1136	1136	1136	1138	1138	1139	1141	1141	1142	1144	1142	1140	1136	1136	1136	1136	1136	1136	1136	1139	1141	1141	1141	1141	1141	1144	1147	1152	1152	1152	1152	1155	1157	1157	1157	1157	1157	1157	1157	1154	1152	1149	1144	1138	1133	1128	1122	1116	1108	1103	1098	1086	1083	1079	1072	1071	1070	1070	1068	1066	1061	1059	1056	1054	1054	1054	1054	1054	1054	1058	1056	1052	1048	1046	1042	1039	1037	1034	1034	1033	1032	1027	1024	1022	1022	1022	1024	1025	1026	1028	1031	1032	1032	1035	1036	1036	1039	1041	1045	1046	1047	1050	1051	1052	1054	1057	1058	1054	1052	1052	1052	1052	1052	1052	1052	1052	1052	1052	1052	1054	1055	1057	1060	1063	1066	1070	1071	1072	1074	1074	1074	1079	1080	1081	1081	1081	1081	1081	1081	1081	1083	1084	1084	1084	1083	1082	1082	1082	1082	1082	1082	1084	1084	1084	1086	1090	1090	1090	1094	1096	1096	1096	1097	1100	1102	1103	1103	1103	1104	1106	1106	1106	1108	1106	1106	1106	1106	1106	1106	1106	1106	1106	1104	1103	1103	1103	1103	1103	1103	1103	1098	1098	1098	1098	1098	1098	1098	1095	1093	1093	1093	1093	1088	1088	1088	1084	1081	1079	1072	1071	1070	1066	1064	1063	1063	1063	1063	1063	1063	1063	1065	1065	1065	1065	1066	1068	1070	1070	1070	1068	1067	1066	1063	1062	1060	1060	1060	1060	1060	1061	1063	1063	1063	1063	1061	1061	1061	1062	1063	1063	1066	1068	1068	1071	1073	1076	1080	1082	1086	1091	1094	1100	1104	1106	1110	1114	1116	1120	1122	1123	1128	1132	1136	1144	1147	1149	1152	1153	1154	1154	1154	1154	1154	1154	1154	1157	1157	1157	1157	1158	1160	1160	1160	1160	1162	1161	1160	1157	1155	1152	1149	1148	1146	1146	1146	1146	1151	1153	1154	1159	1162	1168	1175	1176	1176	1181	1182	1182	1182	1182	1184	1184	1184	1184	1189	1191	1193	1193	1194	1196	1200	1203	1208	1212	1215	1220	1222	1224	1226	1230	1233	1241	1243	1246	1256	1265	1271	1282	1291	1298	1313	1323	1332	1345	1349	1353	1360	1360	1360	1356	1352	1348	1345	1343	1342	1338	1338	1338	1341	1343	1345	1348	1352	1356	1360	1360	1360	1360	1363	1368	1388	1398	1410	1432	1444	1460	1475	1493	1523	1568	1597	1638	1699	1725	1754	1780	1804	1846	1862	1876	1902	1925	1933	1939	1956	1968	1986	2009	2025	2051	2063	2072	2086	2104	2112	2112	2118	2119	2112	2106	2100	2086	2069	2057	2042	2032	2021	1985	1971	1959	1932	1923	1914	1880	1872	1865	1852	1841	1832	1832	1828	1824	1824	1818	1812	1812	1805	1798	1798	1795	1792	1792	1792	1792	1792	1792	1792	1804	1807	1811	1824	1830	1838	1850	1857	1866	1878	1885	1894	1900	1904	1909	1915	1921	1932	1944	1946	1946	1952	1956	1962	1962	1962	1962	1962	1962	1962	1962	1964	1970	1970	1970	1970	1980	1985	1985	1996	2001	2001	2001	2001	2001	2001	2001	2001	2006	2010	2010	2004	2001	2001	2001	2001	2001	1992	1985	1985	1985	1985	1985	1985	1985	1985	1993	2001	2001	2009	2018	2034	2042	2051	2051	2059	2068	2068	2075	2085	2093	2098	2103	2119	2125	2130	2138	2139	2139	2147	2152	2158	2166	2171	2177	2185	2186	2186	2194	2199	2206	2206	2206	2206	2206	2206	2206	2221	2228	2236	2236	2236	2236	2236	2240	2256	2256	2256	2256
997	997	997	999	1001	1001	1003	1005	1008	1010	1013	1020	1023	1026	1029	1033	1038	1042	1044	1047	1051	1055	1061	1061	1061	1061	1064	1065	1065	1065	1066	1070	1070	1070	1070	1073	1074	1074	1081	1084	1084	1090	1094	1098	1101	1104	1108	1111	1113	1113	1116	1118	1118	1118	1118	1118	1121	1123	1123	1123	1123	1123	1123	1123	1123	1123	1123	1123	1123	1123	1123	1123	1123	1128	1130	1133	1133	1135	1138	1144	1146	1149	1144	1144	1144	1144	1144	1144	1144	1142	1138	1138	1138	1138	1134	1133	1133	1133	1133	1133	1133	1133	1133	1133	1133	1133	1133	1134	1138	1138	1138	1138	1138	1137	1133	1133	1133	1133	1133	1133	1133	1136	1138	1138	1138	1138	1138	1142	1145	1149	1149	1149	1149	1152	1154	1154	1154	1154	1154	1154	1154	1149	1146	1144	1138	1133	1128	1123	1118	1113	1103	1098	1093	1084	1079	1074	1066	1065	1065	1065	1063	1061	1056	1054	1052	1048	1047	1047	1047	1047	1047	1051	1050	1047	1044	1041	1038	1035	1033	1030	1030	1029	1026	1022	1020	1017	1017	1017	1017	1020	1021	1021	1025	1026	1026	1029	1030	1030	1033	1035	1038	1038	1039	1043	1043	1044	1047	1050	1051	1047	1047	1047	1047	1047	1047	1047	1047	1047	1047	1047	1047	1052	1052	1052	1056	1059	1061	1065	1067	1070	1070	1070	1070	1074	1074	1074	1074	1074	1074	1074	1074	1074	1079	1079	1079	1079	1079	1079	1079	1079	1079	1079	1079	1079	1079	1081	1084	1087	1088	1088	1092	1093	1093	1093	1094	1098	1098	1098	1098	1098	1098	1098	1098	1099	1103	1100	1098	1098	1098	1098	1098	1098	1098	1098	1098	1098	1098	1098	1098	1098	1098	1098	1093	1093	1093	1093	1093	1093	1093	1090	1088	1088	1088	1088	1084	1084	1084	1079	1077	1074	1065	1065	1065	1061	1059	1056	1056	1056	1056	1056	1056	1056	1056	1056	1056	1056	1058	1061	1061	1061	1061	1061	1061	1061	1057	1056	1056	1056	1056	1056	1056	1057	1061	1061	1061	1061	1061	1061	1061	1061	1061	1061	1064	1065	1065	1068	1071	1074	1077	1080	1084	1087	1090	1098	1101	1104	1108	1111	1114	1118	1121	1123	1128	1131	1134	1144	1147	1149	1154	1154	1154	1154	1154	1154	1154	1154	1154	1154	1154	1154	1154	1154	1154	1154	1154	1154	1154	1154	1154	1149	1147	1144	1144	1142	1138	1138	1138	1138	1143	1146	1149	1153	1156	1160	1169	1171	1171	1175	1176	1176	1176	1178	1182	1182	1182	1182	1186	1188	1193	1193	1193	1193	1197	1200	1205	1209	1212	1217	1221	1223	1223	1227	1231	1241	1241	1243	1253	1261	1267	1279	1287	1295	1313	1321	1328	1341	1346	1349	1356	1356	1356	1349	1345	1341	1341	1337	1334	1327	1327	1327	1334	1334	1334	1341	1345	1349	1356	1356	1356	1356	1359	1364	1384	1396	1410	1432	1444	1460	1475	1493	1523	1572	1602	1644	1710	1739	1773	1804	1828	1866	1877	1892	1924	1947	1954	1954	1977	1989	2001	2025	2042	2068	2080	2089	2103	2116	2121	2121	2121	2121	2121	2121	2118	2103	2081	2066	2051	2040	2028	1985	1966	1951	1924	1915	1906	1866	1858	1851	1838	1823	1811	1811	1811	1811	1811	1804	1798	1798	1792	1785	1785	1785	1785	1785	1785	1785	1785	1785	1785	1797	1803	1811	1824	1830	1838	1850	1857	1866	1878	1885	1894	1894	1899	1909	1909	1914	1924	1936	1939	1939	1951	1954	1954	1954	1954	1954	1954	1954	1954	1954	1958	1970	1970	1970	1970	1980	1985	1985	1996	2001	2001	2001	2001	2001	2001	2001	2001	2012	2018	2018	2008	2001	2001	2001	2001	2001	1992	1985	1985	1985	1985	1985	1985	1985	1985	1993	2001	2001	2009	2018	2034	2042	2051	2051	2059	2068	2068	2075	2085	2102	2103	2103	2119	2128	2139	2139	2139	2139	2155	2158	2158	2174	2177	2177	2193	2196	2196	2196	2202	2216	2216	2216	2216	2216	2216	2216	2231	2241	2256	2256	2256	2256	2256	2260	2277	2277	2277	2277
