1221	1221	1221	1222	1222	1223	1225	1225	1234	1234	1243	1255	1255	1261	1261	1268	1281	1281	1293	1293	1298	1301	1301	1304	1305	1305	1306	1307	1307	1309	1310	1310	1314	1317	1317	1321	1321	1322	1323	1323	1326	1327	1327	1327	1330	1330	1330	1331	1331	1331	1331	1331	1331	1331	1331	1331	1331	1331	1331	1330	1330	1330	1330	1330	1330	1327	1327	1326	1323	1323	1323	1322	1322	1322	1321	1321	1321	1318	1318	1318	1318	1321	1322	1322	1322	1322	1322	1323	1326	1326	1326	1327	1327	1331	1331	1331	1334	1334	1334	1336	1336	1336	1337	1337	1337	1337	1337	1337	1337	1337	1337	1337	1337	1337	1337	1336	1336	1336	1333	1333	1331	1331	1326	1326	1318	1307	1301	1301	1292	1292	1282	1282	1250	1250	1237	1229	1224	1224	1223	1220	1219	1219	1216	1214	1214	1210	1210	1217	1208	1205	1205	1205	1205	1206	1208	1208	1210	1212	1212	1215	1215	1219	1220	1220	1221	1223	1223	1224	1225	1225	1229	1230	1230	0	0	0	0	0	0	0	0	0	0	0	0	0	0	0	0	0	0	0	0	0	0	0	1157	1157	1157	1161	1168	1168	1172	1172	1178	1183	1183	1188	1191	1191	1195	1204	1204	1210	1210	1215	1220	1220	1222	1222	1224	1228	1228	1230	1237	1237	1242	1246	1246	1252	1252	1257	1260	1260	1262	1266	1266	1272	1277	1277	1282	1282	1286	1288	1288	1289	1291	1291	1292	1293	1293	1295	1296	1296	1296	1296	1296	1297	1297	1296	1296	1296	1296	1293	1291	1291	1288	1282	1277	1277	1272	1267	1267	1265	1262	1262	1262	1261	1261	1261	1261	1261	1262	1262	1263	1266	1266	1268	1273	1273	1277	1277	1281	1286	1286	1289	1292	1292	1295	1297	1297	1297	1298	1298	1300	1301	1301	1301	1301	1301	1301	1302	1302	1302	1302	1302	1302	1302	1302	1302	1302	1302	1302	1302	1302	1304	1305	1305	1310	1322	1322	1334	1334	1341	1358	1358	1384	1384	1398	1398	1427	1427	1441	1441	1462	1471	1481	1486	1486	1487	1491	1491	1492	1494	1494	1497	1501	1501	1506	1508	1508	1513	1513	1513	1518	1520	1520	1524	1524	1525	1529	1529	0	0	0	0	0	0	0	0	0	0	0	0	0	0	2094	2094	2094	2094	2094	2094	2094	2097	2097	2097	2097	2097	2097	2097	2097	2097	2097	2097	2097	2094	2094	2094	2094	2094	2091	2091	2091	2091	2091	2091	2091	2091	2091	2091	2091	2091	2091	2091	2091	2091	2091	2094	2094	2094	2094	2094	2094	2094	2094	2094	2094	2094	2094	2094	2094	2094	2094	2094	2094	2094	2094	2094	2094	2094	2094	2094	2094	2094	2091	2091	2091	2091	2091	2091	2091	2091	2091	2091	2091	2091	2091	2091	2091	2091	2091	2094	2094	2094	2094	2094	2094	2094	2094	2094	2094	2094	2091	2091	2091	2091	2091	2091	2091	2087	2087	2087	2084	2084	2084	2084	2084	2081	2081	2081	2077	2077	2077	2077	2074	2074	2074	2074	2074	2074	2074	2074	2077	2077	2077	2081	2081	2081	2081	2081	2081	2081	2081	2081	2081	2081	2081	2081	2081	2081	2081	2081	2077	2077	2077	2077	2077	2077	2077	2077	2077	2077	2077	2077	2077	2077	2077	2077	2077	2077	2077	2077	2077	2077	2077	2077	2077	2077	2077	2077	2077	2077	2077	2077	2077	2077	2077	2077	2077	2077	2077	2081	2081	2081	2081	2081	2081	2081	2077	2077	2077	2077	2074	2074	2071	2071	2071	2064	2064	2064	2064	2064	2064	2064	2064	2064	2064	2064	2064	2064	2064	2064	2064	2064	2064	2064	2064	2064	2064	2064	2064	2064	2064	2064	2064	2061	2061	2064	2064	2064	2064	2064	2071	2071	2071	2074	2077	2077	2081	2084	2084	2084	2087	2087	2091	2091	2091	2091	2091	2091	2091	2091	2091	2091	2091	2091	2091	2091	2094	2094	2094	2094	2094	2094	2097	2097	2097	2101	2101	2104	2108	2108	2111	2114	2114	2121	2125	2125	2128	2128	0	0	0	0	0	0	0	0	0	0	0	0	2915	2915	2908	2896	2896	2896	2889	2870	2870	2870	2870	2870	2864	2864	2870	2864	2864	2864	2864	2864	2864	2864	2870	2870	2870	2870	2889	2889	2896	2915	2915	2928	2941	2941	2941	2961	2961	2981	2988	2988	3009	3009	3016	0	0	0	0	0	0	0	0	3037	3037	0	0	0	0	0	0	0	0	0	0	0	0	0	0	0	0	0	0	0	0	0	0	0	0	0	0	0	0	0	0	0	0	0	0	0	0	0	0	0	0	0	0	0	0	0	0	0	0	0	0	0	0	0	0	0	0	0	0	0	0	0	0	0	0	0	0	0	0	0	0	0	0	0	0	0	0	0	0	0	0	0	0
1221	1221	1221	1222	1222	1223	1225	1225	1234	1234	1243	1255	1255	1261	1261	1268	1281	1281	1293	1293	1298	1301	1301	1304	1305	1305	1306	1307	1307	1309	1310	1310	1314	1317	1317	1321	1321	1322	1323	1323	1326	1327	1327	1327	1330	1330	1330	1331	1331	1331	1331	1331	1331	1331	1331	1331	1331	1331	1331	1330	1330	1330	1330	1330	1330	1327	1327	1326	1323	1318	1318	1317	1314	1314	1314	1314	1314	1313	1313	1314	1317	1317	1317	1318	1318	1318	1321	1321	1321	1323	1323	1323	1326	1326	1327	1330	1330	1330	1331	1331	1331	1331	1331	1333	1333	1333	1331	1331	1331	1331	1331	1330	1330	1330	1330	1327	1326	1326	1323	1322	1322	1318	1310	1302	1302	1298	1291	1276	1261	1261	1261	1243	1231	1225	1225	1223	1221	1221	1220	1219	1216	1216	1213	1210	1210	1206	1205	1204	1204	1201	1199	1199	1199	1199	1199	1199	1202	1202	1202	1208	1213	1213	1214	1219	1219	1223	1223	1224	1225	1225	0	0	0	0	0	0	0	0	0	0	0	0	0	0	0	0	0	0	0	0	0	0	0	0	0	1154	1154	1157	1157	1161	1168	1168	1172	1172	1178	1183	1183	1188	1191	1191	1195	1202	1202	1208	1208	1214	1219	1219	1221	1221	1223	1224	1224	1228	1230	1230	1237	1242	1242	1250	1250	1255	1257	1257	1261	1263	1263	1267	1273	1273	1277	1281	1281	1282	1282	1284	1286	1286	1288	1291	1291	1292	1293	1293	1295	1296	1296	1296	1296	1296	1296	1295	1295	1293	1291	1291	1288	1282	1277	1277	1272	1267	1267	1265	1262	1262	1262	1261	1261	1261	1261	1261	1262	1262	1263	1267	1267	1268	1273	1273	1277	1277	1281	1286	1286	1289	1292	1292	1295	1297	1297	1297	1298	1298	1300	1301	1301	1301	1301	1301	1301	1302	1302	1302	1302	1302	1302	1302	1302	1302	1302	1302	1302	1302	1302	1304	1305	1305	1313	1326	1326	1338	1338	1345	1370	1370	1388	1388	1412	1412	1434	1434	1448	1448	1471	1471	1484	1486	1486	1491	1492	1492	1494	1499	1499	1501	1506	1506	1511	1513	1513	1517	1517	1520	1524	1524	1525	1529	1529	1531	1531	1531	0	0	0	0	0	0	0	0	0	0	0	0	0	0	2097	2097	2097	2097	2097	2097	2097	2097	2097	2097	2097	2097	2097	2097	2101	2101	2101	2101	2101	2097	2097	2097	2097	2097	2097	2097	2097	2094	2094	2094	2094	2094	2094	2094	2094	2094	2094	2094	2094	2094	2094	2094	2094	2094	2097	2097	2097	2097	2097	2097	2097	2097	2097	2097	2097	2097	2097	2097	2094	2094	2094	2094	2094	2094	2094	2094	2094	2094	2091	2091	2091	2091	2091	2091	2091	2091	2091	2091	2091	2091	2091	2091	2091	2091	2091	2094	2094	2094	2094	2094	2094	2094	2094	2094	2094	2094	2091	2091	2091	2091	2091	2091	2091	2087	2087	2087	2084	2084	2084	2081	2081	2081	2081	2081	2077	2077	2077	2077	2074	2074	2074	2074	2074	2074	2074	2074	2077	2077	2077	2081	2081	2081	2081	2081	2081	2081	2081	2081	2081	2081	2081	2081	2081	2081	2081	2081	2077	2077	2077	2077	2077	2077	2077	2077	2077	2077	2077	2077	2077	2077	2077	2077	2077	2077	2077	2077	2077	2077	2077	2077	2077	2077	2077	2077	2077	2077	2077	2077	2077	2077	2077	2077	2077	2077	2077	2081	2081	2081	2081	2081	2081	2081	2077	2077	2077	2077	2074	2074	2071	2071	2071	2064	2064	2064	2064	2064	2064	2064	2064	2064	2064	2064	2064	2064	2064	2064	2064	2064	2064	2064	2064	2064	2064	2064	2064	2064	2064	2064	2064	2064	2064	2064	2064	2064	2064	2064	2071	2071	2071	2074	2077	2077	2081	2084	2084	2084	2087	2087	2091	2091	2091	2087	2087	2087	2087	2091	2091	2091	2091	2091	2091	2091	2091	2091	2091	2094	2094	2094	2094	2094	2097	2101	2101	2104	2108	2108	2111	2114	2114	2118	2118	2118	2125	2128	0	0	0	0	0	0	0	0	0	0	0	0	2915	2915	2908	2896	2896	2896	0	2870	2870	2864	2858	2858	2858	2858	2858	2858	2858	2858	2858	2864	2864	2864	2864	2864	2864	2864	2864	2864	0	0	0	0	0	2935	2935	2941	2941	2961	2981	2981	2995	2995	2995	3009	3009	3016	3016	3016	0	0	0	0	0	0	0	0	0	0	0	0	0	0	0	0	0	0	0	0	0	0	0	0	0	0	0	0	0	0	0	0	0	0	0	0	0	0	0	0	0	0	0	0	0	0	0	0	0	0	0	0	0	0	0	0	0	0	0	0	0	0	0	0	0	0	0	0	0	0	0	0	0	0	0	0	0	0	0	0	0	0	0	0	0	0	0
1220	1220	1221	1221	1221	1223	1224	1224	1231	1231	1243	1255	1255	1261	1261	1268	1281	1281	1293	1293	1298	1301	1301	1302	1304	1304	1305	1306	1306	1306	1309	1309	1310	1313	1313	1314	1317	1317	1318	1321	1321	1322	1322	1322	1323	1323	1323	1323	1323	1323	1323	1323	1323	1323	1323	1323	1323	1323	1323	1323	1323	1322	1322	1322	1322	1322	1321	1321	1318	1318	1318	1317	1314	1314	1314	1314	1314	1313	1313	1314	1317	1317	1317	1318	1318	1318	1321	1321	1321	1323	1323	1323	1326	1326	1327	1330	1330	1330	1331	1331	1331	1331	1331	1333	1333	1333	1331	1331	1331	1331	1331	1330	1330	1330	1330	1327	1326	1326	1323	1322	1322	1318	1310	1302	1302	1298	1291	1276	1261	1261	1261	1243	1231	1225	1225	1223	1221	1221	1220	1219	1216	1216	1213	1210	1210	1206	1205	1204	1204	1201	1199	1199	1199	1199	1199	1199	1202	1202	1202	1208	1213	1213	1214	1219	1219	0	0	0	0	0	0	0	0	0	0	0	0	0	0	0	0	0	0	0	0	0	0	0	0	0	0	0	0	0	0	1154	1154	1158	1158	1163	1170	1170	1174	1174	1179	1183	1183	1188	1191	1191	1195	1202	1202	1206	1206	1213	1217	1217	1220	1221	1221	1223	1223	1224	1228	1228	1234	1238	1238	1246	1250	1252	1256	1256	1258	1262	1262	1265	1268	1268	1272	1276	1276	1277	1279	1279	1281	1284	1284	1288	1288	1289	1291	1291	1292	1293	1293	1295	1296	1296	1296	1295	1295	1293	1291	1291	1288	1282	1277	1277	1272	1267	1267	1265	1262	1262	1262	1261	1261	1261	1261	1261	1262	1262	1263	1266	1266	1268	1273	1273	1277	1277	1281	1286	1286	1289	1292	1292	1295	1296	1296	1297	1298	1298	1298	1300	1300	1301	1301	1301	1301	1301	1301	1302	1302	1302	1302	1302	1302	1302	1302	1302	1302	1302	1302	1302	1305	1305	1313	1326	1326	1338	1338	1345	1356	1370	1388	1388	1412	1412	1434	1434	1448	1448	1471	1471	1484	1486	1486	1491	1492	1492	1494	1501	1501	1506	1511	1511	1513	1518	1518	1520	1520	1524	1525	1525	1529	1531	1531	1533	1533	1533	0	0	0	0	0	0	0	0	0	0	0	0	0	0	2097	2097	2097	2097	2097	2097	2097	2097	2097	2097	2097	2097	2097	2101	2101	2101	2104	2104	2104	2101	2101	2101	2101	2101	2101	2101	2101	2097	2097	2097	2097	2097	2097	2097	2097	2097	2097	2097	2097	2097	2097	2097	2097	2097	2097	2097	2097	2097	2097	2097	2097	2097	2097	2097	2097	2097	2097	2097	2097	2097	2097	2097	2094	2094	2094	2094	2094	2094	2094	2094	2094	2094	2091	2091	2091	2091	2091	2091	2091	2094	2094	2094	2094	2094	2094	2094	2094	2094	2094	2094	2094	2094	2094	2094	2094	2094	2094	2091	2091	2091	2091	2091	2091	2087	2087	2087	2084	2084	2084	2081	2081	2081	2081	2081	2081	2081	2077	2077	2077	2077	2077	2077	2077	2077	2077	2077	2077	2077	2081	2081	2081	2081	2081	2081	2084	2084	2084	2081	2081	2081	2081	2081	2081	2081	2081	2081	2081	2077	2077	2077	2077	2077	2077	2077	2077	2077	2077	2077	2077	2077	2077	2077	2077	2077	2077	2077	2077	2077	2074	2074	2074	2074	2074	2074	2074	2074	2074	2074	2074	2074	2077	2077	2077	2077	2077	2077	2077	2077	2077	2077	2077	2077	2074	2074	2074	2074	2071	2071	2071	2064	2064	2064	2061	2061	2061	2061	2061	2061	2061	2061	2061	2061	2064	2064	2064	2064	2064	2064	2064	2064	2064	2064	2064	2064	2064	2064	2064	2064	2064	2061	2061	2064	2064	2064	2064	2064	2071	2071	2071	2074	2077	2077	2077	2081	2081	2084	2084	2084	2087	2087	2087	2087	2087	2087	2087	2091	2091	2091	2091	2091	2091	2091	2091	2091	2091	2094	2094	2094	2094	2094	2097	2101	2101	2104	2108	2108	2111	2114	2114	2118	2118	2118	2125	0	0	0	0	0	0	0	0	0	0	0	0	0	0	0	0	0	0	0	0	0	0	2864	2858	2858	2858	2858	2858	2858	2858	2858	2858	2864	2864	2864	2864	2864	2864	2864	2864	2864	0	0	0	0	0	2935	2935	2941	2941	2961	2981	2981	2995	2995	2995	3009	3009	3009	3009	3016	0	0	0	0	0	0	0	0	0	0	0	0	0	0	0	0	0	0	0	0	0	0	0	0	0	0	0	0	0	0	0	0	0	0	0	0	0	0	0	0	0	0	0	0	0	0	0	0	0	0	0	0	0	0	0	0	0	0	0	0	0	0	0	0	0	0	0	0	0	0	0	0	0	0	0	0	0	0	0	0	0	0	0	0	0	0	0
1220	1220	1220	1220	1220	1222	1224	1224	1231	1231	1245	1256	1256	1261	1261	1269	1282	1282	1292	1292	1297	1301	1301	1302	1302	1302	1302	1304	1304	1305	1306	1306	1307	1309	1309	1310	1313	1313	1314	1317	1317	1317	1317	1317	1318	1318	1318	1318	1318	1318	1318	1318	1318	1318	1318	1318	1318	1318	1318	1317	1317	1317	1317	1317	1317	1314	1314	1314	1313	1313	1313	1310	1310	1310	1310	1309	1309	1309	1309	1310	1310	1310	1313	1313	1313	1314	1317	1317	1317	1318	1318	1321	1322	1322	1323	1323	1323	1323	1326	1326	1326	1326	1326	1326	1326	1323	1323	1323	1323	1322	1322	1322	1322	1321	1321	1318	1317	1317	1317	1313	1307	1307	1301	1297	1297	1297	1291	1261	1252	1238	1229	1229	1223	1221	1221	1220	1219	1217	1217	1217	1215	1215	1213	1210	1210	1206	1205	1201	1201	1199	1195	1195	1193	1192	1192	1192	1193	1193	1195	1189	1189	1213	0	0	0	0	0	0	0	0	0	0	0	0	0	0	0	0	0	0	0	0	0	0	0	0	0	0	0	0	0	0	0	0	0	1158	1158	1163	1163	0	1172	1172	1175	1175	1180	1183	1183	1188	1191	1191	1195	1202	1202	1206	1206	1213	1217	1217	1220	1221	1221	1223	1223	1224	1228	1228	1234	1238	1238	1246	1252	1252	1256	1256	1258	1262	1262	1265	1268	1268	1272	1276	1276	1277	1279	1279	1281	1284	1284	1288	1288	1289	1291	1289	1289	1292	1292	1293	1295	1295	1295	1295	1295	1292	1289	1289	1288	1282	1277	1277	1272	1267	1267	1266	1262	1262	1262	1262	1261	1261	1261	1261	1262	1262	1263	1266	1266	1268	1273	1273	1277	1277	1281	1286	1286	1289	1292	1292	1295	1296	1296	1297	1297	1297	1298	1298	1298	1301	1301	1301	1301	1301	1301	1301	1301	1301	1301	1301	1301	1301	1301	1301	1301	1301	1301	1302	1306	1306	1317	1331	1331	1341	1341	1356	1356	1386	1386	1395	1424	1424	1438	1438	1457	1457	1476	1476	1486	1489	1489	1491	1494	1494	1497	1501	1501	1506	1511	1511	1513	1518	1518	1520	1520	1524	1525	1525	1529	1531	1531	1533	1533	1533	0	0	0	0	0	0	0	0	0	0	0	0	0	0	2097	2097	2097	2097	2097	2097	2097	2097	2097	2097	2097	2097	2097	2101	2101	2101	2104	2104	2104	2101	2101	2101	2101	2101	2101	2101	2101	2097	2097	2097	2097	2097	2097	2097	2097	2097	2097	2097	2097	2097	2097	2097	2097	2097	2097	2097	2097	2097	2097	2097	2097	2097	2097	2097	2097	2097	2097	2097	2097	2097	2097	2097	2097	2097	2097	2097	2094	2094	2094	2094	2094	2094	2094	2094	2094	2094	2094	2094	2094	2094	2094	2094	2094	2094	2094	2097	2097	2097	2097	2097	2097	2097	2097	2097	2097	2097	2094	2094	2094	2094	2091	2091	2091	2091	2091	2087	2084	2084	2084	2084	2084	2084	2081	2081	2081	2081	2081	2081	2077	2077	2077	2077	2077	2077	2077	2081	2081	2081	2081	2084	2084	2084	2084	2084	2084	2084	2084	2084	2084	2084	2084	2084	2081	2081	2081	2081	2081	2077	2077	2077	2077	2077	2077	2077	2077	2077	2077	2077	2077	2077	2077	2077	2077	2077	2077	2074	2074	2074	2074	2074	2074	2074	2074	2074	2074	2074	2074	2074	2074	2074	2077	2077	2077	2077	2074	2074	2074	2074	2074	2074	2074	2074	2074	2071	2071	2071	2064	2064	2064	2061	2061	2061	2055	2055	2055	2055	2055	2055	2055	2061	2061	2061	2064	2064	2064	2064	2071	2071	2064	2064	2064	2064	2064	2064	2064	2064	2064	2064	2064	2061	2061	2064	2064	2064	2071	2071	2071	2071	2071	2074	2077	2077	2077	2081	2081	2084	2084	2084	2084	2084	2084	2084	2087	2084	2084	2084	2084	2087	2087	2087	2087	2091	2091	2091	2091	2091	2091	2094	2094	2094	2097	2101	2101	2104	2108	2108	2108	2111	2111	2118	2118	2118	2125	0	0	0	0	0	0	0	0	0	0	0	0	0	0	0	0	0	0	0	0	0	0	2858	2858	2858	2858	2858	2858	2858	2858	2858	2858	2858	2864	2858	2858	2858	2858	2864	2864	2864	0	0	0	0	0	2935	2935	2941	2941	2961	2981	2981	2981	2995	2995	3002	3009	3009	3009	0	0	0	0	0	0	0	0	0	0	0	0	0	0	0	0	0	0	0	0	0	0	0	0	0	0	0	0	0	0	0	0	0	0	0	0	0	0	0	0	0	0	0	0	0	0	0	0	0	0	0	0	0	0	0	0	0	0	0	0	0	0	0	0	0	0	0	0	0	0	0	0	0	0	0	0	0	0	0	0	0	0	0	0	0	0	0	0
1220	1220	1220	1220	1220	1222	1224	1224	1231	1231	1246	1256	1256	1261	1261	1272	1284	1284	1292	1292	1297	1301	1301	1302	1302	1302	1302	1304	1304	1305	1306	1306	1307	1309	1309	1310	1313	1313	1314	1317	1317	1317	1317	1317	1318	1318	1318	1318	1318	1318	1318	1318	1318	1318	1318	1318	1318	1318	1318	1310	1309	1309	1309	1309	1309	1309	1309	1309	1307	1307	1307	1307	1307	1306	1306	1306	1306	1306	1305	1305	1306	1306	1307	1309	1309	1309	1310	1310	1310	1314	1314	1314	1314	1314	1317	1318	1318	1318	1318	1318	1318	1318	1318	1318	1318	1318	1317	1314	1314	1314	1313	1313	1310	1310	1310	1309	1309	1309	1307	1302	1300	1300	1296	1284	1284	1297	0	1261	1238	1227	1223	1223	1221	1219	1219	1219	1217	1216	1216	1215	1215	1215	1213	1212	1212	1206	1202	1195	1195	1192	1188	1186	1186	1183	1178	1178	1178	1180	1180	1180	1189	0	0	0	0	0	0	0	0	0	0	0	0	0	0	0	0	0	0	0	0	0	0	0	0	0	0	0	0	0	0	0	0	0	0	1158	1158	1163	1163	1168	1171	1171	1175	1175	1180	1183	1183	1188	1189	1189	1193	1201	1201	1205	1205	1212	1215	1215	1219	1220	1220	1222	1223	1224	1227	1227	1230	1237	1237	1243	1250	1250	1255	1255	1257	1260	1260	1262	1266	1266	1268	1269	1269	1273	1276	1276	1277	1279	1279	1282	1286	1286	1288	1288	1289	1292	1292	1293	1295	1295	1295	1295	1295	1292	1289	1289	1288	1282	1277	1277	1273	1268	1268	1266	1263	1262	1262	1262	1261	1261	1261	1261	1262	1262	1263	1267	1267	1268	1273	1273	1277	1277	1281	1286	1286	1289	1293	1293	1295	1296	1296	1297	1297	1297	1298	1298	1298	1301	1301	1301	1301	1301	1301	1301	1301	1301	1301	1301	1301	1301	1301	1301	1301	1301	1301	1302	1307	1307	1318	1336	1336	1345	1345	1366	1366	1386	1386	1407	1432	1432	1441	1441	1462	1462	1479	1479	1486	1489	1489	1492	1496	1496	1499	1503	1503	1508	1511	1513	1518	1518	1520	1524	1524	1525	1531	1531	1531	1533	1533	1534	1536	1536	1538	0	0	0	0	0	0	0	0	0	0	0	0	0	0	2097	2097	2094	2094	2097	2097	2097	2097	2097	2097	2101	2101	2101	2104	2104	2104	2104	2104	2104	2104	2104	2104	2104	2104	2104	2104	2104	2101	2101	2101	2101	2101	2101	2101	2101	2101	2097	2097	2097	2097	2097	2097	2097	2097	2101	2101	2101	2101	2101	2101	2101	2101	2097	2097	2097	2097	2097	2097	2097	2097	2097	2097	2097	2097	2097	2094	2094	2094	2094	2094	2094	2094	2094	2094	2094	2094	2094	2094	2094	2094	2094	2094	2094	2094	2097	2097	2097	2097	2097	2097	2097	2097	2097	2097	2097	2094	2094	2094	2094	2091	2091	2091	2091	2091	2087	2084	2084	2084	2084	2084	2084	2081	2081	2081	2081	2081	2081	2077	2077	2077	2077	2077	2077	2077	2081	2081	2081	2081	2084	2084	2084	2084	2084	2084	2084	2084	2084	2084	2081	2081	2081	2081	2081	2081	2081	2081	2081	2081	2081	2077	2077	2077	2077	2077	2077	2077	2077	2077	2077	2077	2077	2077	2077	2077	2074	2074	2074	2074	2074	2074	2074	2074	2074	2074	2074	2074	2074	2077	2077	2077	2077	2077	2077	2074	2074	2074	2074	2074	2074	2074	2074	2074	2071	2071	2071	2064	2064	2064	2061	2061	2061	2055	2055	2055	2055	2055	2055	2055	2061	2064	2064	2064	2064	2064	2071	2071	2071	2071	2071	2071	2064	2064	2064	2064	2064	2064	2064	2064	2064	2064	2064	2064	2071	2071	2071	2071	2074	2074	2074	2077	2077	2081	2081	2081	2081	2081	2081	2084	2084	2081	2081	2084	2084	2081	2081	2084	2084	2084	2084	2084	2087	2087	2087	2091	2091	2091	2091	2094	2094	2097	2097	2097	2101	2104	2104	2108	2111	2111	2114	2114	2114	2121	2125	2125	0	0	0	0	0	0	0	0	0	0	0	0	0	0	0	0	0	0	0	0	2858	2858	2858	2858	2858	2858	2858	2858	2858	2858	2858	2864	2858	2858	2858	2858	2864	2864	2864	2870	2870	2870	2889	2896	2896	2915	0	2941	2941	2975	2975	2981	2988	2988	3002	3009	3009	3009	0	0	0	0	0	0	0	0	0	0	0	0	0	0	0	0	0	0	0	0	0	0	0	0	0	0	0	0	0	0	0	0	0	0	0	0	0	0	0	0	0	0	0	0	0	0	0	0	0	0	0	0	0	0	0	0	0	0	0	0	0	0	0	0	0	0	0	0	0	0	0	0	0	0	0	0	0	0	0	0	0	0	0	0	0	0	0	0
1219	1219	1219	1219	1219	1221	1223	1223	1231	1231	1245	1256	1256	1261	1261	1272	1282	1282	1292	1292	1297	1300	1300	1301	1302	1302	1302	1302	1302	1304	1305	1305	1306	1306	1306	1307	1307	1307	1309	1310	1310	1310	1310	1310	1310	1310	1310	1310	1313	1313	1310	1310	1310	1310	1310	1310	1310	1310	1310	1310	1309	1309	1309	1309	1309	1309	1309	1309	1307	1307	1307	1307	1307	1306	1306	1306	1306	1306	1305	1305	1306	1306	1307	1309	1309	1309	1310	1310	1310	1314	1314	1314	1314	1314	1317	1318	1318	1318	1318	1318	1318	1318	1318	1318	1318	1318	1317	1314	1314	1314	1313	1313	1310	1310	1310	1309	1309	1309	1307	1302	1300	1300	1296	1284	1284	0	0	0	1238	1227	1223	1223	1221	1219	1219	1219	1217	1216	1216	1215	1215	1215	1213	1212	1212	1206	1202	1195	1195	1192	1188	1186	1157	1148	1148	1139	1139	1116	1116	1180	0	0	0	0	0	0	0	0	0	0	0	0	0	0	0	0	0	0	0	0	0	0	0	0	0	0	0	0	0	0	0	0	1155	1155	1158	1158	1160	1164	1164	1168	1171	1171	1174	1174	1179	1183	1183	1186	1189	1189	1192	1197	1197	1204	1204	1208	1214	1214	1217	1220	1220	1221	1223	1223	1224	1227	1229	1235	1235	1242	1249	1249	1254	1254	1256	1258	1258	1261	1263	1263	1265	1267	1267	1268	1269	1269	1272	1276	1276	1279	1281	1281	1284	1286	1286	1289	1291	1291	1292	1293	1293	1292	1292	1291	1289	1289	1286	1282	1277	1277	1273	1268	1268	1266	1263	1262	1262	1262	1261	1261	1261	1261	1261	1261	1262	1266	1266	1267	1272	1272	1276	1276	1281	1286	1286	1289	1293	1293	1295	1296	1296	1297	1297	1297	1298	1298	1298	1300	1300	1300	1301	1301	1301	1301	1301	1301	1301	1301	1301	1301	1301	1301	1301	1301	1301	1302	1307	1307	1318	1336	1336	1345	1345	1366	1366	1386	1386	1407	1424	1432	1438	1441	1471	1471	1481	1481	1486	1491	1491	1492	1496	1496	1501	1506	1506	1511	1511	1517	1518	1518	1524	1525	1525	1529	1533	1533	1534	1534	1534	1534	1536	1536	1538	0	0	0	0	0	0	0	0	0	0	0	0	0	0	0	0	2094	2094	2097	2097	2097	2097	2097	2097	2101	2101	2101	2104	2104	2104	2104	2104	2108	2108	2108	2108	2108	2108	2104	2104	2104	2104	2104	2104	2104	2104	2104	2104	2101	2101	2101	2101	2101	2101	2101	2101	2101	2101	2101	2101	2101	2101	2101	2101	2101	2101	2101	2101	2101	2101	2101	2097	2097	2097	2097	2097	2097	2097	2097	2097	2097	2097	2097	2097	2094	2094	2094	2094	2094	2094	2094	2094	2097	2097	2097	2097	2097	2097	2097	2097	2097	2097	2097	2101	2101	2101	2097	2097	2097	2097	2094	2094	2094	2094	2094	2091	2091	2091	2087	2087	2087	2087	2084	2084	2084	2084	2084	2084	2084	2084	2081	2081	2081	2081	2081	2081	2081	2081	2081	2084	2084	2084	2084	2084	2084	2084	2084	2084	2084	2084	2084	2084	2081	2081	2081	2081	2081	2081	2081	2077	2077	2077	2077	2077	2077	2077	2077	2077	2077	2077	2077	2077	2077	2077	2077	2077	2077	2077	2074	2074	2074	2074	2074	2074	2074	2074	2074	2074	2074	2074	2074	2077	2077	2077	2077	2077	2074	2074	2074	2074	2074	2074	2074	2071	2071	2071	2071	2071	2064	2064	2064	2061	2061	2061	2055	2055	2055	2055	2055	2055	2055	2055	2061	2061	2061	2061	2064	2064	2064	2071	2071	2071	2071	2064	2064	2064	2064	2064	2064	2064	2064	2064	2064	2064	2064	2064	2071	2071	2071	2071	2074	2074	2074	2077	2077	2081	2081	2081	2081	2081	2081	2084	2084	2081	2081	2084	2084	2081	2081	2084	2084	2084	2084	2084	2087	2087	2087	2091	2091	2091	2091	2094	2094	2097	2097	2097	2101	2104	2104	2108	2111	2111	2114	2114	2114	2121	2125	2125	0	0	0	0	0	0	0	0	0	0	0	0	0	0	0	0	0	0	0	0	2858	2858	2858	2858	2858	2858	2858	2858	2858	2858	2858	2864	2858	2858	2858	2858	2864	2864	2864	2870	2870	2870	2889	2896	2896	2915	0	2941	2941	2975	2975	2981	2988	2988	3002	0	0	0	0	0	0	0	0	0	0	0	0	0	0	0	0	0	0	0	0	0	0	0	0	0	0	0	0	0	0	0	0	0	0	0	0	0	0	0	0	0	0	0	0	0	0	0	0	0	0	0	0	0	0	0	0	0	0	0	0	0	0	0	0	0	0	0	0	0	0	0	0	0	0	0	0	0	0	0	0	0	0	0	0	0	0	0	0	0	0	0
1216	1216	1217	1219	1219	1220	1223	1223	1231	1231	1245	1256	1256	1262	1262	1272	1282	1282	1292	1292	1297	1298	1298	1300	1301	1301	1301	1302	1302	1302	1302	1302	1304	1304	1304	1304	1305	1305	1305	1306	1306	1306	1306	1306	1306	1306	1306	1306	1306	1306	1305	1305	1305	1305	1305	1306	1306	1305	1305	1305	1305	1305	1305	1305	1305	1305	1305	1305	1304	1304	1304	1304	1304	1304	1304	1304	1302	1302	1302	1302	1302	1302	1305	1305	1305	1306	1306	1306	1306	1307	1307	1309	1309	1309	1310	1310	1310	1310	1310	1310	1310	1310	1310	1309	1309	1309	1307	1307	1307	1306	1305	1305	1304	1304	1304	1304	1302	1300	1300	1297	1292	1281	1281	1281	1258	1258	1235	1224	1224	1221	1220	1220	1219	1219	1219	1217	1216	1216	1216	1215	1215	1215	1212	1206	1201	1201	1191	1186	1183	1183	1171	1161	1157	1148	1148	1139	1139	1116	1116	0	0	0	0	0	0	0	0	0	0	0	0	0	0	0	0	0	0	0	0	0	0	0	0	0	0	0	0	0	0	0	0	0	1155	1155	1158	1158	1160	1164	1164	1168	1171	1171	1174	1174	1179	1183	1183	1186	1189	1189	1192	1197	1197	1204	1204	1208	1214	1214	1217	1220	1220	1221	1223	1223	1224	1229	1229	1235	1235	1242	1249	1249	1254	1254	1256	1258	1258	1261	1263	1263	1265	1267	1266	1266	1267	1267	1268	1272	1272	1276	1277	1277	1279	1282	1282	1284	1288	1288	1289	1291	1291	1289	1289	1289	1288	1288	1286	1281	1277	1277	1273	1268	1268	1267	1263	1262	1262	1262	1261	1261	1261	1261	1261	1261	1262	1265	1265	1267	1269	1269	1276	1276	1279	1284	1284	1289	1293	1293	1295	1296	1296	1297	1297	1297	1298	1298	1298	1298	1298	1298	1300	1300	1300	1300	1301	1301	1300	1300	1300	1300	1300	1300	1300	1300	1301	1302	1309	1309	1326	1334	1340	1353	1353	1381	1381	1395	1395	1424	1424	1438	1438	1449	1471	1471	1481	1481	1486	1491	1491	1492	1496	1496	1501	1506	1506	1511	1511	1517	1518	1518	1524	1525	1525	1529	1533	1533	1534	1534	1534	1534	1536	1536	1538	0	0	0	0	0	0	0	0	0	0	0	0	0	0	0	0	2094	2094	2094	2094	2094	2097	2097	2097	2101	2101	2101	2104	2104	2104	2104	2104	2108	2108	2108	2108	2108	2108	2104	2104	2104	2104	2104	2104	2104	2104	2104	2104	2101	2101	2101	2101	2101	2101	2101	2101	2101	2101	2104	2104	2104	2104	2104	2104	2104	2104	2104	2104	2101	2101	2101	2101	2101	2101	2101	2101	2097	2097	2097	2097	2097	2097	2097	2097	2097	2097	2097	2097	2097	2097	2097	2097	2097	2097	2097	2097	2097	2097	2097	2097	2101	2101	2101	2104	2104	2101	2101	2101	2101	2097	2097	2097	2094	2094	2094	2094	2091	2091	2091	2087	2087	2087	2087	2087	2087	2087	2087	2084	2084	2084	2084	2084	2084	2084	2084	2084	2084	2084	2084	2084	2084	2084	2087	2087	2084	2084	2084	2084	2084	2084	2084	2084	2084	2081	2081	2081	2081	2081	2077	2077	2077	2077	2077	2077	2077	2074	2074	2074	2074	2077	2077	2077	2077	2077	2077	2077	2077	2077	2077	2077	2077	2077	2077	2077	2077	2077	2077	2077	2077	2077	2077	2077	2077	2077	2077	2077	2074	2074	2074	2074	2074	2074	2071	2071	2071	2071	2064	2064	2064	2061	2061	2061	2055	2055	2055	2055	2055	2055	2055	2055	2055	2055	2061	2061	2061	2061	2064	2064	2064	2071	2071	2071	2071	2064	2064	2071	2071	2071	2071	2071	2071	2071	2071	2071	2071	2071	2074	2074	2074	2074	2074	2074	2077	2077	2077	2081	2081	2081	2081	2081	2081	2081	2081	2081	2081	2081	2081	2081	2081	2081	2081	2081	2081	2081	2084	2084	2084	2087	2091	2091	2091	2094	2094	2094	2097	2097	2101	2104	2104	2108	2111	2111	2111	2114	2114	2114	2121	2121	0	0	0	0	0	0	0	0	0	0	0	0	0	0	0	0	0	0	0	0	2858	2858	2858	2858	2858	2858	2858	2858	2858	2858	2858	2864	2858	2858	2858	2858	2864	2864	2864	2870	2870	2870	2889	2896	2896	2915	2941	2941	2954	0	2988	2988	0	0	0	0	0	0	0	0	0	0	0	0	0	0	0	0	0	0	0	0	0	0	0	0	0	0	0	0	0	0	0	0	0	0	0	0	0	0	0	0	0	0	0	0	0	0	0	0	0	0	0	0	0	0	0	0	0	0	0	0	0	0	0	0	0	0	0	0	0	0	0	0	0	0	0	0	0	0	0	0	0	0	0	0	0	0	0	0	0	0	0	0	0	0
1216	1216	1217	1219	1219	1220	1223	1223	1231	1231	1245	1256	1256	1262	1262	1273	1284	1284	1293	1293	1297	1298	1298	1300	1301	1301	1301	1302	1302	1302	1302	1302	1304	1304	1304	1304	1305	1305	1305	1306	1306	1306	1306	1306	1306	1306	1306	1302	1301	1301	1301	1301	1301	1301	1301	1302	1302	1301	1301	1301	1301	1301	1301	1301	1302	1301	1301	1301	1301	1301	1301	1302	1302	1302	1302	1301	1301	1301	1301	1301	1301	1301	1301	1302	1302	1302	1302	1302	1302	1304	1304	1304	1304	1304	1304	1304	1304	1304	1304	1304	1304	1304	1304	1302	1302	1302	1302	1301	1301	1301	1300	1300	1300	1300	1298	1298	1296	1293	1293	1286	1273	1262	1256	1256	1256	1230	1223	1220	1220	1217	1216	1216	1216	1216	1216	1216	1216	1216	1216	1216	1213	1213	1205	1204	1193	1183	1183	1183	1164	1155	1155	1155	1157	1148	1148	1139	1139	1116	1116	0	0	0	0	0	0	0	0	0	0	0	0	0	0	0	0	0	0	0	0	0	0	0	0	0	0	0	0	0	0	0	0	0	1155	1155	1157	1157	1159	1161	1161	1163	1168	1168	1171	1174	1175	1182	1182	1184	1188	1188	1189	1193	1193	1201	1201	1206	1212	1212	1215	1219	1219	1220	1222	1222	1224	1227	1227	1231	1231	1238	1245	1245	1251	1251	1256	1257	1257	1260	1262	1262	1262	1265	1265	1266	1267	1267	1268	1272	1272	1276	1277	1277	1279	1282	1282	1284	1288	1288	1289	1291	1291	1289	1289	1289	1288	1288	1286	1281	1277	1277	1273	1268	1268	1267	1265	1262	1262	1262	1261	1261	1261	1261	1261	1261	1262	1265	1265	1267	1269	1269	1276	1276	1279	1284	1284	1289	1293	1293	1295	1296	1296	1297	1297	1297	1298	1298	1298	1298	1298	1298	1300	1300	1300	1300	1301	1301	1300	1300	1300	1300	1300	1300	1300	1300	1302	1302	1314	1314	1334	1334	1344	0	0	1388	1388	1412	1412	1432	1432	1443	1443	1459	1469	1477	1484	1484	1487	1491	1491	1492	1497	1497	1501	1506	1506	1511	1511	1517	1518	1518	1524	1525	1525	1531	1533	1533	1534	1536	1536	1538	1538	1538	1540	0	0	0	0	0	0	0	0	0	0	0	0	0	0	0	0	2091	2091	2094	2094	2094	2094	2094	2097	2097	2097	2104	2104	2104	2104	2108	2108	2108	2108	2108	2108	2108	2108	2108	2108	2108	2108	2108	2108	2104	2104	2104	2104	2104	2104	2104	2101	2101	2101	2101	2101	2101	2101	2104	2104	2104	2104	2104	2104	2104	2104	2104	2104	2101	2101	2101	2101	2101	2101	2101	2101	2097	2097	2097	2097	2097	2097	2097	2097	2097	2097	2097	2097	2097	2097	2097	2097	2097	2097	2097	2097	2097	2097	2097	2097	2101	2101	2101	2104	2104	2101	2101	2101	2101	2097	2097	2097	2094	2094	2094	2094	2091	2091	2091	2087	2087	2087	2087	2087	2087	2087	2087	2084	2084	2084	2084	2084	2084	2084	2084	2084	2084	2084	2084	2084	2084	2084	2087	2087	2084	2084	2084	2084	2084	2084	2084	2084	2084	2081	2081	2081	2081	2081	2077	2077	2077	2077	2077	2077	2077	2074	2074	2074	2074	2077	2077	2077	2077	2077	2077	2077	2077	2077	2077	2077	2077	2077	2077	2077	2077	2077	2077	2077	2077	2077	2077	2077	2077	2077	2077	2077	2077	2074	2074	2074	2074	2074	2071	2071	2071	2071	2064	2064	2064	2061	2061	2061	2055	2055	2055	2055	2055	2055	2055	2055	2055	2055	2061	2061	2061	2064	2064	2064	2071	2074	2071	2071	2074	2074	2074	2074	2074	2074	2074	2074	2074	2074	2074	2074	2074	2074	2077	2077	2077	2077	2077	2077	2077	2081	2081	2081	2081	2081	2081	2081	2081	2081	2081	2081	2077	2077	2077	2077	2077	2077	2077	2077	2077	2077	2077	2081	2081	2084	2087	2087	2091	2091	2091	2094	2094	2094	2097	2101	2101	2104	2104	2104	2108	2108	2108	2111	2114	2114	0	0	0	0	0	0	0	0	0	0	0	0	0	0	0	0	0	0	0	0	2851	2851	2858	2851	2851	2858	2858	2858	2858	2858	2858	2858	2858	2858	2864	2864	2864	2864	2864	2870	2870	2870	2889	2889	2889	2908	2935	2935	2954	2988	2988	2988	2995	0	0	0	0	0	0	0	0	0	0	0	0	0	0	0	0	0	0	0	0	0	0	0	0	0	0	0	0	0	0	0	0	0	0	0	0	0	0	0	0	0	0	0	0	0	0	0	0	0	0	0	0	0	0	0	0	0	0	0	0	0	0	0	0	0	0	0	0	0	0	0	0	0	0	0	0	0	0	0	0	0	0	0	0	0	0	0	0	0	0	0	0	0
1215	1215	1217	1217	1217	1220	1223	1223	1231	1231	1245	1256	1256	1262	1262	1273	1284	1284	1293	1293	1297	1298	1298	1300	1300	1300	1301	1301	1301	1301	1301	1301	1301	1301	1301	1302	1302	1302	1302	1302	1302	1302	1302	1302	1302	1302	1302	1302	1301	1301	1301	1301	1301	1301	1301	1302	1302	1301	1301	1301	1301	1301	1301	1301	1302	1301	1301	1301	1301	1301	1301	1302	1302	1302	1302	1301	1301	1301	1301	1301	1301	1301	1301	1302	1302	1302	1302	1302	1302	1304	1304	1304	1304	1304	1304	1304	1304	1304	1304	1304	1304	1304	1304	1302	1302	1302	1302	1301	1301	1301	1300	1300	1300	1300	1298	1298	1296	1293	1293	1286	1273	1262	1256	1256	1256	1230	1223	1220	1220	1217	1216	1216	1216	1216	1216	1216	1216	1216	1217	1216	1213	1213	1205	1204	1192	1183	1156	1156	1156	1155	1155	1116	1066	1066	1066	0	0	0	0	0	0	0	0	0	0	0	0	0	0	0	0	0	0	0	0	0	0	0	0	0	0	0	0	0	0	0	0	0	0	0	0	0	1155	1155	1155	1155	1157	1159	1159	1160	1164	1164	1166	1172	1172	1179	1179	1183	1186	1186	1188	1191	1191	1197	1201	1204	1210	1210	1214	1217	1217	1219	1221	1221	1223	1227	1227	1231	1231	1237	1243	1243	1249	1251	1254	1256	1256	1258	1260	1260	1261	1262	1262	1262	1265	1265	1266	1267	1267	1269	1273	1273	1276	1277	1277	1279	1282	1282	1284	1286	1286	1286	1286	1284	1284	1284	1281	1279	1277	1277	1273	1268	1268	1267	1265	1262	1262	1262	1261	1261	1261	1261	1261	1261	1262	1263	1263	1266	1268	1268	1272	1276	1277	1284	1284	1289	1292	1292	1293	1295	1295	1296	1297	1297	1297	1298	1297	1297	1298	1298	1298	1298	1298	1298	1298	1298	1298	1298	1298	1298	1298	1298	1298	1300	1302	1302	1314	1314	1334	1334	1344	1384	1384	1384	1398	1427	1427	1438	1438	1453	1453	1469	1469	1481	1486	1486	1487	1491	1491	1494	1497	1497	1501	1506	1506	1511	1511	1517	1518	1518	1524	1525	1525	1531	1533	1533	1534	1536	1536	1538	1538	1538	1540	0	0	0	0	0	0	0	0	0	0	0	0	0	0	0	0	2091	2091	2094	2094	2094	2094	2094	2097	2097	2097	2104	2104	2104	2104	2108	2108	2108	2108	2108	2108	2111	2108	2108	2108	2108	2108	2108	2108	2104	2104	2104	2104	2104	2104	2104	2104	2104	2101	2101	2101	2101	2101	2104	2104	2104	2104	2104	2104	2104	2104	2104	2104	2104	2104	2104	2104	2104	2104	2104	2101	2101	2101	2101	2101	2101	2097	2097	2097	2097	2097	2097	2097	2097	2097	2097	2097	2097	2097	2097	2097	2097	2101	2104	2104	2104	2104	2104	2104	2104	2104	2104	2104	2104	2101	2097	2097	2097	2094	2094	2094	2094	2094	2091	2091	2091	2091	2091	2091	2087	2087	2087	2087	2087	2087	2087	2087	2087	2087	2087	2087	2087	2087	2087	2087	2087	2087	2087	2087	2087	2087	2087	2087	2087	2084	2084	2084	2081	2081	2081	2081	2077	2077	2077	2077	2077	2077	2077	2074	2074	2074	2074	2074	2074	2077	2077	2077	2077	2077	2077	2077	2077	2077	2077	2077	2077	2077	2077	2077	2077	2077	2077	2077	2077	2077	2077	2077	2077	2077	2077	2077	2077	2074	2074	2074	2074	2074	2071	2071	2071	2071	2064	2064	2064	2061	2061	2061	2055	2055	2055	2055	2055	2055	2055	2055	2055	2055	2061	2061	2061	2064	2064	2064	2071	2074	2071	2071	2074	2074	2074	2074	2074	2074	2074	2074	2074	2074	2074	2074	2077	2077	2081	2081	2081	2081	2081	2081	2081	2084	2084	2084	2084	2081	2081	2081	2081	2081	2081	2081	2077	2077	2077	2077	2077	2077	2077	2077	2077	2077	2077	2081	2081	2084	2087	2087	2091	2091	2091	2094	2094	2094	2097	2101	2101	2104	2104	2104	2108	2108	2108	2111	2114	2114	0	0	0	0	0	0	0	0	0	0	0	0	0	0	0	0	0	0	0	0	2851	2851	2858	2851	2851	2858	2858	2858	2864	2858	2858	2858	2858	2858	2864	2864	2864	2864	2864	2864	2870	2870	2876	2889	2889	2896	2928	2928	2954	2988	2988	2995	2995	0	0	0	0	0	0	0	0	0	0	0	0	0	0	0	0	0	0	0	0	0	0	0	0	0	0	0	0	0	0	0	0	0	0	0	0	0	0	0	0	0	0	0	0	0	0	0	0	0	0	0	0	0	0	0	0	0	0	0	0	0	0	0	0	0	0	0	0	0	0	0	0	0	0	0	0	0	0	0	0	0	0	0	0	0	0	0	0	0	0	0	0	0
1215	1215	1217	1217	1217	1220	1223	1223	1231	1231	1246	1257	1257	1265	1265	1276	1286	1286	1293	1293	1296	1297	1297	1298	1298	1298	1298	1298	1298	1298	1300	1300	1300	1300	1300	1300	1300	1300	1298	1298	1300	1298	1298	1298	1298	1298	1298	1298	1298	1298	1298	1298	1298	1298	1298	1298	1298	1298	1298	1298	1298	1298	1298	1298	1298	1298	1298	1298	1300	1298	1298	1298	1298	1298	1298	1298	1298	1298	1298	1298	1300	1300	1300	1300	1300	1300	1300	1300	1300	1301	1301	1301	1301	1301	1301	1301	1301	1301	1300	1300	1300	1298	1298	1298	1298	1298	1298	1297	1296	1296	1296	1296	1296	1296	1291	1291	1288	1279	1267	1260	1260	1260	1256	1224	1220	1220	1216	1213	1208	1208	1208	1210	1212	1212	1213	1214	1214	1214	1215	1215	1213	1213	1208	1205	1192	1184	1156	1156	1156	0	0	1116	1066	1066	1066	0	0	0	0	0	0	0	0	0	0	0	0	0	0	0	0	0	0	0	0	0	0	0	0	0	0	0	0	0	0	0	0	0	0	0	0	0	1155	1155	1155	1155	1157	1159	1159	1160	1164	1164	1166	1172	1172	1179	1179	1183	1186	1186	1188	1191	1191	1197	1204	1204	1210	1210	1214	1217	1217	1219	1221	1221	1223	1227	1227	1231	1231	1237	1243	1243	1249	1252	1252	1256	1256	1257	1258	1258	1260	1261	1261	1261	1262	1262	1263	1265	1265	1267	1268	1268	1272	1273	1273	1276	1277	1277	1279	1279	1279	1281	1281	1281	1279	1279	1279	1277	1276	1276	1272	1268	1268	1267	1265	1262	1262	1262	1261	1261	1261	1261	1261	1261	1261	1262	1262	1265	1266	1266	1267	1273	1273	1279	1279	1284	1288	1288	1291	1292	1292	1295	1296	1296	1296	1296	1296	1296	1296	1296	1296	1296	1296	1297	1297	1297	1297	1297	1297	1297	1297	1298	1298	1300	1301	1305	1323	1323	1340	1340	0	1384	1384	1384	1398	1418	1427	1437	1438	1453	1453	1469	1469	1481	1486	1486	1487	1491	1491	1494	1497	1497	1501	1506	1506	1511	1511	1517	1518	1518	1524	1525	1525	1531	1533	1533	1534	1536	1536	1538	1538	1538	1540	0	0	0	0	0	0	0	0	0	0	0	0	0	0	0	0	2087	2087	2091	2091	2091	2094	2094	2094	2097	2097	2104	2104	2104	2104	2108	2108	2108	2108	2108	2108	2111	2108	2108	2108	2108	2108	2108	2108	2104	2104	2104	2104	2104	2104	2104	2104	2104	2104	2104	2104	2104	2104	2104	2104	2104	2104	2104	2104	2104	2104	2104	2104	2104	2104	2104	2104	2104	2104	2104	2104	2104	2104	2104	2101	2101	2101	2101	2101	2101	2101	2101	2101	2097	2097	2097	2101	2101	2101	2101	2101	2101	2101	2104	2104	2104	2104	2104	2104	2104	2104	2104	2104	2104	2101	2097	2097	2097	2097	2097	2094	2094	2094	2094	2091	2091	2091	2091	2091	2091	2091	2091	2091	2091	2091	2091	2091	2091	2091	2091	2091	2091	2091	2091	2091	2091	2091	2091	2091	2087	2087	2087	2087	2087	2084	2084	2084	2081	2081	2081	2081	2077	2077	2077	2077	2077	2077	2077	2074	2074	2074	2074	2077	2077	2077	2077	2077	2077	2077	2077	2077	2077	2077	2077	2077	2077	2077	2077	2077	2077	2077	2077	2077	2077	2077	2077	2081	2081	2077	2077	2077	2077	2077	2077	2074	2074	2074	2071	2071	2071	2071	2064	2064	2064	2061	2061	2061	2061	2061	2055	2055	2055	2055	2055	2055	2061	2061	2061	2064	2064	2064	2071	2071	2071	2074	2074	2074	2074	2074	2077	2077	2074	2074	2077	2077	2077	2077	2077	2077	2077	2077	2081	2081	2081	2081	2081	2081	2081	2084	2084	2084	2084	2081	2081	2081	2081	2081	2081	2077	2077	2074	2074	2074	2074	2074	2074	2074	2074	2074	2077	2077	2077	2081	2084	2084	2087	2091	2091	2094	2094	2094	2097	2097	2097	2104	2104	2104	2108	2108	2108	2108	2111	2111	0	0	0	0	0	0	0	0	0	0	0	0	0	0	0	0	0	0	0	0	2851	2851	2851	2851	2851	2858	2858	2858	2858	2851	2851	2858	2858	2858	2858	2858	2858	2864	2864	2864	2870	2870	2876	2889	2889	2896	2928	2928	2954	0	0	0	0	0	0	0	0	0	0	0	0	0	0	0	0	0	0	0	0	0	0	0	0	0	0	0	0	0	0	0	0	0	0	0	0	0	0	0	0	0	0	0	0	0	0	0	0	0	0	0	0	0	0	0	0	0	0	0	0	0	0	0	0	0	0	0	0	0	0	0	0	0	0	0	0	0	0	0	0	0	0	0	0	0	0	0	0	0	0	0	0	0	0	0	0	0
0	0	0	0	0	0	0	0	0	0	0	0	1266	1266	1266	1276	1286	1286	1293	1293	1296	1297	1297	1298	1298	1298	1298	1298	1298	1298	1300	1300	1300	1300	1300	1297	1297	1297	1296	1296	1296	1296	1296	1296	1295	1295	1295	1295	1295	1295	1295	1295	1295	1295	1296	1296	1296	1296	1296	1296	1296	1296	1296	1296	1297	1297	1297	1297	1297	1297	1297	1297	1297	1297	1297	1297	1297	1297	1297	1297	1297	1297	1297	1297	1297	1297	1297	1297	1297	1297	1297	1297	1297	1297	1297	1297	1297	1297	1296	1296	1296	1296	1296	1296	1295	1293	1293	1292	1291	1291	1289	1289	1289	1286	1277	1269	1269	1262	1257	1257	1260	1223	1223	1219	1213	1213	1208	1204	1204	1204	1204	1204	1205	1205	1208	1210	1210	1212	1214	1214	1212	1212	1208	1205	1186	1184	1156	1156	1156	1107	1107	1086	1066	1066	1061	1061	0	0	0	0	0	0	0	0	0	0	0	0	0	0	0	0	0	0	0	0	0	0	0	0	0	0	0	0	0	0	1160	1158	1158	1156	1155	1155	1154	1154	1154	1154	1155	1155	1155	1157	1159	1159	1161	1166	1166	1174	1174	1181	1183	1183	1186	1189	1189	1193	1199	1199	1206	1206	1212	1215	1215	1219	1220	1220	1223	1225	1225	1229	1229	1235	1242	1242	1246	1252	1252	1256	1256	1257	1258	1258	1260	1261	1261	1261	1262	1262	1263	1265	1265	1267	1268	1268	1272	1273	1273	1276	1277	1277	1279	1279	1279	1281	1281	1281	1279	1279	1279	1277	1276	1276	1272	1269	1269	1268	1266	1266	1263	1262	1261	1261	1261	1261	1261	1261	1261	1262	1262	1265	1266	1266	1267	1273	1273	1279	1279	1284	1288	1288	1291	1292	1292	1295	1296	1296	1296	1296	1296	1296	1296	1296	1296	1296	1296	1297	1297	1297	1297	1297	1297	1297	1297	1298	1298	1301	1301	1309	1333	1333	1345	1345	0	0	1404	1404	1418	1418	1437	1437	1448	1462	1462	1476	1476	1484	1486	1486	1489	1492	1492	1494	1497	1497	1501	1508	1508	1511	1511	1517	1518	1518	1520	1525	1525	1531	1533	1533	1536	1536	1536	1538	1538	1538	1540	0	0	0	0	0	0	0	0	0	0	0	0	0	0	0	0	2084	2084	2087	2087	2091	2094	2094	2094	2097	2097	2104	2104	2104	2104	2108	2108	2108	2108	2108	2108	2111	2111	2111	2111	2111	2108	2108	2108	2108	2108	2104	2104	2104	2104	2104	2104	2104	2101	2101	2101	2101	2101	2104	2104	2104	2104	2104	2104	2104	2104	2104	2104	2104	2104	2104	2104	2104	2104	2104	2104	2104	2104	2104	2101	2101	2101	2101	2101	2101	2101	2101	2101	2097	2097	2097	2101	2101	2101	2101	2101	2101	2101	2104	2104	2104	2104	2104	2104	2104	2104	2104	2104	2104	2101	2097	2097	2097	2097	2097	2094	2094	2094	2094	2091	2091	2091	2091	2091	2091	2091	2091	2091	2091	2091	2091	2091	2091	2091	2091	2091	2091	2091	2091	2091	2091	2091	2091	2091	2091	2091	2087	2087	2087	2084	2084	2084	2081	2081	2081	2081	2077	2077	2077	2077	2077	2077	2077	2074	2074	2074	2077	2077	2077	2077	2077	2077	2077	2077	2077	2077	2077	2077	2077	2077	2077	2077	2077	2077	2081	2081	2081	2081	2081	2081	2081	2081	2081	2081	2081	2081	2077	2077	2077	2074	2074	2074	2074	2071	2071	2071	2064	2064	2064	2064	2064	2061	2061	2061	2061	2061	2061	2061	2061	2061	2061	2061	2064	2064	2064	2071	2071	2071	2074	2074	2074	2074	2074	2074	2077	2077	2077	2077	2077	2077	2077	2081	2081	2081	2084	2084	2084	2084	2084	2084	2084	2084	2084	2084	2084	2084	2084	2084	2084	2084	2081	2081	2081	2077	2074	2074	2074	2071	2071	2071	2071	2071	2074	2074	2074	2074	2074	2077	2081	2081	2084	2091	2091	2091	2094	2094	2094	2097	2097	2101	2104	2104	2104	2108	2108	2108	2108	2108	0	0	0	0	0	0	0	0	0	0	0	0	0	0	0	0	0	0	0	0	0	2851	2851	2851	2851	2851	2851	2851	2851	2851	2851	2851	2851	2851	2858	2851	2851	2858	2858	2864	2864	2864	2870	2876	2876	2889	2915	2915	2954	0	0	0	0	0	0	0	0	0	0	0	0	0	0	0	0	0	0	0	0	0	0	0	0	0	0	0	0	0	0	0	0	0	0	0	0	0	0	0	0	0	0	0	0	0	0	0	0	0	0	0	0	0	0	0	0	0	0	0	0	0	0	0	0	0	0	0	0	0	0	0	0	0	0	0	0	0	0	0	0	0	0	0	0	0	0	0	0	0	0	0	0	0	0	0	0	0
0	0	0	0	0	0	0	0	0	0	0	0	1266	1266	1266	1276	1286	1286	1292	1292	1296	1297	1297	1297	1297	1297	1297	1297	1297	1297	1297	1297	1297	1297	1297	1297	1297	1297	1296	1296	1296	1296	1296	1296	1295	1295	1295	1295	1295	1295	1295	1295	1295	1295	1296	1296	1296	1296	1296	1296	1296	1296	1296	1296	1297	1297	1297	1297	1297	1297	1297	1297	1297	1297	1297	1297	1297	1297	1297	1297	1297	1297	1297	1297	1297	1297	1297	1297	1297	1297	1297	1297	1297	1297	1297	1297	1297	1297	1296	1296	1296	1296	1296	1296	1295	1293	1293	1292	1291	1291	1289	1289	1289	1286	1277	1269	1269	1262	1257	1257	0	1223	1223	1219	1213	1213	1208	1204	1197	1197	1197	1199	1199	1199	1202	1205	1205	1208	1210	1210	1208	1208	1208	1205	1138	1123	1110	1097	1097	1094	1089	1081	1068	1068	1061	1061	0	0	0	0	0	0	0	0	0	0	0	0	0	0	0	0	0	0	0	0	0	0	0	0	0	0	1164	1161	1161	1159	1157	1157	1157	1156	1154	1154	1154	1153	1153	1153	1154	1155	1155	1155	1156	1156	1158	1161	1161	1168	1174	1177	1181	1181	1183	1187	1187	1190	1195	1195	1202	1202	1208	1213	1213	1217	1220	1220	1222	1224	1224	1229	1229	1234	1241	1241	1245	1250	1250	1255	1255	1256	1257	1257	1258	1260	1260	1261	1261	1261	1262	1262	1263	1263	1265	1265	1266	1267	1267	1268	1269	1272	1272	1273	1273	1276	1276	1276	1276	1276	1276	1276	1273	1273	1272	1269	1269	1268	1266	1266	1263	1262	1261	1261	1261	1260	1260	1260	1261	1262	1262	1262	1263	1263	1265	1268	1268	1276	1279	1281	1284	1284	1288	1289	1289	1292	1293	1293	1295	1295	1295	1293	1293	1293	1293	1293	1293	1293	1295	1293	1293	1293	1295	1295	1295	1297	1297	1301	1301	1313	1338	1338	0	0	0	0	1404	1404	1434	1434	1446	1446	1462	1474	1474	1481	1481	1486	1487	1487	1491	1492	1492	1494	1497	1497	1501	1508	1508	1511	1511	1517	1518	1518	1520	1525	1525	1531	1533	1533	1536	1536	1536	1538	1538	1538	1540	0	0	0	0	0	0	0	0	0	0	0	0	0	0	0	0	2084	2084	2087	2087	2091	2094	2094	2094	2097	2097	2104	2104	2104	2108	2108	2108	2108	2111	2111	2111	2111	2111	2111	2111	2111	2108	2108	2108	2108	2108	2108	2104	2104	2104	2104	2104	2104	2101	2101	2101	2101	2101	2104	2104	2104	2104	2104	2104	2104	2104	2104	2104	2104	2108	2108	2108	2108	2108	2104	2104	2104	2104	2104	2104	2104	2104	2104	2104	2101	2101	2101	2101	2101	2101	2101	2101	2101	2101	2101	2104	2104	2104	2104	2104	2104	2104	2104	2104	2104	2104	2104	2104	2104	2104	2101	2101	2097	2097	2097	2097	2097	2097	2094	2094	2094	2094	2094	2094	2091	2091	2091	2091	2091	2091	2091	2091	2091	2091	2091	2091	2091	2091	2091	2091	2091	2091	2091	2091	2091	2091	2087	2087	2087	2084	2084	2084	2081	2081	2081	2081	2077	2077	2077	2077	2077	2077	2077	2074	2074	2074	2077	2077	2077	2077	2077	2077	2077	2077	2077	2077	2077	2077	2077	2077	2077	2077	2077	2077	2081	2081	2081	2081	2081	2081	2081	2081	2081	2081	2081	2081	2077	2077	2077	2074	2074	2074	2074	2071	2071	2071	2064	2064	2064	2064	2064	2061	2061	2061	2061	2061	2061	2061	2061	2061	2061	2061	2064	2064	2064	2071	2071	2071	2074	2074	2074	2074	2074	2074	2077	2081	2081	2081	2081	2081	2081	2084	2084	2084	2087	2087	2087	2087	2087	2087	2087	2087	2087	2087	2087	2087	2087	2087	2084	2084	2081	2081	2081	2077	2074	2074	2074	2071	2071	2071	2071	2071	2074	2074	2074	2074	2074	2077	2081	2081	2084	2091	2091	2091	2094	2094	2094	2097	2097	2101	2104	2104	2104	2108	2108	2108	2108	2108	0	0	0	0	0	0	0	0	0	0	0	0	0	0	0	0	0	0	0	0	0	2851	2851	2851	2851	2851	2851	2851	2851	2845	2845	2845	2845	2845	2851	2851	2851	2851	2851	2858	2864	2864	2864	2870	2870	2889	2915	2915	0	0	0	0	0	0	0	0	0	0	0	0	0	0	0	0	0	0	0	0	0	0	0	0	0	0	0	0	0	0	0	0	0	0	0	0	0	0	0	0	0	0	0	0	0	0	0	0	0	0	0	0	0	0	0	0	0	0	0	0	0	0	0	0	0	0	0	0	0	0	0	0	0	0	0	0	0	0	0	0	0	0	0	0	0	0	0	0	0	0	0	0	0	0	0	0	0	0
0	0	0	0	0	0	0	0	0	0	0	0	0	0	0	0	0	1289	1289	1289	1293	1295	1295	1295	1296	1296	1296	1296	1296	1296	1296	1296	1295	1295	1295	1293	1292	1292	1292	1291	1291	1291	1289	1289	1288	1288	1288	1288	1288	1288	1288	1288	1289	1289	1289	1289	1291	1291	1291	1291	1291	1292	1292	1292	1293	1293	1293	1295	1295	1295	1295	1296	1296	1296	1296	1296	1296	1296	1296	1296	1296	1295	1295	1295	1295	1295	1295	1295	1295	1295	1295	1295	1295	1295	1293	1293	1293	1292	1292	1292	1291	1289	1288	1288	1286	1286	1286	1284	1281	1281	1279	1277	1272	1272	1265	1261	1256	1256	1256	1257	1222	1216	1216	1208	1202	1197	1197	1195	1195	1197	1197	1199	1199	1199	1202	1205	1205	1208	1210	1210	1208	1208	1208	0	1138	1123	1110	1097	1097	1094	1089	1081	1068	1068	1061	1061	0	0	0	0	0	0	0	0	0	0	0	0	0	0	0	0	0	0	0	0	0	0	0	0	0	0	1164	1161	1161	1159	1157	1157	1157	1156	1154	1154	1154	1153	1153	1153	1154	1155	1155	1155	1156	1156	1158	1161	1161	1168	1177	1177	1181	1181	1183	1187	1187	1190	1195	1195	1202	1202	1208	1213	1213	1217	1219	1219	1221	1224	1224	1228	1228	1231	1237	1237	1243	1249	1249	1252	1255	1255	1256	1256	1257	1258	1258	1258	1260	1260	1261	1261	1262	1262	1262	1262	1262	1263	1263	1263	1265	1266	1266	1267	1268	1268	1269	1269	1269	1272	1273	1273	1273	1273	1269	1268	1268	1267	1266	1266	1263	1262	1261	1261	1261	1260	1260	1260	1261	1261	1261	1261	1261	1261	1262	1265	1265	1269	1276	1276	1281	1281	1284	1286	1286	1288	1291	1291	1291	1291	1289	1289	1288	1288	1288	1288	1288	1288	1289	1289	1289	1289	1292	1292	1292	1296	1296	1301	1301	1313	1338	1338	0	0	0	0	1404	1404	1434	1434	1446	1446	1462	1474	1474	1481	1481	1486	1487	1487	1491	1492	1492	1494	1497	1497	1501	1508	1508	1511	1511	1517	1518	1518	1520	1525	1525	1531	1533	1533	1536	1536	1536	1538	1538	1538	1540	0	0	0	0	0	0	0	0	0	0	0	0	0	0	2077	2077	2077	2081	2087	2087	2091	2091	2091	2094	2097	2097	2104	2104	2104	2108	2108	2108	2108	2111	2111	2111	2111	2111	2111	2114	2111	2111	2111	2108	2108	2108	2108	2104	2104	2104	2104	2104	2104	2104	2101	2101	2101	2101	2104	2104	2104	2104	2104	2104	2104	2104	2108	2108	2108	2108	2108	2108	2108	2108	2108	2108	2108	2108	2108	2108	2104	2104	2104	2104	2104	2104	2104	2104	2101	2101	2101	2101	2104	2104	2104	2104	2104	2104	2104	2104	2104	2104	2104	2108	2108	2108	2104	2104	2104	2104	2104	2104	2101	2101	2101	2097	2097	2097	2097	2097	2097	2094	2094	2094	2094	2094	2094	2094	2094	2094	2094	2094	2094	2094	2094	2094	2094	2094	2094	2094	2094	2091	2091	2091	2091	2091	2091	2087	2087	2087	2084	2084	2084	2081	2081	2081	2081	2081	2081	2077	2077	2077	2077	2077	2077	2077	2077	2077	2077	2081	2081	2081	2081	2081	2081	2081	2081	2081	2081	2081	2081	2081	2081	2081	2084	2084	2084	2084	2084	2084	2084	2084	2084	2081	2081	2081	2081	2081	2081	2081	2077	2077	2077	2074	2074	2074	2071	2071	2071	2071	2071	2064	2064	2064	2064	2064	2071	2064	2064	2071	2071	2071	2071	2071	2074	2074	2074	2077	2077	2077	2077	2077	2081	2081	2081	2081	2081	2081	2081	2081	2081	2084	2084	2084	2087	2087	2087	2087	2087	2087	2087	2087	2087	2087	2087	2087	2087	2087	2084	2084	2081	2081	2081	2077	2074	2074	2074	2071	2071	2071	2071	2071	2071	2071	2071	2071	2071	2074	2077	2077	2084	2087	2087	2087	2091	2091	2094	2097	2097	2097	2101	2101	2104	2104	2104	2104	2108	2108	0	0	0	0	0	0	0	0	0	0	0	0	0	0	0	0	0	0	0	0	0	2851	2851	2839	2839	2845	2839	2839	2845	2845	2845	2845	2845	2845	2851	2851	2851	2851	2851	2858	2864	2864	2864	2870	2870	2889	0	0	0	0	0	0	0	0	0	0	0	0	0	0	0	0	0	0	0	0	0	0	0	0	0	0	0	0	0	0	0	0	0	0	0	0	0	0	0	0	0	0	0	0	0	0	0	0	0	0	0	0	0	0	0	0	0	0	0	0	0	0	0	0	0	0	0	0	0	0	0	0	0	0	0	0	0	0	0	0	0	0	0	0	0	0	0	0	0	0	0	0	0	0	0	0	0	0	0	0
0	0	0	0	0	0	0	0	0	0	0	0	0	0	0	0	0	1289	1289	1289	1293	1295	1295	1295	1296	1292	1292	1293	1293	1293	1293	1292	1291	1289	1289	1289	1288	1288	1286	1286	1286	1284	1282	1282	1282	1282	1282	1282	1282	1282	1282	1282	1282	1282	1282	1284	1284	1284	1284	1286	1286	1286	1288	1288	1289	1289	1289	1289	1291	1291	1292	1292	1292	1292	1292	1292	1292	1292	1292	1292	1292	1292	1292	1292	1292	1291	1291	1291	1291	1289	1289	1289	1289	1289	1288	1288	1288	1286	1286	1284	1284	1282	1281	1281	1279	1277	1277	1276	1272	1269	1269	1267	1262	1258	1258	1254	1254	1256	1221	1221	1215	1205	1195	1195	1192	1191	1191	1190	1190	1191	1192	1192	1194	1195	1195	1201	1201	1204	1206	1206	1202	1202	1125	1125	1093	1093	1090	1086	1078	1078	1072	1065	1062	1062	1061	1061	0	0	0	0	0	0	0	0	0	0	0	0	0	0	0	0	1183	1182	1182	1182	0	0	0	1171	1168	1168	1163	1160	1158	1158	1157	1155	1155	1155	1154	1154	1152	1151	1151	1151	1152	1152	1152	1153	1154	1154	1155	1158	1158	1163	1172	1172	1178	1178	1182	1186	1186	1189	1193	1193	1201	1201	1205	1212	1212	1216	1219	1219	1221	1224	1224	1228	1228	1231	1237	1237	1243	1249	1249	1252	1255	1255	1256	1256	1257	1258	1258	1258	1260	1260	1261	1261	1262	1262	1262	1262	1262	1263	1263	1263	1265	1266	1266	1267	1268	1268	1269	1269	1269	1272	1273	1273	1273	1273	1269	1268	1268	1267	1266	1266	1263	1262	1261	1261	1261	1261	1261	1261	1261	1261	1261	1261	1261	1261	1262	1265	1265	1269	1276	1276	1281	1281	1284	1286	1286	1288	1291	1291	1291	1291	1289	1289	1288	1288	1288	1288	1288	1282	1282	1282	1282	1284	1288	1288	1289	1296	1296	1302	1302	1322	1331	1342	0	0	1409	1409	1409	1427	1435	1440	1462	1462	1477	1477	1481	1484	1484	1487	1489	1489	1491	1494	1494	1496	1499	1499	1503	1508	1508	1511	1511	1517	1518	1518	1520	1525	1525	1529	1533	1533	1536	1536	1536	1538	1538	1538	1540	0	0	0	0	0	0	0	0	0	0	0	0	0	2071	2071	2077	2077	2081	2087	2087	2091	2091	2091	2094	2097	2097	2104	2104	2104	2108	2108	2108	2108	2111	2111	2111	2111	2111	2114	2114	2111	2111	2111	2108	2108	2108	2108	2104	2104	2104	2104	2104	2104	2104	2101	2101	2101	2101	2104	2104	2104	2104	2104	2104	2104	2104	2108	2108	2108	2108	2108	2108	2108	2108	2108	2108	2108	2108	2108	2108	2104	2104	2104	2104	2104	2104	2104	2104	2101	2101	2101	2101	2104	2104	2104	2104	2104	2104	2104	2104	2104	2104	2104	2108	2108	2108	2104	2104	2104	2104	2104	2104	2101	2101	2101	2097	2097	2097	2097	2097	2097	2094	2094	2094	2094	2094	2094	2094	2094	2094	2094	2094	2094	2094	2094	2094	2094	2094	2094	2094	2094	2094	2094	2094	2091	2091	2091	2091	2091	2091	2087	2087	2087	2084	2084	2084	2084	2084	2081	2081	2081	2081	2081	2081	2081	2081	2081	2081	2081	2084	2084	2084	2084	2084	2084	2084	2084	2084	2084	2084	2084	2084	2084	2084	2084	2087	2087	2087	2087	2087	2087	2087	2084	2084	2084	2084	2084	2084	2084	2084	2084	2084	2084	2084	2084	2081	2081	2081	2077	2077	2077	2077	2074	2074	2074	2077	2077	2074	2074	2074	2074	2074	2077	2077	2081	2081	2081	2081	2081	2081	2084	2084	2084	2084	2084	2084	2084	2084	2084	2084	2084	2087	2087	2087	2091	2091	2091	2091	2091	2091	2091	2091	2091	2091	2087	2087	2087	2087	2084	2084	2081	2081	2081	2077	2074	2071	2071	2071	2064	2064	2064	2064	2064	2064	2064	2071	2071	2074	2077	2077	2081	2084	2084	2087	2091	2091	2094	2094	2094	2097	2101	2101	2104	2104	2104	2104	2108	2108	2108	0	0	0	0	0	0	0	0	0	0	0	0	0	0	0	0	0	0	0	0	0	0	2839	2839	2839	2839	2839	2839	2839	2839	2839	2839	2839	2839	2839	2845	2845	2845	2845	2851	2851	2858	2864	2864	2889	0	0	0	0	0	0	0	0	0	0	0	0	0	0	0	0	0	0	0	0	0	0	0	0	0	0	0	0	0	0	0	0	0	0	0	0	0	0	0	0	0	0	0	0	0	0	0	0	0	0	0	0	0	0	0	0	0	0	0	0	0	0	0	0	0	0	0	0	0	0	0	0	0	0	0	0	0	0	0	0	0	0	0	0	0	0	0	0	0	0	0	0	0	0	0	0	0	0	0	0
0	0	0	0	0	0	0	0	0	0	0	0	0	0	0	0	0	1286	1286	1286	1289	1291	1291	1291	1292	1292	1292	1293	1293	1293	1293	1292	1291	1289	1289	1289	1288	1288	1286	1286	1286	1284	1282	1282	1282	1282	1282	1282	1282	1282	1282	1282	1282	1282	1282	1284	1284	1284	1284	1286	1286	1286	1288	1288	1289	1289	1289	1289	1291	1291	1292	1292	1292	1292	1292	1292	1292	1292	1292	1292	1292	1292	1292	1292	1292	1291	1291	1291	1291	1289	1289	1289	1289	1289	1288	1288	1288	1286	1286	1284	1284	1282	1281	1281	1279	1277	1277	1276	1272	1269	1269	1267	1262	1258	1258	1254	1254	1221	1214	1202	1202	1193	1188	1188	1188	1188	1188	1188	1188	1188	1188	1188	1189	1191	1191	1193	1195	1195	1199	1170	1170	1170	1070	1070	1070	1072	1073	1072	1072	1069	1069	1065	1062	1062	1062	1062	1062	1062	0	0	0	0	0	0	0	0	0	0	0	0	0	0	1182	1180	1180	1178	1175	1171	1171	1170	1164	1164	1161	1159	1156	1156	1155	1154	1154	1153	1152	1152	1150	1150	1150	1150	1150	1151	1151	1151	1152	1152	1154	1155	1155	1159	1168	1168	1175	1175	1180	1184	1184	1188	1192	1192	1199	1199	1205	1210	1210	1215	1219	1219	1221	1223	1223	1227	1227	1230	1235	1235	1241	1245	1245	1250	1252	1252	1255	1255	1256	1257	1257	1257	1258	1258	1258	1260	1261	1261	1261	1261	1261	1261	1261	1261	1261	1262	1262	1262	1262	1262	1265	1266	1266	1267	1268	1268	1269	1269	1268	1267	1267	1266	1266	1266	1263	1262	1261	1261	1261	1260	1260	1260	1260	1260	1260	1260	1260	1260	1261	1262	1262	1266	1269	1269	1276	1279	1279	1281	1281	1284	1286	1286	1286	1284	1284	1282	1282	1282	1282	1282	1282	1282	1282	1282	1282	1284	1288	1288	1289	1297	1297	1304	1304	1331	1331	0	0	0	1409	1409	1409	1435	1435	1453	1474	1474	1482	1482	1484	1486	1486	1489	1491	1491	1492	1494	1494	1496	1499	1499	1503	1508	1508	1511	1511	1517	1518	1518	1520	1525	1525	1529	1533	1533	1536	1536	1536	1538	1538	1538	1540	0	0	0	0	0	0	0	0	0	0	0	0	0	2071	2071	2077	2077	2084	2087	2087	2091	2094	2094	2094	2097	2097	2104	2104	2104	2108	2108	2108	2111	2111	2111	2114	2114	2114	2114	2114	2111	2111	2111	2108	2108	2108	2108	2104	2104	2104	2104	2104	2104	2104	2104	2104	2104	2104	2104	2104	2104	2104	2104	2104	2108	2108	2108	2108	2108	2108	2108	2108	2108	2108	2108	2108	2108	2108	2108	2108	2108	2108	2108	2108	2104	2104	2104	2104	2104	2104	2104	2104	2104	2104	2104	2104	2104	2104	2104	2104	2108	2108	2108	2108	2108	2108	2108	2108	2108	2104	2104	2104	2104	2104	2104	2101	2101	2101	2097	2097	2097	2097	2097	2097	2097	2097	2097	2094	2094	2094	2094	2094	2094	2094	2094	2094	2094	2094	2094	2094	2094	2094	2094	2094	2091	2091	2091	2091	2091	2091	2087	2087	2087	2084	2084	2084	2084	2084	2081	2081	2081	2081	2081	2081	2081	2081	2081	2081	2081	2084	2084	2084	2084	2084	2084	2084	2084	2084	2084	2084	2084	2084	2084	2084	2084	2087	2087	2087	2087	2087	2087	2087	2084	2084	2084	2084	2084	2084	2084	2084	2084	2084	2084	2084	2084	2081	2081	2081	2077	2077	2077	2077	2074	2074	2074	2077	2077	2074	2074	2074	2074	2074	2077	2077	2081	2084	2084	2084	2087	2087	2087	2087	2087	2087	2087	2087	2087	2087	2087	2087	2087	2091	2091	2091	2091	2091	2091	2091	2091	2091	2091	2091	2091	2091	2091	2087	2087	2087	2084	2084	2081	2081	2081	2077	2074	2071	2071	2071	2064	2064	2064	2064	2064	2064	2064	2071	2071	2074	2077	2077	2081	2084	2084	2087	2091	2091	2094	2094	2094	2097	2101	2101	2104	2104	2104	2108	2108	2108	2108	0	0	0	0	0	0	0	0	0	0	0	0	0	0	0	0	0	0	0	0	0	0	0	2833	2833	2833	2833	2833	2833	2833	2833	2833	2833	2833	2833	2839	2839	2839	2839	2839	2839	2845	2864	2864	0	0	0	0	0	0	0	0	0	0	0	0	0	0	0	0	0	0	0	0	0	0	0	0	0	0	0	0	0	0	0	0	0	0	0	0	0	0	0	0	0	0	0	0	0	0	0	0	0	0	0	0	0	0	0	0	0	0	0	0	0	0	0	0	0	0	0	0	0	0	0	0	0	0	0	0	0	0	0	0	0	0	0	0	0	0	0	0	0	0	0	0	0	0	0	0	0	0	0	0	0
0	0	0	0	0	0	0	0	0	0	0	0	0	0	0	0	0	1286	1286	1284	1284	1286	1284	1284	1288	1288	1288	1289	1289	1288	1288	1288	1286	1286	1286	1284	1282	1282	1282	1281	1281	1281	1279	1277	1277	1277	1277	1277	1277	1277	1277	1277	1277	1277	1277	1279	1279	1279	1281	1281	1281	1282	1282	1282	1284	1286	1286	1286	1286	1286	1286	1288	1288	1288	1288	1288	1288	1288	1288	1288	1288	1288	1288	1288	1288	1286	1286	1286	1286	1286	1286	1286	1284	1284	1284	1282	1279	1279	1279	1277	1277	1273	1269	1268	1268	1266	1265	1265	1263	1261	1261	1260	1257	1250	1250	1250	0	1221	1214	1202	1202	1193	1188	1188	1188	1188	1188	1188	1188	1188	1188	1188	1189	1191	1191	1193	1195	1195	1199	1170	1170	1170	1070	1070	1070	1072	1073	1072	1072	1069	1069	1065	1063	1063	1063	1062	1062	1062	0	0	0	0	0	0	0	0	0	0	0	0	0	0	1182	1180	1180	1178	1175	1171	1171	1170	1164	1164	1161	1159	1156	1156	1155	1154	1154	1153	1152	1152	1150	1150	1150	1150	1150	1151	1151	1151	1152	1152	1154	1155	1155	1159	1168	1168	1175	1175	1180	1184	1184	1188	1192	1192	1199	1199	1205	1210	1210	1215	1219	1219	1221	1223	1223	1225	1227	1229	1234	1234	1237	1242	1242	1245	1250	1250	1252	1254	1254	1255	1256	1256	1257	1257	1257	1258	1258	1258	1258	1258	1258	1258	1258	1258	1258	1258	1258	1260	1261	1261	1261	1262	1262	1262	1265	1265	1266	1267	1267	1266	1266	1265	1263	1263	1263	1262	1261	1261	1261	1260	1260	1260	1258	1258	1258	1258	1258	1258	1258	1261	1261	1262	1266	1266	1269	1272	1272	1276	1277	1277	1281	1281	1281	1279	1279	1277	1276	1276	1276	1276	1276	1276	1276	1276	1276	1277	1282	1282	1289	1297	1297	1298	1301	1301	1331	0	1389	1389	1389	1409	1409	1435	1435	1453	1462	1474	1482	1482	1484	1486	1486	1489	1491	1491	1492	1494	1494	1496	1499	1499	1503	1508	1508	1511	1511	1517	1518	1518	1520	1525	1525	1529	1533	1533	1536	1536	1536	1538	1538	1538	1540	0	0	0	0	0	0	0	0	0	0	0	0	0	2071	2071	2077	2077	2084	2087	2087	2091	2094	2094	2094	2097	2097	2104	2104	2104	2108	2111	2111	2111	2114	2114	2114	2118	2114	2114	2114	2114	2114	2114	2111	2108	2108	2108	2108	2108	2104	2104	2104	2104	2104	2104	2104	2104	2104	2104	2104	2104	2108	2108	2108	2108	2108	2108	2111	2111	2111	2111	2111	2114	2114	2114	2114	2114	2111	2111	2111	2108	2108	2108	2108	2108	2108	2108	2108	2104	2104	2104	2104	2104	2104	2108	2108	2108	2108	2108	2108	2108	2108	2108	2108	2108	2108	2108	2108	2108	2108	2108	2104	2104	2104	2104	2104	2101	2101	2101	2101	2101	2101	2097	2097	2097	2097	2097	2097	2097	2097	2097	2097	2097	2097	2094	2094	2094	2094	2094	2094	2094	2094	2094	2094	2094	2094	2091	2091	2091	2091	2091	2091	2087	2087	2087	2084	2084	2084	2084	2084	2084	2084	2084	2084	2084	2084	2084	2084	2084	2087	2087	2087	2087	2087	2087	2087	2087	2087	2087	2087	2087	2087	2087	2087	2087	2087	2087	2087	2087	2087	2087	2087	2087	2087	2087	2087	2087	2091	2091	2091	2091	2091	2091	2091	2091	2091	2091	2091	2087	2087	2087	2087	2084	2084	2084	2084	2084	2084	2084	2084	2084	2084	2084	2084	2084	2084	2084	2084	2087	2087	2087	2087	2087	2087	2087	2087	2087	2087	2087	2087	2087	2091	2091	2091	2091	2091	2091	2091	2091	2091	2091	2091	2091	2091	2091	2087	2087	2087	2084	2084	2081	2077	2077	2074	2074	2071	2071	2064	2064	2064	2064	2064	2064	2064	2064	2071	2071	2071	2074	2074	2081	2084	2084	2087	2091	2091	2094	2094	2094	2097	2101	2101	2104	2104	2104	2108	2108	2108	2108	0	0	0	0	0	0	0	0	0	0	0	0	0	0	0	0	0	0	0	0	0	0	0	2833	2833	2833	2833	2833	2833	2833	2833	2833	2833	2833	2833	2839	2839	2839	2839	2839	2839	2845	0	0	0	0	0	0	0	0	0	0	0	0	0	0	0	0	0	0	0	0	0	0	0	0	0	0	0	0	0	0	0	0	0	0	0	0	0	0	0	0	0	0	0	0	0	0	0	0	0	0	0	0	0	0	0	0	0	0	0	0	0	0	0	0	0	0	0	0	0	0	0	0	0	0	0	0	0	0	0	0	0	0	0	0	0	0	0	0	0	0	0	0	0	0	0	0	0	0	0	0	0	0	0
0	0	0	0	0	0	0	0	0	0	0	0	0	0	0	0	0	1276	1276	1277	1277	1279	1279	1279	1281	1282	1282	1282	1282	1282	1282	1282	1282	1281	1281	1281	1277	1277	1277	1277	1276	1276	1273	1273	1273	1273	1272	1272	1272	1272	1272	1272	1272	1273	1273	1273	1273	1273	1276	1276	1276	1277	1277	1279	1279	1281	1281	1281	1281	1282	1282	1282	1282	1282	1282	1282	1282	1282	1282	1282	1282	1282	1282	1281	1281	1281	1281	1281	1281	1279	1279	1279	1279	1277	1277	1273	1272	1272	1268	1267	1265	1265	1262	1261	1261	1260	1258	1258	1258	1256	1255	1255	1249	1237	1227	1227	1221	1214	1202	1193	1193	1188	1186	1184	1184	1184	1184	1184	1184	1184	1184	1184	1186	1186	1186	1188	1188	1188	1199	1068	1065	1065	1065	1066	1067	1067	1069	1069	1072	1069	1069	1065	1063	1063	1063	1062	1062	1062	0	0	0	0	0	0	0	0	0	0	0	1183	1183	1183	1182	1180	1180	1178	1174	1171	1171	1170	1164	1164	1161	1157	1155	1155	1154	1154	1154	1152	1151	1151	1149	1147	1147	1148	1148	1148	1149	1149	1151	1152	1152	1155	1155	1158	1168	1168	1175	1175	1181	1184	1184	1189	1193	1193	1199	1199	1205	1212	1212	1215	1219	1219	1221	1223	1223	1225	1229	1229	1234	1234	1237	1242	1242	1245	1250	1250	1252	1254	1254	1255	1256	1256	1257	1257	1257	1258	1258	1258	1258	1258	1258	1258	1258	1258	1258	1258	1258	1260	1261	1261	1261	1262	1262	1262	1265	1265	1266	1267	1267	1266	1266	1265	1263	1263	1263	1262	1261	1261	1261	1260	1260	1260	1258	1258	1258	1258	1258	1258	1258	1261	1261	1262	1266	1266	1269	1272	1272	1276	1277	1277	1273	1273	1273	1272	1272	1268	1268	1268	1268	1268	1268	1269	1269	1269	1273	1273	1281	1281	1288	1297	1297	1298	1301	1301	0	0	1389	1389	1389	1430	1430	1440	1440	1462	1462	1479	1484	1484	1486	1487	1487	1491	1492	1492	1494	1496	1496	1497	1499	1499	1503	1508	1508	1511	1511	1517	1518	1518	1520	1525	1525	1529	1533	1533	1536	1538	1538	1538	1538	1538	1540	1542	1542	0	0	0	0	0	0	0	0	0	2074	2074	2074	2074	2081	2081	2087	2091	2091	2094	2094	2094	2097	2101	2101	2104	2108	2108	2108	2111	2111	2111	2114	2114	2114	2118	2114	2114	2114	2114	2114	2114	2111	2108	2108	2108	2108	2108	2104	2104	2104	2104	2104	2104	2104	2104	2104	2104	2104	2104	2108	2108	2108	2108	2108	2108	2111	2111	2111	2111	2111	2114	2114	2114	2114	2114	2111	2111	2111	2108	2108	2108	2108	2108	2108	2108	2108	2104	2104	2104	2104	2104	2104	2108	2108	2108	2108	2108	2108	2108	2108	2108	2108	2108	2108	2108	2108	2108	2108	2108	2104	2104	2104	2104	2104	2101	2101	2101	2101	2101	2101	2101	2101	2101	2101	2101	2101	2097	2097	2097	2097	2097	2097	2097	2097	2097	2097	2097	2097	2097	2097	2097	2094	2094	2094	2094	2094	2094	2091	2091	2091	2091	2091	2091	2087	2087	2087	2087	2087	2087	2087	2087	2087	2087	2087	2087	2087	2087	2091	2091	2091	2091	2091	2091	2091	2091	2091	2091	2091	2091	2091	2091	2091	2091	2091	2091	2091	2091	2091	2091	2091	2091	2091	2091	2091	2091	2091	2091	2091	2094	2094	2094	2094	2094	2094	2094	2094	2094	2094	2094	2094	2091	2091	2091	2091	2091	2091	2091	2091	2091	2091	2091	2091	2091	2091	2091	2091	2091	2091	2091	2091	2091	2091	2091	2091	2091	2091	2091	2091	2091	2091	2091	2091	2091	2091	2091	2091	2091	2091	2091	2091	2091	2091	2091	2087	2087	2084	2081	2081	2077	2074	2074	2071	2071	2071	2071	2064	2064	2064	2064	2064	2064	2064	2064	2064	2064	2071	2074	2074	2077	2084	2084	2087	2091	2091	2091	2094	2094	2097	2097	2097	2101	2104	2104	2108	2108	2108	2108	2135	0	0	0	0	0	0	0	0	0	0	0	0	0	0	0	0	0	0	0	0	0	2821	2821	2827	2827	2827	2827	2827	2827	2827	2827	2827	2827	2827	2833	2833	2833	2833	2833	2833	2833	0	0	0	0	0	0	0	0	0	0	0	0	0	0	0	0	0	0	0	0	0	0	0	0	0	0	0	0	0	0	0	0	0	0	0	0	0	0	0	0	0	0	0	0	0	0	0	0	0	0	0	0	0	0	0	0	0	0	0	0	0	0	0	0	0	0	0	0	0	0	0	0	0	0	0	0	0	0	0	0	0	0	0	0	0	0	0	0	0	0	0	0	0	0	0	0	0	0	0	0	0	0	0
0	0	0	0	0	0	0	0	0	0	0	0	0	0	0	0	0	1276	1276	1277	1277	1279	1279	1279	1281	1282	1282	1282	1282	1282	1282	1282	1282	1281	1281	1281	1277	1277	1277	1277	1276	1276	1273	1273	1273	1273	1272	1272	1272	1272	1272	1272	1272	1273	1273	1273	1273	1273	1276	1276	1276	1277	1277	1279	1279	1281	1281	1281	1281	1282	1282	1282	1282	1282	1282	1282	1282	1282	1282	1282	1282	1282	1282	1281	1281	1281	1281	1281	1281	1279	1279	1279	1279	1277	1277	1273	1272	1272	1268	1267	1265	1265	1262	1261	1261	1260	1254	1252	1252	1250	1245	1235	1235	1227	1221	1217	1217	1208	1195	1189	1189	1186	1183	1182	1182	1182	1181	1181	1181	1181	1181	1181	1182	1183	1182	1182	1154	1154	0	1068	1065	1065	1065	1066	1067	1067	1068	1069	1072	1069	1069	1068	1066	1066	1066	0	0	0	0	0	0	0	0	0	0	0	0	0	1183	1183	1183	1183	1182	1179	1179	1178	1174	1171	1171	1168	1161	1161	1159	1156	1155	1155	1154	1154	1154	1151	1149	1149	1146	1146	1146	1146	1146	1148	1149	1149	1151	1152	1152	1155	1155	1158	1168	1168	1175	1175	1181	1184	1184	1189	1193	1193	1199	1199	1205	1212	1212	1215	1219	1219	1221	1223	1223	1224	1228	1228	1230	1230	1235	1238	1238	1242	1246	1246	1250	1252	1252	1252	1255	1255	1256	1256	1256	1256	1256	1256	1256	1256	1256	1256	1256	1256	1256	1256	1256	1257	1257	1257	1258	1258	1258	1258	1260	1260	1261	1262	1262	1261	1261	1261	1261	1261	1261	1261	1261	1261	1261	1260	1260	1258	1258	1258	1257	1257	1257	1257	1257	1258	1258	1260	1262	1262	1265	1266	1266	1267	1269	1269	1272	1273	1273	1272	1272	1268	1268	1268	1268	1268	1268	1269	1269	1269	1273	1273	1281	1281	1288	1298	1298	1301	1301	1313	0	0	1391	1391	1391	1435	1435	1445	1445	1469	1469	1482	1486	1486	1487	1491	1491	1492	1494	1494	1496	1497	1497	1501	1503	1503	1508	1508	1511	1517	1517	1518	1520	1520	1524	1525	1525	1531	1533	1533	1536	1538	1538	1538	1540	1540	1540	1542	1542	0	0	0	0	0	0	0	0	0	2074	2074	2074	2081	2087	2087	2091	2091	2091	2094	2097	2097	2101	2104	2104	2108	2108	2108	2108	2111	2111	2114	2114	2114	2118	2121	2121	2118	2118	2118	2118	2118	2114	2111	2111	2108	2108	2108	2108	2108	2108	2108	2108	2108	2108	2104	2104	2108	2108	2108	2108	2108	2108	2111	2111	2111	2114	2114	2114	2114	2114	2118	2118	2118	2118	2118	2118	2114	2114	2111	2111	2111	2108	2108	2108	2108	2108	2108	2108	2108	2108	2108	2108	2108	2108	2108	2108	2108	2108	2108	2108	2108	2108	2108	2108	2108	2108	2108	2108	2108	2108	2104	2104	2104	2104	2104	2104	2104	2104	2104	2104	2101	2101	2101	2101	2101	2101	2097	2097	2097	2097	2097	2097	2097	2097	2097	2097	2097	2097	2097	2097	2097	2094	2094	2094	2094	2094	2094	2091	2091	2091	2091	2091	2091	2087	2087	2087	2087	2087	2087	2087	2087	2087	2087	2087	2087	2087	2087	2091	2091	2091	2091	2091	2091	2091	2091	2091	2091	2091	2091	2091	2091	2091	2091	2091	2091	2091	2091	2091	2091	2091	2091	2091	2091	2091	2091	2091	2091	2091	2094	2094	2094	2094	2094	2094	2094	2094	2094	2094	2094	2094	2091	2091	2091	2091	2094	2094	2094	2094	2094	2094	2094	2094	2094	2094	2094	2094	2094	2094	2091	2091	2091	2091	2094	2094	2094	2094	2094	2094	2094	2094	2094	2094	2094	2094	2094	2094	2094	2094	2094	2091	2091	2091	2091	2087	2087	2084	2081	2081	2077	2074	2074	2071	2071	2071	2071	2064	2064	2064	2064	2064	2064	2064	2064	2064	2064	2071	2074	2074	2077	2084	2084	2087	2091	2091	2091	2094	2094	2097	2097	2097	2101	2104	2104	2108	2114	2114	2135	2135	0	0	0	0	0	0	0	0	0	2785	2785	2791	2791	2797	2797	2797	2803	2809	2809	2815	2815	2815	2821	2821	2821	2821	2821	2821	2821	2821	2821	2821	2821	2821	2821	2821	2821	2821	2821	2827	2827	2833	0	0	0	0	0	0	0	0	0	0	0	0	0	0	0	0	0	0	0	0	0	0	0	0	0	0	0	0	0	0	0	0	0	0	0	0	0	0	0	0	0	0	0	0	0	0	0	0	0	0	0	0	0	0	0	0	0	0	0	0	0	0	0	0	0	0	0	0	0	0	0	0	0	0	0	0	0	0	0	0	0	0	0	0	0	0	0	0	0	0	0	0	0	0	0	0	0	0	0	0	0	0
0	0	0	0	0	0	0	0	0	0	0	0	0	0	0	0	0	1268	1268	1269	1269	1272	1273	1273	1276	1277	1277	1277	1277	1277	1277	1277	1277	1276	1273	1273	1273	1272	1272	1272	1272	1272	1269	1269	1269	1268	1268	1268	1268	1268	1268	1268	1268	1269	1269	1269	1269	1272	1272	1272	1272	1272	1273	1273	1273	1276	1276	1276	1276	1276	1276	1277	1277	1277	1277	1277	1277	1277	1277	1277	1276	1276	1276	1276	1276	1276	1273	1273	1273	1273	1273	1273	1272	1269	1269	1267	1265	1262	1262	1261	1258	1258	1257	1256	1256	1255	1254	1252	1252	1250	1245	1235	1235	1227	1221	1217	1217	1208	1195	1189	1189	1186	1183	1182	1182	1182	1181	1181	1181	1181	1181	1181	1182	1183	1182	1182	1154	1154	0	0	1065	1065	1065	1066	1067	1067	1068	1072	1072	1073	1073	1075	1075	1075	1075	0	0	0	0	0	0	0	0	0	0	0	0	0	1183	1183	1183	1183	1182	1179	1179	1178	1174	1171	1171	1168	1161	1161	1159	1156	1155	1155	1154	1154	0	1151	1149	1149	1146	1146	1146	1146	1146	1148	1149	1149	1151	1153	1153	1155	1155	1160	1170	1170	1178	1178	1182	1186	1186	1190	1195	1195	1202	1202	1206	1213	1213	1216	1219	1219	1221	1223	1223	1224	1227	1227	1229	1229	1231	1235	1235	1241	1243	1243	1246	1250	1250	1251	1252	1252	1252	1254	1254	1254	1254	1252	1252	1252	1252	1252	1252	1250	1249	1249	1249	1246	1245	1245	1245	1243	1243	1242	1242	1243	1243	1246	1250	1250	1252	1255	1255	1256	1257	1257	1258	1258	1258	1258	1258	1258	1257	1257	1257	1257	1257	1256	1256	1257	1257	1258	1261	1261	1261	1262	1262	1262	1263	1263	1265	1266	1265	1263	1262	1262	1262	1262	1262	1262	1262	1263	1263	1265	1268	1268	1279	1279	1288	1298	1298	1301	1301	1313	1345	1379	1379	1391	1391	1435	1435	1445	1445	1469	1469	1482	1486	1486	1487	1491	1491	1492	1494	1494	1496	1497	1497	1501	1503	1503	1508	1508	1511	1517	1517	1518	1520	1520	1524	1525	1525	1531	1533	1533	1536	1538	1538	1538	1540	1540	1540	1542	1542	0	0	0	0	0	0	0	0	0	2074	2074	2074	2081	2087	2087	2091	2094	2094	2094	2097	2097	2104	2108	2108	2108	2111	2111	2111	2114	2114	2118	2118	2118	2121	2125	2125	2125	2125	2125	2121	2121	2121	2118	2118	2114	2114	2114	2111	2111	2111	2108	2108	2108	2108	2108	2108	2108	2108	2111	2111	2111	2111	2114	2114	2118	2118	2118	2121	2121	2121	2121	2121	2121	2121	2121	2121	2118	2118	2118	2114	2114	2114	2111	2111	2111	2111	2111	2111	2111	2111	2111	2111	2111	2111	2111	2111	2111	2111	2111	2111	2111	2111	2111	2111	2111	2111	2108	2108	2108	2108	2108	2108	2108	2104	2104	2104	2104	2104	2104	2104	2104	2104	2104	2104	2104	2104	2101	2101	2101	2101	2101	2097	2097	2097	2097	2097	2097	2097	2097	2097	2097	2097	2094	2094	2094	2094	2094	2094	2094	2094	2091	2091	2091	2091	2091	2091	2091	2091	2091	2091	2091	2091	2091	2091	2091	2091	2091	2094	2094	2094	2094	2094	2094	2094	2094	2094	2094	2094	2094	2094	2094	2094	2094	2094	2091	2091	2091	2091	2091	2091	2091	2094	2094	2094	2094	2094	2094	2094	2097	2097	2097	2097	2097	2097	2101	2101	2101	2101	2097	2097	2097	2097	2097	2094	2094	2094	2094	2094	2094	2094	2094	2094	2094	2094	2094	2094	2094	2094	2091	2091	2091	2091	2094	2094	2094	2094	2094	2094	2094	2094	2094	2094	2094	2094	2094	2094	2094	2091	2091	2091	2091	2091	2087	2084	2084	2081	2077	2077	2077	2074	2074	2071	2071	2064	2064	2064	2064	2064	2064	2064	2064	2064	2064	2064	2064	2071	2074	2074	2077	2084	2084	2087	2091	2091	2091	2094	2094	2097	2097	2097	2101	2104	2104	2108	2114	2114	2135	2135	0	0	0	0	0	0	0	0	0	2785	2785	2791	2791	2797	2797	2797	2803	2809	2809	2815	2815	2815	2821	2821	2821	2821	2821	2821	2821	2821	2821	2821	2821	2821	2821	2821	2821	2821	2821	2827	2827	2833	0	0	0	0	0	0	0	0	0	0	0	0	0	0	0	0	0	0	0	0	0	0	0	0	0	0	0	0	0	0	0	0	0	0	0	0	0	0	0	0	0	0	0	0	0	0	0	0	0	0	0	0	0	0	0	0	0	0	0	0	0	0	0	0	0	0	0	0	0	0	0	0	0	0	0	0	0	0	0	0	0	0	0	0	0	0	0	0	0	0	0	0	0	0	0	0	0	0	0	0	0	0
0	0	0	0	0	0	0	0	0	0	0	0	0	0	0	1261	1261	1261	1263	1265	1265	1266	1268	1268	1268	1269	1269	1269	1272	1272	1272	1272	1272	1272	1269	1269	1268	1268	1268	1268	1267	1267	1267	1266	1266	1266	1266	1266	1266	1266	1266	1266	1266	1267	1267	1267	1267	1267	1267	1268	1268	1268	1268	1268	1268	1269	1269	1269	1269	1272	1269	1269	1269	1269	1269	1269	1269	1269	1269	1269	1269	1269	1269	1269	1269	1269	1268	1268	1268	1268	1267	1267	1265	1262	1261	1261	1260	1257	1257	1256	1255	1255	1251	1249	1246	1246	1245	1243	1243	1241	1235	1228	1228	1223	1219	1213	1213	1202	1193	1188	1184	1184	1182	1180	1180	1180	1178	1178	1177	1177	1178	1177	1170	1170	1182	1182	1062	1061	1061	1061	1061	1062	1062	1062	1063	1063	1064	1067	1067	1068	1070	1070	1075	1075	1075	0	0	0	0	0	0	0	0	1181	1181	1181	1183	1183	1183	1183	1183	1183	1181	1178	1178	1177	1174	1171	1171	1168	1161	1161	1158	1155	1153	1153	1151	1151	0	1148	1146	1144	1144	1144	1144	1145	1145	1147	1149	1149	1151	1154	1154	1157	1157	1163	1174	1174	1181	1181	1184	1188	1188	1192	1197	1197	1204	1204	1210	1214	1214	1217	1220	1220	1221	1223	1223	1224	1227	1227	1229	1229	1231	1235	1235	1241	1243	1243	1246	1250	1250	1251	1252	1252	1252	1254	1254	1254	1254	1252	1252	1252	1252	1252	1252	1250	1249	1249	1249	1246	1245	1245	1245	1243	1243	1242	1242	1243	1243	1246	1250	1250	1252	1255	1255	1256	1257	1257	1258	1258	1258	1258	1258	1258	1257	1257	1257	1257	1257	1256	1256	1257	1257	1258	1258	1258	1258	1258	1258	1260	1260	1260	1260	1260	1260	1260	1258	1258	1258	1258	1258	1258	1260	1261	1261	1261	1265	1265	1277	1277	1289	1301	1301	1309	1309	1345	1345	1379	1379	1398	1398	1438	1438	1449	1449	1474	1474	1482	1487	1487	1491	1492	1492	1494	1497	1497	1499	1499	1501	1503	1503	1508	1511	1511	1517	1518	1518	1520	1524	1524	1525	1529	1529	1531	1534	1534	1536	1538	1538	1540	1540	1540	1542	1542	1542	0	0	0	0	0	0	0	0	0	2077	2077	2077	2084	2091	2091	2091	2094	2094	2094	2097	2097	2104	2108	2108	2108	2111	2111	2111	2114	2114	2118	2118	2118	2121	2125	2125	2125	2125	2125	2121	2121	2121	2118	2118	2114	2114	2114	2111	2111	2111	2108	2108	2108	2108	2108	2108	2108	2108	2111	2111	2111	2111	2114	2114	2118	2118	2118	2121	2121	2121	2121	2121	2121	2121	2121	2121	2118	2118	2118	2114	2114	2114	2111	2111	2111	2111	2111	2111	2111	2111	2111	2111	2111	2111	2111	2111	2111	2111	2111	2111	2111	2111	2111	2111	2111	2111	2108	2108	2108	2108	2111	2111	2108	2108	2108	2108	2108	2108	2108	2108	2108	2108	2108	2108	2108	2104	2104	2104	2104	2104	2104	2104	2101	2101	2101	2101	2101	2097	2097	2097	2097	2097	2097	2097	2094	2094	2094	2094	2094	2094	2094	2094	2094	2094	2094	2094	2094	2094	2094	2094	2094	2094	2094	2094	2094	2094	2094	2097	2097	2097	2097	2097	2097	2097	2097	2097	2097	2097	2097	2094	2094	2094	2094	2094	2094	2094	2094	2094	2094	2094	2094	2094	2094	2094	2097	2097	2097	2097	2101	2101	2101	2104	2104	2104	2104	2104	2108	2108	2104	2104	2104	2104	2104	2104	2104	2097	2097	2097	2097	2097	2097	2097	2097	2097	2097	2094	2094	2094	2094	2094	2094	2094	2094	2094	2094	2094	2094	2094	2094	2094	2094	2094	2094	2094	2094	2094	2094	2091	2091	2091	2087	2087	2087	2081	2081	2081	2077	2077	2074	2071	2071	2071	2071	2064	2064	2064	2064	2064	2064	2064	2064	2064	2064	2071	2071	2074	2074	2074	2077	2084	2084	2087	2091	2091	2094	2094	2094	2097	2101	2101	2104	2104	2104	2108	2125	2125	2160	2160	0	0	0	0	0	0	0	0	0	2785	2785	2791	2791	2797	2797	2797	2803	2809	2809	2809	2815	2815	2815	2815	2815	2815	2815	2815	2815	2815	2815	2815	2815	2815	2815	2815	2815	2815	2815	2821	2821	2833	0	0	0	0	0	0	0	0	0	0	0	0	0	0	0	0	0	0	0	0	0	0	0	0	0	0	0	0	0	0	0	0	0	0	0	0	0	0	0	0	0	0	0	0	0	0	0	0	0	0	0	0	0	0	0	0	0	0	0	0	0	0	0	0	0	0	0	0	0	0	0	0	0	0	0	0	0	0	0	0	0	0	0	0	0	0	0	0	0	0	0	0	0	0	0	0	0	0	0	0	0	0
0	0	0	0	0	0	0	0	0	0	0	0	0	0	0	1261	1261	1261	1263	1265	1265	1266	1268	1268	1268	1269	1269	1269	1272	1272	1272	1272	1272	1272	1269	1269	1268	1268	1268	1268	1267	1267	1267	1266	1266	1266	1266	1266	1266	1266	1266	1266	1266	1267	1267	1267	1267	1267	1267	1268	1268	1268	1268	1268	1268	1269	1269	1269	1269	1272	1269	1269	1269	1269	1269	1269	1269	1269	1269	1269	1269	1269	1269	1269	1269	1269	1268	1268	1268	1268	1267	1267	1265	1262	1256	1256	1255	1251	1251	1249	1245	1242	1242	1238	1237	1237	1237	1234	1230	1230	1228	1223	1223	1220	1215	1208	1199	1199	1191	1187	1184	1184	1180	1179	1179	1177	1174	1174	1172	1172	1168	1168	1159	1159	0	0	1062	1061	1061	1061	1061	1061	1060	1060	1060	1060	1061	1062	1062	1063	1066	1066	1068	1075	0	0	0	0	0	0	0	0	0	1180	1180	1181	1183	1183	1183	1183	1183	0	1180	1178	1178	1177	1174	1171	1171	1166	1160	1160	1157	1154	1152	1152	1150	1148	1148	1146	1144	1142	1142	1142	1144	1145	1145	1147	1150	1150	1151	1153	1154	1157	1157	1163	1174	1174	1181	1181	1184	1188	1188	1192	1197	1197	1204	1204	1210	1214	1214	1217	1220	1220	1221	1223	1223	1224	1225	1225	1228	1229	1229	1231	1231	1237	1241	1241	1242	1243	1243	1246	1249	1249	1249	1249	1249	1249	1249	1249	1246	1246	1245	1242	1237	1237	1231	1229	1227	1227	1224	1223	1223	1221	1221	1221	1221	1222	1224	1224	1227	1231	1231	1237	1245	1245	1250	1250	1254	1256	1256	1256	1257	1257	1257	1257	1256	1256	1256	1256	1256	1256	1256	1256	1258	1258	1258	1258	1258	1260	1260	1260	1260	1260	1260	1260	1258	1258	1258	1258	1258	1258	1260	1261	1261	1261	1265	1265	1277	1277	1291	1301	1301	1331	1331	1352	1352	1385	1385	1413	1413	1441	1441	1454	1454	1474	1474	1484	1487	1487	1491	1494	1494	1497	1497	1501	1503	1503	1506	1511	1511	1513	1517	1517	1520	1520	1520	1524	1525	1525	1529	1531	1531	1533	1534	1534	1536	1540	1540	1540	1542	1542	1542	1543	1543	0	0	0	0	0	0	0	0	0	2081	2081	2081	2087	2091	2091	2094	2097	2097	2097	2104	2104	2104	2108	2108	2111	2114	2114	2118	2118	2118	2121	2125	2125	2125	2128	2128	2128	2128	2128	2128	2128	2128	2125	2125	2121	2121	2121	2118	2118	2118	2118	2114	2114	2114	2114	2114	2114	2114	2114	2114	2114	2118	2118	2118	2121	2125	2125	2125	2125	2125	2128	2128	2128	2128	2128	2125	2125	2125	2121	2121	2121	2118	2118	2118	2118	2118	2114	2114	2114	2118	2118	2118	2118	2118	2118	2118	2118	2118	2118	2118	2118	2118	2118	2118	2114	2114	2114	2111	2111	2111	2111	2111	2108	2108	2108	2108	2108	2108	2108	2108	2108	2108	2108	2108	2108	2104	2104	2104	2104	2104	2104	2104	2101	2101	2101	2101	2101	2097	2097	2097	2097	2097	2097	2097	2094	2094	2094	2094	2094	2094	2094	2094	2094	2094	2094	2094	2094	2094	2094	2094	2094	2094	2094	2094	2094	2094	2094	2097	2097	2097	2097	2097	2097	2097	2097	2097	2097	2097	2097	2094	2094	2094	2094	2094	2094	2094	2094	2094	2094	2094	2094	2094	2094	2094	2097	2097	2097	2097	2101	2101	2101	2104	2104	2104	2111	2111	2114	2114	2111	2111	2111	2108	2108	2108	2108	2104	2104	2104	2101	2101	2101	2097	2097	2097	2097	2097	2097	2097	2097	2097	2097	2097	2097	2097	2097	2097	2097	2097	2097	2094	2094	2094	2094	2094	2094	2094	2094	2091	2091	2091	2087	2087	2087	2081	2081	2081	2077	2077	2074	2071	2071	2071	2071	2064	2064	2064	2064	2064	2064	2064	2064	2064	2071	2071	2071	2074	2077	2077	2081	2084	2084	2087	2091	2091	2094	2097	2097	2097	2101	2101	2104	2108	2108	2108	2128	2128	2192	2192	0	0	0	0	0	0	0	0	0	2791	2791	2791	2791	2797	2803	2803	2803	2809	2809	2809	2815	2815	2815	2815	2815	2815	2815	2815	2809	2809	2809	2809	2809	2809	2809	2809	2809	2809	2815	2821	2821	0	0	0	0	0	0	0	0	0	0	0	0	0	0	0	0	0	0	0	0	0	0	0	0	0	0	0	0	0	0	0	0	0	0	0	0	0	0	0	0	0	0	0	0	0	0	0	0	0	0	0	0	0	0	0	0	0	0	0	0	0	0	0	0	0	0	0	0	0	0	0	0	0	0	0	0	0	0	0	0	0	0	0	0	0	0	0	0	0	0	0	0	0	0	0	0	0	0	0	0	0	0	0
0	0	0	0	0	0	0	0	0	0	0	0	1258	1258	1258	1258	1258	1258	1260	1261	1261	1261	1262	1263	1263	1265	1266	1266	1266	1267	1267	1267	1267	1267	1266	1266	1266	1265	1265	1265	1265	1265	1265	1265	1265	1265	1263	1263	1263	1263	1263	1263	1263	1263	1263	1263	1263	1265	1265	1265	1265	1265	1266	1266	1266	1267	1267	1267	1267	1267	1267	1267	1267	1267	1267	1267	1267	1266	1266	1266	1266	1266	1266	1266	1265	1265	1263	1262	1262	1262	1261	1260	1260	1258	1256	1256	1255	1251	1251	1249	1245	1242	1242	1238	1237	1237	1237	1234	1230	1230	1228	1223	1223	1220	1215	1208	1199	1199	1191	1187	1184	1184	1180	1179	1179	1177	1174	1174	1172	1172	1168	1168	1159	1159	0	0	1066	1063	1063	1062	1061	1061	1060	1060	1060	1060	1061	1062	1062	1063	1066	1066	1068	0	0	0	0	0	0	0	0	0	0	1180	1180	0	1183	1183	1183	1183	0	0	1180	1178	1178	1177	1174	1171	1171	1166	1160	1160	1157	1154	1152	1152	1150	1148	1148	1146	1144	1142	1142	1142	1144	1147	1147	1149	1151	1151	1153	1153	1155	1161	1161	1171	1177	1179	1183	1183	1187	1190	1190	1195	1201	1201	1206	1206	1212	1215	1215	1219	1220	1220	1221	1222	1222	1223	1224	1224	1224	1227	1227	1229	1231	1231	1234	1234	1237	1238	1238	1241	1242	1241	1241	1241	1241	1237	1235	1235	1231	1229	1229	1225	1223	1221	1221	1219	1214	1208	1208	1206	1204	1204	1204	1204	1205	1205	1208	1215	1215	1220	1220	1223	1228	1228	1237	1243	1243	1249	1249	1252	1255	1255	1255	1256	1255	1254	1254	1254	1254	1254	1254	1255	1256	1256	1256	1256	1256	1256	1256	1256	1256	1256	1256	1256	1256	1256	1256	1256	1256	1256	1256	1257	1257	1257	1262	1262	1276	1276	1291	1301	1301	1331	1331	1352	1352	1385	1385	1413	1413	1441	1441	1454	1454	1474	1474	1484	1487	1487	1491	1494	1494	1497	1497	1501	1503	1503	1506	1511	1511	1513	1517	1517	1520	1520	1520	1524	1525	1525	1529	1531	1531	1533	1534	1534	1536	1540	1540	1540	1542	1542	1542	1543	1543	0	0	0	0	0	0	0	0	0	0	2087	2087	2091	2094	2094	2097	2101	2101	2104	2104	2104	2108	2111	2111	2118	2118	2121	2121	2121	2125	2125	2128	2128	2135	2135	2135	2139	2139	2139	2139	2139	2139	2135	2135	2128	2128	2128	2128	2125	2125	2125	2125	2125	2121	2121	2121	2121	2121	2121	2125	2121	2121	2125	2125	2125	2128	2128	2135	2135	2135	2135	2139	2135	2135	2135	2135	2128	2128	2128	2125	2125	2125	2125	2125	2125	2125	2125	2121	2121	2121	2121	2121	2121	2125	2125	2125	2125	2125	2125	2125	2125	2125	2125	2121	2121	2121	2118	2118	2118	2114	2114	2114	2114	2111	2111	2111	2111	2111	2111	2111	2111	2111	2111	2111	2111	2108	2108	2108	2108	2108	2108	2104	2104	2104	2104	2104	2104	2104	2101	2101	2097	2097	2097	2097	2097	2097	2097	2097	2097	2097	2097	2094	2094	2094	2094	2094	2094	2097	2097	2097	2097	2097	2097	2097	2097	2097	2097	2101	2101	2101	2101	2101	2101	2101	2101	2101	2101	2101	2101	2097	2097	2097	2097	2097	2097	2094	2094	2094	2094	2094	2094	2097	2097	2097	2097	2101	2101	2101	2104	2104	2104	2108	2108	2108	2111	2111	2114	2114	2111	2111	2111	2108	2108	2108	2108	2104	2104	2104	2101	2101	2101	2097	2097	2097	2097	2097	2097	2097	2097	2097	2097	2097	2097	2097	2097	2097	2097	2097	2097	2094	2094	2094	2094	2094	2094	2094	2094	2091	2091	2091	2087	2087	2087	2081	2081	2081	2077	2077	2074	2071	2071	2071	2071	2064	2064	2064	2064	2064	2064	2064	2064	2064	2071	2071	2071	2074	2077	2077	2081	2084	2084	2087	2091	2091	2094	2097	2097	2097	2101	2101	2104	2108	2108	2108	2128	2128	2192	2192	0	0	0	0	0	0	0	0	0	2791	2791	2791	2791	2797	2803	2803	2803	2809	2809	2809	2815	2815	2815	2815	2815	2815	2815	2815	2809	2809	2809	2809	2809	2809	2809	2809	2809	2809	0	0	0	0	0	0	0	0	0	0	0	0	0	0	0	0	0	0	0	0	0	0	0	0	0	0	0	0	0	0	0	0	0	0	0	0	0	0	0	0	0	0	0	0	0	0	0	0	0	0	0	0	0	0	0	0	0	0	0	0	0	0	0	0	0	0	0	0	0	0	0	0	0	0	0	0	0	0	0	0	0	0	0	0	0	0	0	0	0	0	0	0	0	0	0	0	0	0	0	0	0	0	0	0	0	0
0	0	0	0	0	0	0	0	1256	1256	1256	1256	1256	1256	1256	1257	1257	1257	1257	1258	1260	1260	1260	1261	1261	1261	1262	1262	1262	1262	1262	1263	1263	1263	1263	1263	1263	1263	1263	1262	1262	1262	1262	1262	1262	1262	1262	1262	1262	1262	1262	1262	1262	1262	1262	1262	1262	1262	1262	1262	1263	1263	1263	1263	1263	1263	1263	1263	1263	1263	1263	1263	1263	1265	1265	1265	1265	1263	1262	1262	1262	1262	1262	1261	1260	1260	1258	1258	1257	1257	1256	1255	1255	1251	1250	1250	1245	1242	1238	1238	1235	1231	1231	1230	1229	1229	1229	1228	1225	1225	1224	1221	1221	1219	1214	1206	1199	1199	1191	1187	1183	1183	1179	1177	1177	1174	1171	1170	1170	1168	1163	1156	1156	1149	1131	1092	1066	1063	1063	1062	1061	1061	1057	1057	1060	1060	1060	1061	1061	1061	1065	1065	1068	1077	1077	0	0	0	0	0	0	0	0	1180	1180	0	1183	1183	1183	1183	1182	1182	1180	1178	1178	1177	1174	1170	1170	1164	1160	1156	1156	1153	1151	1151	1150	1149	1149	1147	1147	1147	1147	1147	1149	1149	1151	1152	1152	1154	1156	1156	1161	1170	1170	1177	1177	1183	1186	1186	1189	1193	1193	1201	1201	1205	1210	1210	1214	1216	1216	1219	1220	1220	1221	1222	1222	1223	1224	1224	1224	1227	1227	1229	1231	1231	1234	1234	1237	1238	1238	1241	1242	1241	1241	1241	1241	1237	1235	1235	1231	1229	1229	1225	1223	1221	1221	1219	1214	1208	1208	1206	1204	1204	1204	1204	1205	1205	1208	1215	1215	1220	1220	1223	1228	1228	1237	1243	1243	1249	1249	1252	1255	1250	1250	1251	1251	1250	1249	1249	1249	1249	1250	1250	1250	1250	1250	1250	1250	1250	1250	1250	1250	1250	1250	1250	1250	1250	1250	1250	1250	1250	1252	1252	1252	1254	1261	1261	1273	1276	1292	0	0	1340	1340	1365	1365	1378	1389	1415	1415	1427	1437	1454	1454	1474	1474	1484	1491	1491	1492	1494	1496	1499	1499	1503	1508	1508	1511	1513	1513	1517	1520	1520	1524	1524	1524	1525	1529	1529	1529	1531	1531	1533	1536	1536	1538	1540	1540	1540	1542	1542	1542	1543	1543	0	0	0	0	0	0	0	0	0	0	2087	2087	2091	2094	2094	2097	2101	2101	2104	2104	2104	2108	2111	2111	2118	2118	2121	2121	2121	2125	2125	2128	2128	2135	2135	2135	2139	2139	2139	2139	2139	2139	2135	2135	2128	2128	2128	2128	2125	2125	2125	2125	2125	2121	2121	2121	2121	2121	2121	2125	2121	2121	2125	2125	2125	2128	2128	2135	2135	2135	2135	2139	2135	2135	2135	2135	2128	2128	2128	2125	2125	2125	2125	2125	2125	2125	2125	2121	2121	2121	2121	2121	2121	2125	2125	2125	2125	2125	2125	2128	2128	2128	2128	2128	2125	2125	2125	2121	2121	2121	2118	2118	2118	2118	2118	2118	2118	2118	2118	2118	2118	2118	2118	2114	2114	2114	2114	2114	2111	2108	2108	2108	2108	2108	2104	2104	2104	2104	2101	2101	2101	2101	2097	2097	2097	2097	2097	2097	2097	2097	2097	2097	2097	2097	2097	2097	2097	2097	2101	2101	2101	2104	2104	2104	2104	2104	2104	2104	2104	2108	2108	2108	2108	2108	2108	2104	2104	2104	2104	2101	2101	2101	2101	2101	2097	2097	2097	2097	2097	2097	2097	2097	2101	2101	2101	2104	2104	2104	2108	2108	2108	2114	2114	2114	2118	2118	2121	2121	2118	2118	2118	2114	2114	2114	2111	2108	2108	2108	2104	2104	2104	2104	2104	2104	2101	2101	2101	2097	2097	2097	2097	2097	2097	2097	2097	2097	2097	2097	2097	2097	2097	2097	2094	2094	2094	2094	2094	2091	2091	2091	2087	2087	2084	2081	2081	2077	2077	2077	2074	2071	2071	2071	2071	2071	2071	2071	2071	2074	2074	2074	2074	2074	2074	2077	2077	2077	2081	2081	2084	2087	2087	2091	2094	2094	2094	2097	2097	2101	2104	2104	2108	2111	2111	2114	2121	2160	2181	2207	0	0	0	0	2493	2493	2493	2633	2633	2785	2785	2791	2791	2791	2797	2797	2803	2803	2803	2809	2809	2809	2809	2809	2809	2803	2803	2803	2803	2797	2797	2797	2797	2797	2797	2797	2809	2809	0	0	0	0	0	0	0	0	0	0	0	0	0	0	0	0	0	0	0	0	0	0	0	0	0	0	0	0	0	0	0	0	0	0	0	0	0	0	0	0	0	0	0	0	0	0	0	0	0	0	0	0	0	0	0	0	0	0	0	0	0	0	0	0	0	0	0	0	0	0	0	0	0	0	0	0	0	0	0	0	0	0	0	0	0	0	0	0	0	0	0	0	0	0	0	0	0	0	0	0	0	0	0	0	0	0
0	0	0	0	0	0	0	0	1256	1256	1256	1256	1256	1256	1256	1257	1257	1257	1257	1258	1260	1260	1260	1261	1261	1261	1262	1262	1262	1262	1262	1263	1263	1263	1263	1263	1263	1263	1263	1262	1262	1262	1262	1262	1262	1262	1262	1262	1262	1262	1262	1262	1262	1262	1262	1262	1262	1262	1262	1262	1263	1263	1263	1263	1263	1263	1263	1263	1263	1263	1263	1263	1263	1265	1265	1265	1265	1263	1262	1262	1262	1262	1262	1256	1255	1254	1254	1252	1250	1250	1249	1245	1245	1242	1238	1235	1235	1231	1229	1229	1227	1224	1224	1224	1223	1223	1223	1223	1223	1223	1221	1220	1216	1216	1210	1204	1195	1195	1190	1186	1183	1183	1179	1175	1175	1172	1170	1168	1168	1164	1161	1156	1156	1149	1131	1092	1092	1078	1068	1064	1061	1061	1057	1057	1060	1058	1058	1061	1061	1061	1065	1065	0	1075	1075	0	0	1119	1119	0	0	0	0	0	0	0	1183	1183	1183	1182	1181	1181	1181	1178	1178	1177	1174	1170	1170	1164	1160	1156	1156	1153	1151	1151	1150	1149	1149	1147	1147	1147	1147	1147	1149	1149	1151	1152	1152	1154	1156	1156	1161	1170	1170	1177	1177	1183	1186	1186	1189	1193	1193	1201	1201	1205	1210	1210	1214	1216	1216	1219	1220	1220	1221	1221	1221	1222	1222	1222	1223	1224	1224	1224	1227	1227	1229	1230	1230	1231	1231	1231	1229	1229	1228	1225	1225	1223	1221	1220	1220	1219	1215	1215	1210	1205	1199	1199	1192	1190	1188	1188	1188	1204	1204	1204	1189	1189	1189	1193	1202	1202	1220	1220	1220	1224	1224	1229	1229	1237	1243	1243	1246	1250	1250	1251	1251	1250	1249	1249	1249	1249	1250	1250	1250	1250	1250	1250	1250	1250	1250	1250	1250	1250	1250	1250	1250	1250	1250	1250	1250	1250	1252	1252	1252	1254	1261	1261	1273	1293	1293	0	0	1340	1340	1378	1378	1378	1397	1427	1427	1427	1437	1457	1457	1474	1474	1484	1491	1491	1494	1494	1499	1503	1503	1506	1511	1511	1513	1517	1517	1520	1524	1524	1524	1525	1525	1529	1531	1531	1531	1533	1533	1534	1536	1536	1540	1540	1540	1542	1542	1542	1543	1543	1543	1549	0	0	0	0	0	0	0	0	0	2091	2091	2094	2094	2097	2104	2104	2104	2108	2108	2108	2114	2114	2118	2121	2121	2125	2128	2128	2128	2135	2135	2139	2146	2146	2146	2149	2149	2149	2149	2149	2149	2146	2146	2146	2139	2139	2139	2135	2135	2135	2135	2135	2135	2128	2128	2128	2128	2128	2128	2128	2135	2135	2135	2135	2135	2139	2139	2139	2139	2146	2146	2146	2146	2146	2146	2139	2139	2139	2135	2135	2135	2135	2135	2128	2128	2128	2128	2128	2128	2128	2128	2128	2128	2128	2135	2135	2135	2128	2128	2128	2128	2128	2128	2125	2125	2125	2121	2121	2121	2118	2118	2118	2118	2118	2118	2118	2118	2118	2118	2118	2118	2118	2114	2114	2114	2114	2114	2111	2108	2108	2108	2108	2108	2104	2104	2104	2104	2101	2101	2101	2101	2097	2097	2097	2097	2097	2097	2097	2097	2097	2097	2097	2097	2097	2097	2097	2097	2101	2101	2101	2104	2104	2104	2104	2104	2104	2104	2104	2108	2108	2108	2108	2108	2108	2104	2104	2104	2104	2101	2101	2101	2101	2101	2097	2097	2097	2097	2097	2097	2097	2097	2101	2101	2101	2108	2108	2108	2111	2111	2114	2118	2118	2125	2125	2125	2128	2128	2128	2125	2125	2121	2118	2118	2114	2111	2108	2108	2108	2104	2104	2104	2104	2104	2101	2101	2101	2101	2097	2097	2097	2097	2097	2097	2097	2097	2097	2097	2097	2097	2097	2097	2094	2094	2094	2094	2094	2091	2091	2091	2087	2087	2084	2081	2081	2077	2077	2077	2074	2074	2074	2074	2071	2071	2071	2074	2074	2074	2077	2077	2077	2077	2081	2081	2081	2084	2087	2087	2087	2091	2091	2091	2094	2094	2097	2101	2101	2104	2108	2108	2114	2114	2114	2121	2121	2181	2181	2222	2245	0	0	0	2493	2493	2493	2633	2633	2773	2773	2773	2773	2779	2791	2791	2791	2797	2797	2797	2797	2797	2797	2797	2797	2791	2791	2791	2791	2785	2785	2785	2785	2785	2785	2797	0	0	0	0	0	0	0	0	0	0	0	0	0	0	0	0	0	0	0	0	0	0	0	0	0	0	0	0	0	0	0	0	0	0	0	0	0	0	0	0	0	0	0	0	0	0	0	0	0	0	0	0	0	0	0	0	0	0	0	0	0	0	0	0	0	0	0	0	0	0	0	0	0	0	0	0	0	0	0	0	0	0	0	0	0	0	0	0	0	0	0	0	0	0	0	0	0	0	0	0	0	0	0	0	0	0	0	0
0	0	0	0	0	0	0	0	1256	1255	1255	1254	1254	1256	1256	1256	1256	1256	1256	1257	1257	1257	1257	1258	1258	1258	1260	1260	1260	1261	1261	1261	1261	1261	1262	1262	1262	1262	1262	1262	1261	1261	1261	1261	1261	1261	1261	1261	1261	1261	1261	1261	1261	1261	1261	1261	1261	1261	1261	1261	1261	1261	1262	1262	1262	1262	1262	1262	1262	1262	1262	1262	1261	1261	1261	1261	1261	1260	1258	1258	1258	1257	1257	1256	1255	1254	1254	1252	1250	1250	1249	1245	1245	1242	1238	1235	1235	1231	1229	1229	1227	1224	1224	1224	1223	1223	1223	1223	1223	1223	1221	1220	1216	1216	1210	1204	1195	1195	1190	1186	1183	1183	1179	1175	1175	1172	1170	1168	1168	1164	1161	1161	1161	0	0	0	1101	1091	1079	1068	1062	1062	1058	1058	0	1058	1058	0	1061	1061	0	0	0	1075	1075	0	0	1119	1119	0	0	0	0	0	0	0	1183	1183	1183	1182	1181	1181	1181	1178	1178	1177	1174	1170	1170	1164	1160	1160	1158	1155	1154	1154	1154	1152	1152	1152	1152	1152	1152	1152	1153	1153	1155	1156	1156	1158	1163	1163	1170	1177	1177	1182	1182	1186	1189	1189	1192	1199	1199	1205	1205	1210	1213	1213	1215	1217	1217	1219	1220	1220	1220	1220	1220	1220	1221	1221	1221	1222	1222	1223	1224	1224	1225	1225	1225	1225	1225	1224	1223	1223	1222	1220	1216	1216	1210	1205	1199	1199	1194	1190	1190	1188	1188	1199	1192	1180	1179	1179	1177	1177	1177	1177	1177	1179	1179	1183	1188	1188	1194	1205	1205	1216	1216	1221	1225	1225	1231	1231	1238	1243	1243	1245	1245	1245	1243	1243	1243	1243	1243	1243	1242	1242	1242	1241	1241	1241	1241	1242	1241	1241	1241	1242	1242	1242	1242	1242	1243	1246	1246	1246	1249	1249	1260	1260	1273	1277	1293	0	0	1340	1340	1348	1378	1378	1397	1409	1427	1427	1437	1454	1454	1474	1474	1484	1491	1491	1494	1494	1499	1503	1503	1506	1511	1511	1513	1517	1517	1520	1524	1524	1524	1525	1525	1529	1531	1531	1531	1533	1533	1534	1536	1536	1540	1540	1540	1542	1542	1542	1543	1547	1547	1549	0	0	0	0	0	0	0	0	0	0	2097	2097	2097	2104	2108	2108	2108	2114	2114	2118	2118	2118	2125	2128	2128	2135	2135	2135	2139	2139	2139	2146	2149	2149	2156	2160	2160	2160	2160	2156	2156	2156	2156	2156	2156	2156	2149	2146	2146	2146	2146	2146	2139	2139	2139	2139	2139	2139	2139	2139	2139	2139	2139	2146	2146	2149	2149	2149	2149	2149	2149	2149	2149	2149	2149	2149	2149	2146	2146	2146	2146	2139	2139	2139	2139	2139	2139	2139	2139	2139	2139	2139	2139	2139	2139	2139	2139	2139	2139	2139	2135	2135	2135	2135	2135	2128	2128	2128	2125	2125	2125	2125	2121	2121	2121	2121	2125	2125	2125	2125	2125	2121	2121	2121	2121	2118	2118	2114	2111	2111	2111	2108	2108	2108	2104	2104	2104	2104	2104	2104	2104	2104	2101	2101	2101	2101	2101	2101	2101	2101	2101	2104	2104	2104	2104	2104	2104	2104	2104	2104	2104	2104	2108	2108	2108	2108	2108	2108	2111	2111	2111	2111	2111	2111	2111	2111	2108	2108	2104	2104	2104	2104	2104	2104	2101	2101	2101	2101	2101	2101	2104	2104	2104	2104	2108	2108	2108	2111	2111	2114	2118	2118	2125	2125	2125	2128	2128	2128	2125	2125	2121	2118	2118	2114	2111	2108	2108	2108	2104	2104	2104	2104	2104	2101	2101	2101	2101	2097	2097	2097	2097	2097	2097	2097	2097	2097	2097	2097	2097	2097	2097	2094	2094	2094	2094	2091	2091	2091	2091	2087	2087	2084	2081	2081	2077	2077	2077	2074	2074	2074	2074	2071	2071	2071	2074	2074	2074	2077	2077	2077	2077	2081	2081	2081	2084	2087	2087	2087	2091	2091	2091	2094	2094	2097	2101	2101	2104	2108	2108	2118	2118	2121	2135	2135	2203	2203	2245	2245	0	0	0	2517	2517	2517	2639	2639	2773	2773	2773	2773	2779	2791	2791	2791	2797	2797	2797	2797	2797	2797	2797	2797	2791	2791	2791	2791	2785	2785	2785	2785	2785	2785	0	0	0	0	0	0	0	0	0	0	0	0	0	0	0	0	0	0	0	0	0	0	0	0	0	0	0	0	0	0	0	0	0	0	0	0	0	0	0	0	0	0	0	0	0	0	0	0	0	0	0	0	0	0	0	0	0	0	0	0	0	0	0	0	0	0	0	0	0	0	0	0	0	0	0	0	0	0	0	0	0	0	0	0	0	0	0	0	0	0	0	0	0	0	0	0	0	0	0	0	0	0	0	0	0	0	0	0	0
0	0	0	0	0	0	0	0	1255	1252	1252	1252	1252	1254	1254	1252	1252	1254	1254	1254	1255	1255	1256	1256	1256	1256	1257	1257	1257	1258	1258	1260	1260	1260	1260	1261	1261	1261	1261	1261	1261	1261	1261	1261	1261	1261	1260	1260	1260	1260	1260	1260	1260	1260	1260	1260	1260	1260	1260	1261	1261	1261	1261	1261	1261	1261	1261	1261	1260	1260	1260	1258	1257	1257	1257	1256	1256	1256	1255	1255	1252	1251	1249	1249	1245	1243	1243	1242	1241	1237	1237	1234	1230	1230	1228	1225	1225	1224	1223	1221	1221	1221	1220	1220	1220	1220	1221	1220	1220	1220	1219	1216	1213	1213	1206	1202	1194	1194	1189	1186	1183	1183	1179	1175	1175	1172	1170	1168	1168	1164	1161	1161	1157	1157	0	0	1101	1091	1079	1068	1062	1062	1058	1058	1060	1055	1055	1058	1058	1061	1083	1083	0	1075	1075	0	0	1119	1119	0	0	0	0	0	0	0	1183	1183	1183	1182	1181	1181	1181	1178	1178	1177	1177	1177	1175	1172	1170	1170	1163	1160	1157	1157	1156	1156	1156	1156	1155	1155	1155	1156	1158	1158	1160	1163	1163	1168	1174	1174	1179	1179	1183	1186	1186	1189	1193	1193	1199	1199	1204	1210	1210	1213	1215	1215	1217	1219	1219	1219	1220	1220	1220	1220	1220	1220	1221	1221	1221	1222	1222	1223	1224	1224	1225	1225	1225	1225	1225	1224	1223	1223	1222	1220	1216	1216	1210	1205	1199	1199	1194	1190	1190	1188	1188	0	0	1180	1179	1179	1177	1177	1177	1177	1177	1179	1179	1183	1188	1188	1190	1190	1190	1201	1213	1213	1220	1220	1224	1229	1229	1235	1235	1238	1241	1241	1237	1237	1237	1237	1237	1235	1235	1235	1235	1234	1231	1231	1231	1231	1231	1231	1231	1234	1234	1234	1234	1234	1235	1237	1237	1241	1243	1243	1260	1260	1277	1277	0	0	0	1348	1348	1348	1385	1385	1409	1409	1432	1432	1440	1454	1454	1474	1474	1484	1491	1491	1496	1496	1499	1506	1506	1511	1517	1517	1518	1520	1520	1524	1525	1525	1529	1529	1529	1531	1533	1533	1533	1534	1534	1536	1538	1538	1540	1542	1542	1543	1543	1543	1545	1547	1547	1549	0	0	0	0	0	0	0	0	0	0	2097	2097	2097	2104	2108	2108	2108	2114	2114	2118	2118	2118	2125	2128	2128	2135	2135	2135	2139	2139	2139	2146	2149	2149	2156	2160	2160	2160	2160	2156	2156	2156	2156	2156	2156	2156	2149	2146	2146	2146	2146	2146	2139	2139	2139	2139	2139	2139	2139	2139	2139	2139	2139	2146	2146	2149	2149	2149	2149	2149	2149	2149	2149	2149	2149	2149	2149	2146	2146	2146	2146	2139	2139	2139	2139	2139	2139	2139	2139	2139	2149	2149	2149	2149	2149	2149	2146	2146	2146	2146	2146	2146	2139	2139	2139	2139	2135	2135	2135	2135	2135	2128	2128	2128	2128	2128	2135	2128	2128	2135	2135	2128	2128	2128	2128	2125	2125	2121	2114	2114	2114	2111	2111	2108	2108	2108	2104	2104	2104	2104	2104	2104	2104	2104	2104	2104	2104	2104	2104	2104	2104	2104	2104	2104	2108	2108	2108	2108	2108	2108	2108	2108	2111	2111	2111	2114	2114	2114	2118	2118	2118	2118	2118	2118	2118	2118	2114	2114	2114	2111	2108	2108	2108	2108	2104	2104	2104	2104	2104	2104	2108	2108	2108	2108	2108	2108	2111	2114	2114	2121	2125	2125	2128	2128	2128	2128	2128	2128	2128	2128	2125	2121	2121	2118	2114	2114	2111	2108	2108	2108	2104	2104	2104	2104	2101	2101	2097	2097	2097	2097	2097	2097	2097	2097	2097	2097	2097	2097	2097	2094	2094	2094	2094	2091	2091	2091	2091	2091	2091	2087	2087	2084	2081	2081	2081	2077	2077	2077	2074	2074	2074	2074	2074	2074	2077	2081	2081	2084	2084	2084	2084	2084	2084	2087	2091	2091	2091	2091	2091	2091	2094	2097	2097	2097	2104	2104	2108	2108	2111	2118	2118	2121	2135	2135	2203	2203	2245	2245	0	0	0	2517	2517	2517	2639	2639	2755	2755	2761	2761	2773	2773	2773	2779	2785	2785	2785	2785	2785	2785	2785	2785	2785	2785	2785	2779	2779	2779	2779	2779	2785	2785	0	0	0	0	0	0	0	0	0	0	0	0	0	0	0	0	0	0	0	0	0	0	0	0	0	0	0	0	0	0	0	0	0	0	0	0	0	0	0	0	0	0	0	0	0	0	0	0	0	0	0	0	0	0	0	0	0	0	0	0	0	0	0	0	0	0	0	0	0	0	0	0	0	0	0	0	0	0	0	0	0	0	0	0	0	0	0	0	0	0	0	0	0	0	0	0	0	0	0	0	0	0	0	0	0	0	0	0	0
