2498	2498	2501	2504	2507	2510	2517	2520	2523	2523	2530	2533	2533	2536	2539	2539	2539	2543	2543	2543	2543	2546	2549	2552	2552	2559	2562	2569	2572	2572	2572	2572	2569	2559	2556	2552	2546	2543	2539	2536	2533	2526	2523	2520	2517	2517	2513	2513	2513	2513	2517	2517	2520	2526	2530	2533	2536	2539	2549	2556	2566	2572	2579	2586	2593	2596	2599	2603	2610	2610	2613	2610	2610	2610	2610	2606	2603	2599	2596	2589	2586	2582	2579	2579	2579	2576	2572	2576	2576	2576	2576	2576	2572	2569	2566	2562	2559	2552	2549	2546	2543	2539	2533	2526	2520	2517	2510	2504	2498	2498	2498	2498	2498	2501	2504	2507	2513	2513	2517	2520	2517	2520	2523	2523	2526	2530	2530	2533	2533	2533	2530	2530	2526	2526	2526	2523	2523	2526	2526	2526	2530	2533	2539	2539	2543	2546	2549	2552	2556	2559	2562	2566	2569	2569	2569	2569	2566	2562	2559	2556	2552	2549	2543	2539	2536	2526	2523	2520	2520	2520	2517	2517	2517	2513	2517	2513	2517	2520	2520	2523	2526	2526	2530	2530	2530	2530	2526	2526	2526	2523	2520	2523	2517	2517	2517	2520	2520	2520	2520	2520	2523	2523	2526	2523	2523	2523	2523	2520	2513	2513	2510	2507	2504	2498	2498	2498	2494	2491	2494	2498	2504	2507	2510	2513	2517	2517	2517	2520	2517	2513	2510	2507	2504	2501	2498	2494	2491	2488	2491	2491	2491	2491	2494	2494	2498	2501	2504	2510	2513	2517	2520	2520	2526	2533	2536	2546	2556	2562	2579	2586	2599	2606	2610	2613	2617	2617	2613	2610	2603	2593	2586	2579	2569	2552	2549	2543	2543	2543	2543	2543	2543	2546	2552	2559	2566	2569	2572	2576	2579	2586	2586	2582	2576	2572	2569	2562	2559	2552	2549	2546	2543	2543	2539	2539	2539	2543	2543	2546	2549	2549	2549	2552	2552	2549	2549	2546	2543	2539	2533	2530	2523	2517	2507	2504	2501	2498	2494	2491	2488	2485	2485	2485	2485	2485	2488	2491	2494	2494	2498	2504	2504	2507	2513	2513	2517	2520	2523	2523	2523	2523	2523	2523	2520	2520	2520	2520	2517	2517	2517	2513	2510	2510	2507	2504	2501	2498	2491	2488	2482	2479	2476	2469	2469	2463	2463	2463	2463	2466	2469	2473	2476	2476	2476	2476	2476	2476	2473	2469	2469	2448	2418	2380	0	2099	2099	2099	2099	2099	2099	2099	2102	2102	2102	2102	2099	2102	2102	2102	2113	0	2136	2164	0	0	0	0	0	0	0	0	2488	2494	2498	2498	2504	2507	2507	2507	2507	2507	2510	2513	2520	2526	2536	2546	2559	2569	2582	2593	2606	2617	0	2627	2634	2638	2641	2641	2641	2634	2627	2620	2610	2599	2589	2579	2569	2559	2549	2543	2536	2533	2526	2526	2523	2523	2523	2526	2530	2530	2536	2539	2546	2552	2556	2559	2562	2562	2562	2562	2562	2562	2562	2559	2559	2559	2559	2556	2556	2552	2552	2552	2552	2549	2549	2549	2546	2546	2546	2543	2543	2539	2543	2546	2543	2549	2552	2559	2566	2572	2579	2582	2586	2586	2586	2582	2579	2576	2569	2566	2559	2552	2549	2543	2539	2536	2536	2530	2533	2533	2533	2536	2536	2536	2536	2533	2530	2530	2526	2526	2526	2523	2526	2523	2523	2523	2526	2526	2526	2526	2526	2526	2523	2526	2526	2530	2530	2530	2530	2523	2520	2513	2510	2504	2498	2491	2485	2482	2479	2476	2473	2469	2469	2469	2469	2469	2473	2476	2473	2469	2469	2463	2457	2454	2448	2442	2436	2433	2430	2430	2433	2436	2442	2451	2466	2482	2507	2530	2549	2566	2576	2582	2582	2582	2579	2576	2569	2562	2556	2546	2539	2530	2523	2517	2513	2510	2507	2507	2507	2510	2517	2523	2530	2536	2546	2549	2556	2559	2562	2566	2569	2569	2572	2572	2572	2569	2566	2562	2562	2559	2556	2552	2549	2549	2546	2543	2539	2539	2533	2536	2536	2536	2539	2543	2546	2543	2549	2552	2556	2559	2562	2566
2488	2488	2494	2498	2501	2504	2510	2513	2517	2520	2523	2530	2530	2530	2533	2533	2536	2533	2533	2533	2533	2536	2536	2539	2543	2546	2552	2556	2559	2559	2559	2559	2552	2552	2546	2546	2539	2539	2536	2533	2530	2526	2520	2520	2517	2513	2513	2513	2510	2510	2510	2513	2513	2517	2523	2523	2526	2526	2533	2543	2549	2556	2562	2569	2572	2579	2586	2589	2593	2593	2596	2599	2596	2596	2596	2596	2593	2589	2586	2582	2579	2579	2576	2576	2572	2572	2569	2572	2572	2572	2569	2572	2569	2566	2562	2559	2556	2552	2546	2539	2536	2533	2530	2523	2517	2510	2507	2498	2494	2491	2491	2491	2494	2494	2498	2501	2504	2507	2510	2513	2510	2513	2517	2517	2520	2523	2523	2523	2523	2523	2523	2523	2523	2517	2517	2517	2517	2520	2520	2523	2526	2530	2530	2536	2536	2543	2546	2552	2556	2559	2559	2562	2562	2562	2562	2562	2559	2556	2552	2549	2546	2546	2539	2536	2530	2523	2520	2517	2517	2517	2513	2513	2510	2510	2513	2510	2513	2513	2520	2523	2523	2526	2526	2526	2526	2526	2526	2523	2520	2520	2517	2517	2513	2513	2517	2517	2517	2517	2520	2520	2523	2523	2526	2523	2523	2523	2520	2517	2513	2510	2507	2501	2498	2494	2491	2491	2491	2491	2494	2498	2504	2507	2517	2520	2517	2523	2526	2523	2523	2520	2517	2513	2507	2504	2501	2498	2494	2491	2491	2491	2491	2488	2491	2494	2498	2501	2501	2507	2507	2510	2513	2517	2520	2526	2533	2539	2549	2559	2569	2579	2593	2603	2606	2610	2617	2617	2610	2606	2596	2589	2582	2572	2566	2546	2539	2533	2533	2533	2533	2536	2536	2539	2546	2552	2562	2566	2572	2579	2586	2589	2593	2589	2586	2582	2579	2572	2569	2562	2559	2552	2549	2546	2546	2543	2543	2543	2543	2546	2546	2549	2549	2549	2549	2549	2549	2546	2546	2543	2536	2533	2526	2523	2517	2507	2504	2501	2494	2491	2488	2485	2485	2485	2485	2488	2488	2491	2494	2498	2501	2504	2507	2513	2517	2517	2520	2520	2520	2520	2523	2523	2523	2523	2520	2520	2520	2520	2517	2517	2513	2513	2510	2507	2504	2501	2498	2494	2488	2482	2479	2473	2469	2460	2457	2454	2454	2451	2451	2454	2457	2460	2463	2466	2469	2469	2469	2473	2473	2469	2463	2433	2395	0	0	2111	2104	2104	2104	2102	2104	2104	2104	2104	2104	2102	2102	2102	2102	2102	2108	0	0	2140	0	0	0	0	0	0	0	0	2485	2488	2491	2491	2494	2498	2498	2498	2494	2498	2501	2504	2507	2513	2520	2533	2543	2556	2569	2582	2593	2603	2617	2624	2624	2627	2631	2631	2627	2620	2617	2606	2599	2589	2582	2572	2566	2556	2549	2543	2536	2533	2530	2526	2526	2526	2526	2526	2530	2533	2536	2539	2543	2546	2549	2552	2556	2556	2559	2559	2559	2559	2559	2559	2562	2562	2562	2562	2559	2559	2556	2556	2556	2552	2552	2552	2546	2546	2543	2543	2539	2539	2536	2539	2539	2543	2546	2552	2559	2562	2569	2576	2579	2579	2579	2576	2572	2566	2562	2556	2552	2546	2543	2539	2536	2530	2530	2530	2530	2530	2530	2530	2530	2530	2530	2530	2526	2523	2523	2523	2520	2520	2520	2520	2523	2520	2520	2520	2520	2520	2520	2523	2523	2523	2523	2526	2526	2526	2523	2520	2517	2510	2507	2498	2494	2488	2482	2479	2476	2469	2466	2466	2463	2463	2466	2466	2469	2473	2473	2469	2469	2463	2460	2451	2448	2439	2433	2427	2427	2424	2424	2430	2436	2445	2457	2479	2504	2530	2556	2576	2586	2593	2596	2596	2593	2589	2582	2572	2566	2556	2546	2539	2530	2526	2517	2517	2510	2510	2510	2510	2517	2520	2526	2533	2539	2546	2552	2556	2559	2562	2566	2569	2569	2569	2566	2562	2562	2559	2556	2552	2549	2546	2543	2543	2539	2536	2533	2530	2526	2526	2530	2520	2523	2526	2530	0	2543	2546	2549	2549	2556	2562
2482	2485	2488	2494	2498	2501	2507	2510	2513	2517	2520	2523	2523	2526	2526	2526	2526	2526	2526	2523	2526	2526	2530	2530	2533	2536	2539	2546	2549	2546	2546	2546	2543	2543	2543	2539	2539	2536	2533	2533	2530	2526	2523	2517	2513	2513	2510	2510	2507	2507	2507	2507	2510	2510	2513	2517	2513	2520	2523	2526	2533	2539	2546	2556	2562	2569	2569	2572	2579	2579	2586	2586	2586	2586	2586	2586	2586	2582	2579	2579	2576	2572	2572	2572	2569	2566	2569	2569	2569	2569	2572	2569	2569	2566	2562	2559	2556	2549	2546	2543	2539	2536	2530	2523	2517	2510	2504	2498	2494	2491	2485	2485	2488	2488	2491	2494	2501	2504	2504	2504	2507	2510	2510	2510	2513	2517	2517	2517	2517	2517	2517	2517	2510	2507	2507	2507	2510	2510	2510	2513	2510	2517	2526	2530	2536	2543	2546	2549	2552	2556	2556	2559	2559	2559	2559	2552	2549	2549	2546	2546	2543	2536	2533	2530	2526	2520	2517	2517	2513	2513	2510	2510	2507	2507	2510	2507	2510	2513	2517	2520	2523	2526	2526	2526	2526	2526	2523	2520	2517	2513	2513	2507	2510	2507	2510	2510	2510	2513	2513	2517	2520	2520	2520	2520	2517	2517	2510	2507	2507	2501	2491	2488	2488	2485	2482	2485	2488	2491	2494	2501	2507	2513	2520	2523	2523	2526	2530	2530	2526	2523	2520	2513	2510	2504	2501	2498	2494	2491	2491	2491	2491	2491	2494	2494	2498	2501	2504	2507	2510	2510	2513	2517	2520	2523	2526	2533	2543	2552	2562	2576	2586	2596	2603	2606	2610	2613	2606	2603	2596	2589	2579	2572	2549	2539	2533	2526	2523	2526	2526	2530	2533	2536	2543	2552	2562	2569	2572	2582	2586	2593	2596	2596	2593	2589	2586	2582	2576	2572	2566	2559	2556	2552	2549	2546	2546	2543	2543	2546	2546	2546	2549	2549	2549	2549	2549	2549	2546	2546	2546	2543	2536	2530	2523	2520	2510	2504	2498	2494	2491	2488	2485	2488	2488	2488	2491	2491	2498	2501	2507	2510	2513	2513	2520	2520	2520	2520	2520	2520	2523	2523	2523	2520	2520	2520	2520	2520	2517	2517	2513	2510	2507	2504	2501	2498	2494	2488	2485	2479	2473	2469	2466	2454	2451	2448	2445	2442	2445	2445	2448	2451	2457	2460	2463	2466	2466	2469	2469	2469	2451	2415	0	0	2140	2108	2108	2106	2106	2106	2106	2108	2106	2106	2106	2104	2104	2102	2102	2102	2099	0	2117	0	0	0	0	0	0	2439	0	0	2485	2485	2488	2485	2488	2488	2488	2485	2485	2485	2485	2488	2491	2498	2504	2513	2523	2533	2546	2559	2572	2582	2593	2603	2606	2610	2613	2613	2610	2603	2603	2596	2589	2579	2572	2566	2559	2552	2546	2539	2533	2530	2530	2526	2526	2526	2526	2526	2530	2530	2533	2536	2539	2543	2549	2546	2549	2552	2552	2556	2559	2559	2559	2562	2566	2566	2562	2562	2562	2562	2562	2562	2562	2559	2552	2552	2549	2546	2543	2539	2539	2533	2533	2533	2533	2533	2536	2543	2549	2552	2562	2566	2569	2572	2572	2569	2566	2559	2556	2552	2546	2543	2536	2533	2530	2530	2526	2523	2523	2523	2526	2523	2526	2526	2526	2523	2523	2520	2523	2523	2520	2520	2520	2520	2523	2523	2523	2523	2526	2526	2526	2530	2530	2526	2530	2530	2530	2530	2526	2520	2517	2510	2504	2498	2491	2485	2482	2476	2473	2469	2466	2466	2463	2463	2466	2469	2469	2473	2473	2473	2469	2463	2460	2454	2448	2439	2433	2427	2421	2421	2421	2424	2430	2442	2454	2479	2504	2530	2559	2579	2596	2599	2603	2603	2599	2596	2589	2582	2576	2566	2552	2546	2536	2530	2523	2517	2517	2513	2510	2510	2513	2520	2523	2530	2533	2539	2543	2549	2552	2556	2559	2559	2562	2562	2559	2556	2552	2549	2546	2543	2543	2539	2533	2533	2533	2530	2526	2517	2517	2517	2517	2517	2517	2523	2526	0	2536	2546	2552	2556	2566	2572
2479	2482	2485	2491	2494	2498	2504	2507	2513	2517	2517	2520	2520	2523	2523	2523	2520	2520	2517	2517	2517	2517	2520	2523	2523	2526	2530	2530	2530	2533	2533	2533	2536	2536	2539	2539	2536	2536	2536	2530	2530	2530	2523	2517	2513	2510	2510	2507	2507	2504	2504	2504	2507	2507	2507	2507	2507	2510	2513	2513	2523	2530	2533	2536	2543	2549	2556	2562	2566	2569	2572	2572	2576	2579	2579	2582	2582	2579	2579	2576	2576	2572	2569	2572	2569	2569	2566	2569	2569	2569	2569	2569	2569	2569	2566	2562	2559	2556	2552	2546	2543	2539	2533	2523	2517	2513	2504	2498	2494	2488	2482	2482	2482	2482	2485	2491	2494	2498	2498	2501	2501	2504	2504	2507	2507	2510	2510	2510	2510	2510	2507	2504	2504	2501	2498	2488	2494	2491	2498	2501	2507	2513	2523	2526	2533	2539	2546	2546	2552	2552	2552	2556	2556	2556	2552	2549	2546	2543	2543	2539	2533	2533	2530	2526	2523	2520	2517	2513	2513	2510	2510	2507	2507	2507	2507	2507	2507	2510	2517	2520	2526	2526	2526	2526	2530	2526	2523	2520	2517	2513	2513	2507	2507	2504	2504	2507	2504	2507	2507	2510	2513	2513	2513	2513	2510	2507	2504	2501	2501	2494	2488	2488	2485	2485	2485	2488	2491	2494	2501	2504	2513	2520	2523	2526	2526	2530	2533	2533	2530	2526	2520	2517	2510	2504	2501	2498	2494	2491	2491	2491	2491	2491	2494	2494	2501	2504	2507	2510	2510	2513	2517	2517	2520	2523	2530	2533	2543	2549	2559	2569	2579	2589	2596	2603	2606	2610	2606	2603	2596	2586	2576	2566	2546	2536	2526	2520	2520	2520	2520	2523	2526	2530	2536	2546	2556	2562	2569	2576	2582	2589	2596	2596	2593	2589	2586	2582	2579	2572	2569	2562	2556	2552	2549	2546	2543	2543	2543	2543	2543	2543	2543	2546	2546	2546	2549	2549	2549	2549	2549	2549	2546	2543	2539	2533	2526	2513	2504	2498	2494	2491	2488	2488	2488	2488	2491	2491	2498	2501	2507	2513	2513	2513	2513	2517	2517	2517	2517	2517	2517	2520	2520	2520	2520	2520	2520	2520	2517	2517	2513	2510	2504	2501	2498	2494	2488	2485	2479	2476	2469	2466	2454	2448	2445	2442	2439	2439	2439	2439	2442	2445	2451	2454	2457	2460	2463	2463	2463	2466	2442	0	0	2157	2136	2113	2113	2117	2117	2115	2115	2113	2113	2108	2106	2104	2104	2102	2102	2102	0	0	2108	0	0	0	0	0	0	0	0	0	2479	2479	2482	2479	2482	2482	2479	2476	2476	2476	2476	2479	2479	2482	2488	2494	2504	2513	2526	2536	2546	2559	2569	2579	2582	2586	2593	2593	2589	2589	2586	2579	2572	2566	2559	2556	2549	2543	2539	2533	2530	2526	2526	2526	2526	2526	2530	2526	2530	2530	2533	2536	2536	2539	2543	2546	2546	2549	2552	2556	2556	2559	2559	2562	2566	2569	2569	2569	2569	2572	2572	2569	2572	2569	2566	2559	2556	2549	2546	2539	2533	2530	2530	2526	2526	2526	2530	2536	2543	2546	2552	2556	2559	2562	2559	2559	2552	2549	2546	2543	2536	2533	2530	2523	2520	2523	2520	2520	2517	2517	2517	2520	2520	2520	2520	2520	2520	2523	2523	2520	2523	2523	2523	2526	2530	2530	2533	2533	2536	2536	2539	2543	2539	2536	2539	2536	2533	2533	2530	2523	2517	2510	2504	2498	2491	2488	2482	2479	2473	2469	2466	2466	2463	2463	2463	2466	2469	2473	2476	2473	2473	2469	2463	2454	2445	2439	2433	2424	2421	2415	0	2421	2427	2436	2451	2479	2504	2533	2562	2589	0	2606	2610	2617	2610	2606	2599	2593	2582	2576	2562	2552	2543	2536	2526	2523	2517	2513	2510	2510	2513	2517	2520	2523	2526	2533	2536	2543	2546	2552	2552	2556	2556	2556	2552	2549	2546	2546	2543	2536	2536	2530	2530	2526	2520	2517	2517	2513	2513	2513	2513	2513	2520	2520	2526	0	2539	2546	2552	2559	2572	2586
2479	2479	2488	2491	2494	2498	2504	2507	2510	2510	2513	2517	2517	2517	2517	2513	2513	2510	2507	2507	2507	2504	2504	2507	2507	2507	2513	2517	2520	2520	2520	2523	2530	2533	2533	2536	2536	2536	2536	2533	2530	2526	2526	2520	2517	2513	2507	2507	2507	2504	2504	2501	2501	2501	2501	2501	2501	2501	2501	2504	2507	2510	2517	2523	2530	2536	2543	2549	2552	2556	2562	2562	2569	2572	2576	2576	2579	2579	2576	2576	2576	2572	2572	2572	2572	2572	2569	2572	2572	2572	2572	2572	2572	2572	2572	2569	2566	2562	2559	2552	2546	2539	2536	2526	2520	2510	2504	2494	2488	2482	2482	2479	2479	2479	2479	2485	2485	2491	2494	2494	2498	2501	2501	2504	2504	2507	2507	2507	2504	2501	2501	2491	2488	2485	2485	2482	2482	2485	2491	2491	2494	2504	2513	2520	2526	2533	2539	2546	2546	2549	2549	2549	2552	2549	2546	2539	2536	2536	2536	2533	2530	2530	2526	2523	2520	2517	2513	2510	2510	2510	2507	2504	2507	2507	2507	2507	2507	2513	2517	2520	2526	2526	2530	2526	2526	2526	2523	2520	2517	2513	2513	2504	2504	2501	2501	2501	2498	2501	2501	2504	2507	2510	2510	2510	2507	2507	2504	2501	2498	2494	2491	2488	2488	2485	2485	2491	2491	2498	2501	2507	2513	2520	2523	2526	2526	2530	2530	2530	2526	2523	2517	2513	2510	2504	2501	2494	2494	2491	2491	2491	2491	2491	2494	2498	2501	2504	2507	2510	2513	2517	2520	2523	2523	2526	2530	2536	2539	2546	2556	2566	2576	2582	2593	2596	2603	2606	2606	2603	2593	2582	2576	2566	2543	2533	2526	2520	2520	2517	2517	2520	2523	2526	2533	2543	2549	2556	2566	2572	2579	2586	2589	2593	2589	2586	2586	2582	2579	2576	2569	2562	2559	2556	2549	2546	2543	2539	2539	2539	2539	2539	2539	2543	2543	2546	2549	2549	2552	2552	2559	2559	2552	2552	2549	2543	2536	2526	2510	2504	2494	2488	2488	2485	2485	2485	2488	2491	2494	2501	2504	2504	2504	2504	2507	2507	2507	2507	2510	2513	2513	2517	2517	2517	2520	2520	2520	2517	2517	2513	2510	2507	2501	2498	2494	2488	2485	2479	2476	2469	2463	2454	2451	2445	2442	2439	2436	2433	2433	2433	2436	2439	2442	2445	2448	2451	2451	2433	2427	2412	0	0	2171	2147	2136	2129	2127	2124	2124	2122	2120	2117	2117	2115	2113	2108	2106	2106	2104	2102	0	0	2115	0	0	0	0	0	0	0	0	0	2473	2473	2476	2476	2476	2476	2469	2469	2466	2463	2466	2466	2466	2473	2473	2479	2488	2491	2504	2513	2523	2536	2546	2552	2562	2566	2569	2569	2569	2569	2566	2562	2556	2552	2546	2543	2539	2536	2533	2526	2523	2526	2523	2526	2526	2526	2526	2530	2526	2530	2533	2533	2536	2536	2539	2543	2543	2546	2549	2552	2552	2559	2562	2566	2569	2572	2579	2579	2579	2579	2579	2576	2579	2576	2572	2569	2559	2552	2549	2539	2533	2530	2526	2523	2523	2520	2523	2530	2533	2536	2539	2543	2546	2549	2549	2546	2543	2536	2536	2530	2526	2523	2520	2513	2517	2513	2513	2513	2510	2513	2513	2513	2513	2517	2517	2520	2520	2520	2520	2523	2523	2523	2526	2530	2533	2536	2543	2543	2546	2549	2549	2549	2546	2546	2546	2546	2539	2536	2536	2530	2520	2510	2504	2498	2491	2488	2482	2476	2473	2469	2469	2466	2463	2463	2463	2466	2469	2473	2476	2476	2479	2476	2466	2457	2451	2442	2433	2424	2415	2415	0	2421	2427	2433	2451	2479	2507	2536	2566	2593	0	2610	2620	2624	2624	2624	2610	2603	2593	2582	2572	2559	2549	2543	2533	2526	2520	2517	2513	2510	2510	2510	2517	2517	2520	2523	2530	2533	2536	2543	2543	2546	2546	2546	2546	2543	2539	2536	2530	2526	2526	2513	2513	2510	2513	2513	2513	2510	2510	2510	2513	2517	2520	2523	2526	0	2539	2549	2559	2569	2579	2589
2479	2485	2488	2491	2498	2498	2504	2507	2510	2510	2513	2513	2513	2513	2510	2510	2504	2501	2498	2498	2498	2498	2498	2498	2498	2501	2501	2507	2507	2510	2513	2517	2523	2530	2533	2536	2536	2536	2536	2533	2533	2530	2526	2520	2517	2513	2510	2507	2507	2504	2498	2498	2498	2498	2498	2494	2491	2491	2494	2494	2498	2501	2510	2513	2517	2523	2530	2536	2543	2546	2552	2559	2562	2562	2569	2572	2576	2579	2579	2579	2579	2579	2579	2579	2576	2576	2579	2579	2579	2579	2579	2579	2582	2582	2582	2579	2572	2569	2566	2559	2549	2546	2539	2533	2523	2517	2507	2498	2491	2485	2482	2476	2473	2473	2476	2479	2482	2482	2488	2491	2491	2498	2498	2501	2501	2504	2504	2501	2498	2491	2488	2485	2479	2476	2476	2473	2469	2473	2473	2473	2476	0	0	0	0	2523	2526	2536	2543	2543	2546	2546	2546	2539	2536	2533	2530	2526	2523	2523	2520	2520	2517	2513	2513	2510	2507	2504	2504	2504	2501	2501	2501	2501	2504	2504	2504	2507	2513	2520	2526	2526	2526	2526	2523	2526	2523	2520	2517	2513	2513	2510	2507	2501	2501	2501	2498	2498	2498	2501	2504	2507	2507	2507	2507	2507	2504	2501	2501	2498	2494	2491	2491	2491	2488	2494	2494	2498	2501	2507	2510	2513	2520	2523	2523	2523	2526	2523	2523	2520	2517	2510	2504	2498	2494	2491	2488	2488	2488	2488	2488	2491	2494	2498	2501	2507	2507	2513	2517	2520	2520	2523	2526	2530	2533	2536	2539	2546	2552	2562	2572	2582	2586	2596	2599	2603	2603	2599	2593	2582	2579	2569	2546	2539	2530	2523	2523	2520	2523	2520	2523	2523	2530	2536	2546	2549	2556	2562	2569	2576	2582	2582	2582	2582	2582	2579	2576	2572	2566	2562	2559	2552	2549	2546	2543	2539	2536	2536	2536	2539	2539	2543	2543	2546	2549	2556	2556	2559	2562	2562	2562	2559	2556	2549	2543	2533	2513	2504	2498	2488	2485	2482	2482	2482	2482	2482	2485	2485	2491	2491	2491	2491	2494	2494	2498	2498	2504	2507	2510	2513	2513	2517	2517	2517	2517	2517	2513	2510	2507	2504	2498	2494	2491	2485	2482	2476	2473	2466	2460	2451	2445	2439	2439	2433	2433	2430	2427	2430	2430	2433	2433	2427	2427	2427	2418	2412	2400	0	0	0	2159	2145	2140	2136	2133	2129	2129	2127	2124	2124	2122	2120	2115	2115	2111	2108	2108	2106	2106	2117	0	2129	0	0	0	0	0	0	0	0	2463	2466	2466	2469	2466	2466	2460	2460	2454	2454	2457	2457	2457	2460	2463	2466	2473	2482	2491	2501	2510	2520	2530	2536	2546	2546	2552	2552	2552	2549	2549	2546	2543	2539	2533	2530	2530	2526	2526	2523	2523	2523	2523	2523	2526	2526	2526	2526	2530	2530	2530	2533	2533	2533	2533	2536	2536	2539	2543	2549	2556	2556	2562	2569	2572	2576	2582	2582	2586	2582	2586	2582	2582	2579	2579	2569	2566	2556	2549	2539	2533	2530	2523	2520	2517	2517	2517	2520	2523	2526	2530	2533	2536	2536	2539	2536	2533	2526	2526	2520	2517	2513	2510	2510	2510	2510	2513	2510	2510	2507	2510	2510	2513	2513	2517	2517	2517	2517	2520	2523	2523	2526	2526	2533	2539	2539	2546	2549	2552	2552	2552	2556	2552	2549	2552	2549	2549	2543	2539	2533	2530	2517	2510	2501	2494	2491	2482	2479	2476	2473	2469	2469	2466	2466	2466	2469	2469	2476	2476	2476	2479	2479	2469	2463	2454	2442	2433	2427	2421	2418	2418	2421	2427	2436	2451	2479	2507	2536	2566	2593	0	2610	2620	2627	2631	2627	2624	2610	2599	2589	2579	2566	2559	2546	2536	2530	2523	2517	2510	2510	2507	2507	2507	2510	2510	2513	2517	2517	2520	2526	2530	2530	2533	2533	2530	2526	2526	2510	2510	2507	2507	2507	2507	2507	2507	2504	2507	2507	2504	2507	2507	2513	2513	2520	2526	0	2539	2549	2562	2572	2582	2596
2485	2488	2494	2498	2501	2501	2504	2507	2507	2510	2510	2510	2507	2510	2507	2501	2498	2498	2494	2491	2491	2491	2488	2491	2491	2491	2494	2498	2504	2504	2510	2513	2520	2526	2530	2536	2539	2539	2536	2536	2536	2533	2526	2523	2520	2517	2513	2510	2507	2504	2498	2498	2494	2491	2491	2488	2485	2485	2485	2488	2488	2491	2494	2501	2507	2513	2520	2526	2533	2536	2543	2549	2552	2559	2566	2569	2572	2579	2579	2579	2579	2582	2582	2586	2586	2586	2586	2589	2589	2589	2589	2589	2589	2589	2586	2589	2582	2576	2569	2566	2556	2549	2543	2536	2526	2517	2507	2501	2488	2485	2479	2473	2469	2469	2473	2476	2479	2482	2482	2488	2491	2494	2494	2494	2498	2498	2498	2494	2488	2485	2482	2479	2473	2469	2466	2463	2463	2460	2460	2460	2460	2473	0	2491	2501	2507	2517	2530	2536	2539	2539	2539	2536	2533	2526	2523	2520	2520	2517	2513	2510	2510	2510	2507	2507	2501	2504	2501	2498	2498	2498	2494	2494	2494	2494	2494	2498	2504	2507	2513	2517	2520	2523	2523	2523	2523	2523	2520	2517	2520	2517	2510	2507	2504	2501	2501	2498	2494	2494	2501	2504	2507	2507	2507	2510	2504	2504	2507	2504	2501	2501	2498	2498	2494	2498	2498	2498	2501	2504	2504	2507	2510	2513	2517	2517	2517	2517	2517	2513	2510	2507	2501	2494	2488	2488	2485	2482	2482	2482	2485	2488	2488	2491	2494	2501	2504	2507	2513	2517	2520	2526	2526	2530	2530	2536	2539	2543	2546	2552	2562	2569	2576	2586	2589	2596	2599	2599	2596	2593	2586	2579	2572	2562	2546	2536	2533	2526	2526	2526	2523	2520	2523	2526	2530	2536	2539	2546	2552	2559	2566	2569	2572	2576	2572	2572	2572	2572	2569	2562	2559	2556	2552	2546	2543	2539	2536	2536	2536	2533	2536	2539	2543	2546	2546	2552	2556	2562	2566	2566	2569	2569	2566	2562	2552	2549	2536	2513	2504	2494	2488	2485	2482	2476	2476	2473	2476	2473	2476	2479	2476	2476	2479	2482	2485	2485	2488	2494	2498	2501	2507	2510	2513	2513	2513	2513	2513	2510	2507	2504	2498	2494	2491	2485	2482	2476	2473	2466	2460	2457	2448	2445	2439	2436	2433	2430	2427	2424	2421	2418	2421	2418	2418	2412	2409	2398	2386	2369	2294	0	0	2164	2152	2147	2143	2138	2136	2133	2133	2131	2129	2127	2124	2120	2120	2115	2113	2113	0	0	0	2138	2169	0	0	0	0	0	0	0	2457	2457	2457	2457	2457	2457	2457	2454	2451	2448	2448	2448	2448	2448	2451	2457	2460	2466	2476	2485	2494	2504	2510	2517	2526	2530	2533	2536	2533	2533	2530	2533	2530	2526	2523	2520	2517	2517	2517	2517	2517	2517	2517	2520	2520	2523	2523	2526	2526	2526	2530	2526	2530	2530	2533	2536	2536	2539	2539	2543	2549	2552	2559	2562	2569	2576	2579	2586	2586	2589	2589	2589	2589	2586	2582	2579	2572	2566	2559	2549	2539	2530	2523	2523	2520	2513	2513	2513	2513	2517	2517	2523	2523	2526	2526	2530	2530	2523	2520	2520	2513	2510	2510	2510	2507	2510	2510	2510	2510	2510	2507	2507	2507	2510	2510	2513	2513	2513	2513	2517	2517	2520	2523	2526	2530	2536	2543	2549	2549	2556	2559	2562	2559	2559	2556	2556	2552	2549	2546	2543	2536	2530	2520	2510	2504	2498	2494	2488	2485	2482	2479	2476	2469	2466	2466	2466	2469	2469	2469	2476	2476	2476	2473	2469	2460	2451	2442	2433	2424	2421	2418	2421	2421	2430	2439	2457	2482	2507	2536	2562	2586	0	2606	2617	2624	2627	2627	2624	2610	2599	2589	2579	2569	2556	2549	2539	2530	2523	2517	2510	2507	2504	2501	2501	2501	2501	2504	2501	2501	2504	2507	2507	2513	2513	2498	2498	2494	2501	2501	2498	2498	2498	2498	2498	2498	2498	2498	2498	2498	2494	2498	2498	2501	2501	2504	2517	0	0	2543	0	2569	2586	2596
2488	2491	2494	2501	2501	2504	2504	2507	2507	2510	2507	2507	2507	2504	2504	2498	2494	2491	2491	2488	2488	2488	2485	2485	2485	2488	2491	2491	2498	2501	2504	2510	2513	2523	2530	2536	2539	2539	2536	2536	2536	2533	2533	2526	2520	2520	2517	2513	2507	2504	2501	2494	2491	2488	2485	2482	2482	2479	2479	2479	2482	2482	2488	2491	2494	2501	2507	2513	2520	2526	2533	2539	2546	2552	2559	2566	2572	2576	2579	2579	2582	2586	2589	2589	2589	2589	2593	2593	2593	2593	2596	2596	2593	2596	2596	2593	2593	2589	2576	2569	2566	2556	2546	2539	2526	2520	2507	2501	2491	2485	2479	2473	2469	2466	2469	2473	2473	2476	2476	2479	2482	2485	2488	2491	2491	2491	2494	2488	2485	2482	2479	2473	2466	2463	2460	2454	2454	2454	2457	2454	0	2463	0	2479	2491	2498	2507	2517	2526	2533	2536	2533	2533	2526	2523	2520	2517	2513	2510	2510	2507	2504	2504	2501	2498	2498	2494	2491	2488	2485	2485	2482	2485	2485	2485	2485	2485	2488	2494	2501	2504	2510	2510	2513	2513	2517	2517	2513	2513	2513	2513	2510	2507	2504	2501	2498	2498	2494	2494	2498	2501	2504	2507	2507	2507	2507	2507	2507	2507	2504	2504	2504	2501	2501	2501	2504	2501	2501	2501	2504	2501	2504	2504	2504	2504	2504	2501	2501	2501	2494	2491	2488	2485	2479	2476	2476	2473	2476	2476	2479	2482	2485	2488	2494	2498	2504	2507	2513	2517	2523	2526	2530	2533	2536	2539	2543	2543	2549	2552	2562	2569	2572	2582	2586	2593	2596	2599	2596	2593	2586	2582	2576	2566	2559	2546	2536	2536	2530	2530	2526	2523	2523	2523	2526	2530	2533	2539	2543	2549	2552	2559	2562	2562	2566	2566	2566	2566	2562	2559	2556	2552	2549	2546	2543	2539	2536	2533	2533	2533	2536	2536	2543	2546	2549	2556	2559	2566	2569	2572	2572	2572	2572	2569	2559	2552	2539	2530	2507	2494	2485	2479	2473	2469	2466	2466	2466	2466	2463	2466	2466	2466	2466	2469	2473	2476	2482	2485	2491	2494	2501	2504	2507	2510	2510	2507	2507	2504	2501	2498	2494	2488	2485	2479	2476	2469	2466	2463	2457	2454	2445	2442	2439	2436	2433	2430	2427	2424	2421	2421	2415	2415	2412	2406	2395	2383	2363	2308	2268	2232	2183	2169	2161	2154	2152	2147	2145	2140	2138	2136	2133	2131	2129	2127	2120	2120	2117	2120	2122	0	0	0	2217	0	0	0	2357	0	2409	2451	2454	2454	2457	2454	2454	2451	2451	2445	2442	2442	2442	2442	2445	2448	2448	2454	2454	2460	2469	2476	2488	2494	2504	2510	2513	2520	2520	2523	2520	2520	2517	2517	2517	2513	2510	2510	2510	2510	2507	2507	2510	2510	2513	2517	2517	2520	2520	2523	2523	2526	2526	2526	2526	2530	2533	2533	2533	2536	2539	2543	2549	2552	2559	2562	2569	2576	2582	2586	2589	2589	2593	2589	2589	2589	2586	2582	2572	2559	2552	2546	2533	2526	2520	2520	2517	2510	2510	2507	2510	2513	2517	2520	2520	2523	2526	2526	2526	2523	2517	2517	2513	2510	2507	2507	2504	2507	2507	2507	2507	2507	2504	2504	2504	2504	2507	2507	2510	2510	2510	2510	2510	2513	2517	2517	2526	2530	2536	2546	2552	2559	2562	2562	2566	2562	2562	2559	2559	2552	2549	2546	2539	2533	2520	2513	2504	2501	2494	2488	2485	2479	2476	2476	2473	2469	2469	2469	2469	2469	2473	2473	2473	2473	2469	2466	2454	2448	2436	2430	2421	2421	2418	2418	2424	2430	2439	2454	2482	2507	2530	2559	2579	2596	0	2610	2620	2620	2620	2617	2606	2596	2589	2576	2562	2552	2546	2536	2526	2517	2510	2504	2504	2498	2494	2491	2491	2488	2488	2488	2488	2488	2476	2479	2482	2485	2485	2485	2485	2488	2488	2488	2488	2488	2488	2488	2488	2488	2488	2488	2488	2488	2488	2488	2491	2498	2498	2507	2520	0	2533	2552	2569	2589	2599
2491	2494	2498	2501	2501	2501	2504	2504	2507	2507	2507	2504	2504	2501	2498	2494	2494	2491	2488	2488	2488	2485	2485	2482	2482	2485	2485	2488	2491	2498	2498	2504	2510	2517	2523	2533	2536	2536	2536	2536	2536	2533	2533	2530	2523	2523	2517	2513	2510	2504	2498	2491	2488	2485	2479	2476	2473	2473	2469	2473	2473	2476	2479	2479	2485	2491	2494	2504	2510	2517	2523	2533	2539	2546	2556	2562	2569	2572	2579	2582	2582	2586	2589	2593	2593	2596	2596	2596	2596	2596	2596	2596	2596	2596	2599	2596	2593	2593	2579	2576	2566	2559	2549	2539	2530	2517	2510	2498	2491	2482	2479	2473	2469	2466	2460	2463	2466	2466	2469	0	2476	2479	2482	2485	2485	2485	2485	2485	2479	2476	2473	2466	2463	2457	2454	2448	2448	2448	2445	2442	2442	2454	2460	2469	0	2485	2498	2507	2517	2526	2526	2530	2523	2520	2513	2510	2504	2504	2501	2498	2494	2491	2491	2488	2485	2485	2482	2479	2476	2473	2469	2466	2463	2457	2457	2457	2463	0	2469	2476	2482	2488	2491	2498	2501	2507	2507	2510	2507	2510	2510	2507	2504	2504	2498	2498	2494	2494	2494	2498	2501	2504	2507	2507	2510	2510	2513	2510	2510	2510	2507	2507	2507	2507	2504	2504	2501	2501	2498	2498	2494	2491	2491	2491	2488	2485	2485	2482	2482	2479	2476	2473	2469	2466	2466	2466	2466	2466	2469	2473	2476	2482	2485	2491	2494	2501	2507	2513	2517	2523	2530	2533	2536	2539	2543	2546	2549	2549	2556	2562	2566	2572	2579	2582	2589	2593	2593	2593	2589	2586	2582	2576	2569	2562	2549	2543	2539	2536	2533	2526	2523	2520	2520	2523	2523	2526	2530	2533	2536	2543	2549	2552	2556	2556	2556	2556	2556	2556	2552	2549	2549	2546	2543	2539	2536	2536	2533	2533	2533	2536	2539	2543	2546	2552	2556	2562	2569	2576	2576	2576	2576	2579	2572	2566	2556	2543	2530	2507	2494	2485	2479	2469	2466	2460	2460	2454	2454	2457	2454	2454	2454	2457	2460	2463	2466	2476	2479	2485	2488	2494	2498	2501	2504	2504	2504	2501	2498	2494	2491	2488	2482	2479	2476	2469	2466	2463	2460	2457	2448	2445	2442	2439	2436	2433	2430	2430	2427	2424	2421	2418	2412	2409	2398	2383	2360	2313	2287	2250	2222	2188	2176	2169	2161	2157	2152	2150	2147	2143	2140	2138	2136	2133	2129	2127	2124	2129	2129	0	0	0	2217	0	2260	0	0	2374	0	2424	2448	2451	2454	2454	2454	2451	2451	2451	2445	2445	2442	2442	2442	2445	2445	2448	2451	2454	2457	2463	2473	2479	2488	2498	2501	2507	2510	2510	2510	2507	2507	2504	2504	2504	2501	2501	2501	2498	2498	2501	2501	2501	2504	2507	2507	2510	2510	2517	2517	2520	2520	2523	2520	2523	2526	2526	2530	2530	2530	2536	2539	2546	2549	2556	2562	2569	2576	2582	2586	2586	2593	2593	2593	2589	2589	2586	2579	2572	2556	2546	2543	2530	2520	2517	2513	2510	2507	2507	2504	2507	2510	2510	2517	2517	2520	2523	2523	2520	2517	2513	2510	2510	2507	2501	2501	2501	2498	2501	2504	2504	2504	2501	2501	2504	2501	2504	2504	2504	2504	2504	2504	2501	2501	2504	2504	2510	2513	2523	2533	2543	2549	2556	2562	2562	2562	2566	2562	2559	2556	2549	2543	2539	2530	2517	2510	2501	2494	2488	2485	2482	2479	2473	2476	2473	2469	2469	2463	2463	2463	2466	2463	2463	2460	2460	2454	2448	2442	2436	2427	2421	2421	2418	2421	2427	2436	2442	2457	2482	2504	2526	2546	2569	2586	2593	0	2606	2606	2606	2603	2596	2586	2579	2566	2556	2546	2536	2526	2517	2510	2504	2498	2494	2488	2485	2485	2482	2479	2466	2466	2466	2466	2469	2469	2469	2476	2476	2476	2479	2479	2482	2482	2482	2482	2485	2482	2482	2482	2479	2482	2482	2479	2479	2479	2482	2485	2491	2501	2513	0	2530	2549	2566	2589	2599
2491	2491	2498	2498	2498	2498	2501	2501	2501	2501	2504	2501	2501	2498	2494	2494	2491	2488	2485	2485	2485	2485	2482	2479	2482	2479	2482	2482	2485	2488	2491	2498	2501	2510	2520	2526	2536	2539	2536	2536	2536	2536	2533	2530	2523	2520	2517	2510	2504	2494	2488	2485	2479	2476	2469	2469	2466	2463	2463	2463	2466	2469	2473	2476	2482	0	2488	2494	2504	2507	2517	2523	2533	2539	2549	2556	2566	2569	2576	2579	2582	2586	2589	2589	2593	2593	2593	2593	2593	2596	2596	2596	2596	2599	2599	2596	2596	2593	2589	2576	2569	2562	2552	2543	2530	2520	2513	2501	2491	2482	2476	2466	2463	2457	2457	2457	2460	2463	2463	2466	2469	2469	2473	2473	2476	2479	2479	2476	2473	2469	2466	2463	2454	2451	2448	2442	2439	2439	2436	2433	2433	2442	2448	2457	2466	0	0	2498	2507	2517	2523	2520	2520	2517	2510	2501	2498	2494	2488	2485	2482	2479	2479	2473	2473	2469	2466	2466	2463	2460	2454	2448	2445	2439	2439	2439	2436	2442	2445	2454	2457	2466	2473	2479	0	2488	2491	2498	2501	2504	2507	2507	2504	2504	2501	2498	2498	2498	2494	2494	2501	2501	2507	2510	2513	2513	2517	2517	2517	2517	2513	2513	2510	2510	2510	2507	2504	2498	2494	2488	2485	2482	2476	2473	2469	2466	2466	2463	2463	2463	2460	2457	2454	2454	2454	2454	2457	0	2460	2466	2473	2479	2482	2488	2491	2501	2504	2510	2517	2523	2530	2536	2539	2543	2543	2546	2549	2552	2556	2559	2562	2569	2576	2579	2582	2586	2589	2589	2589	2586	2582	2579	2572	2569	2559	2546	2543	2539	2536	2530	2526	2520	2520	2520	2520	2520	2523	2526	2530	2533	2539	2543	2546	2546	2546	2546	2549	2549	2546	2546	2543	2543	2543	2539	2536	2536	2536	2536	2536	2539	2543	2546	2549	2556	2562	2566	2572	2576	2579	2579	2579	2579	2572	2566	2559	2543	2533	2504	2494	2482	2476	2466	2457	2454	2451	2451	2448	2448	2445	2445	2445	2448	2451	2454	2460	2466	2473	2479	2482	2488	2494	2498	2498	2498	2498	2494	2491	2488	2485	2482	2476	2473	2469	2466	2463	2454	2454	2451	2451	2445	2445	2442	2439	2436	2433	2430	2430	2424	2424	2421	2415	2403	2389	2366	2313	0	2266	2242	2220	2193	2183	2176	2169	2161	2159	2154	2152	2150	2147	2143	2140	2138	2136	2131	2133	2133	0	0	2169	2202	0	2255	0	0	0	0	2392	2427	2448	2451	2451	2451	2454	2451	2451	2451	2448	2445	2445	2442	2445	2448	2445	2448	2451	2454	2457	2460	2469	2476	2482	2488	2491	2498	2501	2501	2501	2501	2498	2494	2494	2494	2494	2491	2491	2491	2491	2491	2494	2494	2494	2498	2501	2501	2504	2507	2510	2513	2513	2513	2517	2517	2523	2523	2526	2526	2530	2530	2536	2539	2546	2549	2556	2562	2569	2569	2576	2579	2579	2576	2576	2572	2569	2566	2552	2546	2539	2536	2526	2517	2507	2507	2504	2504	2501	2501	2501	2504	2504	2507	2513	2513	2517	2517	2517	2517	2510	2504	2504	2501	2501	2494	2494	2494	2491	2494	2498	2501	2498	2494	2498	2498	2501	2498	2498	2498	2494	2494	2491	2488	2485	2485	2488	2491	2498	2504	2513	2520	2533	2539	2549	2552	2556	2556	2559	2559	2552	2546	2543	2533	2526	2510	2501	2494	2488	2482	2479	2476	2473	2466	2466	2466	2463	2460	2457	2454	2454	2451	2445	2442	2442	2436	2436	2433	2430	2424	2421	2418	2418	2418	2421	2424	2430	2439	2454	2476	2494	2513	2530	2549	2562	2576	2579	2586	2582	2582	2579	2572	2566	2562	2549	2539	2526	2520	2510	2504	2498	2488	2488	2482	2479	2479	2463	2460	2460	2460	2457	2457	2460	2460	2463	2463	2466	2469	2469	2473	2476	2476	2476	2476	2479	2479	2476	2476	2476	2473	2476	2473	2469	2469	2473	2473	2479	2482	2494	2507	2523	0	2546	2569	2593	2603
2491	2491	2491	2494	2494	2491	2491	2491	2494	2494	2494	2494	2494	2494	2491	2491	2488	2485	2485	2485	2485	2482	2482	2479	2479	2479	2479	2479	2479	2482	2485	2488	2494	2501	2507	2520	2526	2530	2533	2533	2530	2530	2526	2523	2517	2510	2504	2498	2491	2485	2476	2473	2469	2466	2463	2460	2457	2457	2457	2457	2460	2460	2466	2469	2476	2482	0	2488	2494	2504	2510	2517	2526	2536	2543	2552	2559	2566	2572	2576	2579	2582	2586	2589	2589	2589	2589	2593	2593	2593	2593	2593	2593	2596	2596	2596	2596	2593	2589	2576	2572	2562	2552	2543	2530	2520	2507	2498	2488	2482	2473	2466	2460	2457	2454	2454	2454	2457	2457	2460	2460	2463	2463	2463	2466	2466	2466	2466	2463	2460	2460	2457	2451	2448	2445	2442	2436	2439	2433	2433	2433	2442	2445	2457	2463	2473	2482	2491	2498	2510	2513	2513	2513	2507	2501	2494	2488	2479	2476	2469	2466	2463	2457	2454	2454	2451	2445	2439	2436	2427	2424	2424	2418	2415	2412	2409	2412	2418	2421	2424	2430	2439	2445	2454	2463	2473	2482	2488	2494	0	2501	2504	2507	2504	2501	2501	2498	2498	2498	2498	2501	2504	2510	2513	2517	2523	2526	2526	2526	2526	2526	2526	2523	2520	2517	2510	2507	2498	2494	2485	2476	2469	2463	2460	2454	2451	2448	2448	2448	2445	2445	2442	2442	2442	2445	2448	2454	2457	0	2463	2469	2476	2482	2488	2491	2498	2504	2510	2517	2523	2526	2536	2539	2543	2546	2546	2549	2552	2552	2559	2562	2566	2569	2576	2579	2582	2582	2586	2582	2582	2579	2576	2572	2566	2562	2549	2543	2543	2536	2530	2526	2520	2517	2517	2517	2517	2517	2520	2520	2526	2530	2533	2536	2536	2539	2539	2543	2543	2543	2543	2543	2543	2543	2539	2539	2536	2539	2536	2539	2539	2546	2546	2549	2556	2562	2566	2572	2576	2576	2579	2579	2579	2572	2566	2556	2543	2530	2501	2488	2479	2469	2460	2451	2451	2445	2442	2442	2439	2439	2439	2442	2442	2445	2451	2454	2460	2466	2476	2479	2485	2488	2488	2491	2491	2491	2488	2485	2482	2479	2476	2469	2460	2460	2457	2454	2454	2451	2448	2448	2445	2442	2442	2439	2436	2436	2433	2430	2427	2427	2424	2418	2400	2380	2324	0	2271	2253	2235	2220	2197	2188	2178	2173	2169	2164	2161	2157	2154	2152	2147	2145	2143	2138	2138	2138	2140	0	0	2185	2232	0	2294	0	0	2386	0	2403	2430	2445	2448	2451	2454	2451	2454	2451	2451	2448	2448	2448	2445	2448	2448	2448	2451	2454	2454	2457	2460	2463	2469	2476	2482	2488	2491	2491	2494	2491	2491	2488	2488	2485	2485	2485	2485	2485	2482	2482	2485	2485	2485	2485	2488	2488	2488	2494	2498	2498	2501	2504	2504	2504	2510	2513	2517	2517	2523	2523	2526	2530	2533	2536	2536	2543	2543	2546	2549	2552	2549	2549	2549	2546	2543	2536	2530	2523	2513	2510	2507	2504	2494	2491	2491	2491	2491	2491	2494	2498	2498	2501	2501	2507	2507	2507	2510	2507	2507	2504	2498	2501	2498	2494	2488	2488	2488	2491	2491	2491	2494	2491	2491	2494	2494	2498	2494	2494	2491	2485	2485	2479	2476	2473	2473	2479	2482	0	2488	2494	2501	2513	2520	2526	2533	2536	2539	2543	2546	2543	2536	2530	2523	2510	2504	2491	2482	2476	2473	2466	2463	2460	2457	2454	2454	2451	2448	2445	2439	2436	2433	2430	2424	2424	2418	2421	2418	2418	2415	2415	2415	2415	2418	2421	2427	2433	2439	2451	2466	2482	2494	2510	2526	2536	2543	2549	2552	2552	2549	2546	2539	2530	2523	2513	2501	2494	2491	2485	2482	2479	2476	2473	2457	2457	2457	2457	2454	2454	2454	2451	2454	2454	2454	2457	2460	2463	2466	2469	2473	2473	2473	2473	2473	2473	2473	2473	2469	2469	2466	2466	2466	2463	2463	2463	2466	2473	2476	2485	0	2520	0	2539	0	2586	2596
2485	2485	2485	2485	2482	2482	2482	2482	2482	2482	2485	2488	2485	2485	2488	2485	2485	2485	2482	2482	2482	2482	2479	2479	2479	2476	2476	2476	2476	2476	2479	2479	2482	2488	2494	2501	2510	2513	2517	2520	2520	2520	2520	2517	2510	2504	2494	2488	2482	2473	2466	2463	2460	2457	2454	2451	2451	2451	2451	2451	2454	2457	2460	2466	2473	2479	2485	0	2491	2501	2507	2513	2523	2530	2539	2546	2552	2559	2566	2572	2576	2582	2582	2586	2586	2582	2582	2586	2586	2586	2586	2586	2586	2589	2589	2589	2589	2589	2586	2572	2569	2559	2552	2543	2530	2517	2507	2498	2488	2479	2473	2466	2460	2454	2454	2451	2451	2451	2454	2454	2454	2454	2454	2454	2454	2454	2454	2454	2451	2451	2451	2451	2445	2442	2442	2439	2436	2433	2430	2427	2430	2433	2442	2448	2457	2466	2473	2482	2491	2501	2507	2504	2507	2498	2494	2485	2479	2469	2463	2457	2454	2445	2442	2436	2430	2427	2424	2418	2412	2409	2406	2403	2398	2398	2395	2395	2395	2398	2400	2400	2409	2418	2424	2433	2445	2454	2466	2476	2488	0	2498	2504	2507	2507	2504	2504	2504	2504	2504	2504	2510	2513	2523	2530	2536	0	2543	2543	2546	2546	2546	2543	2536	2533	2526	2517	2507	2501	2491	2482	2469	2460	2451	2448	2442	2439	2436	2433	2433	2430	2430	2433	2433	2436	2439	2445	2451	2457	0	2463	2473	2479	2482	2485	2491	2494	2501	2507	2510	2520	2523	2530	2536	2539	2543	2546	2546	2549	2549	2556	2559	2562	2566	2569	2572	2572	2576	2576	2576	2576	2572	2572	2569	2562	2559	2546	2543	2539	2536	2530	2526	2520	2513	2513	2510	2513	2513	2513	2513	2520	2523	2526	2530	2530	2533	2533	2536	2539	2539	2539	2539	2539	2539	2543	2539	2539	2539	2539	2543	2543	2543	2549	2552	2559	2562	2566	2572	2576	2576	2579	2579	2576	2569	2562	2552	2539	2510	2494	2485	2473	2463	2454	2448	2442	2442	2436	2436	2433	2433	2433	2436	2439	2442	2445	2451	2460	2466	2469	2476	2479	2482	2485	2485	2485	2482	2482	2479	2466	2463	2460	2457	2454	2454	2451	2451	2448	2448	2445	2445	2442	2442	2439	2439	2436	2436	2433	2430	2427	2427	2424	2418	2400	0	0	2281	2258	2245	2230	2217	2200	2190	2183	2178	2171	2166	2164	2161	2159	2154	2150	2147	2147	2143	2140	2143	2143	0	0	2207	0	2263	2327	2357	2380	0	2398	2412	2430	2442	2445	2448	2451	2451	2451	2451	2448	2445	2448	2448	2448	2448	2448	2451	2451	2454	2457	2457	2460	2463	2469	2473	2479	2482	2485	2485	2485	2485	2482	2479	2479	2476	2476	2476	2476	2476	2476	2476	2476	2473	2473	2476	2476	2476	2479	2485	2485	2488	2491	2491	2491	2498	2498	2501	2504	2507	2507	2507	2510	2513	2513	2513	2513	2517	2520	2523	2523	2520	2517	2517	2513	2513	2510	2504	2498	2494	2488	2485	2485	2485	2479	2476	2479	2482	2482	2485	2485	2488	2491	2491	2494	2498	2498	2501	2504	2501	2501	2498	2491	2491	2491	2488	2485	2482	2482	2482	2485	2485	2485	2488	2488	2491	2491	2491	2488	2488	2485	2479	2469	2460	2460	2460	2460	2460	2466	2469	2476	2482	2488	0	2494	2501	2504	2507	2513	2517	2523	2520	2517	2510	2507	2498	2488	2479	2473	2463	2457	2451	2448	2445	2442	2442	2439	2436	2433	2427	2421	2418	2415	2409	2403	2403	2403	2403	2406	2409	2409	2409	2409	2412	2418	2424	2427	2433	2439	2451	2460	2476	2485	2494	2504	2507	2513	2520	0	2513	2507	2504	2501	2491	2488	2485	2479	2473	2466	2448	2448	2448	2448	2448	2448	2451	2451	2448	2451	2448	2448	2448	2451	2451	2451	2454	2457	2460	2463	2466	2469	2469	2473	2473	2469	2469	2469	2466	2466	2463	2460	2460	2457	2457	2454	2457	2460	2463	2469	2476	0	2504	2523	0	2546	2569	2586
2479	2476	2476	2473	2473	2469	2469	2469	2473	2476	2479	2479	2479	2479	2482	2482	2482	2482	2482	2482	2482	2482	2479	2479	2479	2479	2473	2473	2473	2469	2473	2473	2473	2476	2476	2482	2491	2491	2494	2504	2507	2504	2507	2504	2494	2488	2482	2479	2469	2463	2460	2457	2451	2451	2448	2448	2448	2445	2445	2448	2451	2454	2457	2463	2469	2476	2482	0	2491	2498	2504	2510	2517	2526	2533	2539	2546	2552	2559	2566	2569	2572	2576	2576	2579	2576	2576	2576	2579	2579	2579	2576	2579	2579	2579	2579	2572	2572	2569	2566	2562	2552	2546	2539	2526	2517	2507	2498	2485	2479	2473	2466	2460	2454	2451	2448	2448	2448	2448	2448	2448	2448	2448	2448	2448	2448	2448	2448	2448	2445	2448	2448	2445	2442	2442	2439	2436	2436	2433	2430	2430	2433	2439	2445	2451	2457	2466	2473	2482	2491	2494	2494	2494	2488	2482	2476	2469	2460	2451	2445	2442	2433	2424	2418	2415	2409	2406	2403	2400	2395	2392	2389	2386	2383	2380	2380	2383	2386	2386	2389	2395	2400	2406	2415	2424	2436	2448	2463	2476	2491	2498	0	2507	2507	2510	2510	2510	2510	2513	2520	0	2526	2536	2546	2549	2556	2562	2562	2566	2562	2562	2562	2549	2543	2533	2520	2510	2498	2485	2473	2460	2448	2442	2433	2424	2421	2418	2418	2415	2415	2418	2421	2424	2430	2433	2439	2445	2454	0	2463	2469	2479	2482	2485	2488	2491	2494	2501	2504	2510	2517	2523	2526	2533	2536	2536	2539	2543	2546	2549	2552	2556	2559	2562	2562	2566	2569	2569	2569	2569	2569	2566	2562	2559	2549	2543	2539	2536	2530	2526	2520	2517	2510	2510	2507	2507	2507	2510	2513	2517	2520	2523	2526	2526	2530	2530	2533	2533	2536	2536	2536	2539	2539	2539	2539	2539	2539	2539	2543	2543	2543	2546	2552	2556	2559	2566	2569	2569	2569	2572	2569	2569	2562	2552	2543	2530	2501	2488	2476	2466	2457	2451	2445	2439	2436	2433	2430	2430	2430	2430	2433	2436	2439	2445	2451	2457	2460	2466	2469	2473	2476	2479	2479	2469	2466	2466	2463	2460	2457	2454	2451	2448	2448	2448	2445	2445	2445	2442	2442	2442	2439	2439	2436	2433	2433	2430	2430	2427	2424	2421	2415	0	0	0	2273	2253	2237	2225	2217	2200	2193	2185	2178	2173	2169	2166	2164	2161	2157	2152	2150	2150	2145	2145	2147	2150	0	0	2225	0	2287	2349	2372	2383	0	2400	2415	2430	2442	2442	2445	2448	2445	2445	2445	2445	2445	2442	2445	2445	2448	2448	2451	2451	2454	2454	2460	2460	2463	2466	2473	2473	2476	2479	2479	2479	2476	2473	2473	2469	2469	2469	2469	2466	2466	2466	2463	2466	2463	2460	2463	2463	2463	2466	2469	2473	2476	2476	2479	2479	2482	2485	2485	2488	2488	2485	2485	2488	2491	2491	2488	2488	2491	2491	2491	2491	2488	2488	2485	2482	2482	2479	2473	2466	2460	2460	2460	2460	2463	2460	2457	2466	2469	2469	2473	2479	2479	2482	2485	2485	2488	2494	2494	2494	2494	2491	2491	2488	2485	2485	2479	2479	2476	2476	2479	2479	2479	2479	2479	2482	2485	2485	2485	2482	2482	2479	2460	2457	2451	2448	2445	2445	2448	2448	2451	2454	2460	2463	2469	2469	2473	2476	2476	2482	2485	2488	2485	2482	2482	2479	2473	2469	2460	2454	2448	2445	2439	2436	2433	2430	2427	2424	2421	2418	2409	2406	2400	2398	2392	2389	2392	0	2395	2398	2400	2403	2406	2409	2412	2418	2424	2427	2433	2439	2448	2457	2469	2476	2482	2485	2488	2491	2494	2488	2482	2482	2479	2473	2469	2466	2439	2436	2436	2436	2436	2436	2439	2439	2439	2442	2442	2445	2445	2445	2445	2448	2448	2448	2451	2451	2454	2457	2460	2466	2469	2469	2473	2473	2469	2469	2466	2463	2463	2463	2460	2460	2457	2454	2451	2454	2451	2454	2457	2460	2466	2479	2491	2507	0	2530	2552	2569
2473	2469	2466	2463	2460	2457	2454	2457	2457	2460	2463	2469	2469	2473	2476	2479	2476	2479	2479	2482	2482	2482	2482	2482	2479	2479	2473	2473	2469	2469	2466	2466	2466	2463	2466	2466	2473	2473	2473	2476	2482	2476	2482	2476	2476	2469	2466	2460	2457	2454	2451	2448	2445	2442	2442	2445	2442	2442	2442	2442	2448	2451	2457	2463	2469	2476	2485	0	2491	2498	2504	2510	2513	2520	2526	2533	2539	2546	2552	2556	2562	2562	2566	2566	2566	2566	2566	2566	2566	2566	2549	2549	2552	2556	2556	2559	2559	2562	2559	2559	2552	2549	2543	2533	2523	2513	2504	2494	2488	2479	2473	2466	2463	2454	2451	2448	2448	2445	2445	2445	2445	2442	2442	2442	2442	2442	2442	2445	2445	2445	2448	2451	2448	2448	2445	2445	2442	2439	2436	2433	2430	2436	2436	2442	2448	2454	2460	2466	2476	2482	2482	2482	2482	2479	2473	2466	2457	2448	2442	2436	2430	2418	2412	2406	2403	2400	2400	2395	2392	2386	2383	2380	2377	2374	2374	2374	2372	2374	2374	2377	2380	2389	2395	2400	2409	2418	2427	2445	2457	2473	2482	2491	2498	2501	2504	2507	2507	2510	2513	0	2523	2536	2543	2556	2562	2569	2576	2579	2579	2576	2576	2572	2566	2549	2536	2520	2507	2494	2479	2466	2454	2442	2433	2418	2415	2409	2409	2409	2409	2409	2409	2415	2418	2424	2430	2436	2445	2454	0	2463	2473	2479	2479	2482	2485	2488	2491	2494	2498	2504	2507	2513	2520	2523	2530	2530	2536	2539	2539	2543	2546	2549	2552	2552	2552	2556	2556	2559	2559	2559	2559	2556	2556	2552	2543	2539	2533	2533	2526	2523	2520	2513	2510	2507	2504	2504	2504	2504	2507	2510	2517	2520	2520	2523	2523	2526	2530	2533	2533	2536	2536	2536	2539	2539	2539	2539	2539	2539	2539	2539	2543	2546	2549	2552	2556	2559	2562	2562	2562	2559	2559	2556	2549	2543	2530	2504	2494	2482	2469	2463	2454	2445	2439	2433	2430	2427	2427	2427	2427	2430	2433	2436	2439	2445	2448	2457	2460	2463	2466	2469	2469	2469	2466	2466	2463	2460	2457	2454	2454	2451	2448	2445	2445	2442	2442	2442	2442	2439	2439	2439	2436	2436	2436	2433	2430	2430	2427	2424	2421	2418	2412	0	0	0	2276	2255	2240	2227	2217	2200	2193	2185	2178	2173	2169	2166	2164	2161	2157	2154	2150	2150	2147	2147	2147	2152	0	0	0	2242	2311	2369	2380	0	2389	2403	2415	2430	2436	2436	2436	2439	2439	2439	2439	2439	2439	2439	2442	2445	2448	2448	2451	2451	2454	2454	2457	2457	2460	2463	2466	2469	2473	2473	2469	2469	2466	2463	2463	2460	2460	2460	2460	2460	2460	2460	2457	2457	2457	2454	2451	2451	2454	2457	2457	2460	2463	2463	2463	2463	2466	2469	2469	2473	2469	2469	2469	2466	2469	2466	2463	2463	2466	2466	2466	2466	2460	2460	2457	2454	2454	2451	2448	2442	2442	2439	2436	2439	2439	2442	2442	2445	2454	2454	2460	2463	2466	2469	2473	2473	2476	2482	2482	2482	2485	2485	2479	2479	2479	2476	2473	2469	2469	2469	2469	2469	2469	2473	2476	2476	2476	2476	2476	2476	2473	2457	2451	2445	2439	2439	2433	2433	2433	2433	2433	2436	2436	2439	2442	2442	2442	0	2445	2445	2451	2454	2454	2451	2454	2451	2451	2445	2442	2436	2433	2430	2427	2424	2421	2418	2415	2412	2409	2403	2398	2395	2383	2380	2377	2380	2380	2383	2389	2392	2398	0	2400	2406	2412	2415	2424	2430	2433	2439	2448	2454	2463	2466	2473	2473	2473	2473	2473	2466	2460	2457	2454	2433	2433	2433	2427	2424	2424	2427	2430	2427	2430	2433	2436	2436	2439	2442	2442	2442	2445	2445	2448	2448	2451	2454	2457	2460	2463	2466	2469	2473	2476	2473	2473	2473	2469	2469	2466	2460	2460	2457	2457	2457	2454	2454	2454	2454	2454	2457	2466	2476	2485	2504	0	2523	2549	2569
2463	2457	2454	2454	2451	2445	2445	2448	2448	2448	2457	2460	2460	2466	2469	2473	2476	2476	2479	2479	2482	2482	2482	2482	2479	2479	2476	2469	2469	2466	2463	2460	2457	2457	2457	2454	2457	2457	2454	2457	2454	2457	2457	2454	2451	2451	2448	2445	2445	2442	2442	2439	2442	2439	2439	2439	2439	2439	2439	2442	2445	2448	2454	2463	2469	2476	0	2485	2491	2501	2507	2513	2517	2523	2526	2530	2536	2539	2543	2549	2549	2552	2552	2552	2549	2549	2533	2533	2530	2530	2533	2533	2536	2536	2539	2539	2543	2543	2546	2546	2543	2539	2533	2523	2517	2507	2501	2491	2485	2479	2473	2469	2463	2454	2451	2448	2448	2445	2442	2442	2442	2442	2439	2439	2439	2439	2442	2445	2448	2451	2454	2457	2454	2457	2454	2454	2451	2445	2445	2442	2439	2442	2445	2448	2451	2457	2460	2463	2469	2473	2473	2473	2469	2466	2463	2457	2448	2442	2433	2427	2415	2409	2403	2403	2398	2395	2392	2389	2386	2383	2383	2377	2374	2372	2372	2372	2372	2372	2372	2372	2374	2377	2380	2386	2392	2400	2412	2424	2433	2445	2457	2466	2473	2482	2485	2494	2498	2501	2510	2520	0	2526	2543	2556	2566	2579	2582	2582	2586	2586	2579	2576	2569	2549	2536	2520	2501	2488	2476	2460	2445	2433	2418	2412	2406	2400	2400	2400	2400	2400	2403	2406	2412	2421	2427	2433	2442	2454	0	2460	2469	2473	2476	2479	2479	2479	2482	2485	2488	2494	2498	2501	2507	2513	2520	2523	2523	2530	2530	2536	2539	2539	2543	2543	2543	2546	2546	2546	2549	2549	2549	2546	2546	2536	2533	2533	2530	2523	2520	2517	2513	2510	2507	2504	2501	2501	2501	2504	2504	2510	2513	2517	2520	2520	2520	2523	2526	2526	2530	2533	2533	2536	2536	2539	2539	2539	2539	2539	2539	2539	2539	2539	2539	2546	2546	2546	2549	2549	2549	2549	2546	2539	2536	2526	2520	2498	2488	2476	2466	2457	2451	2445	2436	2433	2433	2430	2430	2430	2430	2433	2436	2439	2445	2448	2454	2457	2463	2466	2466	2469	2466	2466	2463	2460	2460	2457	2454	2451	2448	2445	2445	2442	2439	2439	2439	2439	2436	2436	2436	2436	2433	2433	2433	2430	2427	2427	2427	2421	2418	2412	2406	2392	0	0	2281	2260	2245	2232	2220	2210	2193	2185	2178	2171	2169	2166	2164	2161	2157	2154	2150	2150	2147	2147	2150	2152	0	0	0	0	0	0	0	0	2392	2403	2409	2421	2427	2430	2430	2430	2433	2433	2433	2436	2436	2439	2442	2442	2445	2448	2451	2451	2451	2454	2454	2457	2457	2457	2460	2463	2463	2463	2460	2457	2454	2451	2451	2448	2448	2451	2448	2451	2451	2451	2451	2448	2445	2445	2445	2445	2445	2445	2448	2451	2451	2451	2451	2454	2454	2454	2457	2457	2454	2454	2451	2448	2448	2445	2445	2442	2445	2442	2442	2442	2442	2439	2436	2433	2433	2433	2430	2427	2424	2424	2424	2424	2427	2427	2427	2430	2436	2439	2445	2451	2454	2457	2460	2463	2463	2469	2469	2469	2469	2473	2469	2466	2466	2466	2463	2460	2460	2457	2457	2457	2463	2463	2463	2463	2466	2463	2463	2460	2457	2451	2442	2436	2433	2430	2424	2424	2421	2421	2421	2424	2424	2424	2424	2424	2427	2427	2427	2427	2427	2427	2430	2427	2430	2430	2427	2427	2424	2424	2421	2418	2418	2415	2412	2409	2406	2406	2400	2398	2389	2380	2377	2372	2372	2372	2374	2377	2383	2389	2395	0	2400	2406	2412	2418	2427	2433	2436	2439	2448	2457	2460	2463	2466	2463	2460	2460	2457	2454	2436	2427	2424	2424	2421	2418	2418	2418	2418	2418	2421	2424	2424	2430	2433	2433	2439	2439	2442	2445	2448	2448	2451	2454	2457	2460	2463	2466	2466	2473	2476	2479	2479	2482	2479	2476	2476	2473	2469	2463	2463	2463	2463	2460	2460	2460	2460	2460	2460	2463	2469	2479	2488	2504	0	2523	2552	2569
2460	2454	2448	2448	2445	2442	2442	2442	2439	2442	2448	2454	2454	2457	2463	2463	2466	2469	2473	2476	2479	2482	2479	2479	2479	2476	2473	2469	2466	2463	2457	2454	2451	2448	2448	2442	2442	2442	2439	2439	2439	2439	2439	2436	2439	2436	2436	2436	2436	2436	2433	2436	2436	2436	2433	2436	2433	2436	2436	2439	2442	2445	2454	2460	2466	2476	2482	0	2491	2501	2507	2513	2517	2520	2526	2530	2533	2539	2539	2539	2543	2543	2526	2523	2520	2517	2513	2513	2513	2510	2513	2513	2517	2517	2517	2517	2517	2520	2520	2520	2520	2520	2513	2513	2507	2501	2494	2488	2482	2476	2473	2469	2463	2460	2451	2448	2448	2448	2445	2445	2442	2442	2442	2442	2442	2445	2448	2451	2454	2457	2463	2466	2466	2463	2460	2460	2457	2454	2448	2445	2442	2445	2448	2448	2451	2454	2454	2457	2460	2460	2463	2463	2460	2457	2454	2448	2442	2436	2430	2415	2412	2406	2400	2398	2395	2395	2389	2389	2386	2383	2380	2377	2377	2374	2372	2372	2372	2372	2372	2372	2372	2374	2374	2380	2386	2389	2398	2406	2415	2427	2436	2448	2451	2463	2466	2469	2479	2488	2498	2507	2520	0	2536	2549	2566	2579	2582	2586	2586	2582	2579	2576	2566	2543	2526	2513	2494	2482	2466	2454	2439	2430	2412	2406	2400	2398	2398	2395	2395	2395	2398	2400	2409	2412	2424	2433	2442	2451	0	2460	2466	2469	2473	2473	2473	2473	2476	2476	2479	2482	0	2488	2494	2498	2504	2507	2510	2513	2517	2517	2523	2523	2526	2530	2530	2530	2530	2533	2533	2533	2533	2533	2526	2523	2523	2520	2520	2513	2513	2513	2510	2507	2504	2504	2504	2501	2501	2504	2504	2507	2510	2513	2517	2517	2520	2520	2520	2523	2526	2526	2530	2533	2533	2536	2536	2536	2536	2536	2536	2533	2533	2533	2533	2533	2533	2533	2533	2536	2533	2530	2526	2523	2520	2513	2498	2488	2479	2469	2460	2454	2448	2442	2436	2436	2433	2430	2433	2433	2436	2439	2442	2445	2448	2454	2457	2460	2463	2466	2466	2466	2463	2463	2460	2460	2457	2454	2451	2448	2445	2442	2442	2439	2439	2436	2436	2433	2433	2430	2430	2430	2430	2427	2427	2427	2424	2424	2421	2418	2415	2409	2403	2389	0	0	0	2266	2250	2235	2222	2212	2193	2185	2178	2171	2169	2166	2164	2161	2157	2154	2150	2150	2150	2150	2150	2154	0	0	0	0	0	2360	2377	0	2386	2395	2400	2412	2415	2418	2418	2418	2421	2424	2424	2427	2430	2433	2436	2442	2445	2445	2448	2448	2451	2451	2451	2451	2451	2454	2457	2457	2457	2457	2454	2445	2442	2439	2436	2436	2436	2436	2436	2436	2436	2436	2439	2439	2439	2439	2436	2436	2439	2442	2442	2445	2445	2445	2445	2445	2445	2445	2445	2445	2442	2442	2442	2436	2436	2433	2433	2430	2430	2430	2430	2430	2430	2427	2427	2424	2424	2421	2418	2418	2415	2415	2415	2415	2415	2418	2418	2424	2427	2433	2439	2439	2442	2448	2448	2448	2451	2457	2457	2457	2457	2457	2457	2457	2457	2454	2451	2451	2448	2448	2448	2451	2451	2451	2451	2457	2457	2454	2454	2451	2451	2442	2436	2427	2424	2421	2418	2415	2418	2415	2415	2415	2415	2412	2415	2412	2412	2412	2409	2409	2412	2409	2415	2412	2412	2415	2412	2412	2412	2415	2412	2412	2415	2412	2409	2409	2406	2400	2398	2395	2386	2377	2374	2372	2369	2369	2372	2377	2380	2389	2395	0	2400	2409	2418	2424	2430	2436	2442	2445	2451	2454	2457	2460	2460	2457	2448	2442	2439	2433	2421	2418	2415	2412	2412	2412	2412	2409	2412	2412	2415	2421	2424	2427	2430	2433	2436	2439	2445	2448	2451	2454	2457	2460	2463	2466	2469	2473	0	2479	2482	2485	2488	2488	2485	2482	2482	2476	2476	2473	2473	2473	2473	2473	2469	2469	2469	2473	2476	2482	2488	2494	2507	0	2526	2546	2566	2582
2451	2448	2445	2442	2442	2439	2436	2436	2436	2439	2442	2445	2445	2448	2454	2457	2460	2463	2466	2473	2476	2479	2476	2479	2476	2476	2473	2469	2463	2460	2454	2451	2445	2442	2439	2433	2433	2430	2430	2424	2427	2424	2421	2424	2424	2424	2424	2427	2427	2427	2427	2430	2433	2433	2433	2433	2433	2436	2433	2439	2439	2448	2454	2460	2466	2476	2482	0	2491	2501	2510	2517	2523	2526	2530	2533	2533	2536	2533	2533	2530	2523	2520	2517	2510	2507	2504	2501	2498	2498	2501	2501	2501	2501	2501	2501	2501	2501	2504	2501	2501	2501	2498	2494	2494	2491	2488	2482	2479	2476	2469	2466	2466	2460	2454	2451	2448	2448	2445	2445	2445	2445	2445	2445	2448	2451	2451	2457	2460	2466	2469	2473	2473	2473	2469	2466	2463	2457	2454	2448	2445	2445	2445	2445	2448	2448	2448	2451	2451	2454	2457	2454	2454	2451	2448	2442	2436	2433	2427	2415	2409	2403	2400	2398	2395	2395	2392	2389	2386	2383	2380	2380	2377	2374	2374	2374	2374	2374	2372	2372	2372	2372	2372	2374	2377	2380	2389	2392	2400	2409	2415	2424	2433	2439	2445	2451	2457	2466	2479	2491	2510	2523	0	2539	2556	2569	2579	2582	2579	2579	2572	2569	2546	2533	2517	2504	2485	2476	2460	2445	2433	2424	2409	2403	2398	2395	2392	2392	2392	2392	2395	2398	2406	2412	2421	2430	2439	2451	0	2457	2466	2469	2466	2466	2463	2463	2463	2466	2469	2473	2473	2479	2482	2488	2488	2491	2494	2494	2494	2498	2501	2501	2504	2507	2507	2510	2510	2517	2517	2517	2517	2517	2510	2507	2504	2507	2504	2504	2504	2504	2504	2504	2504	2501	2504	2501	2501	2504	2504	2507	2510	2513	2513	2513	2513	2513	2513	2517	2520	2520	2523	2526	2526	2530	2533	2530	2533	2530	2530	2526	2523	2523	2520	2520	2520	2517	2517	2517	2517	2513	2510	2507	2504	2491	2485	2476	2469	2460	2454	2451	2445	2439	2436	2436	2433	2433	2433	2436	2436	2439	2442	2448	2451	2451	2454	2457	2460	2463	2463	2463	2463	2460	2457	2457	2451	2451	2448	2448	2445	2442	2439	2439	2436	2436	2433	2430	2427	2427	2427	2427	2424	2424	2424	2421	2421	2421	2418	2415	2412	2406	2400	2386	2363	2338	0	2268	2253	2237	2225	2212	2193	2185	2176	2171	2166	2164	2164	2161	2157	2154	2150	2150	2150	2150	2152	2159	0	0	0	0	0	2355	2369	2377	0	2386	2392	2398	2403	2403	2406	2406	2409	2409	2412	2415	2418	2421	2427	2430	2439	2439	2445	2445	2448	2448	2448	2445	2448	2448	2448	2451	2451	2451	2442	2436	2433	2430	2424	2421	2421	2418	2418	2421	2424	2424	2424	2427	2430	2430	2430	2433	2436	2439	2439	2439	2439	2439	2439	2439	2439	2436	2436	2436	2433	2430	2427	2427	2424	2424	2421	2418	2418	2418	2421	2421	2418	2418	2418	2418	2418	2415	2415	2415	2412	2412	2412	2415	2412	2412	2415	2415	2418	2424	2424	2430	2433	2433	2433	2436	2436	2439	2439	2439	2439	2439	2439	2442	2442	2439	2439	2436	2436	2439	2439	2439	2439	2442	2445	2448	2448	2448	2445	2445	2442	2433	2427	2424	2415	2415	2412	2409	2409	2409	2409	2406	2406	2403	2403	2400	2400	2398	2398	2398	2395	2398	2400	2400	2400	2403	2403	2406	2406	2409	2409	2409	2412	2409	2409	2406	2403	2400	2398	2392	2386	2377	2374	2374	2372	2372	2372	2377	2383	2386	0	2395	2400	2409	2418	2424	2433	2439	2445	2448	2454	2454	2457	2454	2454	2448	2442	2439	2433	2418	2415	2412	2406	2406	2406	2406	2403	2406	2406	2409	2415	2418	2421	2424	2430	2433	2439	2442	2448	2448	2454	2457	2460	2463	2466	0	2469	2476	2479	2482	2485	2491	2491	2491	2491	2491	2488	2485	2482	2482	2482	2482	2485	2485	2485	2485	2485	2488	2491	2494	2501	2510	0	2520	2536	2559	2576	2589
2448	2445	2442	2442	2439	2436	2433	2433	2433	2433	2436	2439	2442	2442	2448	2451	2454	2460	2463	2466	2469	2473	2473	2473	2473	2469	2469	2463	2463	2457	2451	2448	2439	2436	2430	2427	2424	2421	2418	2415	2412	2412	2409	2412	2412	2412	2415	2418	2418	2421	2424	2424	2427	2427	2427	2430	2430	2433	2433	2436	2436	2445	2454	2460	2466	2476	0	2485	2491	2504	2517	2520	2523	2526	2530	2533	2533	2533	2530	2526	2526	2517	2510	2507	2501	2498	2491	2491	2485	2482	2482	2482	2482	2482	2482	2479	2479	2482	2482	2479	2476	2479	2479	2479	2479	2476	2479	2476	2473	2473	2469	2466	2466	2463	2460	2454	2451	2448	2451	2448	2451	2451	2451	2451	2454	2457	2460	2463	2466	2473	2473	2476	2476	2476	2473	2469	2466	2460	2457	2451	2448	2445	2445	2445	2445	2445	2445	2445	2445	2448	2448	2448	2445	2442	2442	2439	2433	2430	2424	2412	2406	2403	2400	2398	2395	2395	2392	2392	2389	2389	2386	2386	2383	2380	2383	2380	2380	2377	2374	2374	2372	2372	2369	2369	2372	2374	2374	2383	2386	2398	2400	2409	2412	2418	2430	2433	2439	2451	2463	2476	2494	2510	2526	0	2543	2559	2566	2576	2572	2569	2562	2546	2533	2523	2507	2491	2476	2466	2451	2439	2427	2412	2406	2400	2398	2392	2392	2392	2392	2392	2395	2398	2403	2409	2418	2427	2436	2445	2454	0	2460	2460	2460	2457	2454	2454	2454	2457	2457	2457	2460	2463	2469	2473	2473	2473	2476	2476	2476	2479	2479	2479	2482	2485	2488	2488	2491	2494	2494	2494	2494	2494	2491	2488	2488	2488	2491	2491	2491	2491	2494	2494	2498	2501	2498	2498	2501	2501	2504	2507	2507	2510	2510	2510	2507	2507	2507	2507	2510	2513	2517	2520	2520	2523	2523	2523	2523	2523	2520	2517	2517	2513	2510	2507	2507	2504	2501	2504	2501	2498	2494	2488	2485	2482	2473	2466	2460	2454	2451	2448	2442	2439	2436	2436	2433	2436	2436	2436	2439	2439	2442	2445	2445	2451	2454	2457	2460	2460	2460	2460	2460	2457	2454	2454	2451	2448	2448	2445	2442	2442	2439	2436	2436	2433	2427	2427	2424	2424	2421	2421	2421	2418	2418	2415	2415	2415	2412	2409	2409	2403	2395	2380	2360	2313	2292	2273	2255	2237	2222	2212	2193	2183	2176	2169	2166	2164	2161	2159	2157	2152	2152	2152	2152	2152	2159	2166	0	0	0	0	0	2349	2360	2372	2377	2380	0	2386	2389	2389	2389	2392	2395	2395	2400	2400	0	2406	2412	2421	2427	2430	2436	2439	2439	2439	2442	2442	2442	2445	2445	2448	2448	2445	2439	2430	2427	2418	2415	2412	2406	2406	2406	2406	2412	2412	2418	2421	2424	2427	2427	2430	2433	2436	2439	2439	2439	2436	2436	2433	2433	2430	2430	2427	2424	2421	2418	2418	2415	2412	2412	2409	2406	2406	2409	2412	2409	2409	2409	2409	2412	2412	2412	2415	2412	2415	2415	2412	2415	2412	2415	2415	2418	2418	2418	2421	2421	2424	2424	2421	2418	2421	2421	2418	2421	2421	2421	2424	2424	2424	2427	2427	2430	2430	2430	2430	2433	2433	2436	2436	2439	2439	2436	2436	2433	2427	2421	2418	2412	2409	2409	2406	2406	2403	2403	2400	2398	2398	2392	2392	2392	2389	2389	2386	2386	2389	2389	2395	2395	2398	2400	2403	2403	2406	2406	2409	2412	2409	2409	2406	2403	2400	2398	2395	2389	2386	2377	2374	2374	2372	2374	2377	2380	2386	2392	0	2400	2406	2415	2424	2433	2439	2442	2445	2451	2454	2454	2454	2451	2445	2439	2433	2421	2415	2409	2406	2403	2403	2403	2403	2403	2403	2406	2409	2415	2421	2424	2430	2433	2436	2442	2448	2451	2454	2454	2460	0	2463	2466	2469	2476	2479	2482	2485	2491	2494	2498	2498	2498	2494	2491	2491	2491	2488	2491	2491	2491	2494	2494	2494	2498	2498	2504	2507	0	2517	0	2539	0	2569	2586	2596
2445	2442	2439	2439	2436	2430	2430	2427	2430	2430	2433	2436	2436	2439	2442	2445	2448	2454	2457	2463	2463	2466	2469	2469	2466	2466	2463	2460	2457	2451	2448	2442	2436	2430	2424	2421	2418	2412	2409	2403	2400	2400	2400	2400	2403	2406	2406	2409	2412	2415	2418	2421	2424	2424	2424	2427	2430	2430	2433	2433	2436	2442	2448	2454	2463	2469	2482	0	2491	2494	2507	2517	2523	2530	2530	2533	2533	2530	2526	2517	2513	2507	2501	2498	2491	2485	2479	2476	2473	2469	2469	2469	2466	2466	2466	2466	2463	2463	2463	2463	2463	2460	2463	2463	2466	2466	2466	2469	2469	2469	2469	2469	2466	2466	2463	2460	2454	2454	2454	2454	2454	2454	2454	2454	2460	2463	2466	2469	2473	2476	2479	2482	2479	2476	2473	2473	2466	2463	2457	2451	2445	2445	2445	2442	2442	2442	2439	2439	2442	2442	2439	2442	2439	2436	2436	2433	2430	2424	2421	2412	2406	2403	2400	2398	2398	2395	2392	2392	2392	2389	2386	2386	2383	2383	2383	2383	2383	2380	2380	2377	2374	2374	2372	2369	2369	2369	2372	2374	2377	2383	2389	2395	2398	2406	2412	2421	2427	2436	2448	2460	2476	2494	2510	2526	0	2543	2549	2552	2552	2552	2539	2526	2517	2507	2491	2479	2466	2457	2445	2433	2424	2409	2406	2400	2398	2395	2392	2392	2392	2392	2395	2398	2403	2406	2418	2424	2430	2439	2445	2451	2451	2451	2451	2448	2448	2448	2448	2448	2451	2451	2451	2454	2457	2460	2460	2457	2460	2457	2457	2460	2460	2460	2460	2466	2469	2469	2473	2473	2473	2473	2473	2476	2473	2469	2469	2469	2473	2476	2476	2479	2482	2485	2491	2491	2494	2494	2498	2501	2504	2504	2504	2507	2504	2504	2504	2501	2501	2501	2501	2504	2507	2510	2513	2517	2517	2517	2517	2513	2510	2507	2504	2501	2498	2498	2494	2491	2491	2488	2479	2482	2479	2476	2473	2469	2463	2460	2454	2451	2448	2445	2442	2439	2436	2439	2436	2436	2436	2436	2436	2439	2439	2442	2442	2448	2451	2454	2457	2457	2457	2457	2454	2454	2451	2448	2448	2448	2445	2445	2442	2439	2439	2436	2433	2427	2424	2421	2421	2418	2418	2415	2415	2415	2412	2412	2412	2409	2409	2406	2403	2398	2392	2377	2360	2316	2294	2273	2255	2240	2222	2212	2190	2181	2173	2166	2164	2161	2159	2157	2154	2152	2152	2152	2157	2157	2164	2176	2197	0	2230	0	0	2341	2355	2363	2369	2369	2377	2377	2377	2377	2377	2377	2380	2380	2383	2386	2389	2398	2406	0	2415	2421	2424	2430	2430	2433	2436	2439	2439	2439	2439	2442	2442	2433	2430	2424	2418	2412	2409	2403	2400	2395	2395	2398	2400	2403	2406	2412	2418	2424	2427	2430	2433	2436	2436	2436	2433	2433	2430	2427	2427	2424	2424	2418	2415	2412	2406	2403	2403	2403	2400	2398	2398	2400	2400	2403	2403	2403	2403	2406	2412	2412	2415	2415	2418	2421	2421	2418	2418	2418	2415	2415	2415	2415	2415	2415	2415	2415	2412	2406	2406	2406	2406	2403	2403	2406	2409	2409	2415	2415	2418	2421	2424	2424	2424	2424	2427	2424	2427	2427	2430	2430	2427	2424	2424	2421	2415	2412	2406	2403	2403	2403	2403	2403	2403	2398	2395	2392	2392	2389	2389	2383	2380	2380	2380	2380	2383	2386	2389	2392	2395	2398	2400	2406	2406	2409	2409	2409	2406	2406	2406	2400	2398	2395	2389	2386	2383	2380	2374	2377	2374	2377	2383	2386	2392	0	2398	2403	2409	2418	2424	2433	2439	2442	2448	2451	2451	2454	2448	2445	2439	2433	2421	2415	2412	2409	2406	2403	2403	2403	2406	2406	2412	2412	2418	2421	2427	2430	2436	2439	2442	2448	2451	2454	2457	0	2460	2463	2466	2473	2476	2482	2485	2488	2491	2494	2498	2498	2498	2498	2498	2498	2494	2498	2498	2498	2501	2504	2504	2507	2507	2507	2510	2517	2520	2526	2536	2546	2559	2579	2593	2603
2445	2442	2439	2439	2436	2433	2430	2430	2427	2427	2430	2433	2436	2433	2439	2442	2445	2448	2451	2454	2457	2460	2463	2463	2463	2460	2460	2457	2454	2448	2445	2439	2433	2427	2421	2418	2412	2403	2400	2395	2392	2389	2392	2395	2395	2398	2398	2403	2406	2409	2415	2418	2421	2424	2421	2424	2427	2427	2430	2433	2436	2442	2445	2448	2451	2460	2466	2476	0	2488	2504	2510	2520	2523	2530	2530	2530	2526	2513	2507	2501	2498	2491	2485	2479	2476	2469	2463	2460	2457	2457	2454	2451	2451	2451	2451	2451	2448	2448	2448	2448	2448	2451	2451	2451	2451	2454	2457	2460	2463	2469	2469	2469	2469	2469	2466	2463	2457	2457	2457	2457	2457	2460	2460	2463	2466	2469	2473	2476	2479	2479	2479	2479	2479	2476	2473	2469	2460	2457	2451	2445	2445	2442	2439	2439	2439	2436	2436	2436	2436	2433	2436	2436	2433	2433	2427	2427	2421	2418	2412	2409	2406	2406	2403	2400	2400	2398	2398	2395	2392	2392	2389	2389	2389	2389	2386	2386	2386	2383	2380	2377	2374	2372	2372	2369	2369	2369	2372	2374	2377	2383	2389	2392	2398	2403	2412	2418	2424	2439	2451	2466	2482	2494	2507	2523	2530	0	2536	2530	2526	2517	2510	2498	2488	2476	2466	2457	2448	2439	2430	2421	2412	2406	2403	2400	2398	2398	2395	2398	2398	2398	2398	2403	2406	2412	2418	2424	2427	2433	2439	2439	2439	2442	2439	2439	2442	2442	2445	2445	2445	2445	2448	2451	2451	2451	2448	2448	2448	2448	2448	2448	2448	2451	2454	2457	2460	2457	2457	2457	2460	2460	2457	2454	2451	2451	2451	2454	2457	2457	2463	2466	2469	2476	2485	2488	2491	2494	2501	2501	2501	2504	2501	2501	2498	2494	2494	2491	2494	2494	2498	2501	2504	2507	2510	2510	2507	2507	2504	2501	2498	2494	2494	2491	2488	2485	2485	2482	2479	2476	2473	2473	2469	2466	2460	2457	2454	2451	2448	2448	2445	2442	2439	2439	2439	2436	2436	2433	2433	2433	2433	2436	2439	2439	2442	2442	2448	2448	2448	2448	2445	2445	2445	2445	2445	2445	2445	2442	2442	2439	2439	2436	2433	2430	2430	2424	2421	2418	2415	2412	2412	2409	2409	2406	2406	2406	2403	2403	2400	2398	2395	2386	2374	2355	2316	2294	2273	2258	2240	2222	2212	2190	2181	2173	2166	2164	2161	2159	2157	2154	2154	2152	2154	2157	2161	2171	2185	2210	0	2240	2279	2313	2335	2346	2355	2360	2363	2366	2366	2369	2366	2363	2366	2369	2369	2369	2372	2377	2386	2395	2403	0	2412	2415	2421	2427	2430	2433	2433	2436	2436	2436	2436	2433	2430	2424	2418	2412	2406	2400	2395	2392	2389	2386	2389	2392	2398	2403	2409	2415	2421	2427	2430	2433	2436	2436	2436	2433	2430	2427	2424	2421	2418	2415	2412	2409	2403	2398	2398	2395	2395	2392	2392	2392	2392	2395	2398	2398	2400	2400	2406	2412	2415	2418	2424	2427	2430	2430	2430	2430	2427	2424	2421	2418	2415	2412	2412	2412	2406	2406	2403	2400	2398	2395	2395	2395	2398	2400	2403	2406	2412	2412	2418	2421	2421	2421	2421	2421	2421	2421	2418	2418	2415	2415	2412	2409	2406	2403	2400	2398	2398	2395	2395	2395	2398	2398	2398	2395	2392	2389	2383	2383	2380	2380	2377	2374	2377	2380	2383	2383	2389	2392	2395	2398	2403	2403	2406	2406	2406	2406	2406	2403	2400	2398	2395	2392	2389	2386	2383	2377	2380	2380	2383	2386	2386	0	2392	2395	2400	2403	2412	2421	2427	2433	2439	2442	2448	2448	2448	2445	2442	2442	2436	2430	2418	2415	2412	2409	2406	2406	2406	2406	2409	2412	2415	2418	2424	2430	2433	2439	2442	2445	2448	2451	2454	0	2457	2460	2463	2466	2469	2476	2479	2485	2488	2491	2498	2498	2501	2501	2501	2498	2501	2501	2504	2504	2507	2510	2510	2513	2517	2520	2520	2520	2526	2530	2533	2543	2552	2566	2582	2599	2610
2442	2442	2439	2439	2439	2433	2430	2430	2430	2430	2430	2433	2433	2433	2436	2439	2439	2442	2448	2451	2451	2454	2454	2454	2457	2457	2454	2454	2448	2445	2442	2439	2433	2427	2421	2415	2409	2398	2395	2389	2383	2383	2383	2383	2383	2389	2389	2395	2400	2403	2409	2415	2418	2418	2421	2421	2424	2427	2427	2427	2427	2433	2439	2442	2448	2451	2460	2466	2479	0	2491	2504	2510	2517	2520	2523	2520	2510	2504	2498	2491	2485	2479	2476	2469	2463	2457	2451	2448	2445	2442	2439	2436	2436	2436	2436	2433	2436	2436	2436	2433	2436	2436	2442	2442	2445	2445	2451	2454	2457	2460	2463	2469	2469	2469	2469	2463	2460	2460	2460	2460	2460	2463	2466	2466	2469	2473	2476	2479	2479	2482	2479	2476	2476	2473	2469	2466	2460	2454	2448	2445	2439	2436	2436	2433	2433	2433	2430	2430	2430	2430	2430	2427	2427	2427	2424	2424	2421	2421	2418	2412	2409	2406	2406	2406	2403	2400	2400	2400	2398	2395	2395	2392	2392	2392	2392	2392	2389	2386	2383	2380	2380	2374	2372	2369	2369	2369	2372	2374	2377	2380	2383	2389	2392	2398	2403	2409	2418	2427	2439	2451	2466	2476	2488	2498	2507	2510	2510	2507	2501	2498	2491	2482	2473	2463	2454	2445	2439	2433	2424	2418	2412	2409	2409	2403	2400	2400	2400	2400	2400	2400	2403	2403	2409	2412	2412	2415	2421	2424	2427	2430	2430	2430	2433	2436	2436	2439	2442	2442	2442	2442	2445	2445	2445	2445	2442	2439	2439	2439	2439	2439	2439	2442	2442	2448	2448	2448	2448	2445	2445	2445	2445	2439	2436	2436	2436	2439	2439	2442	2445	2451	2454	2463	2473	2479	2485	2488	2498	2498	2501	2501	2498	2494	2491	2488	2488	2485	2485	2488	2491	2494	2498	2501	2501	2501	2501	2501	2494	2491	2488	2488	2485	2482	2479	2479	2476	2476	2469	2469	2460	2460	2457	2457	2457	2454	2454	2451	2451	2448	2442	2442	2439	2439	2436	2436	2433	2430	2430	2430	2427	2430	2430	2430	2430	2430	2433	2436	2436	2436	2436	2436	2436	2436	2439	2439	2442	2442	2439	2439	2439	2436	2433	2430	2421	2418	2415	2412	2409	2409	2406	2406	2403	2403	2400	2400	2400	2398	2398	2392	2389	2380	2366	2352	2313	2294	2273	2255	2240	2227	2212	2190	2181	2173	2166	2164	2161	2159	2157	2154	2154	2152	2157	2159	2166	2178	2195	0	0	0	2281	2313	2330	2341	2349	2352	2355	2357	2357	2357	2357	2357	2360	2360	2360	2366	2369	2372	2380	2392	2400	2409	0	2415	2418	2424	2427	2430	2430	2430	2433	2433	2433	2430	2427	2421	2415	2409	2406	2398	2392	2389	2386	2386	2386	2392	2395	2400	2409	2415	2424	2427	2430	2436	2436	2436	2433	2433	2427	2424	2421	2418	2415	2415	2409	2406	2400	2395	2395	2392	2389	2386	2386	2386	2389	2389	2392	2395	2395	2400	2403	2412	2418	2424	2427	2433	2436	2436	2436	2433	2430	2427	2421	2418	2415	2412	2412	2409	2403	2400	2395	2395	2392	2392	2389	2395	2395	2398	2403	2406	2409	2412	2415	2418	2418	2418	2415	2415	2415	2415	2409	2409	2406	2403	2400	2398	2395	2392	2389	2386	2386	2389	2389	2389	2389	2392	2392	2389	2389	2386	2380	2380	2377	2374	2374	2374	2374	2377	2380	2380	2383	2389	2392	2395	2400	2400	2400	2403	2403	2403	2400	2400	2400	2398	2395	2392	2392	2389	2386	2386	2383	2383	2383	2389	2389	2389	2395	2395	2400	2403	2409	2415	2421	2427	2433	2439	2442	2445	2445	2445	2442	2439	2436	2433	2427	2418	2415	2409	2406	2406	2406	2406	2409	2412	2415	2418	2424	2427	2433	2439	2442	2448	2448	0	2454	2457	2460	2463	2463	2466	2473	2476	2482	2482	2488	2488	2494	2494	2498	2498	2501	2498	2501	2504	2510	2510	2513	2517	2520	2523	2523	2526	2526	2530	2533	2536	2543	2549	2559	2572	2589	2603	2613
2442	2442	2442	2439	2439	2436	2433	2433	2433	2430	2430	2430	2430	2433	2433	2436	2436	2439	2439	2442	2445	2445	2448	2451	2451	2448	2448	2445	2445	2442	2439	2436	2430	2424	2418	2412	2406	2395	2389	2383	2377	2374	2377	2377	2374	2377	2380	2386	2392	2398	2403	2406	2412	2415	2412	2415	2418	2418	2421	2424	2427	2430	2436	2439	2442	2448	2451	2457	2469	2482	2491	0	2498	2507	2513	2510	2510	2501	2494	2488	2479	2476	2469	2463	2460	2451	2445	2442	2433	2430	2427	2427	2424	2424	2421	2421	2421	2421	2421	2427	2424	2424	2424	2427	2430	2433	2439	2442	2445	2448	2454	2460	2460	2466	2466	2466	2466	2463	2460	2460	2463	2460	2463	2466	2469	2473	2473	2476	2479	2479	2479	2479	2476	2476	2473	2466	2463	2457	2451	2445	2442	2436	2436	2433	2433	2430	2427	2427	2427	2424	2424	2424	2424	2424	2424	2421	2421	2418	2418	2412	2412	2412	2409	2409	2409	2406	2406	2406	2403	2400	2400	2398	2398	2395	2395	2395	2392	2389	2389	2386	2383	2380	2377	2374	2372	2369	2369	2369	2372	2374	2377	2380	2383	2389	2395	2400	2406	2412	2418	2427	2436	2448	2457	2466	2476	2482	2488	2488	2485	2479	2476	2469	2463	2454	2451	2442	2436	2433	2430	2424	2421	2418	2415	2412	2412	2409	2406	2406	2406	2406	2403	2406	2409	2409	2409	2412	2412	2415	2418	2418	2424	2424	2427	2427	2430	2433	2436	2439	2442	2442	2442	2442	2442	2442	2439	2439	2436	2433	2433	2433	2430	2430	2430	2436	2436	2436	2433	2433	2433	2430	2430	2427	2427	2424	2421	2421	2421	2424	2424	2427	2430	2436	2442	2451	2454	2463	2469	2476	2482	2482	2485	2482	2479	2476	2476	2476	2476	2476	2476	2482	2485	2488	2491	2494	2491	2491	2491	2488	2482	2479	2479	2476	2473	2469	2466	2457	2457	2457	2454	2454	2454	2454	2454	2451	2451	2451	2448	2445	2445	2442	2439	2436	2436	2433	2433	2430	2427	2424	2424	2421	2421	2421	2418	2418	2418	2421	2424	2421	2424	2424	2424	2427	2430	2433	2433	2439	2439	2436	2436	2436	2436	2433	2427	2418	2415	2412	2409	2406	2403	2400	2400	2398	2398	2395	2395	2395	2392	2392	2386	2383	2372	2360	2346	2311	2292	2276	2258	2242	2227	2212	2190	2181	2173	2169	2164	2161	2159	2157	2157	2154	2154	2157	2159	2171	2183	2202	2225	0	2253	2281	2311	2327	2338	2343	2346	2349	2349	2352	2352	2352	2349	2352	2355	2357	2360	2366	2372	2380	2389	2400	2406	0	2412	2415	2421	2424	2427	2430	2430	2430	2433	2433	2430	2424	2421	2415	2409	2403	2398	2392	2392	2389	2389	2389	2392	2398	2403	2409	2418	2424	2427	2430	2433	2436	2436	2433	2430	2427	2424	2421	2418	2415	2412	2409	2403	2400	2395	2392	2389	2386	2383	2383	2380	2383	2386	2386	2389	2392	2395	2403	2409	2418	2424	2430	2436	2439	2442	2442	2436	2433	2430	2424	2418	2415	2412	2409	2409	2403	2395	2395	2392	2392	2389	2389	2392	2395	2400	2400	2406	2409	2415	2415	2418	2418	2415	2415	2412	2412	2406	2406	2400	2398	2395	2392	2386	2383	2380	2377	2377	2377	2380	2380	2383	2383	2386	2386	2386	2383	2380	2377	2374	2374	2372	2372	2372	2374	2374	2377	2380	2380	2383	2389	2392	2395	2398	2400	2400	2400	2400	2398	2398	2398	2395	2395	2392	2392	2392	2389	2389	2389	2389	2392	2395	2395	2395	2398	2398	2400	2403	2409	2412	2418	2421	2427	2430	2436	2439	2439	2439	2439	2436	2433	2430	2418	2412	2409	2406	2400	2400	2400	2400	2403	2406	2412	2415	2421	2427	2433	2439	2442	0	2448	0	2451	2454	2457	2460	2463	2466	2469	2473	2476	2479	2485	2485	2488	2491	2494	2494	2498	2501	2504	2507	2513	2513	2520	2523	2526	2526	2530	2533	2533	2536	2539	2543	2549	2556	2562	2576	2589	2599	2610
2442	2445	2442	2442	2439	2439	2436	2436	2433	2433	2433	2433	2433	2430	2430	2427	2430	2433	2433	2436	2436	2436	2442	2442	2445	2445	2442	2442	2442	2439	2436	2433	2430	2424	2418	2409	2403	2392	2386	2380	2377	2372	2372	2372	2372	2372	2374	2380	2383	2389	2389	2398	2400	2406	2409	2412	2412	2415	2418	2421	2421	2427	2430	2433	2436	2439	2445	2445	2457	2466	2476	2485	2491	2498	2494	2494	2491	2485	2479	2473	2466	2460	2457	2451	2448	2439	2433	2430	2424	2421	2418	2415	2409	2412	2412	2409	2412	2409	2412	2415	2415	2415	2418	0	2424	2427	2433	2433	2439	2442	2448	2451	2457	2460	2463	2460	2463	2460	2460	2460	2460	2460	2463	2463	2466	2469	2473	2473	2473	2476	2473	2473	2469	2469	2466	2463	2460	2454	2451	2445	2439	2433	2430	2427	2430	2427	2427	2424	2421	2421	2421	2421	2421	2418	2421	2418	2418	2415	2415	2415	2412	2412	2412	2412	2412	2409	2409	2406	2406	2403	2403	2400	2398	2398	2398	2395	2395	2392	2392	2386	2386	2380	2380	2377	2374	2372	2372	2372	2372	2377	2377	2383	2386	2392	2398	2400	2406	2412	2418	2424	2430	2433	2442	2448	2460	2463	2466	2469	2466	2463	2463	2457	2454	2448	2445	2442	2436	2433	2430	2424	2421	2421	2418	2415	2415	2412	2412	2412	2409	2409	2409	2406	2406	2409	2409	2409	2409	2409	2412	2415	2415	2418	2421	2424	2427	2430	2430	2436	2439	2439	2439	2439	2439	2439	2436	2433	2430	2427	2424	2421	2421	2418	2418	2418	2421	2418	2418	2415	2412	2412	2409	2412	2409	2406	2406	2406	2406	2409	2406	2409	2412	2415	2424	2430	2436	2445	2448	2457	2460	2463	2463	2463	2463	2463	2463	2463	2463	2466	2466	2469	2476	2479	2482	2485	2485	2482	2482	2476	2476	2469	2466	2454	2454	2451	2451	2448	2448	2448	2448	2445	2448	2448	2448	2448	2448	2445	2445	2442	2442	2439	2436	2433	2430	2430	2427	2424	2418	2415	2415	2409	2409	2409	2403	2406	2403	2406	2403	2403	2406	2406	2412	2415	2418	2424	2424	2430	2430	2433	2433	2433	2433	2430	2421	2418	2412	2409	2403	2400	2398	2395	2395	2392	2392	2392	2389	2389	2386	2386	2380	2377	2369	2355	2343	2308	2289	2273	2258	2240	2225	2210	2190	2181	2173	2169	2166	2161	2159	2157	2157	2154	2154	2157	2161	2171	2188	2207	0	2232	2255	2281	2308	2327	2335	2341	2343	2346	2346	2346	2346	2346	2346	2349	2352	2355	2360	2366	2374	2380	2389	2400	2406	2409	0	2415	2421	2424	2427	2430	2427	2430	2430	2430	2427	2424	2418	2412	2409	2400	2398	2392	2389	2386	2386	2389	2392	2398	2403	2409	2418	2421	2427	2430	2433	2433	2430	2430	2427	2424	2421	2421	2415	2415	2412	2409	2403	2398	2392	2389	2386	2380	2377	2377	2374	2377	2377	2380	2383	2386	2392	2398	2406	2415	2424	2433	2439	2445	2445	2445	2442	2436	2433	2424	2421	2412	2406	2403	2398	2398	2392	2389	2386	2386	2386	2389	2392	2395	2400	2403	2409	2412	2415	2418	2418	2418	2418	2415	2412	2409	2406	2400	2395	2389	2386	2380	2374	2369	2366	2366	2366	2366	2366	2369	2372	2374	2377	2377	2377	2374	2372	2372	2372	2372	2369	2372	2369	2369	2374	2377	2377	2380	2380	2386	2386	2392	2392	2395	2395	2398	2395	2395	2395	2395	2395	2395	2392	2395	2395	2398	2400	2398	2398	2398	2398	2398	2400	2398	2400	2400	2403	2406	2409	2415	2418	2421	2424	2430	2433	2436	2436	2433	2430	2427	2424	2412	2406	2403	2398	2398	2395	2395	2395	2398	2400	2406	2409	2415	2421	2427	2433	2439	2439	2445	2445	2448	2451	2454	2454	2454	0	2460	2463	2466	2469	2469	2473	2479	2482	2482	2488	2491	2494	2501	2504	2510	2513	2517	2520	2523	2526	2530	2533	2533	2533	2539	2543	2546	2552	2559	2566	2579	2589	2593
2439	2442	2442	2442	2442	2439	2436	2436	2430	2430	2430	2427	2427	2424	2427	2424	2424	2427	2427	2430	2427	2430	2433	2436	2436	2439	2439	2436	2436	2433	2433	2430	2427	2421	2415	2412	2406	2392	2386	2380	2374	2372	2369	2369	2366	2366	2366	2366	2372	2377	2383	2389	2395	2400	2403	2406	2409	2412	2412	2418	2418	2424	2427	2430	2433	2436	2436	2442	2448	2454	2460	2466	2476	2479	2476	2476	2476	2466	2460	2454	2451	2445	2442	2439	2433	2430	2424	2421	2415	2409	2406	2403	2400	2400	2400	2400	2403	2406	2406	2406	2409	2412	2415	2415	2421	2424	0	2430	2433	2439	2442	2448	2451	2454	2457	2457	2454	2454	2457	2457	2457	2457	2460	2460	2463	2463	2466	2466	2466	2466	2466	2463	2463	2460	2457	2454	2451	2448	2442	2439	2433	2430	2427	2427	2421	2421	2421	2418	2418	2415	2415	2415	2415	2415	2412	2412	2412	2412	2412	2412	2412	2412	2412	2415	2412	2409	2412	2409	2409	2406	2403	2400	2400	2400	2398	2398	2395	2392	2392	2389	2386	2386	2383	2380	2380	2377	2377	2377	2380	2383	2386	2389	2392	2398	2403	2406	2409	2412	2418	2421	2427	2433	2436	2442	2448	2451	2454	2457	2457	2454	2454	2454	2451	2448	2445	2439	2436	2436	2433	2430	2427	2424	2424	2421	2421	2418	2418	2418	2415	2412	2412	2412	2412	2412	2412	2409	2409	2409	2409	2409	2412	2412	2415	2418	2421	2427	2427	2433	2436	2436	2436	2436	2436	2436	2433	2430	2424	2418	2412	2412	2406	2403	2400	2400	2400	2400	2398	2395	2392	2395	2395	2395	2395	2395	2395	2395	2395	2395	2398	2398	2400	2403	2409	2412	2421	2424	2430	2439	2442	2448	2451	2451	2451	2454	2451	2454	2457	2457	2460	2463	2466	2469	2473	2476	2476	2473	2469	2460	2460	2454	2451	2448	2448	2448	2445	2448	2445	2442	2442	2445	2442	2445	2445	2442	2442	2442	2442	2439	2436	2436	2433	2427	2424	2424	2418	2415	2412	2406	2403	2400	2398	2395	2392	2389	2386	2389	2386	2389	2389	2395	2398	2400	2403	2412	2415	2421	2427	2427	2430	2430	2430	2427	2418	2415	2409	2403	2400	2395	2392	2389	2386	2386	2386	2383	2383	2383	2380	2377	2377	2372	2363	2352	2338	2305	2287	2271	2253	2237	2222	2210	2190	2183	2173	2169	2166	2161	2159	2157	2157	2154	2154	2157	2161	2173	2193	2212	0	2235	2258	2284	2308	2327	2338	2341	2343	2343	2346	2346	2346	2346	2346	2352	2355	2357	2363	2369	2374	2383	2392	2400	2406	0	2409	2412	2418	2421	2424	2427	2427	2427	2427	2427	2424	2424	2418	2412	2409	2403	2398	2392	2392	2389	2389	2392	2395	2400	2403	2412	2418	2421	2427	2430	2430	2430	2430	2427	2424	2421	2418	2418	2415	2412	2409	2406	2403	2398	2389	2386	2380	2377	2372	2372	2369	2372	2372	2374	2377	2380	2386	2392	2400	2409	2418	2430	2436	2442	2448	2445	2445	2436	2433	2427	2415	2409	2403	2398	2392	2392	2389	2386	2386	2383	2386	2386	2392	2398	2403	2406	2412	2415	2418	2421	2421	2421	2418	2415	2412	2409	2403	2400	2392	2386	2380	2374	2369	2363	2360	2357	2357	2355	2357	2360	2363	2363	2366	2366	2366	2366	2366	2366	2366	2366	2366	2366	2369	2372	2374	2377	2377	2377	2380	2380	2386	2386	2389	2392	2392	2392	2392	2392	2389	2389	2392	2392	2395	2398	2398	2403	2403	2403	2406	2403	2403	2403	2403	2403	2403	2403	2403	2406	2406	2409	2415	2418	2421	2424	2427	2427	2427	2427	2427	2424	2421	2412	2406	2403	2400	2395	2395	2392	2392	2395	2395	2400	2403	2409	2415	2421	2424	2427	2430	2433	2436	2439	2442	2442	2439	2442	2445	2448	2451	2454	2457	2460	2463	2469	2469	0	2476	2482	2485	2491	2501	2507	2510	2517	2520	2520	2523	2526	2530	2526	2530	2533	2536	2539	2543	2549	2552	2562	2569	2572
2433	2433	2433	2436	2433	2433	2430	2427	2427	2427	2424	2424	2424	2421	2421	2418	2418	2418	2421	2421	2421	2424	2427	2430	2430	2433	2433	2433	2433	2430	2430	2427	2424	2421	2418	2412	2406	2395	2389	2383	2377	2372	2369	2366	2363	2363	2363	2360	2366	2372	2374	2383	2389	2392	2398	2400	2406	2409	2412	2412	2415	2421	2424	2427	2427	2430	2433	2436	2439	2442	2448	2451	2457	2457	2457	2454	2451	2445	2442	2436	2433	2430	2427	2424	2421	2418	2415	2412	2409	2403	2400	2398	2395	2392	2395	2395	2395	2400	2400	2403	2406	2406	2409	2412	2415	2421	2424	2430	2433	0	2439	2442	2448	2448	2451	2451	2451	2448	2448	2451	2448	2451	2451	2451	2451	2454	2457	2454	2454	2454	2454	2451	2451	2451	2448	2445	2445	2442	2439	2436	2430	2424	2421	2418	2418	2415	2415	2412	2412	2409	2409	2409	2409	2406	2409	2406	2406	2406	2406	2406	2406	2406	2409	2412	2412	2412	2409	2409	2406	2406	2403	2403	2398	2398	2398	2395	2395	2395	2392	2392	2389	2389	2386	2383	2383	2383	2386	2383	2386	2392	2392	2395	2400	2403	2406	2409	2412	2415	2418	2424	2424	2430	2433	2436	2442	2445	2448	2448	2451	2451	2451	2451	2451	2445	2445	2442	2439	2436	2436	2433	2430	2427	2427	2427	2424	2424	2424	2421	2421	2421	2418	2418	2415	2415	2412	2409	2409	2406	2406	2406	2406	2409	2409	2412	2415	2418	2424	2427	2433	2436	2436	2436	2436	2433	2430	2421	2415	2406	2400	2395	2386	2383	2377	2377	2377	2380	2380	2380	2377	2380	2380	2380	2383	2383	2383	2386	2386	2386	2389	2389	2389	0	2398	2403	2406	2412	2418	2427	2433	2436	2439	2442	2445	2448	2448	2451	2451	2454	2454	2460	2463	2463	2466	2466	2463	2460	2457	2457	2454	2448	2448	2445	2442	2442	2442	2442	2439	2439	2436	2436	2439	2436	2436	2436	2433	2433	2430	2430	2430	2427	2427	2421	2418	2415	2412	2406	2403	2400	2395	2389	2389	2383	2377	2374	2374	2374	2374	2377	2377	2383	2389	2395	0	2400	2406	2412	2418	2421	2424	2427	2424	2424	2415	2412	2406	2400	2398	2392	2389	2386	2383	2380	2380	2377	2377	2374	2374	2372	2369	2366	2357	2349	2332	2300	2284	2266	2253	2237	2222	2210	2190	2183	2176	2171	2166	2164	2159	2159	2157	2154	2154	2157	2161	2176	2195	2217	0	2240	2266	2289	2313	2330	2341	2343	2346	2346	2346	2349	2349	2349	2352	2355	2357	2363	2366	2372	2380	2386	2395	2400	0	2406	2409	2412	2415	2421	2424	2427	2424	2424	2427	2424	2421	2421	2418	2412	2406	2403	2400	2398	2395	2395	2395	2395	2398	2403	2406	2412	2418	2424	2424	2427	2430	2427	2427	2424	2421	2418	2415	2418	2412	2412	2412	2406	2403	2398	2389	2383	2377	2372	2369	2366	2363	2366	2366	2366	2369	2372	2377	2386	2392	2400	2409	2418	2427	2433	2439	2439	2436	2430	2424	2418	2412	2400	2389	2389	2386	2386	2383	2383	2383	2383	2386	2389	2395	2400	2406	2409	2415	2418	2421	2424	2424	2424	2421	2415	2415	2409	2403	2398	2392	2383	2377	2369	2363	2357	2355	2355	2346	2349	2349	2352	2352	2352	2355	2357	2357	2357	2357	2360	2360	2360	2363	2366	2366	2369	2372	2374	2374	2374	2374	2380	2380	2383	2383	2386	2383	2383	2386	2386	2386	2389	2389	2395	2395	2400	2403	2406	2409	2409	2409	2409	2409	2409	2409	2406	2406	2406	2406	2406	2409	2409	2412	2415	2418	2421	2421	2424	2424	2424	2424	2421	2418	2412	2406	2403	2400	2395	2395	2392	2392	2392	2395	2398	2400	2403	2406	2412	2418	2421	2424	2424	2424	2427	2427	2427	2430	2430	2433	2436	2436	2439	2442	2445	2448	2451	2454	2463	2463	2473	0	2479	2488	2498	2501	2507	2510	2517	2517	2520	2523	2523	2523	2526	2530	2530	2533	2536	2539	2549	2556	2556
2427	2427	2424	2427	2427	2427	2424	2424	2421	2421	2421	2421	2418	2415	2415	2412	2412	2415	2415	2415	2418	2418	2421	2424	2427	2427	2430	2430	2430	2427	2430	2427	2424	2421	2418	2415	2409	2398	2392	2383	2380	2374	2369	2366	2363	2360	2360	2360	2363	2366	2369	2377	2380	2386	2389	2395	2398	2400	2406	2409	2412	2415	2421	2424	2424	2424	2427	2427	2430	2433	2433	2436	2439	2442	2439	2436	2430	2427	2418	2418	2418	2415	2412	2412	2412	2412	2409	2406	2403	2398	2398	2392	2389	2389	2389	2392	2392	2395	2398	2398	2400	2400	2406	2409	2412	2418	2421	2424	2430	2433	0	2439	2442	2445	2448	2448	2445	2445	2442	2442	2445	2442	2442	2445	2442	2442	2445	2442	2442	2439	2439	2442	2439	2436	2436	2433	2433	2433	2430	2427	2424	2418	2415	2412	2412	2409	2406	2406	2403	2403	2403	2400	2400	2400	2400	2398	2400	2400	2400	2403	2403	2406	2406	2406	2409	2409	2406	2406	2406	2403	2403	2400	2398	2398	2395	2395	2395	2392	2392	2392	2389	2389	2389	2389	2389	2389	2389	2389	2392	2398	2400	2403	2406	2409	2412	2415	2418	2418	2421	2421	2424	2427	2430	2433	2436	2439	2442	2442	2445	2445	2448	2448	2448	2448	2448	2445	2442	2439	2439	2436	2433	2430	2430	2430	2427	2427	2427	2427	2424	2424	2421	2421	2418	2415	2412	2409	2406	2403	2403	2400	2403	2400	2403	2403	2406	2412	2415	2421	2427	2427	2430	2427	2427	2424	2418	2412	2400	2395	2383	2377	2369	2363	2363	2363	2363	2363	2363	2369	2366	0	2369	2372	2374	2374	2374	2374	2374	2380	2377	2383	2383	2389	2392	2398	0	2406	2409	2415	2421	2430	2433	2436	2436	2442	2445	2448	2451	2454	2454	2454	2454	2460	2457	2460	2457	2454	2448	2448	2445	2442	2439	2436	2436	2436	2436	2433	2433	2433	2430	2430	2433	2433	2433	2430	2427	2427	2427	2424	2421	2418	2418	2412	2409	2406	2403	2398	2395	2389	2386	2380	2377	2372	2369	2366	2366	2366	2366	2366	2369	2372	2377	2386	2389	2395	0	2403	2409	2412	2418	2421	2421	2415	2412	2409	2403	2398	2392	2386	2383	2380	2377	2374	2372	2372	2369	2369	2369	2366	2363	2360	2352	2343	2330	2300	2284	2266	2253	2237	2222	2210	2193	2185	2178	2173	2169	2164	2161	2159	2157	2157	2154	2157	2159	2176	2197	2220	0	2245	2268	2292	2316	2332	2341	2346	2346	2349	2349	2352	2352	2355	2357	2363	2363	2369	2374	2380	2383	2392	2395	0	2403	2406	2409	2412	2415	2418	2421	2421	2421	2421	2424	2421	2418	2418	2415	2409	2409	2403	2400	2398	2398	2398	2398	2398	2400	2403	2406	2412	2418	2421	2421	2424	2424	2424	2421	2421	2418	2415	2415	2412	2412	2409	2409	2406	2400	2395	2389	2380	2374	2372	2366	2360	2357	2357	2360	2360	2363	2366	2369	2377	2383	2392	2398	2406	2412	2421	2424	2424	2424	2421	2415	2406	2389	2383	2383	2380	2380	2380	2380	2380	2383	2386	2389	2395	2398	2403	2409	2415	0	2421	2424	2427	2427	2427	2424	2418	2415	2409	2400	2395	2386	2380	2372	2366	2360	2352	2349	2346	2343	2343	2343	2346	2346	2349	2346	2349	2349	2349	2352	2352	2355	2355	2357	2360	2366	2366	2372	2372	2372	2372	2372	2374	2374	2374	2377	2377	2377	2380	2380	2383	2383	2389	2392	2392	2398	2403	2403	2409	2412	2412	2412	2415	2415	2412	2412	2412	2409	2406	2406	2406	2406	2409	2409	2412	2415	2418	2418	2421	2421	2421	2421	2418	2418	2412	2406	2403	2400	2398	2398	2392	2392	2392	2392	2395	2398	2398	2400	2403	2406	2409	2409	2412	2415	2415	2418	2421	2421	2421	2424	2427	2430	2430	2433	2436	2436	2439	2442	2445	2445	2448	2451	2454	2463	2466	2476	2482	0	2488	2494	2501	2504	2507	2513	2517	2517	2520	2520	2523	2526	2536	2539	2543
2421	2421	2421	2421	2421	2424	2421	2418	2418	2415	2415	2415	2415	2412	2412	2409	2409	2412	2412	2412	2415	2415	2418	2424	2424	2427	2427	2427	2427	2427	2427	2427	2427	2424	2421	2415	2415	2409	2398	2392	2383	2377	2372	2369	2363	2360	2360	2360	2360	2363	2366	2369	2374	2380	2383	2389	2392	2398	2400	2406	2409	2412	2418	2418	2421	2421	2424	2424	2421	2421	2421	2418	2421	2421	2415	2415	2409	2409	2406	2403	2403	2403	2406	2403	2403	2406	2403	2403	2400	2398	2395	2389	2389	2389	2389	2389	2392	2395	2395	2400	2398	2403	2403	2409	2409	2415	2418	2421	2424	2430	2433	2433	2439	2439	2442	2442	2439	2439	2436	2436	2436	2436	2436	2433	2433	2433	2430	2430	2430	2427	2427	2427	2424	2424	2421	2421	2421	2418	2418	2415	2409	2406	2406	2400	2400	2398	2395	2395	2392	2392	2392	2395	2395	2395	2395	2395	2395	2398	2398	2398	2398	2400	2400	2403	2403	2403	2403	2403	2403	2403	2403	2398	2398	2395	2395	2395	2395	2392	2392	2392	2389	2392	2392	2392	2395	2395	2395	2400	2400	2403	2406	2409	2409	2412	2415	2415	2415	2415	2415	2418	2418	2421	2421	2424	2427	2430	2433	2436	2439	2439	2442	2445	2448	2451	2448	2445	2445	2442	2439	2436	2436	2433	2430	2430	2430	2430	2430	2427	2427	2427	2424	2421	2418	2415	2415	2409	2403	2400	2398	2398	2395	2395	2395	2398	2398	2403	2406	2409	2415	2415	2418	2415	2415	2409	2400	2395	2383	2374	2366	2357	2352	2349	2349	2352	2352	2355	2355	2357	2357	2363	2363	2363	2363	2366	2369	2369	2372	2372	2374	2374	2377	2383	2386	2392	2398	0	2403	2409	2415	2421	2424	2430	2433	2436	2439	2439	2442	2445	2448	2448	2451	2451	2451	2448	2442	2442	2436	2436	2430	2427	2424	2421	2421	2421	2421	2421	2421	2421	2421	2421	2424	2424	2424	2421	2421	2418	2418	2415	2412	2409	2406	2403	2398	2398	2392	2389	2386	2380	2374	2369	2366	2363	2363	2360	2357	2357	2355	2355	2357	2360	2366	2372	2380	2386	2392	2398	2403	0	2409	2412	2412	2409	2406	2403	2398	2392	2386	2380	2377	2372	2369	2369	2366	2366	2363	2363	2363	2360	2357	2355	2346	2341	2327	2300	2284	2268	2253	2240	2225	2212	2202	2185	2181	2176	2169	2164	2161	2159	2157	2157	2157	2157	2159	2176	2197	0	2220	2247	2271	2294	2316	2335	2343	2349	2349	2352	2352	2352	2355	2357	2360	2366	2369	2372	2377	2383	2386	2392	2398	2400	0	2406	2409	2412	2412	2418	2418	2421	2418	2421	2421	2418	2415	2415	2412	2409	2406	2406	2403	2400	2400	2400	2400	2403	2403	2406	2406	2409	2412	2415	2418	2418	2418	2418	2418	2415	2412	2409	2409	2409	2409	2406	2406	2403	2400	2395	2386	2380	2372	2369	2363	2357	2357	2357	2357	0	2360	0	2363	2369	2374	2380	2389	2395	2400	2406	2409	2409	2409	2406	2400	2386	2380	2374	2374	2374	2372	2374	2377	2380	2386	2392	2395	2400	2406	2412	0	2418	2421	2427	2430	2430	2433	2430	2427	2421	2415	2409	2403	2395	2389	2380	2369	2360	2355	2349	2346	2343	2341	2338	2338	2341	2341	2341	2341	2343	2343	2343	2343	2346	2349	2349	2357	2357	2360	2363	2369	2369	2369	2369	2369	2369	2372	2372	2374	2374	2377	2377	2380	2383	2383	2389	2392	2398	2403	2406	2409	2412	2418	2418	2418	2418	2418	2415	2415	2415	2412	2409	2409	2409	2406	2409	2409	2409	2412	2415	2415	2421	2421	2418	2418	2418	2418	2412	2409	2406	2403	2400	2400	2395	2392	2392	2389	2392	2392	2392	2392	2392	2395	2395	2400	2400	2403	2406	2409	2412	2415	2415	2421	2421	2424	2424	2427	2427	2427	2427	2430	2427	2424	2421	2424	2424	2427	2433	2439	2442	2451	2460	2466	2476	2479	2488	2494	0	2501	2507	2510	2510	2513	2520	2526	2530
2415	2415	2415	2418	2418	2418	2418	2415	2415	2412	2412	2412	2412	2409	2409	2409	2409	2409	2409	2412	2412	2412	2415	2418	2421	2424	2424	2424	2427	2427	2430	2430	2430	2427	2424	2421	2418	2412	2406	2395	2389	2380	2377	2369	2363	2360	2360	2357	2357	2357	2363	2363	2369	2372	2377	2380	2383	2389	2395	2400	2406	2409	2412	2418	2418	2418	2418	2418	2415	2415	2412	2409	2406	2406	2400	2398	2395	2395	2392	2392	2395	2395	2398	2398	2398	2400	2400	2400	2398	2398	2392	2392	2389	2389	2389	2389	2392	2395	2395	2398	2398	2398	2400	2403	2409	2409	2415	2418	2421	2424	2424	2427	2427	2427	2430	2430	2430	2427	2427	2427	2427	2427	2424	2424	2421	2421	2418	2418	2415	2412	2409	2409	2409	2406	2406	2406	2403	2400	2398	2398	2395	2392	2392	2389	2389	2389	2386	2386	2386	2386	2386	2389	2389	2392	2392	2392	2392	2395	2392	2395	2395	2398	2398	2400	2400	2403	2403	2400	2403	2400	2400	2398	2398	2398	2395	2395	2395	2392	2395	2395	2395	2398	2398	2400	2400	2403	2403	2406	2403	2406	2409	2409	2412	2412	2415	2412	2412	2412	2412	2412	2415	2415	2415	2418	2421	2424	2430	2430	2436	2436	2442	2445	2448	2448	2448	2445	2445	2442	2439	2436	2433	2433	2430	2430	2430	2430	2430	2427	2427	2424	2421	2421	2418	2418	2412	2409	2400	2398	2395	2392	2389	2389	2386	2389	2389	2392	2398	2398	2400	2403	2403	2398	2395	2389	2383	2374	2363	2355	2341	2338	2332	2335	2335	2338	2338	2343	2346	2346	2352	2352	2355	2357	2360	2360	2363	2366	2369	2369	2372	2372	2374	2380	2383	2386	2392	2395	2403	0	2409	2415	2412	2418	2421	2427	2430	2436	2439	2442	2442	2445	2445	2445	2442	2436	2433	2427	2424	2421	2418	2409	2406	2403	2403	2403	2403	2403	2406	2406	2406	2406	2409	2409	2409	2409	2406	2403	2400	2398	2398	2398	2395	2392	2386	2386	2383	2380	2377	2372	2363	2363	2357	2355	2352	2349	2349	2349	2349	2349	2349	2355	2357	2363	2369	2374	2383	2389	2395	2400	2403	2406	2406	2403	2400	2398	2392	2386	2383	2374	2372	2366	2363	2360	2360	2357	2357	2355	2355	2355	2352	2349	2343	2338	2327	2300	2287	2271	2255	2242	2227	2215	2205	2190	2183	2178	2171	2166	2164	2161	2159	2159	2157	2157	2159	2176	2200	0	2222	2247	2273	2297	2319	2338	2349	2349	2349	2352	2352	2355	2355	2357	2360	2366	2372	2374	2380	2386	2389	2395	2398	2400	0	2403	2409	2409	2412	2412	2415	2415	2415	2418	2415	2412	2412	2409	2406	2406	2406	2403	2400	2400	2400	2403	2406	2406	2406	2406	2406	2406	2412	2412	2412	2412	2412	2412	2412	2412	2409	2409	2409	2409	2406	2406	2406	2403	2398	2395	2386	2380	2374	2366	2360	2357	2352	2352	2352	2355	2357	2360	2363	0	2366	2372	2374	2380	2386	2389	2392	2395	2392	2392	2383	2377	2372	2369	2369	2372	2372	2374	2380	2383	2389	2395	2400	2406	0	2412	2418	2424	2430	2433	2436	2436	2436	2436	2427	2424	2418	2412	2403	2395	2386	2377	2366	2357	2352	2346	2343	2338	2335	2332	2335	2335	2335	2335	2335	2335	2335	2335	2338	2341	2343	2346	2352	2355	2355	2357	2363	2366	2366	2366	2369	2369	2369	2372	2374	2374	2377	2380	2383	2386	2389	2398	2400	2403	2406	2412	2418	2421	2424	2424	2424	2427	2424	2424	2421	2418	2418	2412	2409	2409	2409	2406	2409	2409	2409	2412	2415	2415	2418	2415	2415	2415	2415	2415	2409	2406	2403	2403	2400	2398	2395	2392	2389	2389	2389	2386	2386	2386	2389	2392	2392	2398	2398	2400	2406	2409	2409	2415	2415	2415	2415	2421	2421	2421	2418	2415	2415	2406	2403	2398	2395	2398	2395	2398	2406	2409	2415	2421	2430	2436	2442	2451	2457	2466	2476	2485	2488	2491	0	2504	2510	2513
2409	2409	2409	2412	2412	2415	2415	2412	2412	2409	2409	2409	2409	2409	2406	2403	2406	2406	2406	2409	2409	2409	2412	2415	2415	2421	2421	2424	2424	2427	2430	2430	2430	2427	2424	2424	2421	2418	2409	2398	2392	2386	2380	2374	2369	2363	2357	2357	2355	2357	2357	2357	2363	2363	2366	2372	2377	2380	2383	2389	2395	2400	2406	2412	2412	2412	2412	2409	2409	2406	2400	2395	2389	2389	2383	2383	2383	2380	2380	2380	2383	2386	2389	2392	2395	2395	2395	2395	2398	2392	2392	2389	2389	2389	2389	2389	2392	2395	2398	2398	2398	2398	2400	2403	2406	2409	2412	2415	2415	2418	2421	2421	2421	2421	2424	2421	2424	2421	2421	2421	2418	2418	2415	2415	2412	2409	2406	2403	2400	2398	2395	2395	2395	2392	2389	2389	2386	2383	2383	2380	2377	2380	2377	2377	2377	2372	2374	2374	2374	2374	2377	2380	2383	2383	2386	2386	2389	2389	2389	2392	2392	2392	2395	2398	2400	2398	2398	2398	2400	2400	2398	2395	2395	2398	2398	2398	2398	2398	2398	2398	2398	2400	2400	2403	2403	2406	2406	2406	2406	2409	2406	2409	2409	2409	2409	2409	2409	2406	2406	2406	2409	2409	2409	2409	2415	2418	2424	2424	2427	2433	2436	2439	2445	2448	2445	2442	2442	2439	2436	2436	2433	2430	2427	2427	2427	2427	2427	2427	2424	2421	2418	2415	2415	2412	2409	2406	2400	2395	2392	2386	2383	2383	2380	2380	2380	2383	2386	2386	2389	2389	2386	2383	2377	2372	2363	2357	2346	2335	2330	2327	2324	2327	2327	2330	2332	2338	2338	2343	2346	2349	2352	2355	2357	2357	2360	2363	2366	2369	2369	2372	2374	2377	2380	2383	2389	2392	2395	2400	2403	2409	0	2415	2418	2424	2427	2433	2436	2436	2439	2439	2439	2433	2433	2427	2421	2415	2412	2409	2403	2398	2392	2389	2386	2383	2383	2386	2389	2392	2392	2395	2395	2395	2392	2392	2392	2389	2386	2389	2386	2386	2383	2380	2377	2377	2374	2372	2369	2360	2355	2352	2352	2349	2346	2343	2343	2343	2343	2343	2343	2346	2349	2355	2360	2369	2372	2380	2383	2392	2398	2398	2398	2398	2395	2389	2386	2380	2377	2369	2363	2360	2357	2355	2355	2352	2352	2352	2349	2346	2346	2343	2338	2332	2324	2297	2284	2271	2258	2245	2230	2217	2207	2193	2185	2181	2173	2169	2166	2164	2161	2159	2157	2157	2161	2178	2200	0	2225	2250	2276	2300	2321	2341	2349	2352	2352	2352	2352	2355	2355	2357	2363	2366	2372	2374	2380	2386	2389	2395	2398	0	2400	2403	0	2406	2409	0	2409	2409	2409	2412	2409	2409	2406	2403	2403	2400	2400	2400	2400	2398	2398	2400	2403	2403	2403	2403	2403	2403	2406	2406	2406	2406	2406	2406	2409	2406	2406	2406	2406	2406	2406	2406	2406	2403	2398	2392	2386	2377	2372	2366	2360	2355	2349	2352	2352	2352	2352	2355	2357	2360	2363	2366	2369	0	2372	2374	0	2377	2377	2374	2374	2369	2366	2366	2366	2369	2372	2377	2380	2386	2392	2400	0	2406	2412	2415	2424	2430	2433	2439	2442	2442	2442	2439	2436	2427	2421	2412	2406	2398	2389	2377	2366	2355	2349	2346	2341	2338	2332	2332	2332	2332	2330	2330	2330	2330	2330	2332	2332	2335	2338	2341	2346	2352	2355	2360	2363	2366	2363	2366	2369	2369	2372	2374	2374	2377	2380	2383	2386	2389	2395	2400	2403	2409	2415	2418	2421	2427	2430	2430	2430	2433	2430	2430	2427	2424	2421	2418	2415	2412	2409	2409	2409	2409	2409	2409	2409	2412	2412	2412	2412	2412	2412	2412	2409	2409	2406	2403	2403	2398	2395	2392	2386	2386	2386	2383	2383	2380	2383	2386	2392	2392	2395	2398	2403	2403	2406	2409	2409	2415	2412	2415	2415	2412	2409	2406	2398	2392	2383	2377	2369	2369	2372	2369	2374	2374	2380	2389	2395	2400	2403	2409	2421	2427	2436	2448	2454	2460	2476	2485	2488	2494
