2181	2178	2176	2173	2169	2166	2166	2164	2164	2164	2164	2169	2171	2176	2178	2178	2181	2183	2185	2188	2193	2195	2197	2202	2207	2210	0	2215	2220	2225	2227	2232	2235	2237	2240	2242	2245	2247	2250	2250	2250	2250	2253	2253	2255	2258	2258	2263	2268	2276	2281	2289	0	2294	2300	2305	2305	2305	2300	2297	2294	2289	2284	2281	2279	2279	2281	2284	2287	2292	2292	2292	2297	2300	2303	2303	2305	2308	2313	2313	2316	2316	2316	2321	2324	2321	2324	2327	2330	2332	2335	2338	2338	2341	2343	2346	2352	2352	2357	2366	2374	2380	2392	2398	2409	2421	2433	2439	2445	2448	2454	2454	2454	2457	2451	2445	2436	2430	2424	2421	2415	2409	2403	2395	2389	2380	2369	2357	2335	2332	2330	2324	2324	2324	2324	2316	2311	2319	2313	0	0	0	0	0	0	0	0	0	2520	2536	2546	2559	2569	2582	0	0	0	0	0	0	0	3806	3814	3814	3829	3836	3851	3858	3866	3874	3866	3866	3858	3851	3836	3806	3792	3785	3770	3770	3756	3756	3756	3777	3806	3843	3881	0	3935	3991	4057	4116	4159	4185	4212	4221	4239	4258	4267	4267	4267	4267	4267	4258	4248	4230	4230	4221	4212	4203	4185	4185	4177	4177	4177	4177	4185	4203	4221	4248	4267	4285	4313	4332	4351	4351	4361	4361	4361	4351	4351	4342	4323	4313	4304	4285	4267	4239	4203	4159	4107	4057	3959	3912	3866	3843	3814	3799	3799	3799	3799	3799	0	0	0	0	0	0	0	0	0	4295	4371	4420	4459	4480	4521	4552	4562	4562	4562	4573	4573	4562	4562	4562	4552	4552	4552	4541	4531	4521	4500	4490	4480	4480	4470	4459	4449	4439	4439	4439	4439	4429	4439	4429	4439	4449	4449	4449	4449	4439	4439	4429	4410	0	0	0	4361	0	0	0	0	0	0	0	0	0	0	0	1781	1781	1783	0	0	0	1789	1793	1796	1799	1803	1806	1809	1811	1811	1812	1811	1807	1806	1803	1801	1798	1796	1798	1796	1796	1798	1801	0	0	0	0	0	0	0	0	0	2242	2240	2235	2230	0	2220	2210	2205	2205	2200	2195	2195	2193	2190	2188	2185	2185	2185	2185	2185	2188	2188	2190	2193	2195	2200	2202	2202	2205	2205	2207	2205	2207	0	0	0	0	0	0	0	0	0	0	0	4989	4989	4989	4989	4976	4964	4951	4939	4914	4890	4878	4854	4842	4807	4795	4772	4749	4738	4715	4693	4659	4637	4627	4605	4584	4562	4531	4510	4480	4459	4449	4429	4420	4420	4429	4429	4439	4459	4480	4480	4490	4500	4500	4490	4490	4480	4470	4459	4449	4439	4429	4429	4420	0	0	0	0	0	0	0	2140	2140	2143	2143	2143	2145	2147	2147	2147	2147	2147	2147	2145	2143	2140	2138	2136	2133	2133	2131	2131	2131	2131	2133	2136	2138	2143	2145	2147	2152	2161	2166	2169	2171	2173	2178	0	0	0	0	0	0	0	0	0	4185	4177	4177	4168	4159	4150	4124	4107	4082	4073	4048	4032	4007	3999	3999	4007	4007	4015	4024	4032	4040	4040	4057	4082	4090	4107	0	4116	4124	4124	4133	4133	4142	4142	4142	4142	4150	4150	4150	4142	4133	4124	4116	4099	4082	4073	4065	4065	4057	4048	4048	4048	4048	4048	4048	4040	4032	4032	4032	4032	4024	4015	4015	4024	4032	4048	4048	4057	4048	4057	4057	4065	4057	0	0	0	0	0	2176	2176	2178	2176	2178	2181	2183	2183	2183	2183	2183	2183	2181	2178	2178	2171	2166	2159	2150	2143	2133	2129	2115	2111	2108	2111	2113	2115	2117	2120	2122	2124	2124	2124	2124	2124	2127	2127	2124	2124	2124	2124	2124	2124	2124	0	0	0	0	0	0	0	0	0	0	0	4024	4024	4032	4024	4015	4024	4015	4007	3991	3991	3983	3975	3975	3967	3967	3967	3975
2181	2178	2176	2173	2169	2169	2166	2164	2166	2164	2166	2169	2171	2173	2176	2178	2181	2183	2185	2188	2188	2193	2195	2200	2202	2210	0	2215	0	2222	2227	2232	2235	2237	2242	2245	2245	2247	2250	2253	2253	2255	2255	2255	2258	2258	2260	2266	2268	2276	2284	2289	0	2294	2300	2305	2308	2305	2303	2297	2294	2289	2284	2279	2276	2276	2276	2279	2281	2287	2287	2289	2292	2294	2297	2300	2303	2305	2311	2311	2313	2313	2313	2316	2316	2316	2316	2319	2316	2321	2321	2324	2330	2330	2332	2335	2338	2341	2343	2349	2357	2363	2372	2380	2386	2400	2412	2418	2424	2430	2433	2436	2439	2436	2436	2430	2421	2415	2412	2409	2403	2398	2363	2355	2352	2343	2335	2327	2321	2319	2316	2316	2319	2321	2327	2335	2346	2357	2366	0	0	0	0	0	0	0	0	2504	2520	2536	2546	2559	2572	2589	2599	0	0	0	0	0	0	0	0	3806	3821	3836	3851	3858	3866	3866	3866	3866	3858	3851	3836	3806	3792	3785	3770	3763	3756	3756	3756	3785	3814	3866	3912	0	3975	4040	4116	4185	4230	4248	4267	4276	4285	4295	4295	4295	4295	4295	4285	4276	4267	4258	4248	4239	4221	4212	4212	4203	4194	4194	4203	4203	4221	4239	4248	4276	4285	4304	4323	4332	4351	4351	4361	4361	4361	4361	4351	4342	4323	4304	4295	4285	4258	4230	4194	4150	4107	4057	3959	3912	3874	3843	3821	3814	3806	3806	3806	0	0	0	0	0	0	0	0	0	4230	4323	0	0	4480	4510	4541	4573	4584	4584	4594	4594	4605	4594	4605	4594	4594	4594	4584	4594	4584	4573	4552	4541	4531	4521	4521	4510	4490	4470	4459	4449	4449	4459	4439	4439	4449	4459	4470	4459	4459	4459	4459	4449	4429	0	0	4371	4371	0	0	0	0	0	0	0	0	0	0	0	1780	1780	1781	1783	1785	1786	1788	1793	1796	1798	1801	1804	1809	1812	1814	1812	1811	1809	1806	1804	1801	1799	1796	1798	1798	1798	1798	1801	0	0	0	0	0	0	0	0	0	0	2237	2235	2230	0	2222	2220	2210	2207	2205	2200	2197	2195	2193	2188	2185	2185	2183	2185	2185	2188	2188	2190	2190	2195	2197	2202	2205	2205	2205	2207	2207	2207	0	0	0	0	0	0	0	0	0	0	5014	5014	5001	5001	4989	4989	4964	4951	4939	4914	4890	4866	4842	4818	4783	4760	4738	4726	4704	4681	4637	4616	4605	4584	4573	4552	4531	4510	4490	4459	4439	4429	4420	4410	4410	4410	4420	4429	4449	4470	4470	4490	4490	4500	4490	4490	4480	4480	4459	4449	4439	4429	4429	4420	0	0	0	0	0	0	2133	2136	2136	2136	2138	2140	2140	2140	2143	2145	2145	2147	2147	2145	2143	2143	2140	2138	2138	2136	2136	2136	2133	2136	2138	2138	2143	2145	2147	2150	2154	2161	2166	2169	2171	2173	2176	0	0	0	0	0	0	0	0	0	4212	4203	4194	4185	4185	4168	4150	4124	4107	4082	4065	4048	4032	4007	4007	4007	4015	4015	4024	4024	4032	4040	4057	4065	4082	4090	4107	4107	4116	4116	4124	4124	4124	4124	4133	4133	4133	4133	4133	4124	4116	4107	4099	4090	4065	4065	4057	4048	4040	4040	4040	4040	4040	4040	4040	4032	4032	4032	4032	4032	4024	4024	4015	4024	4032	4040	4048	4048	4048	4057	4057	4057	4057	0	0	0	0	0	2178	2178	2178	2178	2181	2181	2183	2185	2185	2185	2185	2183	2183	2181	2178	2171	2166	2157	2150	2140	2133	2129	2122	2113	2111	2111	2113	2115	2117	2120	2120	2122	2122	2122	2122	2122	2124	2124	2124	2122	2124	2124	2127	2127	2127	2127	0	0	0	0	0	0	0	0	0	0	4032	4032	4032	4032	4032	4024	4015	4007	3999	3991	3991	3975	3975	3975	3975	3975	3975
2183	2181	2178	2173	2171	2169	2166	2166	2166	2166	2166	2169	2171	2173	2176	2176	2178	2181	2183	2185	2188	2190	2195	2197	2202	2207	2210	2217	2220	0	2227	2232	2237	2240	2242	2245	2247	2250	2253	2253	2255	2258	2258	2258	2260	2260	2263	2266	2271	2276	2281	2287	0	2294	2297	2303	2305	2305	2303	2297	2292	2289	2284	2281	2276	2273	2276	2279	2279	2279	2284	2287	2289	2292	2294	2297	2303	2308	2311	2311	2311	2311	2311	2311	2308	2308	2305	2305	2305	2308	2311	2313	2316	2319	2319	2324	2324	2327	2330	2335	2341	2346	2352	2355	2363	2374	2383	2392	2395	2403	2406	2412	2412	2415	2412	2406	2377	2372	2372	2360	2352	2341	2332	2324	2316	2311	2300	2289	2284	2281	2281	2284	2294	2297	2308	2321	2335	2352	2372	2383	0	0	0	0	0	0	2488	2504	2520	2536	2549	2562	2576	2593	2603	2613	0	0	0	0	0	0	0	0	3821	3836	3851	3858	3866	3874	3858	3858	3851	3843	3814	3799	3785	3770	3763	3749	3742	3742	3749	3777	3821	3874	0	3928	3991	4073	4150	4221	4267	4285	4295	4304	4313	4313	4323	4323	4313	4304	4304	4285	4285	4267	4258	4248	4239	4230	4221	4221	4221	4212	4221	4230	4239	4258	4276	4295	4304	4323	4332	4351	4361	4371	4371	4371	4371	4361	4351	4342	4323	4304	4295	4276	4248	4221	4185	4142	4099	4048	3959	3912	3874	3851	3829	3821	3814	3814	3814	3814	3829	3843	3858	3897	3983	4057	0	4142	4239	4332	4420	4459	4510	4531	4562	4584	4594	4605	4605	4616	4616	4616	4627	4627	4627	4627	4616	4616	4616	4605	4584	4573	4562	4552	4531	4531	4510	4490	4470	4459	4459	4459	4449	4449	4470	4470	4480	4480	4480	4480	4480	4470	4449	4429	4410	4400	4390	0	0	0	0	0	0	0	0	0	0	1781	1780	1780	1781	1783	1785	1786	1789	1793	1796	1801	1803	1806	1811	1812	1816	1814	1814	1812	1809	1806	1803	1801	1798	1798	1799	1799	1799	1803	0	0	0	0	0	0	0	0	0	0	0	2235	0	0	2225	2222	2212	2212	2207	2202	2200	2195	2193	2188	2185	2183	2183	2183	2183	2183	2185	2188	2190	2195	2197	2202	2202	2202	2202	2205	2205	2207	0	0	0	0	0	0	0	0	0	0	5014	5014	5027	5014	5014	5001	4989	4976	4951	4927	4902	4866	4830	4807	4772	4749	4726	4704	4681	4659	4616	4605	4584	4573	4552	4531	4510	4490	4470	4449	4429	4410	4410	4400	4400	4400	4410	4429	4439	4459	4470	4480	4490	4490	4490	4490	4490	4480	4459	4449	4429	4420	4400	4420	0	0	0	0	0	0	0	2129	2131	2131	2133	2136	2136	2138	2138	2140	2145	2145	2145	2145	2145	2143	2143	2140	2138	2138	2138	2138	2136	2138	2140	2143	2145	2147	2150	2152	2157	2161	2166	2169	2171	2171	2176	0	0	0	0	0	0	0	0	0	4221	4221	4212	4203	4194	4185	4168	4142	4124	4099	4082	4065	4040	4015	4007	4007	4007	4015	4015	4015	4024	4032	4048	4057	4065	4082	4090	4099	4099	4107	4116	4116	4116	4116	4124	4124	4124	4124	4116	4116	4107	4099	4090	4073	4065	4048	4048	4040	4032	4024	4024	4024	4024	4032	4024	4024	4024	4024	4024	4024	4024	4015	4015	4024	4032	4040	4048	4048	4048	4048	4048	4048	4048	0	0	0	0	0	2176	2176	2176	2176	2178	2181	2185	2185	2185	2185	2183	2183	2181	2178	2178	2171	2166	2157	2150	2143	2133	2129	2122	2113	2111	2113	2113	2115	2117	2120	2120	2122	2122	2122	2122	2124	2124	2124	2124	2124	2124	2127	2127	2129	2127	2129	0	0	0	0	0	0	0	0	0	0	4040	4040	4040	4040	4032	4032	4024	4015	3999	3999	3991	3991	3983	3975	3975	3975	3983
2185	2183	2178	2176	2173	2171	2171	2169	2169	2169	2169	2169	2169	2171	2173	2176	2176	2178	2181	2183	2185	2190	2193	2197	2202	2205	2212	2217	2220	0	2227	2232	2237	2242	2245	2247	2250	2253	2255	2258	2260	2260	2260	2263	2263	2263	2263	2266	2268	2273	2279	2284	2289	2294	0	2300	2303	2305	2300	2297	2292	2289	2284	2279	2276	2273	2273	2273	2276	2276	2281	2284	2287	2289	2294	2297	2300	2305	2308	2311	2311	2308	2308	2303	2303	2297	2297	2294	2294	2294	2294	2297	2300	2303	2305	2311	2311	2313	2316	2321	2327	2330	2330	2332	2338	2346	2352	2357	2366	2369	2374	2346	2352	2352	2357	2355	2343	2341	2332	2327	2319	2308	2300	2292	2281	2273	2266	2255	2247	2247	2253	0	2260	2268	2281	2300	2319	2343	2369	2386	2398	2412	2433	0	2454	0	2485	2504	2523	2539	2552	2569	2579	2596	2606	2613	2624	0	0	0	0	0	0	0	0	3836	3851	3858	3858	3866	3858	3858	3851	3836	3799	3785	3763	3756	3749	3742	3734	3734	3734	3770	3814	3881	0	3935	4007	4082	4159	4239	4276	4304	4313	4323	4323	4323	4323	4323	4313	4313	4304	4285	4276	4267	4248	4239	4230	4230	4221	4221	4221	4230	4239	4248	4258	4276	4285	4304	4323	4332	4351	4361	4371	4371	4380	4380	4371	4371	4361	4351	4323	4304	4295	4267	4239	4212	4177	4133	4090	4040	3951	3912	3881	3851	3836	3829	3821	3821	3821	3821	3836	3851	3866	3912	3991	4073	0	4150	4248	4342	4439	4480	4510	4552	4573	4584	4605	4605	4616	4627	4627	4637	4637	4637	4637	4637	4637	4637	4627	4627	4605	4584	4584	4573	4562	4541	4521	4500	4480	4470	4459	4449	4439	4449	4459	4470	4480	4490	4500	4500	4490	4490	4470	4449	4429	4410	4400	0	0	0	0	0	0	0	0	0	1781	1781	1781	1783	1785	1785	1786	1789	1793	1796	1799	1803	1806	1809	1812	1817	1817	1817	1817	1814	1812	1809	1806	1803	1799	1801	1801	1801	1801	1804	0	0	0	0	0	0	0	0	0	2237	2235	2232	0	0	2227	2222	2215	2215	2210	2205	2202	2197	2193	2188	2185	2183	2181	2181	2181	2183	2185	2188	2188	2193	2197	2200	2202	2202	2205	2205	2205	2210	0	0	0	0	0	0	0	0	0	0	0	5027	5027	5014	5014	5001	4989	4976	4951	4927	4890	4854	4842	4795	4760	4738	4715	4693	4670	4627	4616	4594	4584	4573	4552	4531	4510	4490	4470	4449	4429	4410	4400	4400	4390	4390	4400	4420	4439	4449	4470	4470	4480	4480	4490	4480	4470	4459	4449	4429	4420	4390	4380	4371	0	0	0	0	0	0	0	0	2124	2127	2129	2129	2129	2133	2136	2138	2140	2143	2143	2145	2145	2145	2143	2143	2140	2140	2140	2140	2140	2140	2143	2145	2147	2150	2152	2154	2157	2161	2166	2166	2169	2171	2173	0	0	0	0	0	0	0	0	0	4230	4230	4221	4221	4212	4194	4177	4150	4124	4107	4090	4073	4048	4015	4007	4007	4007	3999	4007	4007	4015	4024	4032	4048	4057	4065	4082	4090	4090	4099	4099	4107	4107	4107	4107	4107	4116	4107	4107	4099	4099	4082	4073	4065	4048	4040	4024	4024	4015	4015	4007	4007	4007	4007	4007	4007	4007	4015	4015	4015	4015	4015	4015	4024	4032	4040	4040	4040	4040	4040	4040	4048	4048	0	0	0	0	0	2171	2171	2173	2173	2176	2178	2181	2185	2185	2185	2185	2183	2181	2178	2178	2173	2166	2157	2150	2143	2136	2129	2124	2115	2113	2113	2115	2117	2117	2120	2120	2120	2122	2122	2122	2124	2124	2124	2124	2122	2124	2127	2129	2129	2129	2131	0	0	0	0	0	0	0	0	0	0	4040	4040	4048	4040	4040	4040	4024	4024	4015	4007	3999	3999	3991	3983	3983	3983	3991
2185	2183	2181	2178	2176	2173	2171	2171	2169	2169	2169	2169	2171	2171	2173	2176	2178	2178	2181	2183	2188	2190	2193	2197	2202	2205	2210	2215	2220	0	2225	2232	2237	2242	2247	2250	2255	2258	2260	2263	2263	2266	2266	2266	2266	2266	2266	2266	2266	2273	2276	2281	2284	2292	2294	2300	2300	2300	2300	2297	2289	2289	2281	2279	2273	2273	2273	2273	2273	2276	2279	2281	2287	2289	2294	2297	2300	2305	2308	2308	2305	2303	2300	2297	2292	2289	2284	2281	2281	2284	2287	2284	2287	2292	2294	2297	2300	2300	2303	2308	2313	2311	2316	2316	2305	2308	2308	2311	2313	2316	2319	2321	2324	2324	2319	2313	2308	2300	2294	2287	2279	2271	2266	2255	2250	2237	2230	2225	2222	2222	2225	2232	2245	2255	0	2276	2300	2332	2366	2389	2400	2415	2433	0	2451	2466	2485	2501	2523	2539	2556	2572	2586	2599	2610	2613	2624	2631	0	0	0	0	0	0	0	0	3851	3866	3866	3858	3851	3851	3843	3806	3792	3770	3756	3749	3734	3727	3727	3727	3727	3770	3814	3874	0	3935	4007	4082	4159	4221	4267	4285	4295	4304	4304	4304	4304	4304	4295	4285	4285	4276	4267	4258	4248	4239	4230	4230	4230	4230	4239	4248	4258	4267	4285	4295	4313	4332	4342	4351	4361	4380	4390	4400	4400	4400	4390	4380	4371	4361	4323	4304	4285	4258	4230	4194	4159	4116	4082	4040	3951	3912	3874	3858	3843	3836	3829	3829	3829	3829	3836	3858	3874	3920	3999	4073	0	4159	4248	4351	4439	4490	4531	4552	4573	4594	4605	4616	4616	4627	4627	4637	4637	4637	4637	4648	4648	4648	4637	4637	4616	4605	4584	4584	4562	4541	4521	4510	4480	4470	4459	4459	4449	4449	4470	4480	0	4500	4510	4521	4521	4510	4490	4470	4459	0	0	0	0	0	0	0	0	0	0	0	1785	1783	1783	1785	1786	1788	1789	1793	1796	1799	1803	1806	1809	1811	1814	1817	1821	1819	1819	1817	1814	1811	1807	1804	1801	1801	1803	1803	1803	1806	0	0	0	0	0	0	2237	2240	2235	2237	2232	2232	2230	0	2227	2225	2222	2217	2212	2207	2202	2197	2193	2188	2185	2181	2181	2181	2181	2181	2183	2185	2188	2193	2197	2200	2202	2205	2205	2207	2207	2210	0	0	0	0	0	0	0	0	0	0	0	5027	5027	5027	5027	5014	5001	4989	4951	4927	4902	4866	4842	4818	4783	4760	4726	4704	4681	4670	4616	4605	4594	4584	4562	4541	4521	4490	4470	4449	4420	4400	4400	4390	4390	4390	4400	4410	4420	4439	4449	4459	4470	4480	4480	4470	4470	4449	4439	4420	4380	4371	4361	4351	4332	0	0	0	0	0	0	0	2120	2122	2124	2124	2127	2129	2131	2136	2138	2140	2143	2145	2145	2145	2145	2143	2143	2143	2143	2143	2140	2143	2143	2147	2150	2152	2152	2154	2157	2161	2164	2166	2169	2169	2171	0	0	0	0	0	0	0	0	0	4239	4230	4230	4221	4212	4203	4177	4159	4133	4107	4090	4073	4048	4015	4007	3999	3999	3999	3999	3999	4007	4015	4024	4032	4048	4057	4065	4073	4090	4090	4090	4099	4099	4099	4099	4107	4099	4099	4099	4090	4082	4073	4065	4057	4040	4032	4024	4015	4007	4007	3999	3999	3999	3999	4007	4007	4007	4007	4015	4015	4024	4024	4024	4024	4032	4032	4040	4032	4032	4040	4040	4040	4040	4040	0	0	0	0	0	2157	2159	2161	2166	2169	2173	2178	2183	2185	2183	2183	2181	2181	2178	2173	2166	2159	2152	2145	2138	2136	2127	2122	2117	2117	2117	2117	2120	2120	2120	2122	2122	2122	2122	2122	2122	2122	2122	2122	2124	2127	2129	2129	2129	2131	0	0	0	0	0	0	0	0	0	0	4048	4048	4048	4040	4040	4048	4040	4032	4024	4024	4015	4015	4007	4007	4007	4007	4007
2188	2185	2183	2181	2176	2173	2171	2171	2171	2171	2171	2171	2173	2173	2176	2176	2178	2181	2183	2185	2188	2193	2193	2195	2202	2205	2210	2215	2220	0	2227	2232	2237	2245	2250	2255	2258	2260	2266	2266	2268	2268	2268	2268	2268	2266	2266	2266	2268	2268	2273	2279	2281	2284	2289	2294	2297	2297	2294	2292	2287	2287	2281	2276	2273	2271	2271	2271	2273	2276	2279	2281	2287	2289	2292	2297	2300	2303	2303	2303	2300	2297	2292	2289	2284	2279	2276	2273	2271	2273	2273	2273	2276	2279	2284	2287	2289	2289	2276	2284	2284	2287	2284	2284	2287	2289	2289	2292	2292	2294	2297	2297	2300	2294	2287	2284	2276	2266	2258	2250	2242	2237	2225	2220	2212	2207	2205	2200	2197	0	0	0	0	0	2245	0	2279	0	2352	2389	2406	2418	0	2436	2451	2466	2482	2501	2523	2546	2559	2579	2593	2606	2613	2620	2624	2634	0	0	0	0	0	0	0	0	3866	3866	3866	3858	3851	3843	3836	3799	3777	3763	3749	3734	3727	3720	3720	3720	3720	3756	3814	3866	0	3928	3991	4057	4133	4194	4239	4258	4267	4267	4267	4276	4276	4276	4267	4267	4258	4248	4248	4239	4230	4230	4221	4230	4230	4230	4248	4258	4267	4285	4295	4313	4332	4351	4361	4371	4380	4400	4410	4429	4420	4420	4420	4400	4380	4371	4323	4295	4276	4248	4212	4185	4150	4107	4065	4032	3943	3904	3881	3858	3843	3836	3836	3836	3836	3836	3843	3858	3874	3920	3999	4082	0	4159	4258	4351	4429	4490	4531	4552	4573	4584	4594	4605	4616	4616	4616	4627	4627	4637	4627	4637	4637	4637	4637	4627	4616	4605	4605	4594	4573	4562	4531	4510	4490	4480	4470	4449	4439	4449	0	4470	4490	4510	4521	4521	4531	4531	4521	4490	0	0	0	0	0	0	0	0	0	0	0	0	1785	1785	1786	1786	1789	1789	1793	1794	1798	1801	1804	1809	1812	1814	1817	1821	1822	1821	1819	1817	1814	1811	1807	1804	1801	1801	1804	1804	1804	1807	1811	0	0	0	0	0	2235	2237	2235	2235	2235	2232	2232	0	2230	2227	2222	2222	2215	2210	2205	2200	2195	2190	2185	2181	2181	2178	2178	2181	2183	2183	2185	2190	2195	2200	2202	2202	2205	2207	2207	2212	0	0	0	0	0	0	0	0	0	0	0	5040	5040	5040	5040	5027	5001	4989	4964	4939	4914	4890	4854	4818	4795	4760	4738	4715	4693	4670	4627	4616	4605	4584	4562	4541	4521	4500	4470	4439	4420	4400	4380	4380	4380	4380	4390	4400	4420	4429	4439	4449	4459	4470	4470	4459	4449	4439	4420	4410	4371	4351	4342	4332	4313	0	0	0	0	0	0	0	2115	2117	2120	2122	2122	2124	2129	2131	2136	2138	2140	2143	2145	2145	2145	2145	2143	2143	2143	2143	2143	2143	2145	2147	2150	2152	2154	2154	2159	2161	2164	2164	2166	2166	2169	0	0	0	0	0	0	0	0	0	4230	4221	4221	4212	4203	4194	4177	4150	4124	4107	4090	4073	4048	4032	3999	3991	3983	3983	3983	3991	3991	4007	4007	4024	4032	4048	4057	4065	4073	4082	4082	4090	4099	4090	4090	4090	4090	4090	4082	4082	4065	4065	4057	4048	4040	4032	4015	4015	4007	3999	3999	3999	3999	3999	3999	3999	3999	4007	4015	4024	4024	4024	4024	4032	4032	4040	4040	4040	4032	4040	4040	4040	4040	4040	0	0	0	0	0	0	2140	2145	2152	2157	2161	2169	2176	2181	2183	2183	2181	2181	2181	2173	2169	2161	2154	2147	2143	2136	2131	2127	2122	2122	2120	2120	2120	2120	2122	2122	2122	2122	2122	2122	2122	2122	2122	2122	2124	2129	2129	2131	2129	2136	0	0	0	0	0	0	0	0	0	0	4048	4048	4048	4048	4048	4048	4048	4040	4040	4040	4032	4032	4024	4024	4024	4024	4024
2188	2185	2183	2181	2178	2176	2173	2173	2173	2173	2173	2173	2173	2176	2176	2178	2178	2181	2183	2185	2188	2193	2193	2197	2202	2207	2212	2217	0	2222	2230	2235	2242	2250	2253	2255	2260	2266	2268	2271	2273	2271	2273	2273	2268	2268	2266	2266	2268	2268	2271	2273	2276	2281	2284	2287	2292	2292	2292	2289	2287	2284	2279	2276	2273	2271	2271	2273	2273	2276	2279	2281	2284	2289	2292	2297	2297	2300	2300	2300	2294	2289	2287	2281	2276	2273	2268	2266	2266	2266	2266	2266	2258	2258	2260	2260	2263	2263	2266	2268	2268	2266	2268	2263	2266	2266	2268	2271	2271	2271	2273	2273	2273	2268	2258	2253	2242	2235	2220	2212	2202	2200	2195	2193	2190	2183	2183	2178	2178	2173	2178	2181	2190	0	0	0	0	0	0	0	2406	2418	2433	0	2445	2460	2476	2498	2523	2546	2562	2582	2596	2610	2617	2624	2627	2631	2638	0	0	0	0	0	0	0	0	3881	3874	3858	3851	3843	3829	3792	3770	3756	3734	3727	3720	3713	3706	3706	3713	3749	3799	3851	3912	0	3967	4032	4099	4159	4194	4221	4221	4230	4230	4239	4239	4239	4239	4239	4239	4230	4230	4221	4221	4221	4221	4221	4230	4239	4248	4258	4276	4285	4304	4323	4342	4361	4380	4390	4410	4420	4439	4449	4449	4439	4429	4420	4400	4380	4323	4295	4267	4230	4203	4168	4133	4090	4057	4015	3943	3912	3881	3866	3858	3851	3843	3843	3843	3843	3858	3874	3889	3935	3999	4082	0	4177	4267	4351	4439	4490	4531	4541	4562	4573	4584	4594	4594	4605	4605	4605	4605	4616	4616	4616	4627	4627	4627	4627	4616	4605	4605	4594	4584	4552	4541	4510	4490	4480	4459	4449	4429	4439	4459	0	4490	4510	4531	4531	4541	4541	4521	0	0	0	0	0	0	0	0	0	0	0	0	0	1788	1788	1789	1789	1793	1793	1794	1799	1803	1806	1809	1814	1817	1819	1821	1822	1824	1822	1821	1817	1814	1811	1807	1804	1803	1803	1806	1804	1807	1809	1812	0	0	0	0	0	2235	2235	2235	2235	2235	2232	2230	2230	2230	2227	2225	2225	2217	2215	2207	2202	2197	2190	2185	2181	2178	2178	2178	2178	2181	2181	2185	2193	2197	2200	2202	2205	2207	2207	2210	2212	0	0	0	0	0	0	0	0	0	0	0	0	0	5053	5053	5040	5040	5014	4989	4964	4927	4914	4890	4854	4818	4795	4772	4738	4715	4693	4681	4637	4627	4605	4584	4552	4531	4510	4470	4439	4420	4390	4380	4380	4371	4371	4380	4390	4410	4420	4429	4439	4449	4459	4449	4449	4439	4429	4410	4371	4361	4332	4323	4313	4304	0	0	0	0	0	0	0	2115	2115	2117	2117	2120	2122	2124	2129	2133	2136	2138	2140	2143	2145	2145	2143	2143	2143	2145	2145	2145	2145	2147	2150	2152	2154	2154	2154	2159	2161	2161	2164	2166	2164	2169	0	0	0	0	0	0	0	0	0	4230	4212	4212	4203	4194	4185	4168	4142	4124	4107	4090	4073	4048	4032	3999	3983	3983	3975	3975	3975	3975	3991	3999	4015	4024	4040	4048	4057	4065	4073	4082	4090	4090	4090	4099	4099	4099	4090	4082	4073	4065	4065	4057	4048	4040	4032	4024	4024	4015	4007	4007	4007	4007	4007	3999	4007	4007	4007	4015	4032	4032	4032	4032	4032	4040	4040	4040	4040	4040	4040	4040	4040	4040	4040	0	0	0	0	0	0	2115	2122	2131	2138	2145	2157	2166	2176	2181	2181	2183	2181	2181	2173	2169	2161	2157	2150	2147	2140	2136	2129	2129	2124	2124	2122	2122	2122	2122	2122	2122	2120	2122	2122	2122	2120	2120	2122	2124	2129	2131	2133	2131	2136	0	0	0	0	0	0	0	0	0	0	4048	4048	4048	4048	4040	4048	4048	4040	4048	4048	4048	4048	4048	4040	4040	4040	4040
2190	2188	2185	2183	2181	2178	2178	2178	2178	2178	2178	2178	2178	2178	2181	2183	2183	2183	2185	2188	2190	2195	2197	2200	2205	2210	2215	0	2220	2225	2230	2237	2245	2253	2255	2260	2266	2268	2273	2276	2276	2276	2276	2273	2273	2268	2266	2266	2268	2268	2271	2271	2273	2276	2279	2284	2284	2287	2287	2287	2284	2284	2281	2276	2276	2276	2273	2276	2276	2279	2281	2284	2287	2289	2292	2294	2294	2297	2294	2292	2287	2284	2279	2276	2271	2255	2253	2255	2253	2253	2250	2250	2247	2247	2250	2250	2250	2250	2253	2255	2253	2253	2250	2247	2247	2247	2247	2250	2247	2250	2245	2250	2245	2237	2225	2210	2202	2195	2190	2183	2176	2176	2173	2169	2166	2164	2161	2159	2157	2154	2157	2161	2166	2178	0	0	0	0	0	0	2406	2418	2430	0	2442	2454	2469	2491	2520	2546	2569	2586	2603	2613	2620	2624	2627	2631	2638	0	0	0	0	0	0	0	0	3889	3881	3866	3858	3843	3829	3785	3763	3749	3734	3720	3713	3706	3700	3706	3706	3742	3785	3836	3889	0	3943	3999	4057	4107	4150	4168	4185	4194	4203	4212	4212	4212	4212	4212	4212	4212	4212	4212	4212	4212	4212	4221	4230	4230	4248	4258	4276	4295	4313	4332	4351	4371	4400	4410	4429	4449	4470	4480	4480	4470	4449	4429	4410	4390	4323	4285	4248	4221	4185	4150	4116	4082	4040	4007	3935	3904	3881	3858	3851	3843	3851	3843	3843	3851	3866	3874	3897	3943	4015	0	4107	4194	4276	4371	4429	4480	4521	4541	4552	4562	4573	4584	4573	4584	4584	4594	4594	4594	4594	4605	4605	4616	4616	4616	4605	4605	4594	4594	4573	4562	4531	4521	4490	4480	4449	4429	4429	4429	4449	4470	0	4500	4521	4521	4531	4531	4531	0	0	0	0	0	0	0	0	0	0	0	0	0	1789	1791	1791	1793	1794	1796	1799	1803	1807	1811	1814	1817	1821	1822	1822	1824	1824	1822	1819	1816	1812	1809	1806	1804	1801	1803	1806	1807	1809	1809	1812	0	0	0	0	0	2235	2235	2235	2235	2235	2232	2232	2232	2232	2230	2230	2227	2225	2217	2212	2207	2202	2195	2188	2185	2181	2181	2181	2178	2181	2181	2183	2190	2195	2197	2200	2205	2207	2207	2210	2212	0	0	0	0	0	0	0	0	0	0	0	0	0	0	0	0	0	0	0	0	0	0	0	0	4854	4830	4807	4795	4760	4738	4715	4704	4681	4627	4594	4562	4552	4521	4480	4439	4410	4390	4380	4371	4371	4371	4371	4390	4400	4410	4429	4429	4439	4449	4449	4429	4429	4410	4400	4361	4342	4332	4323	4304	4295	4285	0	0	0	0	0	0	2115	2115	2117	2120	2120	2122	2122	2127	2131	2133	2136	2138	2140	2143	2143	2143	2143	2143	2143	2145	2145	2147	2147	2150	2152	2154	2154	2157	2157	2161	2159	2161	2164	2161	2166	0	0	0	0	0	0	0	0	0	4221	4212	4203	4194	4185	4177	4159	4142	4116	4099	4082	4065	4048	4007	3999	3983	3967	3967	3959	3959	3967	3983	3991	3999	4015	4032	4040	4048	4057	4065	4073	4082	4090	4090	4090	4090	4090	4082	4073	4073	4065	4065	4057	4048	4040	4040	4040	4032	4032	4024	4024	4015	4015	4015	4015	4015	4024	4024	4024	4040	4040	4040	4040	4040	4040	4040	4048	4048	4040	4040	4040	4048	4048	0	0	0	0	0	0	0	2086	2095	2106	2117	2131	2145	2157	2169	2178	2178	2181	2181	2178	2173	2169	2164	2159	2152	2150	2145	2140	2136	2133	2131	2131	2129	2127	2124	2124	2122	2122	2122	2122	2122	2120	2120	2120	2122	2127	2129	2131	2133	2131	2138	0	0	0	0	0	0	0	0	0	0	4040	4040	4040	4040	4048	4048	4048	4048	4057	4057	4057	4057	4057	4057	4057	4057	4057
2193	2188	2185	2183	2183	2181	2181	2181	2183	2183	2185	2185	2185	2185	2185	2188	2188	2188	2190	2193	2195	2197	2200	2202	2207	2212	0	2217	2222	2227	2235	2240	2250	2255	2258	2263	2268	2273	2276	2279	2281	2281	2279	2276	2273	2268	2266	2263	2263	2266	2266	2268	2268	2271	2276	2276	2279	2279	2281	2281	2281	2281	2279	2279	2276	2276	2276	2276	2279	2279	2281	2284	2287	2287	2289	2292	2289	2289	2287	2284	2268	2266	2258	2255	2247	2245	2245	2245	2245	2245	2245	2242	2242	2240	2242	2242	2242	2242	2242	2245	2242	2242	2240	2235	2232	2230	2225	2225	2225	2222	2217	2217	2215	2195	2188	2181	2176	2171	2164	2161	2157	2154	2152	2152	2152	2150	2147	2145	2143	2140	2143	2145	2147	2154	0	0	0	0	0	0	2412	2424	2433	0	2442	2454	2469	2491	2520	2546	2569	2589	2603	2617	2624	2627	2627	2631	0	0	0	0	0	0	0	0	0	3912	3897	3881	3866	3843	3829	3785	3756	3742	3727	3713	3706	3700	3693	3700	3706	3734	3770	3814	3858	3912	0	3967	4024	4073	4116	4133	4150	4159	4168	4177	4185	4194	4194	4194	4194	4194	4194	4194	4194	4203	4203	4212	4221	4230	4239	4258	4276	4285	4304	4323	4351	4380	4400	4429	4439	4470	4490	4500	4500	4480	4459	4439	4410	4390	4304	4276	4230	4194	4168	4133	4099	4065	4024	3959	3928	3904	3881	3874	3866	3858	3851	3851	3858	3866	3866	3889	3912	3967	4040	0	4133	4221	4313	4390	4459	4490	4521	4541	4552	4562	4562	4562	4573	4573	4573	4573	4584	4584	4584	4584	4594	4594	4605	4605	4605	4594	4584	4584	4573	4541	4531	4510	4480	4459	4439	4420	4420	4429	4439	4459	0	4490	4500	4510	4521	4521	4521	0	0	0	0	0	0	0	0	0	0	0	0	0	1793	1793	1794	1794	1798	1799	1803	1806	1811	1814	1817	1819	1822	1822	1824	1824	1822	1821	1817	1814	1811	1807	1804	1803	1801	1803	1807	1807	1809	1812	1816	0	0	0	0	0	2235	2235	2235	2235	2235	2232	2230	2232	2232	2232	2230	2230	2227	2220	2215	2210	2205	2197	2193	2185	2183	2181	2181	2181	2181	2181	2185	2190	2193	2195	2200	2205	2207	2207	2210	2212	0	0	0	0	0	0	0	0	0	0	0	0	0	0	0	0	0	0	0	0	0	4976	4951	4927	4890	4866	4842	4818	4807	4772	4749	4749	4726	4659	4616	4573	4541	4510	4470	4439	4410	4380	4371	4371	4361	4361	4371	4380	4390	4410	4410	4429	4429	4439	4429	4420	4420	4400	4361	4351	4323	4323	4304	4304	4285	4276	0	0	0	0	0	0	2117	2117	2120	2120	2120	2122	2122	2127	2129	2131	2133	2136	2140	2143	2140	2140	2140	2143	2143	2145	2145	2147	2147	2150	2152	2152	2154	2154	2157	2159	2159	2159	2161	2159	2164	0	0	0	0	0	0	0	0	0	4221	4212	4203	4203	4185	4168	4150	4133	4116	4099	4082	4065	4048	4007	3991	3983	3967	3967	3967	3967	3967	3975	3983	3999	4015	4024	4032	4048	4048	4057	4065	4073	4082	4090	4090	4090	4090	4082	4082	4082	4073	4073	4065	4065	4057	4057	4057	4048	4057	4057	4048	4048	4048	4048	4040	4040	4040	4040	4048	4048	4057	4057	4057	4048	4048	4057	4057	4057	4057	4057	4057	4057	4065	0	0	0	0	0	0	2069	0	2077	2088	2102	2117	2133	2147	2161	2173	2176	2178	2178	2178	2173	2169	2166	2159	2157	2154	2150	2145	2143	2140	2138	2136	2133	2131	2129	2124	2122	2120	2120	2120	2120	2117	2117	2117	2120	2124	2129	2129	2133	2133	2138	0	0	0	0	0	0	0	0	0	0	4048	4048	4048	4048	4048	4057	4057	4057	4065	4065	4065	4073	4073	4073	4065	4065	4065
2193	2190	2188	2185	2185	2185	2185	2185	2188	2190	2190	2190	2190	2190	2193	2193	2193	2193	2193	2195	2197	2200	2202	0	2207	2212	2217	2220	2227	2232	2237	2245	2250	2258	2263	2268	2273	2276	2279	2281	2281	2284	2281	2279	2276	2268	2266	2263	2263	2263	2263	2266	2266	2268	2271	2273	2276	2276	2279	2279	2279	2281	2281	2281	2279	2279	2281	2281	2281	2284	2284	2284	2287	2284	2281	2279	2276	2273	2271	2263	2260	2253	2245	2240	2235	2235	2232	2235	2232	2235	2235	2235	2235	2235	2235	2235	2237	2235	2237	2235	2235	2232	2227	2225	2217	2215	2210	2207	2202	2202	2195	2190	2181	2173	2166	2161	2154	2152	2147	2145	2143	2143	2143	2138	2140	2138	2136	2133	2133	2129	2131	2131	2133	0	2140	0	0	0	0	0	2412	2421	2433	0	2442	2451	2466	2494	0	2552	2576	2596	2610	2620	2624	2627	2627	0	0	0	0	0	0	0	0	0	0	3920	3904	3889	3874	3851	3829	3777	3763	3734	3727	3713	3706	3700	3693	3700	3706	3727	3763	3806	3843	3889	0	3943	3991	4040	4082	4107	4116	4133	4142	4159	4168	4168	4177	4177	4177	4185	4185	4185	4185	4194	4194	4203	4212	4212	4230	4239	4258	4276	4295	4313	4342	4371	4410	4420	4439	4480	4500	4490	4490	4480	4449	4429	4400	4380	4285	4248	4212	4177	4142	4116	4082	4048	4015	3959	3928	3904	3889	3881	3866	3858	3858	3851	3858	3866	3881	3897	3928	3991	4073	0	4168	4267	4361	4429	4480	4510	4541	4552	4562	4562	4562	4562	4562	4562	4562	4562	4562	4562	4562	4573	4573	4584	4584	4584	4584	4584	4573	4573	4562	4531	4521	4500	4490	4459	4439	4429	4429	4439	4459	0	4480	4500	4510	4510	4521	4521	4510	0	0	0	0	0	0	0	0	0	0	0	0	0	1794	1796	1796	1798	1799	1803	1804	1809	1812	1816	1819	1821	1822	1822	1822	1822	1821	1817	1814	1812	1809	1804	1803	1801	1801	1803	1807	1809	1811	1811	1816	0	0	0	0	0	2235	2235	2235	2232	2235	2232	2232	2230	2232	2232	2232	2232	2230	2222	2220	2215	2212	2205	2197	2190	2190	2185	2183	2183	2183	2183	2185	2188	2193	2195	2197	2205	2207	2207	2210	2212	0	0	0	0	0	0	0	0	0	0	0	0	0	0	0	0	0	0	0	0	5040	5027	4989	4964	4927	4902	4878	4854	4830	4807	4772	4760	4738	4659	4616	4573	4531	4510	4470	4439	4400	4371	4361	4361	4361	4361	4361	4371	4380	4390	4410	4420	4420	4420	4420	4410	4410	4390	4361	4342	4323	4304	4304	4304	4285	4276	0	0	0	0	0	0	2122	2122	2122	2122	2122	2122	2124	2127	2129	2131	2131	2136	2138	2140	2140	2140	2140	2143	2145	2147	2147	2147	2147	2150	2152	2152	2152	2154	2157	2159	2157	2159	2159	2159	2161	0	0	0	0	0	0	0	0	0	4230	4221	4212	4203	4194	4177	4150	4142	4124	4107	4090	4073	4057	4040	3999	3991	3975	3967	3967	3967	3967	3975	3983	3999	4015	4015	4032	4040	4048	4048	4065	4073	4082	4090	4090	4090	4090	4090	4082	4082	4082	4082	4082	4073	4082	4073	4082	4082	4090	4082	4082	4082	4082	4073	4073	4065	4065	4065	4073	4073	4073	4073	4073	4073	4065	4073	4073	4073	4065	4073	4073	4073	4073	0	0	0	0	0	0	2058	2066	0	2080	2095	2111	2129	2145	2159	2171	2173	2178	2178	2178	2173	2169	2166	2161	2159	2157	2154	2150	2147	2145	2143	2140	2138	2133	2131	2124	2122	2120	2117	2117	2115	2115	2113	2115	2117	2122	2127	2129	2131	2133	2138	0	0	0	0	0	0	0	0	0	0	4057	4057	4057	4057	4057	4065	4065	4073	4073	4082	4082	4082	4082	4082	4082	4082	4082
2195	2190	2190	2188	2188	2188	2188	2190	2193	2195	2195	2197	2197	2197	2197	2200	2200	2200	2200	2200	2202	2205	2207	2210	2212	2217	2220	2225	2230	2235	2237	2245	2253	2258	2263	2268	2273	2276	2281	2284	2284	2284	2281	2279	2276	2271	2268	2263	2263	2263	2263	2263	2266	2266	2268	2271	2273	2273	2276	2276	2279	2279	2279	2281	2281	2281	2284	2281	2281	2281	2279	2276	2276	2276	2273	2271	2268	2263	2258	2255	2250	2237	2232	2230	2225	2222	2222	2222	2222	2222	2225	2230	2230	2227	2230	2230	2230	2230	2230	2227	2225	2222	2220	2215	2212	2207	2202	2200	2188	2185	2178	2176	2166	2159	2154	2150	2145	2143	2138	2138	2136	2136	2133	2133	2133	2131	2131	2129	2129	2124	2124	2124	2131	0	0	0	0	0	0	0	0	2415	2424	2430	0	2445	2463	2494	0	0	2582	2599	2610	2620	2627	2627	2627	0	0	0	0	0	0	0	0	0	3943	3935	3920	3904	0	3858	3829	3777	3756	3742	3720	3713	3706	3700	3700	3700	3706	3727	3763	3792	3836	3874	3920	0	3959	4007	4048	4073	4090	4107	4124	4133	4142	4150	4159	4168	4168	4177	4177	4177	4177	4185	4185	4194	4203	4212	4221	4239	4248	4267	4285	4304	4332	4361	4400	4420	4429	4459	4490	4490	4490	4470	4449	4420	4400	4371	4276	4239	4203	4168	4133	4107	4073	4040	4007	3959	3935	3920	3897	3881	3874	3866	3858	3866	3874	3874	3897	3920	3951	4024	0	4116	4221	4313	4400	4470	4500	4531	4552	4562	4562	4562	4552	4552	4552	4552	4552	4552	4541	4552	4552	4552	4562	4573	4562	4562	4562	4562	4562	4552	4552	4531	4510	4500	4480	4459	4439	4429	4429	4449	0	4470	4490	4510	4521	4521	4510	4521	4510	4500	4480	0	0	0	0	0	0	0	0	1799	1798	1796	1796	1798	1798	1799	1801	1804	1807	1811	1814	1816	1819	1821	1822	1822	1821	1819	1817	1816	1812	1809	1807	1803	1801	1801	1801	1803	1807	1807	1809	1811	1816	0	0	0	0	0	0	2235	2232	2232	2232	2230	2230	2230	2232	2232	2230	2230	2230	2227	2222	2220	2212	2210	2202	2195	2193	2190	2188	2185	2183	2183	2183	2188	2190	2193	2197	2202	2205	2207	2207	2212	0	0	0	0	0	0	0	0	0	0	0	0	0	0	5001	5014	5040	5053	5040	5040	5053	5066	5040	4989	4964	4939	4914	4890	4866	4842	4807	4795	4772	4726	4627	4584	4541	4510	4470	4429	4390	4371	4361	4361	4351	4351	4361	4371	4380	4390	4390	4400	4410	4410	4410	4400	4390	4380	4351	4332	4323	4304	4304	4295	4285	4276	0	0	0	0	0	0	2129	2127	2127	2127	2124	2127	2127	2127	2129	2129	2131	2133	2136	2140	2140	2140	2143	2145	2145	2147	2147	2147	2147	2150	2150	2152	2152	2154	2154	2157	2157	2157	2157	2157	2159	0	0	0	0	0	0	0	0	0	4230	4221	4212	4194	4185	4168	4150	4133	4116	4116	4099	4082	4065	4048	4007	3999	3991	3975	3967	3975	3975	3983	3999	4007	4024	4032	4040	4048	4065	4065	4073	4090	4090	4099	4099	4099	4099	4099	4099	4099	4090	4099	4099	4090	4090	4090	4107	4107	4107	4107	4107	4107	4107	4107	4099	4099	4099	4090	4099	4099	4099	4090	4090	4090	4090	4090	4090	4090	4090	4082	4082	4082	0	0	0	0	0	0	2060	2066	0	2075	2088	2099	2113	2129	2145	2159	2169	2173	2176	2178	2176	2173	2169	2166	2164	2161	2161	2159	2157	2154	2152	2150	2145	2143	2138	2133	2129	2122	2117	2115	2115	2113	2113	2111	2111	2117	2120	2127	2127	2129	2131	2138	0	0	0	0	0	0	0	0	0	0	4057	4057	4057	4057	4057	4065	4065	4065	4073	4073	4082	4090	4090	4090	4090	4090	4090
2195	2193	2193	2190	2193	2193	2193	2195	2197	2200	2202	2202	2200	2202	2205	2205	2207	2207	2207	2207	2210	2212	2212	2215	2215	2220	2225	2227	2232	2237	2242	2247	2253	2258	2263	2266	2271	2276	2279	2281	2284	2284	2281	2279	2276	2271	2268	2266	2266	2263	2263	2266	2266	2266	2266	2268	2271	2271	2273	2276	2279	2279	2281	2281	2284	2284	2284	2281	2279	2279	2276	2273	2271	2268	2268	2263	2258	2255	2250	2245	2232	2225	2220	2217	2215	2212	2212	2210	2215	2217	2220	2225	2225	2227	2227	2225	2227	2227	2227	2225	2225	2222	2217	2212	2210	2202	2200	2190	2185	2183	2176	2171	2164	2157	2152	2145	2140	2138	2133	2131	2129	2129	2129	2127	2127	2127	2124	2124	2122	2120	2120	2127	0	0	0	0	0	0	0	0	0	2409	2418	2427	0	2442	2463	2498	2536	0	0	2603	2613	2620	2624	2627	2627	0	0	0	0	0	0	0	0	0	3951	3935	3920	3904	3889	3858	3836	3777	3756	3734	3720	3713	3706	3706	3706	3706	3713	3734	3763	3792	3829	3866	3904	0	3951	3983	4024	4057	4073	4090	4107	4124	4133	4142	4150	4150	4159	4168	4168	4177	4177	4185	4185	4194	4203	4203	4212	4221	4239	4248	4267	4285	4313	4342	4380	4390	4410	4439	4470	4480	4470	4449	4429	4400	4380	4304	4267	4230	4185	4150	4116	4090	4065	4032	4007	3983	3943	3928	3904	3889	3881	3874	3866	3874	3881	3881	3897	3928	3967	4057	0	0	4267	4371	4449	4500	4531	4541	4552	4552	4552	4541	4541	4541	4531	4531	4531	4531	4531	4531	4541	4531	4541	4552	4562	4562	4562	4562	4562	4552	4552	4531	4521	4500	4490	4470	4459	4449	4449	4459	4470	4490	4510	4531	4531	4531	4521	4510	4510	4500	4480	0	0	0	0	0	0	0	0	1803	1801	1799	1799	1799	1801	1801	1803	1806	1807	1811	1812	1816	1817	1819	1819	1819	1817	1816	1814	1812	1809	1807	1804	1801	1799	1799	1799	1803	1806	1806	1809	1811	1814	0	0	0	0	0	0	2232	2232	2230	2232	2230	2230	2230	2230	2230	2230	2230	2230	2227	2227	2222	2217	2212	2205	2200	2195	2190	2188	2188	2183	2183	2183	2185	2185	2190	2193	2200	2202	2205	2205	2210	0	0	0	0	0	0	0	0	0	0	0	0	0	0	0	5027	5053	5066	5066	5079	5079	5092	5053	5014	4989	4964	4939	4914	4902	4866	4830	4807	4783	4749	4627	4584	4541	4510	4470	4429	4400	4371	4361	4361	4351	4351	4361	4371	4371	4380	4390	4400	4400	4400	4400	4390	4380	4371	4351	4342	4323	4304	4304	4295	4285	4276	0	0	0	0	0	0	2133	2133	2131	2129	2129	2129	2129	2129	2129	2131	2131	2133	2138	2140	2140	2143	2143	2147	2147	2150	2150	2150	2150	2150	2150	2150	2152	2152	2154	2157	2154	2154	2157	2157	2159	0	0	0	0	0	0	0	0	0	0	4212	4212	4194	4185	4168	4150	4133	4116	4107	4099	4082	4065	4048	4032	3999	3983	3983	3975	3967	3983	3991	3999	4015	4024	4040	4048	4057	4065	4065	4082	4090	4099	4099	4107	4107	4107	4099	4107	4099	4099	4107	4099	4099	4107	4107	4116	4116	4116	4124	4124	4124	4124	4124	4116	4116	4107	4116	4116	4116	4116	4107	4107	4099	4099	4099	4099	4099	4099	4099	4099	4099	0	0	0	0	0	0	0	2075	2080	2086	2097	2106	2117	2131	2147	2159	2169	2173	2176	2176	2176	2173	2171	2169	2166	2166	2164	2164	2161	2159	2159	2154	2152	2147	2140	2136	2131	2122	2117	2113	2113	2111	2111	2108	2108	2113	2120	2124	2127	2129	2131	2138	0	0	0	0	0	0	0	0	0	0	4065	4065	4065	4065	4065	4065	4073	4073	4082	4090	4090	4090	4099	4090	4090	4082	4073
2197	2195	2193	2195	2195	2197	2197	2200	2202	2205	2207	2210	2210	2210	2210	2212	2212	2212	2212	2212	2215	2217	2215	2217	2220	2222	2225	2230	2232	2237	2242	2247	2253	2258	2260	2263	2268	2273	2276	2281	2281	2281	2279	2279	2276	2271	2266	2266	2266	2266	2266	2266	2268	2268	2268	2271	2271	2271	2273	2279	2279	2279	2281	2281	2281	2281	2281	2279	2276	2273	2268	2268	2263	2263	2258	2253	2250	2245	2235	2230	2222	2215	2210	2207	2205	2202	2202	2202	2202	2210	2215	2217	2220	2220	2222	2222	2222	2222	2222	2222	2220	2220	2215	2212	2207	2202	2200	2190	2185	2181	2173	2171	2161	2157	2150	2145	2140	2138	2133	2129	2127	2127	2124	2124	2124	2120	2122	2120	2124	2122	2122	0	2140	0	0	0	0	0	0	0	0	0	0	0	0	0	2460	2498	2536	2559	2589	2606	2613	2620	2627	2627	2631	0	0	0	0	0	0	0	0	0	3959	3951	3928	3912	3897	3866	3836	3777	3756	3742	3727	3713	3713	3706	3713	3720	3727	3749	3770	3799	3829	3866	3904	0	3943	3975	4007	4040	4057	4082	4099	4107	4124	4133	4150	4159	4159	4168	4168	4177	4177	4177	4185	4185	4194	4203	4203	4212	4221	4221	4239	4267	4276	4304	4332	4351	4380	4400	4429	4429	4429	4420	4410	4380	4351	4285	4248	4212	4177	4142	4116	4082	4057	4032	4007	3991	3951	3935	3920	3904	3889	3881	3874	3881	3889	3889	3904	3935	3983	0	0	0	0	4400	4480	4521	4531	4552	4552	4552	4541	4531	4521	4521	4521	4521	4521	4521	4521	4521	4521	4531	4541	4552	4562	4552	4562	4562	4573	4562	4562	4552	4541	4521	4510	4490	4480	4470	4490	4490	4510	4521	4531	4541	4541	4541	4521	4500	4500	4480	0	0	0	0	0	0	0	0	0	1804	1804	1803	1801	1801	1803	1801	1803	1806	1807	1809	1812	1814	1816	1816	1817	1816	1814	1812	1811	1807	1806	1804	1801	1799	1798	1798	1798	1801	1804	1804	1807	1807	1811	0	0	0	0	0	0	2232	2230	2230	2230	2227	2227	2227	2227	2230	2230	2230	2230	2230	2227	2225	2222	2215	2210	2205	2200	2195	2193	2188	2185	2183	2183	2185	2185	2185	2190	2195	2197	2200	2202	2205	0	0	0	0	0	0	0	0	0	0	0	0	0	0	0	0	0	5053	5066	5079	0	0	0	0	0	0	4927	4914	4890	4878	4842	4807	4783	4749	4627	4584	4541	4510	4470	4429	4400	4380	4371	4361	4361	4361	4361	4371	4371	4380	4380	4390	4400	4400	4400	4390	4380	4371	4351	4332	4323	4304	4304	4295	4295	4285	0	0	0	0	0	0	2140	2138	2136	2131	2131	2131	2131	2129	2129	2129	2131	2133	2136	2140	2140	2143	2145	2150	2152	2152	2152	2150	2150	2150	2150	2150	2150	2150	2152	2152	2152	2152	2154	2157	2154	0	0	0	0	0	0	0	0	0	0	4221	4212	4194	4185	4168	4150	4133	4124	4107	4099	4090	4065	4057	4040	4007	3991	3983	3983	3975	3991	3999	4015	4024	4040	4048	4057	4065	4073	4082	4090	4099	4099	4107	4116	4116	4116	4116	4116	4107	4116	4116	4116	4116	4124	4133	4133	4133	4142	4142	4142	4142	4142	4142	4142	4142	4133	4133	4142	4133	4133	4124	4124	4116	4107	4116	4116	4116	4107	4107	4107	4107	0	0	0	0	0	0	0	2095	2095	2099	2106	2113	2124	2136	2147	2159	2169	2171	2176	2176	2176	2173	2171	2169	2169	2169	2171	2169	2166	2164	2164	2159	2154	2150	2143	2136	2131	2122	2115	2113	2111	2108	2106	2106	2108	2113	2117	2122	2124	2129	2131	2138	0	0	0	0	0	0	0	0	0	0	0	4065	4065	4065	4065	4073	4073	4073	4090	4090	4099	4099	4099	4099	4099	4099	4073
2197	2195	2197	2197	2200	2202	2205	2205	2210	2212	2212	2215	2215	2217	2217	2220	2220	2220	2220	2220	2217	2217	2220	2220	2220	2222	2225	2227	2230	2235	2240	2245	2250	2253	2255	2260	2263	2268	2273	2273	2276	2273	2276	2276	2273	2271	2268	2266	2266	2266	2268	2268	2268	2271	2271	2271	2271	2271	2273	2276	2279	2279	2279	2279	2279	2281	2279	2276	2273	2268	2266	2260	2258	2258	2253	2247	2242	2230	2225	2220	2215	2205	2200	2197	2195	2195	2193	2195	2197	2200	2207	2210	2212	2215	2217	2217	2220	2222	2220	2220	2217	2217	2215	2210	2207	2202	2197	2190	2185	2181	2176	2171	2164	2159	2154	2150	2145	2140	2136	2133	2129	2127	2122	2122	2117	2113	2113	2120	2111	2111	2117	2129	0	0	0	0	0	0	0	0	0	2398	0	0	2430	0	2454	0	2530	2562	2586	2606	2617	2624	2631	2631	2634	0	0	0	0	0	0	0	0	0	3967	3959	3943	3920	3897	3874	3836	3777	3756	3734	3720	3720	3713	3713	3720	3727	3742	3763	3785	3814	3843	3874	3912	0	3943	3975	4007	4032	4057	4082	4099	4107	4124	4142	4150	4150	4159	4168	4168	4177	4177	4185	4185	4194	4194	4194	4203	4203	4203	4203	4221	4230	4239	4258	4295	4313	4323	4361	4380	4380	4380	4380	4371	4351	4332	4267	4230	4194	4159	4133	4107	4082	4065	4040	4015	3999	3967	3951	3935	3912	3904	3889	3881	3889	3897	3897	3912	3943	3991	0	0	4177	4295	4410	4490	4531	4541	4552	4552	4541	4531	4521	4510	4510	4510	4510	4510	4510	4510	4510	4521	4531	4541	4552	4552	4562	4562	4573	4584	4584	4584	4573	4562	4552	4541	4531	4510	4500	4510	4521	4531	4552	4552	4562	4552	4531	4510	4500	4480	4459	4439	4410	0	0	0	0	0	0	0	0	0	1804	1803	1803	1804	1804	1804	1806	1806	1809	1811	1812	1814	1814	1814	1814	1812	1809	1807	1806	1803	1801	1799	1798	1796	1796	1798	1799	1803	1806	1806	1806	1809	0	0	0	0	0	0	0	0	0	2227	2227	2225	2225	2225	2227	2227	2227	2230	2230	2230	2230	2225	2220	2215	2210	2202	2197	2193	2190	2185	2183	2183	2183	2183	2185	2185	2190	2190	2193	2195	2190	0	0	0	0	0	0	0	0	0	0	0	0	0	0	0	0	5053	5053	5066	5079	5066	5066	5066	5001	4976	4951	0	4902	4890	4866	4842	4807	4783	4749	4627	4584	4541	4510	4459	4439	4400	4380	4371	4361	4361	4361	4361	4371	4371	4371	4380	4380	4390	4390	4390	4380	4380	4371	4351	4332	4323	4304	4295	4295	4295	0	0	0	0	0	0	0	2147	2143	2140	2136	2136	2133	2133	2131	2129	2129	2131	2133	2136	2138	2140	2145	2147	2152	2152	2152	2152	2152	2150	2150	2147	2147	2150	2147	2150	2152	2150	2152	2154	2154	2154	0	0	0	0	0	0	0	0	0	0	0	0	4203	4194	4168	4150	4142	4124	4116	4107	4090	4082	4057	4040	4007	3999	3991	3983	3991	3999	4007	4032	4040	4057	4065	4073	4082	4090	4090	4099	4099	4107	4116	4124	4124	4124	4124	4124	4124	4124	4133	4133	4142	4142	4150	4159	4159	4159	4159	4159	4159	4159	4159	4159	4159	4159	4150	4150	4142	4150	4142	4142	4133	4124	4124	4124	4124	4124	4124	0	0	0	0	0	0	0	0	2115	2113	2113	2113	2117	2122	2131	2140	2152	2161	2169	2173	2173	2176	2173	2171	2171	2171	2171	2171	2171	2171	2171	2169	2169	2164	2159	2152	2147	2140	2133	2124	2117	2113	2111	2108	2106	2106	2106	2111	2117	2120	2124	2129	2133	2140	0	0	0	0	0	0	0	0	0	0	0	0	4073	4073	4073	4073	4073	4082	4090	4090	4107	4107	4107	4107	4099	4090	4065
2197	2197	2200	2202	2205	2207	2210	2212	2215	2217	2220	2222	2222	2225	2225	2225	2225	2225	2222	2222	2222	2222	2220	2222	2222	2225	2225	2227	2230	2235	2237	2242	2245	2247	2253	2255	2255	2260	2266	2268	2268	2271	2271	2263	2263	2266	2266	2263	2266	2268	2268	2268	2271	2271	2271	2273	2271	2271	2273	2273	2276	2276	2276	2276	2276	2279	2276	2273	2268	2266	2260	2258	2253	2250	2245	2242	2230	2225	2217	2212	2205	2197	2193	2190	2188	2188	2188	2188	2190	2195	2200	2205	2210	2210	2215	2215	2217	2220	2220	2222	2220	2215	2215	2212	2207	2202	2200	2195	2190	2185	2181	2176	2171	2166	2164	2159	2154	2150	2147	2140	2136	2131	2124	2122	2115	2108	0	0	0	0	0	0	0	0	0	0	0	0	2392	2395	2392	2398	2403	2412	2427	0	2451	2494	0	2562	2586	2606	2617	2624	2631	2634	2634	2634	0	0	0	0	0	0	0	0	3983	3967	3951	3935	3912	3874	3843	3785	3763	3749	3734	3727	3727	3727	3734	3749	3770	3785	3814	3836	3866	3897	0	3928	3959	3991	4015	4040	4065	4082	4099	4116	4124	4142	4150	4159	4168	4168	4177	4177	4185	4185	4185	4194	4194	4194	4194	4194	4185	4194	4194	4212	4221	4221	4239	4258	4276	4313	4323	4323	4332	4332	4332	4313	4285	4258	4212	4194	4159	4133	4116	4090	4065	4048	4032	4015	3999	3967	3951	3928	3920	3904	3897	3904	3904	3912	3920	3951	3999	0	0	4177	4285	4390	4470	4521	4531	4531	4541	4531	4510	4510	4490	4490	4490	4490	4500	4500	4500	4500	4521	4521	4531	4541	4552	4552	4562	4573	4573	4594	4594	4584	4573	4573	4562	4552	4541	4541	4552	4552	4562	4573	4573	4573	4562	4541	4490	4470	4449	4429	4410	4371	0	0	0	0	0	0	0	0	1811	1806	1806	1806	1806	1804	1806	1806	1806	1807	1809	1811	1811	1811	1812	1811	1809	1807	1806	1804	1803	1801	1799	1798	1796	1796	1796	1799	1803	1803	1803	1804	1806	1809	0	0	0	0	0	0	0	0	0	2222	2220	2220	2222	2222	2225	2225	2227	2227	2230	2230	2227	2222	2217	2210	2207	2200	2195	2193	2185	2183	2183	2181	2181	2183	2181	2183	2183	2183	2183	2183	0	0	0	0	0	0	0	0	0	0	0	0	0	0	0	0	0	5040	5053	5053	5053	5066	5040	4989	4964	4927	4914	4902	4878	4866	4818	4795	4783	4738	4627	4573	4541	4500	4459	4429	4410	4390	4380	4371	4371	4361	4361	4361	4371	4371	4371	4371	4380	4390	4390	4380	4371	4361	4351	4332	4323	4304	4304	4304	0	0	0	0	0	0	0	0	2152	2150	2145	2140	2138	2136	2133	2131	2129	2129	2131	2133	2136	2140	2143	2145	2150	2154	2154	2154	2154	2152	2152	2150	2147	2147	2147	2147	2147	2150	2147	2150	2152	2152	2150	2150	0	0	0	0	0	0	0	0	0	0	0	0	0	0	0	0	0	0	4116	4099	4082	4073	4057	4032	4007	3999	3999	3999	4015	4024	4040	4065	4065	4082	4090	4090	4099	4099	4107	4107	4116	4124	4124	4133	4133	4133	4133	4133	4142	4142	4150	4150	4159	4168	4177	4185	4194	4194	4185	4194	4194	4194	4194	4194	4177	4168	4168	4159	4159	4150	4150	4150	4133	4142	4142	4142	4142	4142	0	0	0	0	0	0	0	0	2133	2129	2129	2129	2129	2133	2143	2150	2159	2164	2169	2171	2173	2173	2171	2171	2169	2171	2171	2173	2173	2173	2173	2171	2171	2169	2161	2154	2150	2143	2136	2131	2120	2115	2113	2108	2108	2106	2106	2111	2115	2120	2124	2129	2136	2140	0	0	0	0	0	0	0	0	0	0	0	0	0	4073	4082	4073	4082	4082	4090	4099	4107	4107	4116	4107	4107	4090	4065
2197	2200	2202	2205	2207	2210	2212	2215	2220	2222	2225	2227	2227	2230	2230	2230	2227	2227	2225	2225	2222	2222	2222	2222	2222	2222	2225	2227	2227	2232	2235	2237	2242	2245	2245	2247	2250	2247	2250	2253	2253	2255	2255	2255	2258	2258	2260	2260	2263	2266	2266	2268	2271	2271	2271	2271	2271	2271	2271	2273	2273	2273	2273	2273	2273	2273	2273	2268	2266	2260	2258	2253	2247	2247	2242	2237	2225	2217	2212	2205	2200	2193	2188	2185	2183	2181	2181	2181	2183	2190	2195	2197	2202	2205	2210	2212	2215	2217	2220	2217	2220	2217	2217	2212	2212	2207	2202	2197	2197	2190	2185	2183	2178	2176	2173	2171	2166	2161	2157	2152	2147	2145	2140	0	0	0	0	0	0	0	0	0	0	0	0	0	0	2403	2403	2398	2395	2400	2406	2415	2433	0	2457	2498	2533	2566	2593	2610	2620	2631	2631	2641	2638	2638	0	0	0	0	0	0	0	0	3991	3975	3967	3943	3920	3889	3858	3799	3777	3756	3742	3742	3742	3749	3763	3777	3792	3814	3843	3866	3897	0	3920	3951	3975	4007	4032	4048	4073	4090	4107	4116	4133	4142	4159	4159	4168	4177	4177	4185	4194	4194	4203	4203	4203	4194	4194	4194	4177	4177	4185	4185	4185	4194	4203	4212	0	4239	4258	4248	4267	4267	4267	4267	4258	4230	4203	4185	4168	4142	4124	4099	4073	4057	4040	4024	4007	3991	3967	3943	3928	3920	3912	3912	3912	3920	3928	3951	3991	0	0	0	4267	4361	4439	4490	4521	4521	4521	4521	4500	4490	4480	4480	4470	4480	4480	4490	4490	4490	4500	4510	4521	4531	4541	4541	4552	4562	4562	4573	4584	4584	4573	4573	4562	4552	4541	4541	4541	4562	4562	4562	4573	4562	4541	4500	4480	4459	0	4410	4390	0	0	0	0	0	0	0	0	0	1814	1812	1807	1807	1806	1804	1804	1804	1804	1806	1806	1807	1809	1809	1809	1809	1807	1806	1804	1803	1801	1801	1799	1798	1798	1796	1798	1799	1801	1803	1801	1804	1804	1807	0	0	0	0	0	0	0	0	0	0	2215	2215	2212	2215	2217	2220	2220	2225	2225	2227	2225	2222	2217	2210	2207	2202	2197	2193	2188	2181	2181	2178	2176	2173	2176	2178	2176	2176	2176	2178	2178	2181	0	0	0	0	0	0	0	0	0	0	0	0	0	0	0	0	5053	5066	5079	5066	5040	4989	4951	4914	4890	4866	4854	4830	4795	4760	4749	4715	4616	4562	4531	4500	4459	4429	4410	4390	4380	4371	4371	4361	4361	4361	4371	4371	4361	4361	4371	4380	4390	4380	4371	4371	4351	4332	4323	4313	4304	0	0	0	0	0	0	0	2164	2161	2157	2152	2147	2145	2140	2138	2136	2131	2129	2129	2129	2133	2136	2140	2145	2147	2152	2154	2157	2157	2157	2154	2152	2150	2147	2145	2145	2145	2145	2145	2145	2147	2145	2147	2145	2145	2143	2143	2145	2147	2150	2150	2150	2152	0	0	0	0	0	0	0	0	0	0	0	0	0	0	0	0	0	0	0	4024	4040	4048	0	4065	4082	4082	4099	4099	4107	4116	4116	4116	4124	4124	4133	4124	4124	4133	4133	4133	4142	4150	4159	4159	4168	4177	4185	4194	4203	4203	4203	4212	4212	4212	4203	4203	4194	4185	4177	4177	4168	4159	4168	4159	4150	4150	4159	4159	0	0	0	0	0	0	0	2171	0	0	2152	2147	2145	2145	2145	2147	2154	2159	2164	2169	2171	2173	2173	2173	2171	2169	2169	2169	2171	2171	2171	2173	2173	2171	2169	2166	2161	2154	2150	2143	2138	2131	2120	2115	2113	2111	2108	2106	2106	2111	2113	2117	2122	2127	2133	2138	2145	0	0	0	0	0	0	0	0	0	0	0	0	0	0	0	0	0	0	0	0	0	0	4099	4090	4082	4057
2197	2200	2202	2205	2210	2212	2215	2217	2222	2225	2227	2227	2227	2230	2227	2227	2225	2225	2222	2222	2220	2220	2217	2220	2220	2222	2222	2222	2225	2227	2232	2230	2232	2235	2237	2240	2242	2245	2247	2245	2247	2247	2247	2250	2250	2253	2255	2255	2258	2263	2263	2266	2268	2268	2271	2271	2271	2271	2271	2271	2273	2271	2273	2271	2271	2271	2271	2266	2263	2258	2255	2250	2247	2245	2240	2227	2222	2215	2210	2202	2195	2188	2183	2181	2178	2176	2176	2176	2178	2185	2190	2193	2197	2200	2205	2210	2215	2215	2220	2220	2220	2220	2217	2215	2215	2210	2205	2205	2200	2200	2193	2193	2188	2188	2185	2185	2183	2178	2173	2173	2169	2166	2166	0	0	0	0	0	0	0	0	0	0	0	2415	2424	2406	2403	2403	2398	2398	2400	2406	2412	2433	0	2457	2501	2536	2572	2599	2617	2624	2631	2641	2645	2648	2645	0	0	0	0	0	0	0	0	3999	3991	3975	3951	3935	3904	3874	3836	3785	3770	3756	3756	3756	3770	3785	3806	3821	3843	3874	3897	0	3920	3951	3967	3999	4015	4040	4065	4073	4090	4107	4124	4133	4150	4159	4168	4177	4185	4194	4203	4212	4212	4212	4212	4212	4203	4194	4185	4177	4168	4168	4159	4150	4159	4150	4168	4177	4185	4185	4185	4203	4221	4221	4239	4230	4221	4203	4185	4168	4150	4133	4116	4090	4073	4057	4048	4024	4007	3983	3959	3943	3935	3928	3928	3928	3928	3935	3959	3999	4065	0	0	4239	4332	4410	4470	4480	4500	4500	4490	4480	4470	4459	4459	4459	4459	4459	4470	4470	4480	4490	4490	4490	4510	4510	4510	4521	4521	4541	4552	4562	4562	4562	4562	4562	4552	4541	4541	4552	4562	4562	4562	4562	4552	4541	4500	4470	4449	4429	4390	4371	4342	0	0	0	0	0	0	0	0	1816	1814	1811	1807	1806	1804	1804	1804	1804	1804	1804	1806	1806	1807	1807	1807	1806	1806	1804	1803	1803	1801	1799	1799	1798	1798	1799	1799	1801	1801	1803	1804	1804	1806	0	0	0	0	0	0	0	0	0	0	0	2207	2207	2210	2212	0	2217	0	2220	2222	2222	2217	2207	2205	2202	2195	2193	2188	2183	2178	2176	2173	2171	2169	2171	2171	2171	2171	2171	2171	2176	2176	2176	2178	2181	2183	2185	2185	2185	0	0	0	0	0	0	0	0	0	0	0	0	0	0	0	0	0	0	0	0	0	0	0	0	0	0	4552	4521	4490	4449	4429	4410	4390	4390	4380	4371	4371	4371	4361	4371	4371	4361	4361	0	0	0	0	0	0	0	0	0	0	0	0	0	0	0	0	2173	2169	2166	2164	2161	2154	2150	2147	2143	2138	2138	2133	2131	2129	2131	2136	2138	2143	2147	2150	2154	2157	2159	2157	2157	2154	2152	2150	2145	2145	2143	2143	2143	2140	2140	2140	2143	2140	2140	2140	2138	2140	2140	2143	2145	2147	2150	2150	2152	2154	0	0	0	0	0	0	0	0	0	0	0	0	0	0	0	0	0	0	0	0	4082	4107	4107	4116	4116	4116	4124	4124	4133	4124	4133	4133	4142	4133	4133	4133	4133	4133	4142	4159	4159	4159	4168	4177	4194	4203	4212	4221	4221	4221	4230	4221	4221	4221	4212	4203	4194	4185	4177	4177	0	0	0	0	0	0	0	0	0	0	0	0	2188	2178	2173	2171	2166	2164	2164	2161	2161	2164	2169	2171	2173	2173	2173	2173	2171	2171	2169	2166	2166	2166	2166	2169	2169	2169	2169	2169	2166	2164	2157	2154	2150	2143	2138	2131	2122	2117	2113	2111	2108	2108	2106	2111	2113	2115	2120	2124	2131	2136	2143	2147	2152	0	2157	2166	2166	2164	0	0	0	0	0	0	0	0	0	0	0	0	0	0	0	0	0	0	0
2197	2197	2202	2205	2210	2212	2215	2217	2220	2222	2225	2225	2227	2225	2222	2222	2222	2220	2220	2217	2215	2215	2215	2215	2210	2212	2210	2212	2215	2217	2222	2225	2227	2227	2230	2235	2237	2237	2240	2237	2237	2240	2240	2242	2245	2247	2250	2253	2255	2258	2260	2266	2266	2268	2268	2268	2271	2268	2268	2271	2268	2271	2271	2271	2268	2268	2268	2263	2260	2255	2253	2250	2245	2242	2237	2227	2222	2217	2210	2202	2197	2188	2185	2181	2181	2178	2176	2178	2178	2183	2188	2190	2195	2197	2202	2207	2212	2217	2217	2220	2220	2222	2220	2220	2217	2215	2215	2212	2207	2207	2207	2205	2202	2202	2200	2200	2197	2193	2190	2193	2188	0	0	0	0	0	0	0	0	0	0	2439	2445	2442	2436	2430	2424	2409	2403	2398	2398	2398	2406	2409	2427	0	2457	2501	2543	2576	2606	2624	2631	2641	2645	2648	2652	2648	0	0	0	0	0	0	0	0	4015	3991	3983	3967	3951	3912	3889	3851	3799	3777	3770	3770	3777	3792	3814	3829	3851	3874	0	3897	3928	3951	3967	3991	4007	4032	4048	4065	4082	4090	4107	4124	4142	4150	4168	4177	4185	4203	4212	4221	4221	4230	4230	4230	4221	4212	4203	4185	4177	4150	4150	4142	4133	4133	4133	4133	4142	4142	4142	4142	4168	4185	4194	4203	4203	4203	4194	4185	4168	4150	4142	4116	4099	4090	4073	4057	4048	4032	4015	3975	3959	3951	3935	3935	3943	3935	3943	3967	3999	4065	0	4133	0	4285	4361	4420	4449	4470	4470	4470	4449	4439	4439	4429	4429	4429	4439	4439	4449	4449	4459	4459	4459	4470	4470	4480	4480	4490	4510	4531	4541	4552	4562	4562	4562	4552	4562	4562	4562	4562	4573	4562	4562	4552	4531	4490	4470	4449	4420	4390	4371	0	0	0	0	0	0	0	0	1822	1821	1817	1814	1809	1807	1806	1804	1804	1804	1804	1804	1804	1806	1806	1806	1806	1806	1806	1804	1804	1804	1803	1803	1801	1801	1801	1801	1801	1803	1803	1803	1803	1804	1806	0	0	0	0	0	0	0	0	0	0	2197	2197	2200	2202	2207	2210	2202	2205	2207	2205	2205	2202	2200	2197	2193	2188	2183	2181	2176	2173	2169	2166	2166	2164	2164	2166	2164	2166	2166	2169	2171	2173	2173	2178	2181	2181	2185	2185	2188	2188	2188	0	0	0	0	0	0	0	0	0	0	0	0	0	0	0	0	0	0	0	0	0	0	0	0	0	0	0	0	0	0	0	0	0	0	0	0	0	0	0	0	0	0	0	0	0	0	0	0	0	0	0	0	2193	2193	2190	2188	2183	2171	2169	2166	2164	2161	2157	2152	2147	2145	2143	2138	2136	2133	2131	2133	2138	2140	2147	2150	2154	2157	2159	2159	2159	2157	2154	2152	2147	2145	2143	2143	2140	2138	2138	2138	2136	2138	2138	2133	2136	2136	2136	2138	2140	2143	2145	2147	0	2150	2154	2154	0	0	0	0	0	0	0	0	0	0	0	0	0	0	0	0	0	0	0	0	0	4124	4124	4133	4133	4133	4142	4142	4142	4142	4150	4142	4142	4142	4133	4133	4133	4142	4142	4150	4159	4168	4185	4194	4203	4212	4221	4221	4230	4230	4221	4221	4221	4212	4203	4203	4194	0	0	0	0	0	0	0	0	0	0	0	0	0	0	2188	2183	2183	2181	2181	2178	2176	2178	2178	2178	2178	2181	2181	2178	2176	2173	2171	2169	2164	2161	2161	2161	2161	2164	2164	2164	2164	2164	2161	2159	2157	2152	2147	2143	2138	2131	2122	2117	2113	2111	2108	2108	2108	2108	2113	2113	2117	2124	2129	2133	2138	2143	2150	2154	0	2159	2161	2159	2159	0	0	0	0	0	0	0	0	0	0	0	0	0	0	0	0	0	0
2195	2197	2200	2202	2205	2207	2212	2212	2215	2220	2220	2220	2220	2220	2220	2217	2217	2215	2207	2207	2205	2205	2205	2205	2205	2205	2205	2205	2207	2212	2215	2217	2222	2222	2225	2227	2232	2232	2232	2232	2232	2232	2232	2235	2237	2240	2245	2245	2250	2253	2258	2260	2263	2266	2266	2266	2266	2266	2266	2268	2266	2266	2266	2266	2266	2266	2263	2260	2258	2253	2250	2247	2245	2242	2237	2227	2222	2217	2212	2205	2197	2193	2188	2185	2183	2181	2178	2178	2178	2183	2185	2188	2193	2197	2202	2207	2212	2217	2220	2225	2227	2230	2227	2227	2227	2225	2222	2220	2220	2217	2217	2217	2217	2217	2217	2217	2215	2210	2210	2215	2207	0	0	0	0	0	0	0	0	2445	2448	2445	2442	2442	2436	2430	2427	2415	2403	2400	2398	2400	2403	2409	2427	0	2451	2494	2536	2579	2610	2627	2638	2641	0	2652	2652	2652	0	0	0	0	0	0	0	0	4024	4007	3999	3975	3959	3928	3897	3866	3836	3792	3785	3792	3799	3814	3829	3851	3874	0	3897	3928	3943	3967	3983	4007	4024	4032	4048	4065	4073	4090	4107	4124	4133	4150	4168	4185	4203	4212	4221	4230	4239	4248	4239	4239	4230	4221	4212	4194	4177	4150	4142	4133	4124	4124	4124	4124	4133	4133	4133	4133	4150	4168	4185	4194	4194	4203	4194	4185	4177	4168	4150	4133	4116	4099	4090	4073	4057	4040	4024	4007	3975	3959	3951	3943	3943	3935	3943	3967	4007	4040	0	4107	4168	4239	4304	4371	4410	4420	4429	4429	4410	4400	4400	4400	4400	4400	4400	4410	4420	4420	4420	4429	4429	4439	4439	4449	4459	4470	4490	4510	4531	4541	4552	4552	4562	4552	4552	4541	4552	4541	4552	4552	4552	4541	4521	4480	4459	4439	4410	4380	4351	0	0	0	0	0	0	0	1826	1822	1821	1817	1814	1809	1807	1807	1807	1804	1804	1804	1804	1804	1804	1804	1804	1804	1806	1806	1806	1806	1804	1804	1804	1804	1804	1803	1803	1804	1804	1804	1804	1806	1804	1806	0	0	0	0	0	0	0	0	0	2190	2190	2188	2190	2193	2195	2195	2197	2200	2200	2200	2200	2197	2195	2190	2188	2183	2181	2176	2171	2166	2164	2161	2159	2159	2161	2159	2161	2161	2164	2164	2169	2171	2171	2178	2181	2183	2185	2188	2188	2190	2190	2190	0	0	0	0	0	0	0	0	0	0	0	0	0	0	0	0	0	0	0	0	0	0	0	0	0	0	0	0	0	0	0	0	0	0	0	0	0	0	0	0	0	0	0	0	2200	2200	2202	2202	2200	2200	2197	2193	2193	2190	2185	2181	2171	2169	2166	2164	2161	2157	2152	2150	2145	2143	2140	2138	2133	2133	2136	2138	2143	2147	2152	2154	2157	2159	2159	2157	2157	2152	2150	2147	2143	2140	2138	2138	2136	2133	2133	2133	2131	2131	2133	2131	2133	2136	2138	2140	0	2143	2145	2147	2150	2152	2152	2152	2152	2152	0	0	0	0	0	0	0	0	0	0	0	0	0	0	0	0	0	0	0	4133	4142	4150	4150	4159	4159	4159	4159	4159	4150	4159	4150	4142	4142	4133	4133	4133	4142	4150	4150	4168	4177	4185	4194	4203	4212	4212	4221	4221	4221	0	0	0	0	0	0	0	0	0	0	0	0	0	0	0	0	0	0	2183	2185	2185	2190	2190	2190	2193	2193	2190	2190	2193	2190	2188	2185	2181	2176	2171	2169	2164	2159	2157	2157	2157	2157	2157	2159	2159	2159	2157	2157	2154	2152	2147	2145	2140	2136	2131	2124	2120	2115	2113	2111	2111	2108	2108	2108	2113	2117	2122	2129	2131	2136	2140	2145	2150	2154	2154	2154	2152	2150	2147	2143	2143	0	0	0	0	0	0	0	0	0	0	0	0	0	0	0
2193	2195	2197	2200	2202	2202	2205	2207	2210	2212	2215	2207	2207	2207	2207	2207	2207	2207	2205	2202	2202	2200	2200	2200	2200	2197	2197	2200	2202	2207	2210	2215	2217	2220	2222	2225	2227	2230	2227	2230	2227	2230	2227	2230	2232	2237	2240	2242	2247	2253	2253	2255	2258	2260	2260	2263	2263	2260	2260	2263	2260	2260	2260	2260	2260	2260	2258	2255	2255	2250	2250	2247	2245	2242	2237	2235	2225	2220	2215	2207	2205	2197	2195	2190	2188	2185	2185	2183	2185	2185	2188	2190	2193	2195	2202	2207	2212	2217	2222	2225	2227	2230	2232	2232	2232	2230	2225	2225	2225	2225	2225	2227	2227	2225	2227	2227	2227	2227	2227	2225	2232	2232	0	0	0	0	0	2392	2412	2433	2439	2436	2439	2436	2433	2427	2424	2412	2406	2400	2400	2400	2406	2409	2418	0	2448	2494	2539	2579	2613	2631	0	2641	2648	2655	2659	2655	0	0	0	0	0	0	0	0	4032	4015	3999	3983	3967	3935	3912	3874	3843	3806	3792	3799	3814	3829	3843	0	3874	3889	3920	3943	3967	3983	3999	4015	4024	4040	4048	4065	4082	4090	4107	4124	4142	4159	4177	4194	4212	4221	4239	4248	4258	4258	4258	4258	4248	4230	4212	4194	4177	4159	4150	4133	4124	4133	4133	4124	4133	4142	4133	4142	4159	4168	4185	4194	4203	4203	4203	4194	4185	4177	4168	4150	4133	4116	4107	4090	4073	4057	4040	4015	3983	3967	3967	3959	3959	3951	3959	3975	4007	4048	0	4099	4150	4212	4267	4323	4371	4380	4390	4390	4380	4371	4371	4371	4371	4371	4371	4380	4390	4390	4390	4400	4410	4410	4420	4429	4439	4459	4480	4500	4510	4531	4541	4541	4541	4541	4531	4531	4531	4531	4541	4541	4541	4531	4490	4470	4449	4420	4400	0	0	0	0	0	0	0	0	1824	1824	1822	1819	1817	1814	1809	1809	1807	1806	1806	1804	1804	1804	1804	1804	1804	1804	1804	1806	1806	1806	1806	1806	1806	1806	1806	1806	1806	1806	1806	1806	1804	1806	1806	1804	1807	0	0	0	0	0	0	0	2183	2183	2183	2183	2185	2188	2188	2190	2193	2193	2195	2195	2197	2195	2193	2190	2188	2183	2181	2173	2171	2166	2161	2159	2157	2157	2154	2157	2157	2159	2159	2159	2161	2166	2169	2173	2176	2178	2183	2185	2185	2188	2188	2190	2188	2188	0	0	0	0	0	0	0	0	0	0	0	0	0	0	0	0	0	0	0	0	0	0	0	0	0	0	0	0	0	0	0	0	0	0	0	0	0	0	0	2205	2205	2202	2202	2202	2202	2202	2202	2200	2197	2195	2193	2193	2188	2183	2178	2171	2166	2166	2164	2159	2154	2152	2147	2143	2140	2138	2136	2133	2133	2136	2138	2143	2147	2152	2154	2157	2157	2157	2154	2154	2152	2147	2143	2140	2138	2136	2133	2131	2131	2129	2129	2129	2129	2127	2129	2131	2133	2136	2140	2140	0	2145	0	2150	2152	2152	2150	2150	2152	2150	2152	2150	2150	2152	2152	0	0	0	0	0	0	0	0	0	0	0	0	0	0	4133	4150	4150	4150	4150	4150	4150	4150	4150	4150	4142	4142	4133	4133	4124	4124	4133	4142	4150	4159	4177	4185	4203	4212	4221	4221	4230	0	0	0	0	0	0	0	0	0	0	0	0	0	0	0	0	0	0	2171	2176	2181	2183	2185	2188	2190	2193	2193	2193	2193	2195	2193	2190	2188	2183	2178	2173	2169	2161	2159	2154	2152	2150	2150	2150	2152	2152	2152	2154	2152	2152	2150	2147	2145	2143	2138	2136	2131	2129	2120	2115	2113	2111	2111	2108	2108	2108	2111	2115	2122	2124	2131	2133	2138	2140	2147	2150	2150	2147	2147	2145	2143	2140	2138	2136	2133	0	0	0	0	0	0	0	0	0	0	0	0	0
2190	2193	2195	2195	2197	2195	2195	2197	2200	2200	2200	2202	2202	2200	2200	2200	2200	2200	2200	2200	2200	2197	2197	2197	2195	2195	2195	2195	2197	2202	2207	2210	2215	2217	2222	2225	2227	2227	2227	2227	2227	2227	2227	2230	2232	2235	2237	2240	2245	2247	2250	2253	2253	2255	2258	2258	2258	2258	2258	2258	2258	2258	2258	2255	2255	2255	2255	2253	2250	2250	2247	2245	2242	2242	2240	2237	2227	2225	2220	2212	2210	2205	2202	2200	2197	2193	2193	2193	2193	2193	2195	2195	2197	2200	2205	2207	2212	2217	2225	2225	2227	2230	2232	2232	2235	2232	2232	2230	2232	2232	2232	2232	2235	2235	2235	2237	2237	2237	2237	2240	2247	0	0	0	2324	0	0	2398	2409	2424	2427	2430	2430	2430	2427	2424	2421	2415	2406	2400	2398	2400	2406	2406	2415	2436	0	2485	0	2579	2617	0	2638	2648	2652	2659	2662	2659	2659	0	0	0	0	0	0	0	4032	4015	3999	3983	3967	3935	3904	3874	3843	3806	3799	3806	3814	3836	3858	0	3881	3904	3928	3959	3975	3991	4007	4015	4032	4040	4048	4065	4073	4090	4099	4116	4142	4159	4177	4194	4221	4239	4248	4267	4276	4285	4276	4267	4267	4258	4239	4212	4194	4159	4150	4142	4133	4133	4133	4142	4150	4150	4150	4159	4168	4185	4194	4203	4212	4212	4212	4203	4203	4185	4177	4168	4150	4142	4124	4107	4090	4073	4057	4032	4007	3983	3975	3975	3967	3967	3975	3991	4024	4048	0	4099	4133	4185	4239	4285	4332	4342	4351	4361	4361	4361	4351	4351	4351	4351	4351	4361	4361	4371	4371	4380	4380	4390	4400	4410	4420	4449	4470	4490	4510	4510	4521	4531	4531	4531	4521	4521	4521	4521	4521	4521	4521	4510	4470	4459	4439	4420	0	0	0	0	0	0	0	0	1821	1821	1819	1819	1817	1816	1812	1812	1809	1807	1807	1806	1804	1804	1804	1804	1804	1804	1804	1806	1806	1807	1807	1807	1807	1807	1809	1807	1807	1807	1807	1807	1807	1806	1807	1807	1806	1807	0	0	0	0	0	0	0	2181	2181	2181	2181	2181	2183	2185	2185	2188	2190	2190	2190	2193	2190	2188	2185	2183	2178	2176	2171	2166	2161	2159	2157	2154	2152	2152	2152	2152	2154	2154	2159	2161	2164	2169	2173	2176	2181	2183	2183	2185	2185	2188	2188	2188	2188	2185	0	0	0	0	0	0	0	0	0	0	0	0	0	0	0	0	0	0	0	0	0	0	0	0	0	0	0	0	0	0	0	0	0	0	0	0	2212	2212	2210	2210	2207	2205	2205	2205	2205	2202	2200	2197	2195	2193	2190	2185	2183	2178	2171	2164	2164	2159	2157	2152	2147	2145	2140	2138	2136	2133	2131	2131	2133	2136	2143	2145	2147	2150	2152	2152	2152	2152	2150	2147	2143	2143	2138	2136	2133	2131	2129	2127	2127	2124	2124	2122	2122	2124	2127	2129	2133	2136	2138	2140	2143	2147	2150	2150	2150	2150	2147	2147	2147	2147	2145	2147	2145	2145	2143	0	0	0	0	0	0	0	0	0	0	0	0	0	4150	4159	4168	4159	4159	4168	4168	4168	4168	4168	4142	4142	4133	4133	4133	4133	4142	4150	4159	4177	4194	0	0	0	0	0	0	0	0	0	0	0	0	2145	0	2150	2152	0	2159	2159	2161	2161	2161	2161	2166	0	2171	2176	2178	2181	2185	2185	2190	2193	2193	2193	2193	2190	2188	2185	2183	2176	2169	2164	2157	2152	2147	2143	2140	2140	2140	2140	2143	2143	2145	2145	2145	2143	2138	2138	2136	2133	2131	2127	2122	2120	2117	2113	2111	2111	2108	2106	2106	2108	2113	2117	2124	2127	2129	2133	2138	2143	2145	2143	2143	2140	2140	2138	2136	2133	2129	2129	2129	2127	0	0	0	0	0	0	0	0	0	0	0
2183	2183	2183	2185	2188	2190	2193	2193	2193	2195	2195	2195	2197	2195	2195	2195	2197	2197	2197	2197	2200	2200	2200	2200	2197	2197	2197	2197	2200	2202	2207	2212	2215	2217	2220	2222	2225	2230	2230	2230	2230	2227	2230	2232	2235	2235	2237	2240	2242	2247	2250	2253	2253	2253	2255	2255	2255	2253	2255	2255	2253	2253	2253	2253	2253	2250	2250	2250	2247	2247	2245	2245	2242	2242	2240	2237	2235	2227	2222	2220	2215	2212	2210	2207	2205	2202	2202	2202	2202	2202	2202	2202	2205	2205	2210	2212	2215	2220	2225	2227	2230	2232	2232	2235	2235	2235	2235	2237	2237	2240	2240	2240	2242	2242	2245	2247	2247	2247	2250	2255	2266	0	0	0	2346	0	0	2406	2415	2418	2421	2427	2427	2424	2424	2424	2421	2412	2406	2400	2400	2400	2403	2406	2412	2430	0	2482	0	2582	2624	0	2645	2655	2659	2666	2666	2666	2662	0	0	0	0	0	0	0	4024	4007	3991	3975	3959	3935	3904	3874	3843	3799	3799	3806	3814	3836	3858	0	3881	3904	3935	3959	3983	3999	4007	4024	4032	4040	4057	4065	4082	4090	4107	4124	4142	4159	4185	4212	4230	4248	4267	4285	4295	4304	4304	4304	4295	4276	4267	4248	4221	4203	4185	4159	4159	4159	4150	4159	4168	4168	4168	4177	4185	4203	4203	4212	4221	4221	4221	4221	4212	4203	4194	4185	4168	4159	4142	4124	4107	4090	4065	4048	4024	3999	3991	3983	3983	3983	3991	4007	4048	4073	0	4107	4142	4185	4221	4267	4304	4323	4332	4332	4332	4342	4342	4332	4332	4332	4332	4332	4342	4342	4351	4361	4380	4390	4390	4400	4429	4439	4470	4490	4490	4500	4510	4510	4510	4510	4510	4510	4500	4500	4510	4510	4510	4480	4470	4449	4429	4410	0	0	0	0	0	0	0	0	1817	1816	1816	1814	1814	1814	1812	1809	1807	1807	1807	1806	1806	1804	1804	1804	1804	1806	1806	1806	1806	1807	1807	1809	1809	1809	1809	1811	1809	1809	1809	1811	1809	1809	1807	1809	1807	1809	0	0	0	0	0	0	0	2176	2178	2178	2178	2178	2181	2181	2183	2183	2185	2185	2188	2188	2185	2183	2181	2178	2173	2171	2166	2164	2157	2154	2152	2150	2150	2150	2150	2150	2152	2154	2159	2161	2166	2169	2173	2176	2178	2183	2185	2188	2185	2185	2188	2188	2188	2185	2185	0	0	0	0	0	0	0	0	0	0	0	0	0	0	0	0	0	0	0	0	0	0	0	0	0	0	0	0	0	0	0	0	0	0	2217	2217	2217	2215	2215	2212	2212	2210	2210	2210	2205	2202	2200	2197	2193	2188	2183	2181	2176	2169	2164	2161	2157	2154	2150	2145	2140	2138	2136	2133	2131	2129	2129	2131	2136	2140	2143	2145	2147	2147	2150	2147	2147	2145	2143	2140	2138	2136	2133	2131	2131	2129	2124	2124	2120	2120	2120	2117	2120	2122	2124	2129	2133	2136	2140	2143	2143	2145	2147	2147	2145	2145	2145	2143	2143	2143	2143	2138	2136	2136	2133	0	0	0	0	0	0	0	0	0	0	0	0	0	4159	4168	4168	4168	4168	4168	4168	4168	4159	4150	4142	4124	4133	4124	4124	0	0	0	0	0	0	0	0	0	0	0	0	0	0	0	2124	2131	2138	2145	2147	0	2152	2154	2154	2154	2154	2154	2154	2159	2161	2161	2166	2169	2171	2173	2178	2181	2181	2183	2183	2183	2185	2183	2181	2176	2169	2161	2154	2147	2140	2136	2131	2129	2129	2129	2129	2131	2131	2136	2136	2136	2136	2133	2133	2133	2131	2129	2127	2120	2120	2115	2113	2111	2108	2106	2106	2106	2106	2108	2115	2120	2122	2122	2127	2129	2133	2136	2133	2133	2133	2131	2131	2129	2127	2127	2124	2124	2124	2122	0	0	0	0	0	0	0	0	0	0
2181	2181	2181	2181	2183	2185	2185	2188	2188	2190	2190	2190	2193	2190	2193	2195	2195	2197	2197	2200	2202	2205	2205	2205	2205	2202	2200	2200	2202	2205	2210	2215	2217	2220	2222	2225	2227	2230	2232	2232	2232	2232	2235	2235	2237	2240	2242	2242	2245	2250	2250	2253	2253	2253	2253	2253	2253	2253	2250	2250	2250	2250	2250	2250	2247	2247	2247	2247	2247	2245	2245	2245	2245	2245	2242	2240	2240	2232	2230	2227	2222	2222	2220	2217	2215	2212	2212	2212	2212	2210	2210	2210	2212	2212	2215	2215	2220	2222	2227	2230	2232	2232	2235	2235	2237	2237	2240	2242	2245	2247	2250	2253	2253	2255	2255	2255	2258	2260	2263	2268	2281	0	0	0	2360	0	0	2406	2412	2415	2418	2421	2421	2421	2421	2418	2412	2409	2403	2400	2398	2398	2400	2403	2409	2424	0	2473	0	0	0	0	2648	2662	2666	2670	2670	2666	0	0	0	0	0	0	0	4032	4007	3991	3975	3967	3943	3920	3897	3866	3836	3799	3792	3799	3821	3836	3858	0	3881	3904	3935	3967	3983	3999	4015	4032	4040	4048	4057	4073	4090	4099	4116	4133	4150	4168	4194	4221	4248	4276	4304	4323	4342	4342	4351	4351	4342	4323	4304	4285	4258	4239	4230	4221	4185	4185	4185	4185	4194	4194	4185	4194	4203	4221	4221	4221	4230	4230	4230	4230	4230	4221	4212	4203	4185	4177	4159	4133	4124	4107	4082	4065	4040	4024	4007	3999	3999	3999	3999	4032	4057	0	4090	4116	4159	4185	4230	4267	4295	4304	4313	4323	4323	4323	4323	4323	4313	4313	4313	4332	4332	4342	4342	4361	4371	4380	4400	4410	4420	4439	4459	4480	4480	4490	4490	4500	4500	4490	4490	4500	4490	4490	4500	4490	4490	4470	4459	4449	4429	0	0	0	0	0	0	0	0	1816	1816	1814	1809	1811	1812	1812	1807	1807	1807	1807	1807	1807	1806	1804	1806	1806	1806	1806	1806	1806	1807	1807	1809	1811	1811	1811	1811	1812	1811	1811	1812	1812	1812	1812	1812	1812	1812	1814	0	0	0	0	0	0	0	2173	2173	2173	2176	2176	2178	2178	2178	2181	2181	2183	2183	2181	2181	2178	2176	2173	2169	2166	2161	2159	2154	2152	2150	2147	2147	2147	2147	2150	2152	2154	2157	2161	2166	2169	2173	2176	2178	2183	2185	2185	2185	2188	2188	2185	2188	2185	2185	0	0	0	0	0	0	0	0	0	0	0	0	0	0	0	0	0	0	0	0	0	0	0	0	0	0	0	0	0	0	0	0	0	0	2220	2220	2220	2217	2217	2217	2215	2215	2212	2210	2207	2205	2200	2197	2193	2188	2183	2178	2169	2164	2161	2157	2154	2150	2145	2140	2138	2133	2131	2129	2129	2129	2127	2129	2133	2136	2140	2140	2143	2143	2145	2143	2143	2143	2138	2138	2136	2133	2131	2131	2129	2127	2124	2120	2117	2117	2115	2115	2115	2117	2122	2124	2129	2133	2136	2140	2140	2143	2145	2143	2140	2140	2140	2140	2138	2136	2136	2136	2133	2131	2127	2124	2120	0	0	0	0	0	0	0	0	0	0	0	0	0	0	4168	4168	4159	4159	4159	4150	4150	0	0	0	0	0	0	0	0	0	0	2093	2093	0	0	0	0	0	0	2102	2108	2115	2124	2133	2138	2143	2145	2147	2147	2147	2150	2147	2147	2145	2147	2147	2147	2150	2152	2154	2157	2159	2164	2164	2169	2169	2169	2171	2173	2169	2164	2159	2150	2145	2138	2129	2124	2117	2115	2115	2117	2117	2120	2122	2124	2124	2127	2127	2127	2127	2124	2124	2124	2120	2117	2115	2113	2111	2108	2106	2106	2102	2102	2104	2106	2108	2113	2113	2115	2120	2122	2124	2127	2127	2127	2127	2127	2124	2124	2122	2122	2120	2122	2122	2120	2122	0	0	0	0	0	0	0	0	0
2176	2176	2178	2178	2178	2178	2178	2181	2183	2183	2185	2188	2188	2190	2193	2193	2197	2200	2202	2205	2207	2210	2210	2207	0	2207	2205	2205	2205	2207	2212	2215	2220	2222	2225	2230	2232	2232	2235	2237	2237	2237	2240	2240	2242	2245	2245	2247	2247	2250	2250	2253	2253	2255	2253	2253	2253	2250	2250	2247	2247	2247	2245	2245	2245	2245	2245	2247	2245	2247	2247	2245	2245	2245	2242	2245	2242	2240	2235	2232	2230	2230	2225	2225	2222	2220	2220	2220	2220	2217	2217	2217	2217	2217	2220	2220	2222	2227	2230	2232	2232	2235	2237	2237	2242	2245	2247	2250	2255	2255	2258	2260	2263	2266	2263	2266	2268	2271	2276	2281	2294	2305	2327	2349	2372	0	2395	2403	2409	2415	2418	2418	2418	2418	2415	2415	2412	2406	2403	2400	2398	2398	2398	2398	2400	2418	0	0	0	0	0	0	2655	2666	2666	2673	2673	0	0	0	0	0	0	0	0	4007	3991	3975	3959	3943	3928	3912	3881	3858	3799	3792	3792	3792	3814	3829	3851	0	3881	3904	3935	3967	3991	4007	4032	4048	4057	4065	4073	4082	4099	4116	4124	4142	4159	4177	4212	4248	4285	4323	4342	4371	4390	4390	4400	4400	4390	4371	4351	4332	4313	4285	4276	4258	4248	4230	4221	4221	4221	4221	4212	4212	4221	4230	4239	4239	4239	4239	4239	4239	4230	4221	4212	4203	4194	4185	4168	4150	4133	4116	4090	4073	4048	4032	4015	4007	4007	4007	4015	4040	0	4073	4107	4142	4177	4212	4248	4285	4313	4323	4332	4332	4342	4332	4332	4342	4342	4342	4342	4342	4351	4351	4361	4380	4390	4400	4420	4420	4439	4449	4470	4480	4480	4490	4490	4480	4490	4490	4490	4490	4490	4480	4480	4490	4490	4470	4449	0	0	0	0	0	0	0	0	0	1806	1806	1806	1806	1804	1804	1806	1806	1806	1807	1806	1807	1806	1807	1806	1806	1806	1806	1806	1806	1806	1807	1807	1809	1809	1811	1812	1812	1812	1814	1814	1814	1814	1814	1814	1814	1816	1816	1814	1816	0	0	0	0	0	0	2173	2173	2173	2171	2173	2173	2173	2176	2176	2176	2178	2178	2178	2178	2176	2173	2171	2169	2164	2161	2157	2154	2150	2150	2147	2145	2145	2145	2147	2150	2150	2154	2157	2161	2166	2169	2173	2176	2178	2181	2185	2185	2185	2188	2188	2188	2188	2185	2183	0	0	0	0	0	0	0	0	0	0	0	0	0	0	0	0	0	0	0	0	0	0	0	0	0	0	0	0	0	0	0	0	0	0	2220	2220	2220	2220	2220	2220	2217	2217	2217	2215	2210	2205	2200	2195	2190	2185	2181	2176	2166	2164	2159	2154	2150	2145	2140	2136	2133	2129	2129	2127	2124	2124	2127	2129	2131	2133	2136	2138	2138	2138	2140	2140	2138	2138	2136	2133	2133	2133	2131	2131	2127	2127	2122	2117	2117	2115	2115	2113	2115	2115	2120	2122	2124	2129	2131	2136	2136	2138	2138	2138	2138	2136	2136	2136	2136	2133	2131	2129	2129	2127	2122	2117	2113	2108	0	0	0	0	0	0	0	0	0	0	0	0	0	0	0	0	0	0	0	0	0	0	0	0	0	0	2097	2097	2095	2093	2093	2091	2091	2086	0	0	2086	2091	2097	2102	2111	2117	2127	2133	2138	2140	2143	2143	2143	2143	2140	2138	2136	2136	2136	2136	2138	2138	2138	2140	2143	2147	2150	2150	2154	2154	2157	2159	2157	2152	2145	2138	2133	2124	2115	2111	2106	2104	2104	2104	2106	2106	2111	2115	2120	2120	2120	2120	2120	2120	2117	2115	2113	2113	2111	2108	2106	2104	2102	2102	2099	2099	2099	2102	2104	2106	2108	2111	2113	2115	2117	2117	2117	2120	2120	2120	2120	2117	2115	2117	2117	2117	2117	2120	2120	2117	2120	2120	2124	2127	2127	2127	0	0
2176	2173	2173	2171	2171	2173	2173	2173	2176	2181	2183	2185	2185	2188	2193	2197	2200	2205	2207	2210	2210	2215	2215	2215	2215	2210	2210	2207	2210	2210	2215	2217	2220	2225	2227	2230	2235	2237	2240	2240	2242	2245	2247	2247	2250	2250	2253	2253	2255	2255	2255	2255	2258	2255	2255	2255	2253	2250	2247	2247	2247	2242	2242	2242	2242	2242	2240	2242	2245	2242	2245	2245	2245	2245	2242	2245	2242	2242	2240	2237	2237	2235	2232	2230	2227	2225	2225	2225	2225	2222	2222	2222	2222	2222	2225	2225	2227	2230	2232	2235	2237	2237	2240	2240	2247	2247	2253	2255	2260	2263	2266	2268	2271	2273	2276	2279	2281	2287	2294	2303	2316	2327	2346	2366	0	2386	2398	2406	2409	2412	2412	2415	2415	2412	2412	2409	2406	2403	2400	2398	2395	2395	2395	2395	2398	0	0	0	0	0	0	0	2659	2670	2670	0	0	0	0	0	0	0	0	0	0	0	3959	3943	3928	0	3904	3889	3858	3836	3785	3777	3777	3785	3799	3821	3843	0	3866	3897	3935	3959	3991	4024	4040	4057	4073	4082	4099	4107	4116	4124	4142	4159	4177	4203	4230	4258	4304	4342	4371	4390	4410	4429	4439	4429	4420	4400	4380	4371	4332	4323	4313	4295	4285	4276	4276	4258	4258	4258	4258	4248	4258	4258	4258	4258	4248	4248	4248	4248	4239	4230	4221	4212	4203	4194	4177	4159	4142	4124	4099	4082	4065	4040	4024	4015	4015	4015	4024	0	4057	4090	4124	4168	4203	4239	4276	4304	4332	4342	4351	4351	4361	4361	4361	4361	4361	4361	4361	4371	4371	4380	4390	4400	4410	4420	4439	4449	4459	4470	4480	4490	4490	4490	4490	4490	4490	4500	4500	4490	4480	4480	4490	4490	4480	4480	4470	0	0	0	0	0	0	0	0	0	0	1794	1796	1796	1796	1798	1799	1801	1803	1804	1804	1806	1806	1806	1806	1806	1806	1806	1806	1806	1807	1807	1807	1809	1809	1811	1811	1812	1812	1812	1812	1814	1814	1814	1816	1816	1816	1816	1817	1817	1817	0	0	0	0	0	0	2166	2164	2164	2164	2164	2164	2169	2169	2169	2171	2171	2171	2171	2169	2166	2164	2161	2159	2154	2152	2150	2147	2145	2145	2143	2143	2143	2145	2145	2150	2152	2154	2159	2164	2166	2171	2171	2176	2178	2181	2183	2185	2185	2185	2185	2183	2183	2183	2183	0	0	0	0	0	0	0	0	0	0	0	0	0	0	0	0	0	0	0	0	0	0	0	0	0	0	0	0	0	0	0	0	2222	2220	2220	2222	2222	2222	2222	2220	2220	2215	2212	2210	2205	2197	2193	2188	2181	2176	2166	2161	2157	2154	2147	2145	2140	2133	2131	2129	2127	2124	2124	2122	2122	2122	2124	2127	2129	2133	2133	2136	2136	2136	2136	2138	2136	2133	2133	2133	2131	2131	2129	2127	2124	2122	2117	2115	2115	2113	2113	2113	2115	2117	2120	2122	2124	2129	2131	2133	2133	2133	2133	2131	2131	2131	2129	2129	2127	2124	2124	2120	2117	2113	2111	2104	2102	0	0	0	0	0	0	0	0	0	0	0	0	0	0	0	0	0	0	0	0	0	0	0	0	0	2097	2097	2095	2095	2093	2091	2088	2086	2084	2084	2082	2086	2088	2093	2102	2106	2113	2120	2127	2131	2133	2136	2138	2138	2136	2133	2129	2127	2127	2124	2122	2120	2120	2122	2124	2127	2131	2131	2133	2136	2138	2140	2143	2140	2136	2131	2124	2117	2108	2102	2095	2091	2091	2091	2095	2097	0	2102	2106	2111	2113	2115	2115	2113	2113	2111	2111	2108	2108	2106	2106	2102	2102	2102	2099	2099	2097	2097	2099	2102	2102	2104	2106	2106	2108	2111	2111	2111	2111	2113	2113	2113	2111	2113	2113	2113	2113	2115	2115	2115	2117	2117	2117	2120	2122	2124	2124	2124	0
2176	2173	2171	2169	2169	2171	2171	2171	2173	2178	2181	2185	2188	2193	2197	2200	2205	2210	2212	2215	2217	2220	2220	2220	2217	2217	2212	2212	2215	2215	2217	2220	2225	2227	2232	2235	2237	2242	2245	2247	2250	2250	2255	2258	2258	2260	2260	2263	2260	2260	2263	2260	2260	2258	2258	2255	2253	2250	2247	2245	2242	2242	2242	2240	2237	2237	2237	2237	2237	2240	2242	2242	2242	2245	2245	2242	2245	2247	2245	2245	2242	2242	2237	2237	2237	2232	2232	2230	2230	2227	2227	2227	2227	2227	2230	2232	2235	2237	2237	2240	2240	2242	2245	2245	2247	2255	2260	2263	2266	2271	2273	2279	2281	2284	2287	2289	2294	2300	2311	2319	2330	2341	2357	0	2377	2389	2403	2409	2409	2412	2412	2412	2412	2412	2406	2406	2403	2400	2398	2398	2395	2395	2395	2392	2392	0	0	0	0	0	0	0	0	0	0	0	0	0	0	0	0	0	0	0	0	0	3920	3904	3889	3881	3866	3851	3829	3785	3770	3756	3756	3763	3777	3799	3829	3851	0	3881	3920	3959	3991	4024	4048	4073	4090	4107	4124	4133	4142	4150	4159	4177	4194	4212	4239	4285	4323	4361	4390	4420	4439	4439	4459	4449	4439	4420	4400	4380	4361	4351	4342	4332	4323	4313	4313	4304	4304	4295	4295	4285	4285	4285	4267	4267	4267	4258	4258	4248	4239	4230	4221	4221	4212	4203	4185	4168	4150	4133	4107	4082	4065	4040	4032	4015	4024	4024	4032	0	4065	4107	4142	4185	4230	4258	4295	4323	4351	4361	4361	4371	4371	4380	4380	4380	4371	4371	4380	4380	4380	4390	4400	4420	4429	4449	4459	4470	4480	4490	4500	4500	4500	4510	4500	4490	4500	4500	4500	4490	4490	4480	4480	4490	4490	4480	4480	0	0	0	0	0	0	0	0	0	1788	1786	1788	1786	1789	1791	1794	1796	1798	1801	1803	1803	1804	1806	1806	1806	1806	1807	1807	1807	1807	1807	1809	1809	1809	1811	1811	1811	1811	1812	1812	1814	1814	1816	1816	1816	1817	1817	1819	1819	1819	0	0	0	0	0	0	2157	2154	2152	2157	2157	2154	2159	2159	2161	2161	2161	2161	2161	2161	2159	2157	2154	2150	2147	2145	2143	2140	2140	2138	2138	2138	2140	2140	2145	2147	2150	2152	2157	2159	2161	2166	2171	2173	2173	2178	2178	2178	2181	2181	2181	2181	2181	2181	0	0	0	0	0	0	0	0	0	0	0	0	0	0	0	0	0	0	0	0	0	0	0	0	0	0	0	0	0	0	0	0	0	0	2222	2220	2225	2225	2225	2222	2220	2217	2215	2210	2205	2197	2190	2185	2178	2173	2169	2159	2157	2150	2147	2140	2138	2133	2129	2127	2124	2120	2120	2117	2120	2120	2120	2122	2124	2127	2129	2131	2133	2133	2133	2133	2133	2133	2131	2131	2131	2131	2129	2129	2127	2124	2122	2117	2115	2113	2113	2111	2113	2113	2115	2117	2120	2122	2124	2127	2129	2129	2129	2127	2127	2124	2124	2122	2122	2117	2117	2113	2113	2111	2106	2099	2097	2093	2091	2086	0	0	0	0	0	0	0	0	0	0	0	0	0	0	0	0	0	0	0	0	0	0	2097	2097	2095	2095	2095	2093	2091	2088	2086	2086	2084	2082	2084	2088	2091	2097	2099	2106	2113	2120	2124	2127	2129	2131	2129	2129	2127	2122	2120	2115	2113	2111	2108	2106	2104	2106	2108	2113	2115	2115	2117	2122	2122	2124	2122	2117	2113	2106	2102	2095	2082	2080	2077	2080	2080	2084	2086	2093	2099	0	2104	2106	2108	2108	2108	2108	2106	2106	2104	2104	2102	2102	2099	2099	2099	2097	2095	2095	2097	2097	2099	2097	2099	2099	2099	2099	2104	2102	2104	2104	2104	2104	2106	2106	2108	2108	2108	2111	2111	2108	2113	2115	2113	2115	2117	2117	2120	2120	2117	2120
2181	2178	2178	2176	2173	2176	2178	2178	2181	2183	2185	2190	2195	2197	2202	2210	2212	2215	2217	2222	2222	2225	2225	2222	2222	2222	2220	2217	2220	2220	2222	2225	2230	2232	2235	2240	2242	2247	2250	0	2255	2258	2263	2266	2268	2268	2268	2268	2268	2268	2268	2266	2263	2260	2260	2258	2253	2250	2247	2245	2242	2242	2237	2235	2235	2235	2232	2232	2235	2235	2235	2235	2240	2240	2242	2245	2245	2247	2250	2250	2247	2247	2245	2242	2242	2240	2237	2235	2235	2232	2232	2235	2235	2235	2235	2237	2240	2242	2245	2247	2247	2250	2250	2253	2258	2260	2266	2268	2273	2281	2284	2289	2294	2297	2303	2305	2313	2319	2327	2335	2343	2355	2369	0	2383	2395	2403	2412	2412	2412	2412	2412	2412	2409	2409	2406	2403	2400	2400	2398	2395	2395	2395	2392	2392	0	0	0	0	0	0	0	0	0	0	0	0	0	0	0	0	0	0	0	0	0	0	3858	3843	3843	3829	3814	3777	3756	3749	3742	3742	3749	3770	3792	3814	3843	0	3874	3912	3951	3999	4032	4057	4082	4107	4124	4142	4150	4168	4177	4194	4203	4212	4239	4267	4295	4342	4390	4410	4439	4449	4470	4470	4459	4449	4420	4400	4371	4361	4351	4342	4342	4342	4342	4332	4332	4332	4323	4313	4313	4304	4295	4295	4276	4276	4267	4258	4248	4239	4230	4230	4221	4212	4203	4185	4168	4150	4133	4116	4090	4065	4040	4032	4015	4015	4024	4032	0	4065	4107	4159	4203	4239	4276	4304	4332	4361	4371	4371	4380	4380	4390	4390	4390	4380	4380	4380	4390	4400	4400	4410	4420	4439	4459	4470	4480	4480	4500	4510	4510	4510	4510	4500	4500	4490	4490	4490	4480	4480	4470	4480	4480	4480	4480	4480	0	0	0	0	0	0	0	0	0	1785	1783	1783	1785	1785	1786	1788	1791	1794	1798	1799	1803	1804	1806	1807	1807	1807	1807	1809	1809	1809	1809	1809	1809	1809	1811	1811	1811	1811	1811	1811	1812	1812	1814	1816	1816	1816	1817	1819	1821	1828	0	0	0	0	0	0	2143	0	0	0	2145	2143	2147	2150	2150	2150	2152	2152	2152	2150	2150	2147	2145	2143	2140	2140	2138	2136	2136	2136	2136	2136	2138	2138	2140	2143	2145	2147	2150	2154	2157	2159	2159	2159	2159	2161	2164	2161	2161	2161	2161	0	0	0	0	0	0	0	0	0	0	0	0	0	0	0	0	0	0	0	0	0	0	0	0	0	0	0	0	0	0	0	0	0	0	0	0	0	0	0	2225	2222	2222	2217	2215	2212	2207	2202	2197	2188	2181	2173	2169	2159	2154	2150	2147	2143	2138	2133	2131	2127	2124	2120	2117	2115	2115	2115	2115	2115	2115	2117	2120	2122	2124	2124	2127	2129	2129	2129	2129	2129	2129	2127	2127	2127	2127	2124	2124	2124	2117	2115	2113	2113	2111	2111	2111	2111	2113	2113	2117	2117	2120	2122	2122	2124	2124	2122	2120	2120	2117	2117	2113	2111	2108	2106	2104	2102	2099	2093	2091	2088	2084	2082	2080	2075	2073	0	0	0	0	0	0	0	0	0	0	0	0	0	0	0	0	0	0	0	2097	2095	2095	2093	2093	2091	2088	2088	2086	2084	2082	2082	2082	2082	2086	2091	2095	2099	2106	2111	2115	2120	2122	2122	2120	2120	2117	2115	2111	2106	2102	2097	2093	2093	2091	2091	2093	2097	2097	2099	2099	2102	2104	2104	2102	2099	2095	2091	2082	2073	2069	2066	2066	2066	2069	2073	2077	2084	2091	2097	2102	2102	2104	2104	2104	2104	2102	2102	2102	2102	2099	2099	2097	2097	2095	2095	2095	2095	2093	2095	2095	2093	2095	2093	2093	2093	2093	2093	2093	2095	2095	2095	2097	2099	2099	2102	2104	2104	2104	2108	2108	2108	2108	2108	2113	2113	2113	2115	2115	2115
2193	2190	2188	2188	2188	2190	2188	2188	2190	2193	2195	2200	2202	2207	2210	2215	2220	2222	2222	2227	2227	2230	2230	2230	2227	2225	2225	2225	2225	2222	2225	0	2232	2235	2237	2242	2245	2250	2253	2258	2260	2263	2268	2271	2273	2273	2276	2273	2276	2273	2271	2268	2266	2263	2260	2258	2253	2250	2245	2242	2237	2237	2235	2232	2230	2230	2230	2227	2227	2230	2230	2230	2232	2235	2240	2242	2245	2247	2250	2250	2250	2250	2247	2247	2247	2245	2245	2242	2242	2242	2242	2242	2245	2245	2247	2247	2247	2253	2255	2255	2258	2260	2260	2263	2268	2271	2273	2281	2287	2294	2303	2308	2313	2316	2321	2327	2332	2338	2343	2349	2357	2366	0	2377	2389	2400	2406	2415	2415	2418	2415	2415	2415	2412	2409	2406	2403	2403	2398	2398	2398	2395	2395	2392	2389	0	0	0	0	0	0	0	0	0	0	0	0	0	0	0	0	0	0	0	0	0	0	3806	3799	3799	3770	3756	3749	3734	3727	3727	3727	3734	3756	3777	3806	3836	3866	0	3904	3943	3991	4032	4065	4099	4124	4142	4168	4177	4194	4203	4221	4230	4239	4258	4285	4313	4361	4410	4429	4439	4459	4470	4470	4459	4439	4420	4390	4371	4351	4351	4342	4342	4342	4342	4342	4342	4342	4342	4332	4313	4313	4304	4295	4276	4276	4267	4258	4248	4239	4230	4221	4212	4212	4194	4185	4159	4142	4124	4099	4082	4057	4032	4024	4015	4015	4015	4024	0	4057	4107	4159	4194	4248	4276	4313	4342	4371	4371	4380	4390	4400	4400	4400	4390	4390	4390	4390	4390	4390	4400	4410	4420	4439	4459	4470	4480	4490	4500	4510	4521	4510	4510	4500	4500	4500	4490	4490	4490	4480	4480	4480	4490	4490	4480	4480	0	0	0	0	0	0	0	0	0	1780	1778	1778	1780	1781	1785	1788	1791	1793	1798	1799	1803	1806	1806	1807	1809	1809	1811	1811	1811	1811	1811	1811	1811	1811	1811	1811	1811	1811	1811	1812	1812	1814	1816	1817	1817	1819	1821	1822	1822	1833	0	0	0	0	0	0	0	0	0	0	0	2129	2133	2138	2138	2138	2140	2140	2140	2138	2138	2136	2136	2133	2131	2131	2131	2131	2131	2131	2131	2131	2133	2133	2136	2136	2138	2140	2140	2143	2143	2145	2143	2138	2140	2140	2136	2133	2133	0	0	0	0	0	0	0	0	0	0	0	0	0	0	0	0	0	0	0	0	0	0	0	0	0	0	0	0	0	0	0	0	0	0	0	0	0	0	0	0	0	0	2222	2217	2212	2210	2202	2195	2190	2185	2178	2171	2164	2152	2147	2143	2140	2138	2133	2129	2127	2124	2120	2117	2113	2113	2113	2111	2111	2113	2111	2113	2113	2115	2117	2120	2120	2122	2124	2122	2124	2124	2124	2124	2124	2124	2122	2122	2122	2122	2120	2115	2113	2111	2108	2108	2108	2108	2108	2108	2111	2113	2113	2115	2115	2117	2117	2117	2115	2115	2113	2113	2111	2108	2104	2102	2099	2097	2095	2091	2086	2082	2080	2077	2075	2073	2069	2066	2066	2066	0	0	0	0	0	0	0	0	0	0	0	0	0	0	0	0	2095	2095	2093	2093	2091	2091	2088	2086	2084	2082	2080	2080	2077	2080	2080	2082	2084	2088	2095	2099	2104	2108	2111	2111	2113	2111	2108	2108	2104	2099	2095	2088	2082	2080	2077	2073	2073	2075	2080	2077	2082	2084	2084	2088	2088	2086	2084	2077	2073	2066	2060	2056	2054	2056	2056	2060	2064	2069	2075	2084	2091	2095	2097	2097	2099	2099	2099	2097	2097	2097	2097	2097	2097	2095	2095	2095	2095	2095	2093	2093	2093	2093	2091	2091	2088	2088	2086	2086	2086	2086	2086	2086	2088	2091	2093	2093	2095	2097	2097	2099	2102	2102	2102	2102	2104	2106	2108	2111	2108	2108	2108
2202	2202	2200	2200	2200	2202	2200	2200	2200	2202	2205	2210	2212	2217	2220	2222	2225	2227	2230	2230	2230	2230	2232	2232	2230	2230	2230	2230	2230	2230	2232	2235	2237	2240	2245	2247	2253	2255	2258	2263	2266	2271	2273	2276	2276	2279	2279	2279	2279	2276	2273	2271	2268	2263	2260	2255	2253	2247	2242	2240	2235	2235	2230	2230	2225	2225	2225	2222	2222	2225	2225	2227	2230	2235	2235	2240	2245	2247	2250	2250	2250	2250	2250	2250	2253	2253	2253	2253	2253	2253	2255	2255	2258	2258	2258	2260	2263	2263	2266	2268	2268	2271	2273	2276	2279	2287	2292	2297	2305	2313	2319	2324	2330	2335	2338	2343	2346	0	2355	2360	2366	2372	2380	2389	2400	2409	2418	2421	2421	2424	2421	2421	2418	2415	2415	2409	2406	2403	2400	2400	2398	2395	2392	2389	2389	2386	0	0	0	0	0	0	0	0	0	0	0	0	0	0	0	0	0	0	0	0	3792	3785	3777	3763	3756	3742	3734	3720	3713	3713	3720	3727	3749	3770	3799	3829	3866	0	3904	3951	3999	4040	4082	4116	4133	4168	4185	4194	4212	4221	4239	4248	4258	4267	4285	4323	4371	4410	4429	4449	4449	4459	4449	4449	4429	4410	4380	4361	4342	4332	4342	4332	4332	4332	4332	4332	4332	4332	4332	4313	4304	4295	4295	4267	4267	4258	4248	4239	4221	4212	4203	4203	4194	4177	4168	4150	4133	4107	4090	4065	4040	4024	3999	3991	3991	3991	4007	4032	0	4082	4133	4177	4221	4258	4295	4332	4361	4371	4380	4390	4390	4390	4390	4380	4380	4380	4380	4390	4380	4390	4400	4410	4429	4439	4459	4470	4490	4500	4510	4510	4510	4510	4510	4510	4510	4500	4500	4490	4490	4480	4480	4490	4490	4480	4480	0	0	0	0	0	0	0	0	1780	1780	1778	1778	1780	1781	1785	1788	1791	1793	1798	1799	1803	1806	1807	1809	1809	1811	1811	1812	1812	1812	1814	1812	1812	1812	1811	1812	1812	1811	1812	1812	1812	1814	1816	1817	1819	1821	1822	1822	1826	1839	1857	0	0	0	0	0	0	0	2108	2111	2115	2115	2120	2124	2124	2127	2127	2127	2127	2124	2124	2124	2124	2124	2122	2124	2124	2124	2124	2124	2127	2127	2127	2129	2131	2131	2131	2131	2131	2131	2129	2127	2122	2120	2117	2115	2113	2106	2108	0	0	0	0	0	0	0	0	0	0	0	0	0	0	0	0	0	0	0	0	0	0	0	0	0	0	0	0	0	0	0	0	0	0	0	0	0	0	0	0	0	0	2212	2210	2202	2195	2193	2183	2176	2171	2166	2152	2145	2143	2138	2133	2129	2127	2124	2122	2120	2115	2113	2113	2111	2111	2111	2108	2108	2108	2108	2108	2111	2111	2113	2115	2115	2115	2117	2117	2117	2117	2117	2117	2120	2120	2120	2120	2120	2117	2117	2113	2111	2108	2106	2106	2104	2104	2104	2104	2106	2106	2108	2108	2111	2111	2113	2113	2111	2108	2106	2106	2104	2102	2099	2097	2093	2091	2088	2084	2080	2077	2073	2073	2071	2066	2064	2062	2062	2064	2064	0	0	0	0	0	0	0	0	0	0	0	0	0	0	0	2095	2093	2091	2091	2088	2088	2086	2084	2082	2080	2077	2077	2077	2075	2077	2077	2082	2084	2086	2091	2093	2097	2099	2099	2099	2099	2099	2095	2091	2086	2082	2077	2071	2069	2066	2064	2064	2064	2064	2066	2066	2069	2073	2073	2071	2071	2069	2064	2062	2058	2051	2047	2043	2045	2047	2051	2054	2060	2066	2075	2082	2088	2091	2091	2093	2093	2093	2093	2093	2093	2095	2095	2095	2095	2095	2095	2095	2095	2095	2093	2093	2093	2091	2088	2086	2084	2082	2082	2080	2080	2080	2080	2082	2084	2086	2088	2091	2091	2093	2093	2095	2095	2095	2095	2095	2099	2102	2104	2102	2102	2091
2215	2215	2212	2212	2212	2212	2212	2210	2210	2212	2215	2220	2222	2222	2225	2230	2230	2232	2232	2232	2232	2235	2235	2235	2235	2235	2235	2235	2235	2235	2237	2240	2242	2245	2247	2253	2255	2258	2263	2266	2268	2273	2276	2279	2279	2281	2284	2281	2279	2279	2276	2271	2268	2266	2260	2255	2250	2245	2240	2237	2232	2230	2227	2225	2225	2222	2220	2220	2220	2220	2225	2225	2227	2232	2235	2237	2242	2247	2250	2253	2253	2253	2253	2253	2255	2255	2258	2260	2263	2266	2268	2268	2273	2276	2279	2281	2281	2281	2284	2284	2287	2289	2292	2294	2300	2303	2313	2321	0	2327	2338	2341	2346	2352	2355	2357	2357	2360	2366	2372	2374	2383	2392	2400	2409	2418	2427	2430	2430	2430	2430	2430	2427	2421	2421	2415	2409	2406	2400	2398	2398	2392	2389	2389	2386	2386	2383	0	0	0	0	0	0	0	0	0	0	0	0	0	0	0	0	0	0	0	0	3777	3770	3756	3749	3734	3734	3720	3720	3713	3720	3727	3749	3777	3806	3829	3866	0	3904	3951	4007	4057	4090	4124	4150	4177	4203	4212	4230	4239	4248	4258	4258	4267	4295	4323	4361	4400	4420	4429	4439	4439	4439	4429	4400	4380	4361	4342	4323	4323	4323	4323	4323	4323	4323	4323	4313	4313	4313	4295	4285	4267	4258	4248	4239	4230	4221	4212	4203	4194	4177	4168	4168	4150	4142	4124	4099	4082	4065	4040	4015	3983	3975	3967	3975	3967	3983	3999	4048	0	4107	4150	4194	4239	4276	4323	4351	4371	4371	4380	4380	4380	4390	4380	4380	4371	4371	4371	4380	4380	4380	4400	4410	4429	4439	4459	4470	4480	4490	4510	4500	4500	4510	4500	4510	4490	4490	4490	4480	4490	4480	4480	4480	4480	4480	0	0	0	0	0	0	0	0	1781	1780	1778	1778	1778	1781	1785	1788	1793	1794	1798	1801	1804	1806	1809	1811	1812	1812	1812	1814	1814	1814	1814	1814	1814	1812	1812	1812	1812	1812	1812	1812	1814	1814	1816	1817	1819	1821	1824	1824	1831	1848	0	1867	0	0	0	0	0	2093	2093	2095	2099	2099	2106	2108	2111	2111	2111	2111	2111	2111	2111	2111	2113	2113	2113	2115	2115	2117	2120	2120	2120	2122	2122	2122	2122	2122	2120	2120	2120	2115	2113	2108	2104	2102	2097	0	2091	2086	2086	0	0	0	0	0	0	0	0	0	0	0	0	0	0	0	0	0	0	0	0	0	0	0	0	0	0	0	0	0	0	0	0	0	0	0	0	0	0	0	0	0	2197	2193	2190	2183	2178	2173	2166	2161	2157	2145	2140	2133	2131	2127	2122	2120	2115	2113	2111	2111	2108	2108	2106	2106	2108	2108	2106	2108	2108	2108	2108	2108	2108	2111	2111	2111	2113	2115	2115	2115	2115	2115	2115	2115	2115	2115	2115	2115	2111	2111	2108	2106	2104	2104	2102	2099	2099	2099	2099	2099	2099	2104	2104	2106	2106	2108	2108	2106	2104	2102	2102	2099	2097	2095	2093	2088	2086	2084	2082	2077	2073	2069	2066	2062	2062	2060	2058	2058	2060	2062	2060	0	0	0	0	0	0	0	0	0	0	0	0	0	0	2091	2088	2086	2086	2086	2084	2082	2080	2077	2075	2075	2075	2073	2075	2075	2077	2077	2077	2082	2082	2086	2088	2088	2091	2091	2088	2088	2086	2082	2075	2073	2069	2062	2060	2060	2056	2058	2058	2060	2060	2062	2062	2062	2064	2062	2060	2060	2058	2051	2047	2043	2039	2035	2037	2039	2041	2045	2051	2058	2066	2075	2082	2084	2086	2086	2086	2086	2088	2088	2088	2091	2093	2093	2093	2095	2095	2095	2095	2095	2095	2093	2093	2091	2088	2084	2082	2080	2077	2075	2075	2075	2075	2075	2080	2082	2082	2084	2086	2086	2086	2088	2088	2088	2088	2088	2080	2082	2084	2082	2080	2080
2230	2225	2225	2222	2222	2222	2220	2217	2217	2220	2222	2225	2227	2232	2235	2235	2235	2237	2237	2237	2235	2235	2235	2237	2237	2237	2237	2237	2237	2240	2240	2242	2245	2247	2250	2255	2258	2263	2266	2268	2273	2276	2279	2281	2281	2281	2281	2284	2281	2279	2273	2271	2266	2260	2258	2253	2245	2240	2235	2232	2230	2227	2225	2222	2222	2222	2220	2220	2220	2220	2222	2222	2227	2230	2235	2237	2242	2247	2250	2253	2253	2253	2255	2255	2255	2258	2260	2263	2268	2276	2279	2281	2284	2289	2292	2294	2297	2300	2300	2300	2300	2303	2305	2308	0	2316	2324	2330	2338	2346	2352	2360	2363	2366	2366	2369	2369	2369	2372	2377	2383	2386	2398	2406	2415	2424	2430	2436	2436	2433	2436	2433	2430	2430	2424	2421	2412	2406	2403	2398	2395	2389	2389	2386	2386	2386	2383	2380	0	0	0	0	0	0	0	0	0	0	0	0	0	0	0	0	0	3785	3785	3777	3770	3756	3749	3734	3734	3727	3720	3720	3727	3734	3749	3785	3806	3836	3866	0	3904	3959	4015	4065	4099	4142	4177	4194	4221	4230	4239	4258	4248	4267	4267	4276	4295	4313	4351	4390	4410	4420	4429	4420	4420	4400	4380	4361	4332	4313	4304	4295	4295	4295	4304	4295	4304	4295	4295	4295	4285	4276	4248	4248	4230	4221	4212	4203	4194	4177	4168	4159	4150	4142	4142	4124	4116	4099	4073	4065	4040	4015	3975	3959	3951	3943	3951	3951	3951	3975	4024	0	4073	4116	4168	4212	4258	4304	4342	4371	4371	4371	4380	4380	4371	4371	4371	4361	4361	4361	4361	4371	4371	4380	4400	4410	4429	4439	4449	4459	4480	4500	4500	4500	4500	4500	4500	4500	4490	4490	4480	4480	4480	4490	4490	4480	4490	0	0	0	0	0	0	0	0	1781	1778	1778	1778	1780	1781	1785	1789	1793	1794	1798	1801	1804	1807	1809	1811	1812	1812	1812	1814	1814	1816	1816	1816	1814	1814	1814	1814	1814	1814	1814	1814	1814	1816	1817	1819	1821	1822	1822	1826	1834	1855	0	1876	0	0	0	1996	2041	0	2077	2082	2086	2086	2093	2095	2095	2095	2097	2097	2097	2097	2099	2099	2102	2104	2104	2108	2111	2111	2113	2113	2113	2115	2115	2115	2115	2113	2108	2106	2104	2099	2097	2091	2086	2082	2080	2077	2073	2069	2066	2062	2058	2056	0	0	0	0	0	0	0	0	0	0	0	0	0	0	0	0	0	0	0	0	0	0	0	0	0	0	0	0	0	0	0	0	0	0	0	0	0	0	0	2161	2161	2159	2154	2152	2143	2143	2136	2131	2127	2122	2120	2115	2113	2108	2106	2106	2104	2102	2102	2102	2102	2102	2104	2104	2104	2106	2106	2106	2108	2108	2108	2108	2108	2111	2111	2111	2111	2111	2111	2111	2111	2111	2111	2111	2111	2108	2108	2106	2104	2102	2099	2097	2097	2095	2095	2095	2093	2093	2095	2097	2097	2099	2102	2102	2102	2102	2102	2099	2097	2095	2093	2091	2088	2086	2084	2080	2075	2071	2069	2064	2062	2060	2058	2056	2056	2056	2056	2058	2056	2056	0	0	0	0	0	0	0	0	0	0	0	0	0	0	2084	2084	2084	2082	2080	2077	2075	2075	2073	2073	2073	2073	2073	2075	2075	2077	2077	2077	2077	2080	2080	2082	2082	2082	2080	2080	2077	2073	2071	2066	2062	2058	2056	2054	2054	2054	2054	2054	2056	2056	2056	2056	2056	2054	2054	2051	2049	2045	2041	2035	2030	2026	2026	2028	2032	2037	2043	2049	2058	2066	2073	2077	2077	2077	2080	2082	2082	2084	2086	2088	2088	2091	2093	2095	2095	2097	2097	2097	2097	2095	2095	2091	2088	2086	2080	2077	2075	2073	2073	2071	2071	2073	2073	2075	2077	2080	2080	2080	2082	2075	2075	2073	2073	2073	2073	2073	2075	2073	2069	2069
