0	0	0	0	0	0	0	0	0	0	0	0	0	0	0	0	0	0	0	0	0	0	0	0	0	0	0	0	0	0	0	0	0	0	0	0	0	0	0	0	0	0	0	0	0	0	0	0	0	0	0	0	0	0	0	0	0	0	0	0	0	0	0	0	0	0	0	0	0	0	0	0	0	0	0	0	0	0	0	0	0	0	0	0	0	0	0	0	0	0	0	0	0	0	0	0	0	0	0	0	0	0	0	0	0	0	0	0	0	0	0	0	0	0	0	0	0	0	0	0	0	0	0	0	0	0	0	0	0	0	0	0	0	0	0	0	0	0	0	19968	19968	19968	19968	19968	19968	19968	19968	20480	20480	20480	20480	20480	20480	20992	20992	20992	21504	21504	22016	22528	22528	23040	23040	23552	23552	24064	24064	24576	24576	25088	25088	25600	25600	26112	26112	26624	26624	26624	26624	27136	27136	27136	27648	0	0	0	0	0	0	0	32256	32256	0	33280	33280	33280	33792	33792	34304	34304	34816	34816	34816	34816	34816	34816	35328	35840	35840	36352	36352	36864	36864	0	0	10752	10752	12800	15360	19968	24576	32256	41984	52224	3072	16896	31232	49152	58880	65024	6144	12800	15872	15872	15872	15872	15872	12800	9216	6144	6144	3072	61952	58880	55808	52224	49152	49152	46080	43008	40448	40448	43008	43008	43008	43008	46080	46080	46080	49152	49152	52224	52224	55808	58880	61952	61952	61952	65024	65024	65024	65024	65024	3072	3072	3072	9216	9216	9216	12800	12800	9216	9216	6144	3072	65024	55808	49152	43008	37376	31232	25600	19456	16896	13824	11264	11264	11264	16896	22528	28160	31232	28160	25600	22528	16896	11264	5632	0	62976	62976	62976	0	3072	8192	13824	22528	31232	40448	52224	61952	6144	12800	19456	26112	26112	26112	23040	19456	15872	9216	3072	61952	58880	55808	52224	49152	49152	49152	49152	46080	46080	46080	49152	49152	52224	55808	58880	61952	61952	65024	65024	61952	61952	55808	52224	49152	49152	46080	40448	37376	34304	31232	31232	28160	25600	22528	22528	22528	25600	25600	22528	22528	19456	19456	16896	16896	13824	13824	13824	16896	19456	25600	25600	31232	34304	40448	43008	46080	49152	52224	52224	52224	52224	49152	46080	43008	43008	43008	46080	49152	49152	52224	55808	61952	65024	6144	12800	23040	29696	40448	47616	51200	58368	512	8192	15872	19968	27648	31744	39936	44032	48640	48640	48640	52736	56832	61440	9216	17920	512	53760	7680	39936	39936	45056	25600	58880	39424	39936	45568	64000	17408	17408	36864	36864	36864	17408	45568	27136	57344	6656	39424	8704	58880	58880	24064	0	0	0	0	0	0	0	0	0	25600	25600	37376	31232	31232	0	0	0	0	0	0	0	0	0	0	0	0	0	0	0	0	0	0	0	0	0	0	0	0	0	0	0	0	0	0	0	0	0	0	0	0	0	0	0	0	0	0	0	0	0	0	0	0	0	0	0	0	0	0	0	0	0	0	0	0	0	0	0	0	0	0	0	0	0	0	0	0	0	0	0	0	0	0	0	0	0	0	0	0	0	0	0	1536	1024	1024	1024	1536	1536	0	0	0	0	1536	1536	1536	1536	1536	1536	1536	1536	1536	1536	1536	1536	1536	1536	1536	1536	1536	1024	1024	1024	1024	1024	1024	1024	1024	1024	1024	1024	1024	1024	1024	1024	1024	1024	1024	1024	1024	1024	1024	1024	1024	1024	1024	1024	512	512	512	512	512	512	512	512	0	0	0	0	512	512	512	0	0	0	0	0	0	0	0	0	0	0	0	0	0	0	0	0	0	0	0	0	0	0	0	0	0	0	0	0	0	0	0	0	0	0	0	33280	26112	26112	26112	26112	19456	12800	12800	12800	12800	12800	12800	15872	15872	15872	23040	29696	36864	36864	40448	44032	47616	51200	54784	58368	62464	62464
0	0	0	0	0	0	0	0	0	0	0	0	0	0	0	0	0	0	0	0	0	0	0	0	0	0	0	0	0	0	0	0	0	0	0	0	0	0	0	0	0	0	0	0	0	0	0	0	0	0	0	0	0	0	0	0	0	0	0	0	0	0	0	0	0	0	0	0	0	0	0	0	0	0	0	0	0	0	0	0	0	0	0	0	0	0	0	0	0	0	0	0	0	0	0	0	0	0	0	0	0	0	0	0	0	0	0	0	0	0	0	0	0	0	0	0	0	0	0	0	0	0	0	0	0	0	0	0	0	0	0	0	0	0	0	0	0	19968	19968	19968	19968	19968	19968	19968	19968	19968	19968	20480	20480	20480	20480	20480	20480	20992	20992	20992	21504	22016	22016	22528	23040	23040	23552	23552	24064	24064	24064	24576	24576	25088	25088	25600	25600	26112	26112	26624	26624	26624	26624	27136	27136	27136	27648	27648	27648	0	0	0	0	32256	32256	32256	32768	32768	33280	33280	33792	33792	33792	34304	34304	34816	34816	34816	34816	34816	35328	35840	35840	36352	36352	36864	36864	0	0	12800	12800	15360	17408	22528	27136	36864	47104	57856	5632	19456	34304	49152	58880	65024	6144	9216	12800	12800	12800	12800	9216	9216	6144	6144	3072	65024	61952	58880	55808	55808	52224	49152	49152	46080	43008	43008	43008	43008	46080	46080	46080	46080	46080	49152	49152	49152	52224	52224	55808	55808	55808	58880	58880	58880	61952	61952	61952	61952	65024	3072	3072	6144	9216	12800	12800	9216	9216	6144	3072	65024	55808	49152	40448	34304	25600	19456	13824	11264	5632	5632	5632	8192	13824	22528	25600	31232	34304	31232	28160	25600	19456	13824	11264	8192	8192	8192	8192	11264	16896	22528	28160	34304	43008	52224	65024	6144	12800	19456	23040	26112	23040	19456	15872	9216	6144	65024	61952	55808	52224	49152	46080	46080	43008	43008	43008	43008	43008	46080	46080	52224	52224	55808	55808	58880	58880	58880	58880	55808	49152	46080	46080	43008	40448	37376	31232	31232	28160	28160	28160	25600	22528	22528	22528	25600	25600	22528	22528	19456	16896	16896	16896	11264	11264	13824	13824	16896	22528	25600	28160	31232	37376	40448	43008	46080	49152	49152	49152	49152	46080	43008	40448	40448	43008	43008	43008	46080	46080	52224	55808	61952	3072	9216	15872	26112	33280	40448	44032	54784	62464	4096	11776	15872	19968	27648	35840	39936	44032	44032	48640	48640	52736	56832	4608	13312	56320	48128	59904	30720	30720	22528	64512	14848	58880	6656	57344	45568	64000	64000	17408	36864	36864	17408	64000	45568	27136	9216	23040	6656	55808	24064	24064	55808	0	0	0	0	0	0	0	46080	40448	37376	37376	31232	31232	0	0	0	0	0	0	0	0	0	0	0	0	0	0	0	0	0	0	0	0	0	0	0	0	0	0	0	0	0	0	0	0	0	0	0	0	0	0	0	0	0	0	0	0	0	0	0	0	0	0	0	0	0	0	0	0	0	0	0	0	0	0	0	0	0	0	0	0	0	0	0	0	0	0	0	0	0	0	0	0	0	0	0	0	0	0	0	0	1024	1024	1024	1024	1536	0	1536	1536	0	0	0	0	1536	1536	1536	1536	0	0	1536	1536	1536	1536	1536	1536	1024	1024	1024	1024	1024	1024	1024	1024	1024	1024	1024	1024	1024	1024	1024	1024	1024	1024	1024	1024	1024	1024	1024	1024	1024	1024	512	512	512	512	512	512	512	512	512	512	512	0	0	0	0	0	0	0	0	0	0	0	0	0	0	0	0	0	0	0	0	0	0	0	0	0	0	0	0	0	0	0	0	0	0	0	0	0	0	0	0	0	0	0	0	26112	19456	15872	15872	9216	6144	3072	3072	3072	3072	3072	3072	3072	3072	9216	15872	23040	26112	29696	33280	36864	44032	47616	54784	54784	62464
0	0	0	0	0	0	0	0	0	0	0	0	0	0	0	0	0	0	0	0	0	0	0	0	0	0	0	0	0	0	0	0	0	0	0	0	0	0	0	0	0	0	0	0	0	0	0	0	0	0	0	0	0	0	0	0	0	0	0	0	0	0	0	0	0	0	0	0	0	0	0	0	0	0	0	0	0	0	0	0	0	0	0	0	0	0	0	0	0	0	0	0	0	0	0	0	0	0	0	0	0	0	0	0	0	0	0	0	0	0	0	0	0	0	0	0	0	0	0	0	0	0	0	0	0	0	0	0	0	0	0	0	0	0	0	0	19968	19968	19968	19968	19968	19968	19968	19968	19968	19968	19968	20480	20480	20480	20480	20480	20480	20992	20992	21504	21504	22016	22528	22528	23040	23552	23552	24064	24064	24064	24576	24576	25088	25088	25600	25600	25600	26112	26112	26624	26624	26624	26624	27136	27136	27136	27648	27648	27648	0	0	0	0	32256	32256	32256	32768	32768	33280	33280	33792	33792	33792	34304	34304	34304	34816	34816	34816	34816	35328	35840	36352	36352	36864	36864	0	0	0	15360	15360	19968	22528	27136	32256	44544	54784	0	13824	25600	40448	52224	58880	65024	6144	9216	9216	9216	9216	9216	6144	6144	3072	3072	3072	65024	65024	61952	58880	55808	55808	52224	49152	49152	49152	49152	46080	46080	46080	46080	46080	46080	49152	49152	49152	49152	49152	49152	52224	52224	52224	55808	55808	55808	55808	55808	58880	58880	58880	65024	3072	3072	9216	12800	12800	12800	9216	6144	3072	61952	52224	46080	37376	31232	25600	16896	11264	5632	3072	3072	3072	5632	11264	22528	25600	34304	40448	43008	43008	37376	34304	31232	28160	25600	22528	22528	22528	25600	25600	28160	34304	40448	46080	55808	61952	3072	9216	12800	19456	19456	19456	15872	12800	6144	3072	61952	55808	52224	49152	46080	43008	43008	43008	43008	43008	43008	43008	46080	46080	52224	52224	55808	55808	58880	55808	55808	52224	52224	49152	46080	43008	40448	37376	37376	31232	31232	28160	28160	28160	28160	28160	28160	25600	25600	25600	22528	22528	19456	16896	16896	16896	11264	11264	13824	13824	16896	22528	25600	28160	31232	37376	40448	43008	46080	46080	49152	46080	46080	43008	43008	40448	40448	40448	40448	40448	43008	46080	49152	55808	61952	3072	6144	12800	23040	29696	33280	40448	47616	54784	62464	8192	11776	15872	24064	31744	35840	39936	39936	44032	44032	44032	52736	0	9216	46080	37376	53760	30720	30720	22528	64512	52736	44032	39424	39936	27136	45568	64000	17408	36864	36864	36864	17408	64000	45568	27136	57344	39936	23040	6656	55808	55808	0	0	0	0	55808	55808	55808	46080	46080	43008	43008	43008	43008	0	0	0	0	0	0	0	0	0	0	0	0	0	0	0	0	0	0	0	0	0	0	0	0	0	0	0	0	0	0	0	0	0	0	0	0	0	0	0	0	0	0	0	0	0	0	0	0	0	0	0	0	0	0	0	0	0	0	0	0	0	0	0	0	0	0	0	0	0	0	0	0	0	0	0	0	0	0	0	0	0	0	0	0	0	0	0	0	0	1024	1024	1024	1024	0	1536	1536	0	0	0	1536	1536	1536	1536	1536	0	0	0	1536	1024	1024	1024	1024	1024	1024	1024	1024	1024	1024	1024	1024	1024	1024	1024	1024	1024	512	512	512	1024	1024	1024	1024	512	512	1024	512	512	512	512	512	512	512	512	512	0	0	0	0	0	0	0	0	0	0	0	0	0	0	65024	65024	65024	65024	65024	65024	65024	0	0	0	0	0	0	0	0	0	0	0	0	0	0	0	0	0	0	0	0	0	0	0	0	0	0	0	0	0	19456	12800	9216	3072	58880	58880	55808	55808	55808	55808	55808	55808	58880	65024	6144	9216	15872	23040	26112	33280	36864	44032	54784	54784	0
0	0	0	0	0	0	0	0	0	0	0	0	0	0	0	0	0	0	0	0	0	0	0	0	0	0	0	0	0	0	0	0	0	0	0	0	0	0	0	0	0	0	0	0	0	0	0	0	0	0	0	0	0	0	0	0	0	0	0	0	0	0	0	0	0	0	0	0	0	0	0	0	0	0	0	0	0	0	0	0	0	0	0	0	0	0	0	0	0	0	0	0	0	0	0	0	0	0	0	0	0	0	0	0	0	0	0	0	0	0	0	0	0	0	0	0	0	0	0	0	0	0	0	0	0	0	0	0	0	0	0	0	0	0	0	19968	19968	19968	19968	19968	19968	19968	19968	19968	19968	19968	19968	20480	20480	20480	20480	20480	20480	20992	20992	21504	22016	22016	22528	23040	23552	23552	24064	24064	24064	24576	24576	25088	25088	25088	25600	25600	26112	26112	26112	26624	26624	26624	27136	27136	27136	27648	27648	27648	28160	0	0	0	31232	31232	31744	32256	32768	32768	33280	33280	33792	33792	33792	33792	34304	34304	34304	34816	34816	34816	35328	35840	36352	36352	36864	37376	0	0	0	17408	17408	22528	24576	29696	36864	47104	62976	8192	22528	31232	43008	52224	61952	3072	3072	6144	6144	6144	6144	6144	3072	3072	3072	3072	3072	3072	65024	65024	61952	61952	61952	58880	58880	55808	55808	55808	52224	52224	52224	52224	52224	49152	49152	49152	49152	49152	49152	49152	49152	49152	49152	49152	52224	52224	52224	52224	52224	55808	58880	58880	65024	3072	6144	9216	12800	9216	9216	6144	65024	58880	52224	46080	37376	31232	22528	16896	11264	5632	3072	3072	3072	5632	11264	22528	28160	37376	43008	52224	55808	52224	49152	46080	43008	40448	37376	34304	34304	34304	37376	40448	43008	46080	49152	55808	61952	3072	6144	9216	12800	12800	9216	9216	3072	65024	58880	55808	49152	46080	43008	40448	40448	37376	37376	37376	37376	40448	43008	46080	49152	52224	52224	55808	55808	58880	55808	55808	52224	52224	49152	46080	43008	40448	37376	37376	34304	34304	34304	34304	34304	31232	31232	31232	31232	31232	28160	28160	28160	25600	25600	22528	22528	19456	19456	19456	22528	22528	25600	28160	31232	34304	37376	40448	43008	46080	46080	46080	46080	46080	43008	43008	40448	40448	37376	37376	37376	43008	43008	49152	52224	61952	3072	3072	12800	19456	26112	33280	40448	44032	54784	62464	512	8192	15872	19968	27648	31744	35840	35840	39936	39936	44032	48640	56832	0	31744	37376	53760	3072	3072	512	12288	12288	1024	44032	55808	39936	27136	45568	64000	17408	36864	36864	17408	17408	64000	45568	27136	27136	9216	57344	39936	39936	0	0	0	0	55808	55808	55808	52224	49152	49152	46080	46080	46080	0	0	0	0	0	0	0	0	0	0	0	0	0	0	0	0	0	0	0	0	0	0	0	0	0	0	0	0	0	0	0	0	0	0	0	0	0	0	0	0	0	0	0	0	0	0	0	0	0	0	0	0	0	0	0	0	0	0	0	0	0	0	0	0	0	0	0	0	0	0	0	0	0	0	0	0	0	0	0	0	0	0	0	0	0	0	0	0	0	0	1024	1024	1024	0	1536	1536	1536	1536	1536	1536	1536	1536	1536	1536	1536	1536	1536	1536	1024	1024	1024	1024	1024	1024	1024	1024	1024	1024	512	512	512	512	512	512	512	512	512	512	512	512	512	512	512	512	512	512	512	512	512	512	512	512	0	0	0	0	0	0	0	0	0	0	0	0	0	0	0	0	65024	65024	65024	65024	65024	65024	65024	0	0	0	0	0	0	0	0	0	0	0	0	0	0	0	0	0	0	0	0	0	0	0	0	0	0	0	0	0	0	12800	3072	58880	52224	49152	49152	49152	46080	46080	46080	46080	49152	55808	65024	3072	9216	15872	19456	33280	36864	44032	0	0	0
0	0	0	0	0	0	0	0	0	0	0	0	0	0	0	0	0	0	0	0	0	0	0	0	0	0	0	0	0	0	0	0	0	0	0	0	0	0	0	0	0	0	0	0	0	0	0	0	0	0	0	0	0	0	0	0	0	0	0	0	0	0	0	0	0	0	0	0	0	0	0	0	0	0	0	0	0	0	0	0	0	0	0	0	0	0	0	0	0	0	0	0	0	0	0	0	0	0	0	0	0	0	0	0	0	0	0	0	0	0	0	0	0	0	0	0	0	0	0	0	0	0	0	0	0	0	0	0	0	0	0	0	0	0	19968	19968	19968	19968	19968	19968	19968	19968	19968	19968	19968	19968	19968	20480	20480	20480	20480	20480	20992	20992	21504	21504	22016	22528	23040	23552	23552	24064	24064	24576	24576	24576	25088	25088	25088	25600	25600	25600	26112	26112	26112	26624	26624	27136	27136	27136	27136	27648	27648	27648	28160	0	0	30720	30720	31232	31744	32256	32768	32768	33280	33280	33280	33280	33792	33792	33792	34304	34304	34304	34816	34816	35328	35840	36352	36864	37376	37376	37888	0	0	22528	22528	27136	29696	34304	41984	54784	5632	16896	28160	37376	49152	55808	61952	3072	3072	6144	6144	3072	3072	3072	3072	3072	3072	3072	3072	3072	3072	3072	3072	3072	3072	3072	3072	65024	65024	65024	61952	58880	58880	58880	55808	55808	52224	52224	49152	49152	49152	49152	49152	49152	49152	49152	49152	49152	52224	52224	52224	52224	55808	58880	65024	3072	6144	9216	9216	9216	9216	3072	61952	58880	52224	46080	37376	31232	22528	16896	11264	5632	3072	3072	5632	5632	13824	22528	31232	40448	52224	58880	65024	65024	65024	61952	58880	55808	49152	49152	49152	49152	49152	49152	49152	52224	55808	55808	58880	61952	65024	65024	3072	3072	3072	65024	61952	55808	52224	46080	43008	40448	37376	34304	34304	34304	34304	34304	37376	37376	40448	46080	49152	52224	55808	58880	58880	58880	58880	55808	52224	52224	49152	46080	43008	43008	40448	40448	37376	37376	37376	37376	40448	40448	40448	40448	40448	43008	40448	40448	40448	40448	37376	34304	34304	34304	31232	31232	31232	34304	34304	37376	37376	37376	40448	43008	43008	46080	46080	46080	46080	46080	43008	40448	40448	40448	37376	37376	37376	43008	43008	49152	52224	58880	65024	3072	12800	19456	26112	29696	36864	44032	51200	58368	512	8192	11776	15872	24064	27648	31744	31744	35840	35840	35840	39936	56832	0	31744	0	41472	41472	41984	44544	56832	39424	25600	14848	8704	6656	57344	9216	45568	45568	17408	17408	64000	64000	45568	45568	27136	9216	39936	23040	6656	39424	39424	0	0	0	23040	12800	65024	55808	49152	49152	52224	52224	52224	55808	0	0	0	0	0	0	0	0	0	0	0	0	0	0	0	0	0	0	0	0	0	0	0	0	0	0	0	0	0	0	0	0	0	0	0	0	0	0	0	0	0	0	0	0	0	0	0	0	0	0	0	0	0	0	0	0	0	0	0	0	0	0	0	0	0	0	0	0	0	0	0	0	0	0	0	0	0	0	0	0	0	0	0	0	0	0	0	0	0	0	0	0	0	1024	1024	1024	1536	1536	1536	1536	1536	1536	1536	1536	1536	1536	1024	1024	1024	1024	1024	1024	1024	1024	512	512	512	512	512	512	512	512	512	512	512	512	512	512	512	512	512	512	512	512	512	512	512	512	0	0	0	0	0	0	0	0	0	0	0	0	0	0	0	0	0	0	0	0	64512	64512	64512	64512	64512	64512	65024	65024	65024	0	0	0	0	0	0	0	0	0	0	0	0	0	0	0	0	0	0	0	0	0	0	0	0	0	0	0	0	49152	43008	40448	37376	37376	34304	34304	37376	37376	40448	43008	46080	55808	61952	3072	15872	19456	0	0	0	0	0	0
0	0	0	0	0	0	0	0	0	0	0	0	0	0	0	0	0	0	0	0	0	0	0	0	0	0	0	0	0	0	0	0	0	0	0	0	0	0	0	0	0	0	0	0	0	0	0	0	0	0	0	0	0	0	0	0	0	0	0	0	0	0	0	0	0	0	0	0	0	0	0	0	0	0	0	0	0	0	0	0	0	0	0	0	0	0	0	0	0	0	0	0	0	0	0	0	0	0	0	0	0	0	0	0	0	0	0	0	0	0	0	0	0	0	0	0	0	0	0	0	0	0	0	0	0	0	0	0	0	0	0	0	0	0	19968	19968	19968	19968	19968	19968	19968	19968	19968	19968	19968	19968	20480	20480	20480	20480	20480	20992	20992	21504	21504	22016	22528	23040	23040	23552	24064	24064	24576	24576	24576	25088	25088	25088	25600	25600	25600	26112	26112	26112	26624	26624	26624	27136	27136	27136	27136	27648	27648	27648	28160	28672	29184	29696	30208	31232	31744	32256	32768	32768	32768	33280	33280	33280	33792	33792	33792	33792	34304	34304	34816	34816	35328	36352	36352	36864	37376	37888	37888	38400	0	24576	24576	32256	34304	39424	47104	0	13824	25600	37376	46080	52224	61952	65024	3072	3072	3072	3072	3072	3072	65024	65024	65024	65024	65024	3072	3072	6144	6144	9216	9216	9216	9216	9216	9216	9216	6144	6144	6144	3072	65024	61952	58880	55808	52224	52224	49152	49152	49152	49152	46080	46080	46080	46080	49152	49152	49152	49152	52224	55808	58880	61952	3072	6144	6144	9216	9216	9216	3072	61952	58880	52224	46080	40448	31232	22528	16896	11264	5632	5632	5632	5632	8192	13824	22528	34304	43008	55808	65024	6144	9216	9216	9216	6144	3072	65024	61952	61952	58880	58880	55808	55808	52224	52224	52224	55808	55808	58880	58880	58880	58880	58880	52224	49152	46080	43008	40448	37376	31232	31232	31232	31232	31232	31232	31232	31232	34304	37376	43008	49152	52224	55808	58880	58880	61952	61952	55808	55808	55808	52224	49152	49152	46080	46080	49152	49152	49152	46080	46080	46080	49152	49152	49152	52224	49152	49152	49152	49152	49152	46080	46080	43008	43008	40448	40448	43008	43008	43008	46080	46080	46080	46080	49152	49152	49152	49152	49152	49152	46080	43008	40448	40448	40448	40448	40448	40448	43008	46080	49152	55808	58880	65024	6144	12800	19456	26112	29696	33280	40448	47616	54784	62464	512	8192	15872	15872	27648	24064	24064	27648	27648	31744	35840	0	0	0	0	41472	41472	41984	23552	22528	56832	27136	12288	29184	24064	23040	57344	9216	45568	45568	64000	45568	45568	27136	9216	57344	39936	23040	55808	24064	58880	58880	0	0	0	0	51200	26112	6144	61952	58880	58880	55808	55808	55808	0	0	0	0	0	0	0	0	0	0	0	0	0	0	0	0	0	0	0	0	0	0	0	0	0	0	0	0	0	0	0	0	0	0	0	0	0	0	0	0	0	0	0	0	0	0	0	0	0	0	0	0	0	0	0	0	0	0	0	0	0	0	0	0	0	0	0	0	0	0	0	0	0	0	0	0	0	0	0	0	0	0	0	0	0	0	0	0	0	0	0	0	0	1024	1024	1024	1536	1536	1536	1536	1536	1536	1536	1536	1536	1536	1024	1024	1024	1024	1024	512	512	512	512	512	512	512	512	512	512	512	512	512	512	512	512	512	512	512	512	512	512	512	512	512	0	0	0	0	0	0	0	0	0	0	0	0	0	0	0	0	0	0	0	0	0	64000	64000	64000	64512	64512	64512	64512	65024	64512	64512	0	0	0	0	0	0	0	0	0	0	0	0	0	0	0	0	0	0	0	0	0	0	0	0	0	0	0	0	49152	28160	25600	25600	25600	25600	28160	28160	28160	31232	34304	40448	46080	61952	3072	0	0	0	0	0	0	0	0
0	0	0	0	0	0	0	0	0	0	0	0	0	0	0	0	0	0	0	0	0	0	0	0	0	0	0	0	0	0	0	0	0	0	0	0	0	0	0	0	0	0	0	0	0	0	0	0	0	0	0	0	0	0	0	0	0	0	0	0	0	0	0	0	0	0	0	0	0	0	0	0	0	0	0	0	0	0	0	0	0	0	0	0	0	0	0	0	0	0	0	0	0	0	0	0	0	0	0	0	0	0	0	0	0	0	0	0	0	0	0	0	0	0	0	0	0	0	0	0	0	0	0	0	0	0	0	0	0	0	0	0	0	0	19968	19968	19968	19968	19968	19968	19968	19968	19968	19968	19968	20480	20480	20480	20480	20480	20992	20992	20992	21504	22016	22528	22528	23040	23552	24064	24064	24576	24576	24576	25088	25088	25088	25600	25600	25600	26112	26112	26112	26112	26624	26624	26624	27136	27136	27136	27136	27648	27648	27648	28160	28672	28672	29696	30208	31232	31744	32256	32256	32768	32768	33280	33280	33280	33280	33792	33792	33792	34304	34304	34304	34816	35328	36352	36352	37376	37376	37888	37888	38400	0	29696	29696	32256	39424	44544	54784	5632	22528	31232	40448	49152	58880	65024	3072	3072	3072	3072	3072	65024	65024	65024	61952	61952	61952	65024	3072	3072	6144	9216	9216	12800	15872	15872	15872	19456	15872	12800	12800	12800	9216	6144	3072	65024	61952	58880	52224	52224	49152	49152	49152	46080	46080	46080	46080	49152	49152	49152	49152	52224	55808	58880	61952	3072	6144	6144	9216	9216	6144	3072	65024	58880	52224	46080	40448	34304	25600	19456	13824	11264	5632	5632	8192	11264	16896	25600	34304	46080	55808	65024	6144	9216	12800	9216	9216	6144	3072	65024	61952	58880	55808	52224	49152	46080	46080	43008	43008	43008	46080	46080	46080	46080	43008	43008	40448	37376	34304	31232	28160	25600	25600	25600	25600	25600	25600	28160	31232	34304	37376	43008	46080	52224	55808	58880	58880	61952	61952	58880	55808	55808	52224	52224	52224	52224	52224	52224	52224	55808	55808	55808	58880	55808	55808	58880	58880	55808	55808	55808	55808	55808	55808	52224	52224	52224	49152	49152	52224	52224	52224	52224	55808	52224	52224	52224	52224	52224	52224	52224	49152	49152	46080	46080	43008	43008	43008	43008	43008	46080	49152	52224	58880	65024	6144	9216	15872	23040	26112	29696	33280	36864	44032	47616	54784	58368	512	4096	11776	15872	19968	19968	19968	24064	27648	27648	0	0	0	0	0	0	23552	23552	55296	22528	56832	39424	38912	29184	24064	6656	39936	9216	27136	27136	27136	9216	57344	23040	23040	6656	39424	8704	44032	14848	52736	52736	0	0	0	31744	62464	36864	15872	6144	6144	6144	6144	0	0	0	0	0	0	0	0	0	0	0	0	0	0	0	0	0	0	0	0	0	0	0	0	0	0	0	0	0	0	0	0	0	0	0	0	0	0	0	0	0	0	0	0	0	0	0	0	0	0	0	0	0	0	0	0	0	0	0	0	0	0	0	0	0	0	0	0	0	0	0	0	0	0	0	0	0	0	0	0	0	0	0	0	0	0	0	0	0	0	0	0	0	0	0	1024	1024	1536	1536	1536	1536	1536	1536	1536	1536	1536	1024	1024	1024	1024	1024	512	512	512	512	512	512	0	0	0	0	0	0	0	512	512	512	512	512	512	512	512	512	0	0	0	0	0	0	0	0	0	0	0	0	0	65024	65024	65024	65024	65024	65024	0	0	0	0	0	0	63488	63488	63488	0	0	0	0	0	64512	64512	0	0	0	0	0	0	0	0	0	0	0	0	0	0	0	0	0	0	0	0	0	0	0	0	0	0	0	0	0	28160	25600	16896	16896	19456	22528	22528	22528	25600	28160	31232	46080	0	0	0	0	0	0	0	0	53760	3584
0	0	0	0	0	0	0	0	0	0	0	0	0	0	0	0	0	0	0	0	0	0	0	0	0	0	0	0	0	0	0	0	0	0	0	0	0	0	0	0	0	0	0	0	0	0	0	0	0	0	0	0	0	0	0	0	0	0	0	0	0	0	0	0	0	0	0	0	0	0	0	0	0	0	0	0	0	0	0	0	0	0	0	0	0	0	0	0	0	0	0	0	0	0	0	0	0	0	0	0	0	0	0	0	0	0	0	0	0	0	0	0	0	0	0	0	0	0	0	0	0	0	0	0	0	0	0	0	0	0	0	0	0	20480	19968	19968	19968	19968	19968	19968	19968	19968	19968	20480	20480	20480	20480	20480	20480	20480	20992	20992	21504	21504	22016	22528	23040	23552	23552	24064	24576	24576	24576	25088	25088	25088	25600	25600	25600	25600	26112	26112	26112	26624	26624	26624	26624	27136	27136	27136	27136	27648	27648	27648	28160	28672	28672	29696	30208	31232	31744	32256	32256	32768	32768	33280	33280	33280	33280	33792	33792	33792	33792	34304	34304	34816	35328	36352	36864	37376	37888	37888	38400	38400	0	29696	29696	34304	39424	47104	57856	11264	25600	37376	49152	58880	61952	3072	3072	3072	3072	65024	65024	65024	61952	61952	58880	58880	61952	61952	65024	65024	3072	6144	9216	15872	19456	19456	23040	23040	23040	23040	15872	15872	15872	12800	6144	3072	65024	61952	58880	55808	52224	52224	52224	49152	49152	49152	49152	49152	52224	52224	52224	55808	58880	58880	65024	3072	6144	6144	9216	9216	6144	3072	65024	58880	52224	46080	40448	34304	28160	22528	13824	13824	11264	11264	11264	13824	19456	28160	37376	46080	55808	65024	6144	9216	12800	9216	6144	6144	3072	65024	61952	58880	52224	49152	46080	43008	40448	37376	37376	37376	34304	34304	34304	34304	34304	34304	28160	28160	25600	22528	22528	19456	19456	19456	19456	19456	22528	25600	28160	31232	37376	43008	46080	52224	58880	61952	61952	65024	65024	61952	61952	61952	58880	58880	58880	58880	58880	61952	58880	58880	58880	58880	61952	61952	61952	61952	61952	58880	58880	61952	61952	61952	61952	61952	61952	61952	61952	61952	61952	61952	61952	61952	58880	58880	55808	55808	55808	55808	55808	55808	52224	49152	49152	49152	46080	46080	49152	49152	49152	52224	58880	61952	3072	3072	9216	15872	19456	23040	26112	29696	29696	33280	36864	44032	47616	51200	58368	512	4096	8192	11776	15872	15872	19968	19968	19968	24064	27648	61440	0	0	0	13312	13312	33792	44544	22528	56832	52224	38912	44032	24064	6656	39936	57344	57344	39936	23040	23040	55808	39424	24064	58880	29184	1024	38912	39424	512	11776	11776	0	17920	44032	4096	40448	23040	23040	0	0	0	0	0	0	0	0	0	0	0	0	0	0	0	0	0	0	0	0	0	0	0	0	0	0	0	0	0	0	0	0	0	0	0	0	0	0	0	0	0	0	0	0	0	0	0	0	0	0	0	0	0	0	0	0	0	0	0	0	0	0	0	0	0	0	0	0	0	0	0	0	0	0	0	0	0	0	0	0	0	0	0	0	0	0	0	0	0	0	0	0	0	0	0	0	0	0	0	0	0	0	1536	1536	1536	1536	1536	1536	1024	1024	1024	1024	1024	512	512	512	0	0	0	0	0	0	0	0	0	0	0	0	0	0	0	0	0	0	0	0	0	0	0	0	0	0	0	65024	65024	65024	65024	65024	65024	65024	65024	65024	65024	65024	0	0	0	0	0	0	63488	63488	63488	0	0	0	0	0	0	0	0	0	0	0	0	0	0	0	0	0	0	0	0	0	0	0	0	0	0	0	0	0	0	0	0	0	0	0	0	0	0	16896	13824	13824	13824	16896	16896	25600	28160	31232	0	0	0	0	0	0	0	49664	5120	43008	57856
0	0	0	0	0	0	0	0	0	0	0	0	0	0	0	0	0	0	0	0	0	0	0	0	0	0	0	0	0	0	0	0	0	0	0	0	0	0	0	0	0	0	0	0	0	0	0	0	0	0	0	0	0	0	0	0	0	0	0	0	0	0	0	0	0	0	0	0	0	0	0	0	0	0	0	0	0	0	0	0	0	0	0	0	0	0	0	0	0	0	0	0	0	0	0	0	0	0	0	0	0	0	0	0	0	0	0	0	0	0	0	0	0	0	0	0	0	0	0	0	0	0	0	0	0	0	0	0	0	0	0	0	0	20480	20480	20480	19968	19968	20480	20480	20480	20480	20480	20480	20480	20480	20480	20480	20992	20992	20992	21504	21504	22016	22528	23040	23040	23552	24064	24064	24576	24576	24576	25088	25088	25088	25600	25600	25600	26112	26112	26112	26112	26624	26624	26624	26624	26624	27136	27136	27136	27136	27648	27648	28160	28672	29184	29696	30208	30720	31744	31744	32256	32768	32768	33280	33280	33280	33280	33280	33792	33792	33792	34304	34304	34816	35840	36352	36864	37376	37888	37888	0	0	0	32256	32256	36864	44544	52224	62976	16896	31232	43008	52224	61952	65024	3072	3072	3072	3072	65024	65024	61952	61952	61952	58880	58880	58880	58880	61952	65024	65024	3072	9216	12800	15872	19456	23040	26112	26112	26112	23040	19456	15872	15872	12800	9216	6144	65024	61952	58880	55808	55808	55808	55808	52224	52224	52224	52224	52224	55808	55808	55808	58880	61952	65024	3072	6144	6144	9216	9216	6144	3072	65024	58880	52224	49152	43008	37376	31232	25600	19456	16896	16896	16896	16896	19456	25600	31232	40448	49152	58880	65024	9216	9216	12800	9216	6144	6144	3072	65024	61952	55808	52224	46080	43008	37376	34304	31232	28160	28160	28160	25600	25600	25600	25600	22528	22528	19456	19456	16896	13824	13824	13824	13824	13824	19456	19456	25600	28160	31232	37376	43008	49152	55808	61952	65024	65024	65024	3072	65024	61952	61952	61952	61952	61952	61952	61952	61952	61952	61952	61952	61952	61952	61952	61952	61952	61952	61952	61952	65024	65024	65024	65024	65024	65024	65024	65024	65024	65024	65024	65024	61952	61952	61952	61952	58880	58880	58880	58880	55808	55808	55808	55808	55808	55808	52224	52224	55808	58880	58880	65024	65024	6144	12800	15872	19456	23040	23040	26112	26112	26112	29696	33280	40448	44032	51200	54784	58368	512	4096	8192	11776	11776	11776	15872	15872	15872	24064	52736	0	0	0	13312	13312	23552	44544	512	33792	3072	64512	52736	58880	39424	6656	6656	6656	6656	55808	24064	58880	58880	44032	1024	52736	25600	64512	39424	512	11776	33280	33280	23040	23040	44032	4096	44032	44032	0	0	0	0	0	0	0	0	0	0	0	0	0	0	0	0	0	0	0	0	0	0	0	0	0	0	0	0	0	0	0	0	0	0	0	0	0	0	0	0	0	0	0	0	0	0	0	0	0	0	0	0	0	0	0	0	0	0	0	0	0	0	0	0	0	0	0	0	0	0	0	0	0	0	0	0	0	0	0	0	0	0	0	0	0	0	0	0	0	0	0	0	0	0	0	0	0	0	0	0	0	0	0	0	1536	1536	1536	1024	1024	1024	1024	0	0	0	0	0	0	0	0	65024	65024	0	0	0	0	0	0	0	0	0	0	0	0	0	0	0	0	0	0	0	65024	65024	65024	65024	65024	65024	65024	65024	65024	65024	65024	65024	65024	0	0	0	0	0	0	0	62976	62976	62976	62976	0	0	63488	63488	63488	63488	0	0	0	0	0	0	0	0	0	0	0	0	0	0	0	0	0	0	0	0	0	0	0	0	0	0	0	0	0	0	0	3072	5632	8192	11264	13824	13824	0	0	0	0	0	0	0	0	0	49664	5120	11264	57856	2560
0	0	0	0	0	0	0	0	0	0	0	0	0	0	0	0	0	0	0	0	0	0	0	0	0	0	0	0	0	0	0	0	0	0	0	0	0	0	0	0	0	0	0	0	0	0	0	0	0	0	0	0	0	0	0	0	0	0	0	0	0	0	0	0	0	0	0	0	0	0	0	0	0	0	0	0	0	0	0	0	0	0	0	0	0	0	0	0	0	0	0	0	0	0	0	0	0	0	0	0	0	0	0	0	0	0	0	0	0	0	0	0	0	0	0	0	0	0	0	0	0	0	0	0	0	0	0	0	0	0	0	0	0	20480	20480	20480	20480	20480	20480	20480	20480	20480	20480	20480	20480	20480	20992	20992	20992	20992	21504	21504	22016	22016	22528	23040	23552	23552	24064	24064	24576	24576	25088	25088	25088	25600	25600	25600	25600	26112	26112	26112	26112	26624	26624	26624	26624	26624	26624	27136	27136	27136	27648	27648	28160	28672	29184	29696	30208	30720	31232	31744	32256	32768	32768	33280	33280	33280	33280	33280	33792	33792	33792	34304	34816	34816	35840	36352	36352	37376	37376	37888	0	0	0	36864	36864	44544	52224	57856	5632	22528	37376	46080	55808	65024	3072	6144	3072	3072	3072	65024	65024	61952	58880	58880	55808	55808	58880	58880	58880	61952	61952	65024	3072	9216	12800	15872	19456	23040	26112	29696	29696	26112	23040	19456	19456	12800	9216	6144	65024	65024	61952	58880	58880	55808	55808	55808	55808	55808	55808	58880	58880	58880	61952	65024	3072	6144	9216	9216	9216	9216	6144	3072	65024	58880	52224	49152	46080	40448	34304	31232	28160	25600	22528	22528	25600	28160	34304	40448	49152	55808	65024	6144	12800	12800	12800	9216	9216	3072	3072	65024	58880	55808	49152	43008	40448	34304	31232	25600	22528	22528	19456	19456	16896	16896	16896	13824	13824	13824	11264	11264	11264	11264	11264	13824	13824	16896	19456	25600	28160	34304	37376	46080	52224	58880	65024	3072	3072	6144	6144	3072	65024	65024	65024	65024	65024	65024	65024	65024	65024	65024	61952	61952	61952	58880	58880	58880	58880	58880	58880	61952	61952	65024	65024	65024	65024	65024	65024	61952	61952	58880	58880	58880	55808	55808	55808	55808	55808	55808	55808	58880	58880	58880	58880	58880	58880	58880	61952	61952	65024	65024	3072	9216	12800	15872	15872	19456	19456	23040	23040	23040	23040	23040	29696	33280	40448	44032	51200	54784	58368	62464	512	4096	8192	8192	8192	8192	11776	11776	39936	0	0	20992	20992	13312	23552	44544	55296	11264	56832	27136	12288	1024	44032	8704	24064	24064	24064	8704	44032	29184	1024	52736	38912	12288	52224	27136	3072	22528	3584	33280	49664	23040	23040	53760	56832	15872	15872	0	0	0	0	0	0	0	0	0	0	0	0	0	0	0	0	0	0	0	0	0	0	0	0	0	0	0	0	0	0	0	0	0	0	0	0	0	0	0	0	0	0	0	0	0	0	0	0	0	0	0	0	0	0	0	0	0	0	0	0	0	0	0	0	0	0	0	0	0	0	0	0	0	0	0	0	0	0	0	0	0	0	0	0	0	0	0	0	0	0	0	0	0	0	0	0	0	0	0	0	0	0	0	0	0	0	1536	1024	1024	1024	1024	512	0	0	0	0	65024	65024	65024	65024	65024	65024	65024	65024	65024	0	0	0	0	0	0	0	0	0	0	0	0	0	65024	65024	65024	65024	65024	65024	65024	65024	65024	65024	65024	65024	65024	0	0	0	0	0	0	0	0	0	62976	62976	62976	62976	62976	62976	62976	62976	63488	63488	63488	63488	0	0	0	0	0	0	0	0	0	0	0	0	0	0	0	0	0	0	0	0	0	0	0	0	57856	57856	60416	60416	62976	0	3072	5632	5632	5632	8192	8192	11264	0	0	0	0	0	0	0	49664	11264	3584	7680	59904
0	0	0	0	0	0	0	0	0	0	0	0	0	0	0	0	0	0	0	0	0	0	0	0	0	0	0	0	0	0	0	0	0	0	0	0	0	0	0	0	0	0	0	0	0	0	0	0	0	0	0	0	0	0	0	0	0	0	0	0	0	0	0	0	0	0	0	0	0	0	0	0	0	0	0	0	0	0	0	0	0	0	0	0	0	0	0	0	0	0	0	0	0	0	0	0	0	0	0	0	0	0	0	0	0	0	0	0	0	0	0	0	0	0	0	0	0	0	0	0	0	0	0	0	0	0	0	0	0	0	0	20480	20480	20480	20480	20480	20480	20480	20480	20480	20480	20480	20480	20480	20992	20992	20992	20992	20992	21504	21504	21504	22016	22528	23040	23040	23552	24064	24064	24576	24576	24576	25088	25088	25088	25600	25600	25600	26112	26112	26112	26112	26112	26624	26624	26624	26624	26624	26624	26624	27136	27136	27136	27648	28160	28672	28672	29696	30208	30720	31232	31744	32256	32768	32768	33280	33280	33280	33280	33792	33792	33792	34304	34304	34816	34816	35840	36352	36352	36864	37376	37888	0	0	0	52224	52224	60416	8192	8192	16896	31232	43008	52224	58880	65024	3072	6144	6144	3072	65024	65024	65024	61952	58880	58880	55808	55808	55808	55808	55808	55808	58880	61952	65024	3072	6144	12800	15872	23040	23040	26112	29696	26112	26112	23040	19456	15872	12800	9216	6144	3072	65024	65024	61952	61952	58880	58880	58880	58880	58880	61952	65024	65024	3072	6144	9216	12800	12800	15872	12800	12800	9216	6144	3072	61952	58880	55808	49152	46080	40448	34304	31232	31232	28160	28160	31232	34304	43008	49152	58880	65024	6144	12800	15872	15872	12800	9216	9216	3072	3072	61952	58880	55808	46080	40448	37376	28160	25600	19456	16896	16896	13824	11264	11264	11264	11264	11264	8192	8192	8192	8192	8192	11264	11264	13824	13824	16896	22528	25600	31232	37376	43008	49152	55808	61952	65024	3072	6144	9216	6144	6144	3072	3072	3072	3072	3072	3072	3072	3072	65024	61952	61952	58880	58880	55808	55808	52224	52224	55808	55808	58880	58880	61952	61952	61952	61952	61952	61952	58880	58880	55808	55808	55808	52224	52224	52224	49152	49152	49152	55808	55808	55808	58880	58880	61952	61952	65024	3072	3072	6144	6144	6144	9216	9216	12800	12800	12800	15872	15872	19456	19456	19456	19456	23040	29696	36864	40448	44032	47616	54784	54784	62464	62464	62464	512	4096	4096	4096	4096	35840	0	0	20992	20992	13312	23552	44544	55296	512	22528	56832	39424	38912	1024	29184	44032	44032	44032	14848	1024	52736	25600	12288	52224	39424	14848	3072	56832	11264	23552	20992	49664	41984	53760	53760	15872	22528	22528	0	0	0	0	0	0	0	0	0	0	0	0	0	0	0	0	0	0	0	0	0	0	0	0	0	0	0	0	0	0	0	0	0	0	0	0	0	0	0	0	0	0	0	0	0	0	0	0	0	0	0	0	0	0	0	0	0	0	0	0	0	0	0	0	0	0	0	0	0	0	0	0	0	0	0	0	0	0	0	0	0	0	0	0	0	0	0	0	0	0	0	0	0	0	0	0	0	0	0	0	0	0	0	0	0	0	0	1024	1024	1024	1024	512	0	0	65024	65024	64512	64512	64512	64512	65024	65024	65024	65024	65024	65024	65024	65024	65024	65024	65024	65024	65024	65024	65024	65024	65024	65024	65024	65024	65024	65024	65024	65024	64512	64512	64512	64512	64512	64512	64512	0	0	0	0	0	0	0	62976	62976	62976	62976	62976	62976	62976	62976	62976	62976	62976	62976	63488	63488	63488	63488	0	0	0	0	0	0	0	0	0	0	0	0	0	0	0	0	0	0	0	0	54784	54784	57856	57856	57856	60416	60416	62976	0	0	3072	3072	3072	5632	8192	0	0	0	0	0	0	0	0	43008	57856	6656	9728
0	0	0	0	0	0	0	0	0	0	0	0	0	0	0	0	0	0	0	0	0	0	0	0	0	0	0	0	0	0	0	0	0	0	0	0	0	0	0	0	0	0	0	0	0	0	0	0	0	0	0	0	0	0	0	0	0	0	0	0	0	0	0	0	0	0	0	0	0	0	0	0	0	0	0	0	0	0	0	0	0	0	0	0	0	0	0	0	0	0	0	0	0	0	0	0	0	0	0	0	0	0	0	0	0	0	0	0	0	0	0	0	0	0	0	0	0	0	0	0	0	0	0	0	0	0	0	0	0	0	0	20480	20480	20480	20480	20480	20480	20480	20480	20480	20480	20480	20992	20992	20992	20992	20992	21504	21504	21504	21504	22016	22016	22528	23040	23040	23552	24064	24064	24576	24576	24576	25088	25088	25088	25600	25600	25600	25600	26112	26112	26112	26112	26112	26112	26624	26624	26624	26624	26624	26624	27136	27136	27648	28160	28160	28672	29696	30208	30720	31232	31744	32256	32768	32768	33280	33280	33280	33792	33792	33792	34304	34304	34304	34816	35328	35840	36352	36352	36864	36864	0	0	0	0	0	0	13824	13824	19456	28160	40448	49152	55808	61952	65024	6144	6144	6144	3072	65024	65024	65024	61952	58880	55808	52224	52224	52224	49152	49152	49152	49152	52224	55808	61952	65024	6144	6144	15872	23040	26112	26112	26112	26112	23040	19456	15872	15872	12800	9216	6144	6144	3072	65024	65024	61952	61952	61952	61952	65024	65024	3072	3072	6144	9216	12800	15872	19456	19456	19456	15872	15872	12800	6144	65024	61952	58880	55808	49152	46080	40448	37376	37376	37376	37376	40448	46080	52224	58880	65024	9216	12800	19456	19456	19456	12800	12800	9216	3072	3072	61952	58880	52224	46080	40448	34304	28160	22528	16896	13824	11264	8192	8192	8192	8192	8192	8192	8192	8192	8192	8192	8192	11264	11264	13824	16896	19456	25600	28160	34304	40448	46080	52224	58880	65024	3072	6144	9216	9216	9216	6144	6144	6144	3072	3072	3072	3072	3072	65024	61952	61952	58880	55808	52224	49152	49152	46080	46080	49152	49152	52224	55808	55808	55808	58880	58880	58880	58880	55808	55808	52224	49152	49152	46080	46080	46080	43008	43008	49152	49152	49152	52224	52224	55808	55808	58880	61952	61952	65024	65024	65024	65024	3072	3072	3072	3072	3072	6144	6144	9216	12800	12800	15872	15872	26112	29696	36864	36864	44032	47616	47616	51200	58368	58368	58368	62464	62464	4096	4096	35840	0	0	20992	20992	3584	23552	33792	44544	55296	22528	45056	27136	64512	38912	1024	14848	14848	1024	52736	25600	64512	52224	39424	27136	14848	56832	45056	22528	11264	44544	3584	50688	41984	41984	0	47616	48128	48128	0	0	0	0	0	0	0	0	0	0	0	0	0	0	0	0	0	0	0	0	0	0	0	0	0	0	0	0	0	0	0	0	0	0	0	0	0	0	0	0	0	0	0	0	0	0	0	0	0	0	0	0	0	0	0	0	0	0	0	0	0	0	0	0	0	0	0	0	0	0	0	0	0	0	0	0	0	0	0	0	0	0	0	0	0	0	0	0	0	0	0	0	0	0	0	0	0	0	0	0	0	0	0	0	0	0	0	0	512	512	0	0	65024	65024	65024	64512	64512	64512	64512	64512	64512	64512	64512	64512	65024	65024	65024	65024	65024	65024	65024	65024	65024	65024	65024	65024	65024	65024	65024	65024	64512	64512	64512	64512	64512	64512	64512	64512	64512	64512	64512	0	0	0	0	0	0	0	62976	62976	62976	62976	62976	62976	62976	62976	62976	62976	62976	62976	62976	62976	62976	62976	62976	62976	62976	62976	62976	62976	0	0	0	0	0	0	0	0	0	0	0	0	0	0	54784	54784	54784	54784	57856	57856	57856	60416	62976	0	0	0	0	3072	5632	0	0	0	0	0	0	0	11264	3584	2560	59904	2048
0	0	0	0	0	0	0	0	0	0	0	0	0	0	0	0	0	0	0	0	0	0	0	0	0	0	0	0	0	0	0	0	0	0	0	0	0	0	0	0	0	0	0	0	0	0	0	0	0	0	0	0	0	0	0	0	0	0	0	0	0	0	0	0	0	0	0	0	0	0	0	0	0	0	0	0	0	0	0	0	0	0	0	0	0	0	0	0	0	0	0	0	0	0	0	0	0	0	0	0	0	0	0	0	0	0	0	0	0	0	0	0	0	0	0	0	0	0	0	0	0	0	0	0	0	0	0	0	0	0	0	20480	20480	20480	20480	20480	20480	20992	20992	20992	20992	20992	20992	20992	20992	21504	21504	21504	21504	21504	22016	22016	22528	22528	23040	23552	23552	24064	24064	24576	24576	24576	25088	25088	25088	25600	25600	25600	25600	26112	26112	26112	26112	26112	26112	26112	26624	26624	26624	26624	26624	26624	27136	27136	27648	28160	28672	29184	30208	30720	31232	31744	32256	32768	33280	33280	33792	33792	33792	33792	34304	34304	34304	34816	34816	35328	35840	35840	35840	36352	36352	0	0	0	0	0	31232	28160	28160	34304	40448	46080	55808	58880	65024	3072	6144	6144	6144	3072	3072	65024	65024	61952	55808	52224	49152	46080	43008	43008	43008	43008	43008	43008	49152	52224	55808	61952	3072	9216	15872	23040	26112	26112	26112	26112	23040	19456	15872	15872	12800	9216	9216	6144	3072	3072	65024	65024	65024	3072	3072	3072	6144	9216	9216	12800	15872	23040	23040	23040	23040	19456	19456	15872	12800	6144	3072	65024	61952	58880	52224	49152	46080	43008	43008	43008	49152	52224	61952	6144	12800	15872	23040	26112	23040	23040	19456	12800	9216	6144	3072	61952	58880	52224	46080	40448	34304	28160	19456	16896	11264	8192	8192	8192	5632	5632	5632	5632	5632	8192	8192	8192	11264	11264	13824	16896	19456	25600	28160	34304	40448	43008	49152	55808	58880	65024	3072	6144	9216	9216	9216	9216	6144	6144	3072	3072	3072	3072	65024	61952	58880	55808	52224	49152	46080	43008	40448	40448	40448	40448	43008	46080	49152	49152	52224	52224	52224	52224	52224	52224	49152	49152	49152	46080	43008	43008	43008	43008	43008	40448	40448	43008	46080	46080	49152	52224	52224	55808	58880	58880	58880	58880	58880	58880	58880	58880	58880	58880	58880	58880	61952	61952	61952	65024	3072	9216	12800	19456	23040	23040	29696	33280	36864	40448	44032	44032	47616	62464	0	0	0	0	0	0	3584	3584	23552	33792	44544	55296	22528	45056	27136	64512	25600	52736	52736	38912	25600	12288	64512	39424	27136	14848	3072	56832	33792	22528	11264	512	44544	33792	39936	41984	41984	16384	16384	0	0	0	0	0	0	0	0	0	0	0	0	0	0	0	0	0	0	0	0	0	0	0	0	0	0	0	0	0	0	0	0	0	0	0	0	0	0	0	0	0	0	0	0	0	0	0	0	0	0	0	0	0	0	0	0	0	0	0	0	0	0	0	0	0	0	0	0	0	0	0	0	0	0	0	0	0	0	0	0	0	0	0	0	0	0	0	0	0	0	0	0	0	0	0	0	0	0	0	0	0	0	0	0	0	0	0	0	0	0	512	0	65024	65024	65024	65024	0	64000	64000	64000	64000	64000	64000	64000	64512	64512	64512	64512	65024	65024	65024	65024	65024	65024	65024	65024	65024	65024	65024	64512	64512	64512	64512	64512	64512	64000	64000	64000	64000	64000	64000	64000	63488	63488	0	0	0	0	0	0	62976	62976	62976	62976	62976	62976	62976	62976	62976	62976	62976	62976	62976	62976	62976	62976	62976	62976	62976	62976	62976	62976	62976	63488	0	0	0	0	0	0	0	0	0	0	0	0	0	54784	54784	54784	57856	57856	57856	60416	60416	62976	0	0	0	3072	5632	0	0	0	0	0	0	11264	11264	57856	2560	38400	21504
0	0	0	0	0	0	0	0	0	0	0	0	0	0	0	0	0	0	0	0	0	0	0	0	0	0	0	0	0	0	0	0	0	0	0	0	0	0	0	0	0	0	0	0	0	0	0	0	0	0	0	0	0	0	0	0	0	0	0	0	0	0	0	0	0	0	0	0	0	0	0	0	0	0	0	0	0	0	0	0	0	0	0	0	0	0	0	0	0	0	0	0	0	0	0	0	0	0	0	0	0	23552	23552	23552	23552	0	0	0	0	0	0	0	0	0	0	0	0	0	0	0	0	0	0	0	0	0	0	0	0	0	20992	20992	20992	20992	20992	20992	20992	20992	20992	20992	20992	20992	20992	21504	21504	21504	21504	21504	22016	22016	22016	22528	22528	23040	23040	23552	23552	24064	24064	24576	24576	24576	25088	25088	25088	25600	25600	25600	25600	26112	26112	26112	26112	26112	26112	26112	26112	26112	26624	26624	26624	26624	27136	27136	27648	28160	28672	29184	30208	31232	31744	32256	32768	33280	33280	33792	33792	33792	33792	34304	34304	34304	34816	34816	34816	35328	35328	35840	35840	35840	36352	0	0	0	0	40448	31232	31232	37376	40448	46080	52224	58880	61952	3072	6144	6144	6144	6144	6144	3072	65024	61952	58880	55808	49152	43008	43008	40448	37376	34304	34304	34304	34304	40448	43008	49152	52224	58880	65024	6144	12800	19456	26112	23040	23040	23040	19456	15872	15872	12800	12800	12800	9216	6144	6144	3072	3072	3072	6144	6144	6144	9216	12800	15872	19456	23040	26112	26112	29696	26112	26112	23040	19456	15872	9216	6144	3072	3072	65024	58880	55808	52224	52224	52224	52224	58880	65024	9216	15872	23040	26112	29696	33280	29696	26112	19456	15872	9216	6144	3072	61952	58880	52224	46080	40448	34304	28160	19456	16896	11264	8192	8192	8192	5632	5632	5632	5632	5632	8192	8192	11264	11264	13824	16896	19456	25600	28160	31232	40448	43008	46080	49152	55808	61952	3072	3072	6144	9216	12800	9216	9216	9216	6144	6144	6144	3072	65024	61952	58880	55808	49152	43008	40448	37376	37376	34304	34304	34304	34304	37376	40448	43008	46080	46080	49152	49152	49152	52224	49152	49152	46080	46080	43008	43008	40448	40448	40448	40448	40448	40448	40448	40448	43008	43008	46080	46080	49152	49152	52224	52224	49152	49152	49152	46080	46080	46080	46080	46080	46080	46080	46080	46080	52224	52224	58880	61952	65024	3072	9216	12800	15872	19456	23040	26112	29696	36864	0	0	0	0	0	0	0	13312	13312	33792	44544	44544	512	22528	45056	14848	52224	25600	38912	25600	25600	12288	52224	27136	14848	3072	56832	45056	33792	22528	11264	512	55296	44544	33792	59392	3072	50688	16384	16384	0	0	0	0	0	0	0	0	0	0	0	0	0	0	0	0	0	0	0	0	0	0	0	0	0	0	0	0	0	0	0	0	0	0	0	0	0	0	0	0	0	0	0	0	0	0	0	0	0	0	0	0	0	0	0	0	0	0	0	0	0	0	0	0	0	0	0	0	0	0	0	0	0	0	0	0	0	0	0	0	0	0	0	0	0	0	0	0	0	0	0	0	0	0	0	0	0	0	0	0	0	0	0	0	0	0	0	0	0	0	0	0	64512	64512	64512	0	0	64000	64000	64000	64000	64000	64000	64000	64000	64000	64512	64512	64512	64512	64512	64512	64512	65024	65024	64512	64512	64512	64512	64512	64512	64512	64000	64000	64000	64000	64000	63488	63488	64000	64000	64000	63488	63488	0	0	0	0	0	0	62976	62976	62976	62976	62976	62976	62976	62976	62976	62976	62976	62976	62976	62976	62976	62976	62976	62976	62976	62976	62976	62976	62976	62976	63488	63488	0	0	0	0	0	0	0	0	0	0	0	54784	54784	54784	57856	57856	57856	60416	60416	62976	0	62976	62976	3072	0	0	0	0	0	3584	3584	43008	3584	2560	9728	2048	23552
0	0	0	0	0	0	0	0	0	0	0	0	0	0	0	0	0	0	0	0	0	0	0	0	0	0	0	0	0	0	0	0	0	0	0	0	0	0	0	0	0	0	0	0	0	0	0	0	0	0	0	0	0	0	0	0	0	0	0	0	0	0	0	0	0	0	0	0	0	0	0	0	0	0	0	0	0	0	0	0	0	0	0	0	0	0	0	0	0	0	0	0	0	0	0	0	0	0	0	0	0	23552	23552	23552	23552	23552	0	0	0	23552	23552	24064	24064	24064	24064	23552	23552	0	0	0	0	0	0	22016	22016	0	0	21504	21504	21504	20992	20992	20992	20992	20992	20992	20992	20992	20992	20992	20992	21504	21504	21504	21504	22016	22016	22016	22016	22016	22528	22528	22528	23040	23040	23552	23552	24064	24064	24576	24576	24576	25088	25088	25088	25600	25600	25600	25600	26112	26112	26112	26112	26112	26112	26112	26112	26112	26624	26624	26624	26624	27136	27136	27648	28160	28672	29696	30208	31232	31744	32768	32768	33280	33792	33792	34304	34304	34304	34304	34816	34816	34816	34816	34816	35328	35328	35328	35840	35840	0	0	0	0	0	40448	40448	43008	46080	49152	52224	58880	61952	65024	3072	6144	6144	6144	6144	3072	65024	61952	61952	55808	49152	43008	40448	37376	34304	31232	28160	28160	28160	28160	31232	34304	40448	46080	49152	55808	61952	6144	12800	19456	19456	19456	19456	15872	12800	9216	9216	6144	6144	6144	6144	3072	3072	6144	6144	6144	6144	9216	12800	15872	15872	19456	26112	29696	29696	29696	29696	26112	26112	23040	15872	12800	9216	9216	6144	3072	65024	65024	61952	58880	58880	61952	3072	9216	12800	19456	26112	33280	36864	36864	33280	29696	23040	19456	12800	9216	3072	65024	61952	55808	49152	43008	37376	28160	22528	16896	11264	8192	8192	8192	8192	8192	8192	8192	11264	11264	11264	13824	13824	19456	22528	25600	28160	34304	37376	43008	46080	49152	55808	61952	65024	3072	6144	9216	12800	12800	12800	12800	12800	9216	9216	6144	3072	65024	61952	55808	52224	46080	40448	37376	34304	31232	31232	31232	31232	31232	31232	34304	37376	40448	43008	43008	46080	46080	46080	46080	46080	43008	43008	43008	43008	40448	40448	40448	40448	37376	37376	40448	40448	40448	43008	40448	40448	43008	43008	43008	43008	40448	40448	37376	37376	37376	34304	34304	34304	34304	31232	31232	31232	31232	37376	40448	46080	49152	52224	58880	65024	65024	6144	9216	12800	19456	23040	0	0	0	0	0	0	0	0	0	44544	44544	44544	512	22528	45056	14848	52224	25600	25600	12288	64512	52224	27136	14848	3072	45056	33792	22528	11264	11264	512	55296	44544	44544	33792	3584	39936	20992	59392	59392	0	0	0	0	0	0	0	0	0	0	0	0	0	0	0	0	0	0	0	0	0	0	0	0	0	0	0	0	0	0	0	0	0	0	0	0	0	0	0	0	0	0	0	0	0	0	0	0	0	0	0	0	0	0	0	0	0	0	0	0	0	0	0	0	0	0	0	0	0	0	0	0	0	0	0	0	0	0	0	0	0	0	0	0	0	0	0	0	0	0	0	0	0	0	0	0	0	0	0	0	0	0	0	0	0	0	0	0	0	0	0	64512	64512	64512	64512	0	0	0	63488	63488	63488	63488	64000	64000	64000	64000	64000	64512	64512	64512	64512	64512	64512	64512	64512	64512	64512	64512	64512	64512	64000	64000	64000	64000	64000	63488	63488	63488	63488	63488	62976	62976	0	0	0	0	0	0	0	0	0	62976	62976	62976	62976	62976	62976	62976	62976	62976	62976	62976	62976	62976	62976	62976	62976	62976	62976	62976	62976	62976	62976	62976	63488	63488	63488	0	0	0	0	0	0	0	0	0	0	54784	54784	54784	54784	57856	57856	57856	60416	62976	62976	62976	62976	0	0	0	0	0	0	57856	57856	3584	3584	2560	9728	21504	15872
0	0	0	0	0	0	0	0	0	0	0	0	0	0	0	0	0	0	0	0	0	0	0	0	0	0	0	0	0	0	0	0	0	0	0	0	0	0	0	0	0	0	0	0	0	0	0	0	0	0	0	0	0	0	0	0	0	0	0	0	0	0	0	0	0	0	0	0	0	0	0	0	0	0	0	0	0	0	0	0	0	0	0	0	0	0	0	0	0	0	0	0	0	0	0	0	0	0	0	0	0	23552	23552	23552	23552	23552	23552	23552	23552	23552	23552	23552	24064	23552	23552	23552	23552	23552	23552	0	0	22528	22528	22016	22016	22016	22016	21504	21504	21504	21504	20992	20992	20992	20992	20992	20992	20992	21504	21504	21504	21504	21504	22016	22016	22016	22016	22016	22528	22528	22528	22528	23040	23040	23040	23552	23552	24064	24064	24576	24576	24576	25088	25088	25088	25600	25600	25600	25600	26112	26112	26112	26112	26112	26112	26112	26112	26112	26624	26624	26624	26624	27136	27136	27648	28160	28672	29696	30720	31744	32256	32768	33280	33792	33792	34304	34304	34304	34816	34816	34816	34816	34816	34816	35328	35328	35328	35328	35328	35328	0	0	0	0	49152	49152	49152	49152	52224	52224	58880	61952	61952	3072	6144	6144	6144	6144	3072	3072	65024	61952	55808	52224	43008	40448	34304	31232	28160	25600	22528	22528	22528	22528	25600	28160	31232	37376	40448	46080	55808	61952	6144	9216	12800	12800	9216	6144	3072	61952	58880	58880	58880	55808	55808	55808	55808	58880	61952	61952	3072	6144	12800	15872	19456	19456	26112	29696	29696	29696	29696	29696	26112	26112	23040	15872	12800	12800	9216	9216	6144	6144	3072	3072	3072	3072	9216	15872	23040	33280	40448	44032	44032	44032	36864	36864	29696	23040	15872	12800	6144	3072	61952	55808	52224	43008	37376	31232	22528	19456	13824	11264	11264	8192	8192	11264	11264	11264	13824	16896	16896	16896	19456	19456	25600	28160	34304	37376	40448	43008	49152	55808	58880	61952	3072	3072	9216	9216	12800	12800	15872	12800	12800	9216	9216	3072	65024	61952	55808	49152	46080	40448	34304	31232	25600	25600	22528	22528	22528	22528	25600	28160	31232	34304	37376	40448	40448	40448	43008	43008	43008	43008	43008	43008	43008	40448	40448	40448	40448	37376	37376	40448	40448	40448	40448	37376	37376	37376	37376	37376	34304	31232	31232	28160	28160	25600	25600	25600	22528	19456	16896	16896	16896	19456	19456	25600	28160	34304	40448	46080	49152	55808	58880	65024	3072	6144	15872	15872	19456	26112	47616	0	0	11776	11776	23552	33792	44544	55296	512	22528	56832	14848	52224	64512	12288	52224	39424	27136	14848	56832	45056	33792	22528	11264	11264	512	55296	44544	44544	33792	33792	13312	3584	3584	3584	0	0	0	0	0	0	0	0	0	0	0	0	0	0	0	0	0	0	0	0	0	0	0	0	0	0	0	0	0	0	0	0	0	0	0	0	0	0	0	0	0	0	0	0	0	0	0	0	0	0	0	0	0	0	0	0	0	0	0	0	0	0	0	0	0	0	0	0	0	0	0	0	0	0	0	0	0	0	0	0	0	0	0	0	0	0	0	0	0	0	0	0	0	0	0	0	0	0	0	0	0	0	0	0	0	0	0	0	0	0	0	0	64512	64512	64512	64000	64000	63488	63488	63488	63488	63488	63488	63488	63488	63488	64000	64000	64000	64000	64000	64512	64512	64512	64512	64512	64512	64512	64512	64000	64000	64000	64000	63488	63488	63488	63488	63488	62976	62976	62976	62976	62976	62464	62464	0	0	0	0	0	0	62976	62976	62976	62976	62976	62976	62976	62976	62976	62976	62976	62976	62976	62976	62976	62976	62976	62976	62976	62976	62976	62976	62976	62976	63488	63488	63488	63488	63488	63488	0	0	0	0	0	0	0	54784	54784	54784	54784	54784	54784	57856	60416	60416	60416	62976	62976	0	0	0	0	0	0	7680	7680	57856	57856	6656	38400	23552	15872
0	0	0	0	0	0	0	0	0	0	0	0	0	0	0	0	0	0	0	0	0	0	0	0	0	0	0	0	0	0	0	0	0	0	0	0	0	0	0	0	0	0	0	0	0	0	0	0	0	0	0	0	0	0	0	0	0	0	0	0	0	0	0	0	0	0	0	0	0	0	0	0	0	0	0	0	0	0	0	0	0	0	0	0	0	0	0	0	0	0	0	0	0	0	0	0	0	0	0	0	0	23552	23552	23552	23552	23552	23552	23552	23552	23552	23552	23552	23552	23552	23552	23552	23552	23552	23552	23552	0	22528	22528	22528	22016	22016	22016	22016	22016	21504	21504	21504	21504	21504	21504	21504	21504	21504	21504	21504	21504	22016	22016	22016	22528	22528	22528	22528	22528	22528	22528	22528	23040	23040	23552	23552	23552	24064	24064	24576	24576	25088	25088	25088	25088	25600	25600	25600	26112	26112	26112	26112	26112	26112	26112	26112	26112	26112	26624	26624	26624	26624	27136	27136	27648	0	29696	29696	31232	32256	33280	33280	33792	33792	34304	34304	34816	34816	34816	34816	34816	34816	34816	35328	35328	35328	35328	35328	35328	35328	0	0	0	0	49152	49152	49152	52224	55808	58880	61952	61952	65024	3072	6144	6144	6144	3072	3072	65024	58880	55808	52224	46080	40448	34304	31232	25600	22528	22528	19456	16896	16896	19456	19456	22528	25600	31232	37376	43008	49152	55808	58880	65024	65024	3072	65024	61952	55808	49152	46080	43008	40448	37376	34304	34304	37376	37376	37376	43008	49152	55808	61952	3072	6144	15872	23040	26112	29696	29696	29696	29696	26112	26112	23040	19456	19456	15872	15872	15872	12800	12800	12800	9216	9216	12800	19456	26112	33280	40448	47616	51200	51200	51200	44032	40448	36864	26112	19456	15872	9216	6144	3072	61952	52224	46080	40448	34304	25600	19456	16896	13824	13824	11264	11264	13824	13824	16896	16896	19456	19456	22528	22528	22528	25600	31232	34304	34304	40448	46080	49152	52224	55808	61952	61952	65024	3072	9216	12800	12800	12800	12800	12800	9216	6144	3072	61952	58880	52224	46080	40448	34304	28160	22528	19456	19456	16896	16896	16896	19456	22528	25600	25600	28160	31232	34304	37376	37376	40448	40448	40448	40448	40448	43008	43008	43008	40448	40448	40448	40448	40448	40448	40448	40448	37376	34304	34304	31232	31232	28160	28160	22528	19456	19456	19456	16896	16896	13824	13824	13824	8192	8192	8192	8192	11264	13824	13824	19456	25600	31232	37376	40448	46080	52224	58880	65024	3072	9216	12800	19456	47616	0	0	11776	11776	23552	33792	44544	55296	11264	22528	56832	27136	52224	64512	64512	52224	39424	14848	3072	45056	33792	22528	22528	11264	512	512	55296	44544	44544	33792	33792	23552	23552	0	0	0	0	0	0	0	0	0	0	0	0	0	0	0	0	0	0	0	0	0	0	0	0	0	0	0	0	0	0	0	0	0	0	0	0	0	0	0	0	0	0	0	0	0	0	0	0	0	0	0	0	0	0	0	0	0	0	0	0	0	0	0	0	0	0	0	0	0	0	0	0	0	0	0	0	0	0	0	0	0	0	0	0	0	0	0	0	0	0	0	0	0	0	0	0	0	0	0	0	0	0	0	0	0	0	0	0	0	0	0	0	0	0	64512	64512	64512	64000	64000	63488	63488	63488	63488	63488	63488	63488	63488	63488	63488	64000	64000	64000	64000	64000	64000	64000	64000	64000	0	64000	64000	64000	64000	63488	63488	63488	63488	63488	62976	62976	62976	62976	62464	62464	62464	62464	62464	62464	0	0	0	0	0	62976	62976	62976	62976	62976	62976	62976	62976	62976	62976	62976	62976	62976	62976	62976	62976	62976	62976	62976	62976	62976	62976	62976	62976	63488	63488	63488	63488	63488	63488	63488	63488	0	0	0	0	0	54784	54784	54784	54784	54784	54784	54784	60416	60416	60416	0	0	0	0	0	0	0	0	7680	7680	7680	2560	9728	2048	23552	61440
0	0	0	0	0	0	0	0	0	0	0	0	0	0	0	0	0	0	0	0	0	0	0	0	0	0	0	0	0	0	0	0	0	0	0	0	0	0	0	0	0	0	0	0	0	0	0	0	0	0	0	0	0	0	0	0	0	0	0	0	0	0	0	0	0	0	0	0	0	0	0	0	0	0	0	0	0	0	0	0	0	0	0	0	0	0	0	0	0	0	0	0	0	0	0	0	0	0	0	0	0	23552	23552	23552	23552	23552	23552	23552	23552	23552	23552	23552	23552	23552	23552	23552	23552	23552	23040	23040	23040	23040	22528	22528	22528	22528	22016	22016	22016	22016	21504	21504	21504	21504	21504	21504	21504	21504	21504	21504	22016	22016	22016	22528	22528	22528	22528	22528	22528	23040	23040	23040	23040	23040	23552	23552	24064	24064	24576	24576	24576	25088	25088	25088	25600	25600	25600	25600	26112	26112	26112	26112	26112	26112	26112	26112	26112	26112	26624	26624	26624	26624	27136	27136	27648	0	30208	30208	0	33280	33280	33280	33792	34304	34304	34816	34816	34816	34816	34816	34816	34816	35328	35328	35328	35328	35328	35328	35328	35328	0	0	0	0	49152	49152	52224	52224	55808	58880	61952	61952	65024	3072	3072	3072	3072	65024	61952	58880	55808	52224	46080	40448	37376	31232	25600	22528	19456	16896	16896	13824	13824	13824	16896	19456	19456	25600	28160	31232	37376	40448	46080	46080	46080	52224	49152	43008	37376	31232	25600	19456	19456	13824	11264	8192	8192	16896	16896	19456	25600	34304	43008	49152	58880	65024	9216	12800	19456	23040	26112	23040	23040	23040	23040	19456	19456	19456	19456	19456	19456	19456	19456	12800	12800	12800	19456	29696	36864	47616	51200	58368	58368	58368	51200	44032	36864	33280	26112	19456	12800	9216	3072	61952	55808	49152	43008	34304	28160	22528	16896	13824	13824	13824	13824	16896	16896	19456	19456	22528	22528	25600	25600	25600	28160	31232	31232	34304	37376	40448	46080	49152	49152	55808	58880	61952	65024	3072	6144	9216	12800	12800	9216	9216	3072	65024	58880	52224	46080	40448	31232	22528	19456	16896	11264	11264	11264	11264	11264	13824	13824	16896	19456	22528	25600	28160	31232	34304	37376	37376	40448	40448	40448	43008	43008	43008	43008	40448	40448	40448	43008	43008	40448	40448	34304	31232	28160	25600	25600	19456	16896	13824	11264	11264	11264	8192	8192	5632	5632	3072	0	62976	62976	62976	62976	0	0	3072	8192	11264	16896	19456	25600	34304	43008	52224	58880	65024	9216	15872	44032	0	0	0	0	33792	33792	44544	44544	11264	22528	56832	52224	52224	12288	64512	52224	39424	14848	3072	45056	33792	22528	22528	0	512	512	0	44544	44544	44544	0	0	0	0	0	0	0	0	0	0	0	0	0	0	0	0	0	0	0	0	0	0	0	0	0	0	0	0	0	0	0	0	0	0	0	0	0	0	0	0	0	0	0	0	0	0	0	0	0	0	0	0	0	0	0	0	0	0	0	0	0	0	0	0	0	0	0	0	0	0	0	0	0	0	0	0	0	0	0	0	0	0	0	0	0	0	0	0	0	0	0	0	0	0	0	0	0	0	0	0	0	0	0	0	0	0	0	0	0	0	0	0	0	0	0	0	0	64512	64512	64000	64000	63488	63488	63488	62976	62976	62976	62976	62976	62976	63488	63488	63488	63488	63488	64000	64000	64000	64000	64000	64000	64000	64000	63488	63488	63488	63488	63488	62976	62976	62976	62976	62464	62464	62464	62464	62464	62464	62464	62464	62464	62464	62464	0	0	0	62976	62976	62976	62976	62976	62976	62976	62976	62976	62976	62976	62976	62976	62976	62976	62976	62976	62976	62976	62976	62976	62976	62976	62976	62976	63488	63488	63488	63488	63488	63488	63488	0	0	0	0	0	0	0	0	0	0	54784	54784	0	0	0	0	0	0	0	2048	2048	38400	9728	9728	6656	2560	6656	9728	2048	23552	61440
0	0	0	0	0	0	0	0	0	0	0	0	0	0	0	0	0	0	0	0	0	0	0	0	0	0	0	0	0	0	0	0	0	0	0	0	0	0	0	0	0	0	0	0	0	0	0	0	0	0	0	0	0	0	0	0	0	0	0	0	0	0	0	0	0	0	0	0	0	0	0	0	0	0	0	0	0	0	0	0	0	0	0	0	0	0	0	0	0	0	0	0	0	0	0	0	0	0	0	0	0	23552	23552	23552	23552	23552	23552	23552	23552	23552	23552	23552	23552	23552	23552	23552	23552	23040	23040	23040	23040	22528	22528	22528	22528	22016	22016	22016	22016	22016	21504	21504	21504	21504	21504	21504	21504	21504	21504	21504	22016	22016	22528	22528	22528	22528	23040	23040	23040	23040	23040	23040	23552	23552	24064	24064	24576	24576	24576	25088	25088	25088	25088	25600	25600	25600	25600	25600	26112	26112	26112	26112	26112	26112	26112	26112	26112	26624	26624	26624	26624	26624	27136	27136	27648	29696	29696	30208	33280	33280	33280	33792	34304	34304	34816	34816	34816	34816	34816	34816	35328	35328	35328	35328	35328	35328	35328	35328	35328	35328	0	0	0	49152	49152	49152	52224	52224	52224	58880	58880	61952	65024	65024	65024	65024	65024	61952	58880	55808	49152	46080	40448	37376	31232	25600	22528	16896	13824	11264	11264	11264	11264	11264	13824	16896	16896	19456	22528	25600	31232	34304	34304	34304	34304	34304	28160	19456	11264	5632	62976	60416	57856	54784	54784	54784	54784	54784	0	5632	5632	13824	22528	28160	40448	49152	55808	65024	3072	9216	9216	12800	12800	15872	15872	15872	15872	15872	15872	19456	19456	15872	15872	12800	12800	12800	19456	29696	36864	47616	54784	58368	62464	62464	54784	51200	44032	36864	29696	23040	15872	12800	6144	65024	58880	52224	43008	37376	31232	25600	22528	16896	16896	16896	16896	19456	19456	22528	22528	25600	25600	25600	25600	25600	25600	28160	28160	31232	34304	34304	37376	40448	43008	46080	49152	52224	55808	61952	3072	6144	9216	9216	6144	3072	65024	55808	49152	43008	37376	28160	22528	16896	11264	8192	5632	5632	3072	3072	5632	8192	11264	13824	16896	19456	22528	25600	28160	31232	34304	37376	37376	40448	40448	43008	43008	43008	46080	46080	43008	43008	46080	43008	40448	37376	34304	25600	22528	19456	16896	11264	5632	3072	3072	0	0	62976	60416	60416	62976	60416	57856	54784	52224	52224	52224	52224	52224	57856	57856	60416	0	3072	11264	16896	28160	37376	49152	52224	65024	9216	40448	0	0	0	0	0	0	44544	44544	11264	22528	0	0	0	0	0	0	0	0	0	0	0	0	0	0	0	0	0	0	0	0	0	0	0	0	0	0	0	0	0	0	0	0	0	0	0	0	0	0	0	0	0	0	0	0	0	0	0	0	0	0	0	0	0	0	0	0	0	0	0	0	0	0	0	0	0	0	0	0	0	0	0	0	0	0	0	0	0	0	0	0	0	0	0	0	0	0	0	0	0	0	0	0	0	0	0	0	0	0	0	0	0	0	0	0	0	0	0	0	0	0	0	0	0	0	0	0	0	60416	60416	60416	60416	60416	60416	60416	60416	0	0	0	0	0	0	0	0	0	0	0	0	0	64000	64000	64000	63488	63488	63488	62976	62976	62976	62976	62976	62976	62976	62976	63488	63488	63488	63488	63488	63488	63488	63488	63488	63488	63488	63488	63488	63488	62976	62976	62976	62976	62464	62464	62464	62464	62464	62464	62464	62464	61952	61952	62464	62464	62464	0	0	0	62976	62976	62976	62976	62976	62976	62976	62976	62976	62976	62976	62976	62976	62976	62976	62976	62976	62976	62976	62976	62976	62976	62976	62976	62976	63488	63488	63488	63488	63488	63488	63488	0	0	0	0	0	0	0	0	0	0	0	0	0	0	0	0	0	0	1536	1536	23552	21504	2048	9728	59904	6656	6656	9728	21504	23552	15872
0	0	0	0	0	0	0	0	0	0	0	0	0	0	0	0	0	0	0	0	0	0	0	0	0	0	0	0	0	0	0	0	0	0	0	0	0	0	0	0	0	0	0	0	0	0	0	0	0	0	0	0	0	0	0	0	0	0	0	0	0	0	0	0	0	0	0	0	0	0	0	0	0	0	0	0	0	0	0	0	0	0	0	0	0	0	0	0	0	0	0	0	0	0	0	0	0	0	0	0	0	23552	23552	0	23552	23552	23552	23552	23552	23552	23552	23552	23552	23552	23040	23040	0	23040	23040	23040	22528	22528	22528	22528	22528	22016	22016	22016	22016	22016	21504	21504	21504	21504	21504	21504	21504	21504	21504	21504	21504	22016	22016	22528	22528	23040	23040	23040	23040	23552	23552	23552	24064	24064	24064	24576	24576	25088	25088	25088	25088	25600	25600	25600	25600	25600	25600	26112	26112	26112	26112	26112	26112	26112	26112	26112	26624	26624	26624	26624	26624	26624	27136	27136	27648	29184	29696	30720	32768	33280	33792	33792	34304	34816	34816	34816	34816	34816	34816	34816	34816	34816	35328	35328	35328	35328	35328	35328	35328	35328	0	0	0	49152	49152	49152	52224	52224	52224	58880	58880	61952	61952	65024	61952	61952	58880	55808	52224	49152	46080	40448	37376	31232	25600	22528	19456	13824	11264	11264	8192	8192	8192	8192	11264	11264	11264	16896	16896	16896	19456	19456	19456	16896	13824	8192	0	60416	54784	47104	44544	39424	39424	36864	36864	36864	39424	44544	49664	57856	62976	62976	8192	19456	28160	40448	46080	55808	58880	61952	65024	65024	6144	6144	6144	6144	6144	9216	12800	12800	15872	15872	15872	15872	15872	15872	19456	26112	36864	44032	54784	58368	62464	62464	58368	54784	47616	40448	33280	29696	23040	15872	9216	3072	58880	52224	46080	40448	31232	25600	22528	22528	22528	19456	19456	22528	25600	28160	28160	28160	28160	25600	25600	22528	22528	22528	22528	22528	25600	25600	25600	28160	31232	37376	37376	43008	49152	52224	58880	65024	3072	3072	65024	61952	55808	46080	37376	31232	25600	16896	8192	5632	3072	0	62976	62976	0	0	0	3072	5632	8192	13824	16896	19456	19456	22528	28160	31232	34304	37376	37376	43008	43008	46080	46080	46080	46080	46080	46080	46080	40448	40448	34304	28160	19456	16896	11264	5632	3072	62976	57856	57856	54784	54784	54784	54784	54784	54784	52224	49664	47104	47104	44544	41984	41984	41984	44544	44544	47104	49664	52224	60416	3072	13824	28160	37376	43008	55808	6144	33280	0	0	0	0	0	0	0	0	0	0	0	0	0	0	0	0	0	0	0	0	0	0	0	0	0	0	0	0	0	0	0	0	0	0	0	0	0	0	0	0	0	0	0	0	0	0	0	0	0	0	0	0	0	0	0	0	0	0	0	0	0	0	0	0	0	0	0	0	0	0	0	0	0	0	0	0	0	0	0	0	0	0	0	0	0	0	0	0	0	0	0	0	0	0	0	0	0	0	0	0	0	0	0	0	0	0	0	0	0	0	0	0	0	0	0	0	0	0	0	0	0	0	0	0	0	0	59904	59904	59904	59904	59904	60416	60416	60416	60416	60416	60416	0	0	0	0	0	0	0	0	0	0	0	64000	64000	64000	0	0	0	62976	62976	62976	62976	62976	62976	62976	62976	62976	62976	63488	63488	63488	63488	63488	63488	63488	63488	63488	63488	62976	62976	62976	62976	62976	62976	62464	62464	62464	61952	61952	61952	61952	61952	61952	61952	61952	61952	61952	0	0	0	62976	62976	62976	62976	62976	62976	62976	62976	62976	62976	62976	62976	62976	62976	62976	62464	62464	62976	62976	62976	62976	62976	62976	62976	62976	62976	63488	63488	63488	63488	63488	63488	0	0	0	0	0	0	0	0	0	0	0	0	0	0	0	0	0	0	1536	1536	1536	23552	2048	38400	9728	59904	9728	38400	21504	23552	15872
0	0	0	0	0	0	0	0	0	0	0	0	0	0	0	0	0	0	0	0	0	0	0	0	0	0	0	0	0	0	0	0	0	0	0	0	0	0	0	0	0	0	0	0	0	0	0	0	0	0	0	0	0	0	0	0	0	0	0	0	0	0	0	0	0	0	0	0	0	0	0	0	0	0	0	0	0	0	0	0	0	0	0	0	0	0	0	0	0	0	0	0	0	0	0	0	0	0	0	0	0	0	0	0	0	23552	23552	23552	23552	23040	23040	23040	23040	23040	23040	23040	23040	23040	23040	22528	22528	22528	22528	22528	22528	22016	22016	22016	22016	22016	21504	21504	21504	21504	21504	21504	21504	21504	21504	21504	21504	22016	22016	22528	22528	22528	23040	23040	23552	23552	23552	24064	24064	24576	24576	25088	25600	25088	25088	25600	25600	25600	25600	25600	25600	25600	26112	26112	26112	26112	26112	26112	26112	26112	26112	26624	26624	26624	26624	26624	26624	26624	27136	27648	28160	29184	29696	30720	32768	33280	33792	34304	34304	34816	34816	34816	34816	34816	34816	34816	34816	34816	35328	35328	35328	35328	35328	35328	35328	35328	0	0	0	46080	46080	49152	49152	49152	52224	55808	58880	61952	61952	61952	58880	55808	55808	52224	49152	46080	40448	34304	31232	25600	22528	19456	16896	13824	11264	8192	8192	8192	8192	8192	8192	8192	8192	11264	11264	8192	8192	5632	5632	0	60416	54784	49664	44544	39424	34304	29696	27136	24576	24576	24576	24576	27136	32256	39424	47104	54784	62976	0	8192	19456	31232	37376	46080	52224	55808	58880	61952	61952	65024	65024	3072	3072	6144	6144	9216	12800	12800	12800	15872	15872	15872	23040	23040	33280	40448	51200	54784	58368	62464	58368	58368	51200	44032	40448	29696	26112	19456	12800	6144	61952	52224	46080	40448	34304	28160	25600	25600	22528	22528	22528	28160	28160	28160	31232	31232	28160	25600	22528	22528	19456	16896	13824	13824	16896	16896	16896	19456	19456	25600	25600	31232	37376	40448	49152	55808	58880	58880	55808	49152	43008	34304	25600	16896	13824	5632	0	62976	60416	57856	57856	57856	57856	62976	62976	0	3072	8192	8192	11264	13824	16896	22528	22528	25600	28160	34304	37376	40448	43008	43008	46080	46080	46080	43008	43008	40448	37376	34304	28160	22528	16896	8192	3072	62976	57856	54784	52224	49664	47104	47104	47104	47104	49664	49664	47104	44544	44544	41984	41984	36864	36864	36864	36864	39424	39424	44544	44544	49664	60416	3072	13824	25600	31232	43008	55808	33280	0	0	0	0	0	0	0	0	0	0	0	0	0	0	0	0	0	0	0	0	0	0	0	0	0	0	0	0	0	0	0	0	0	0	0	0	0	0	0	0	0	0	0	0	0	0	0	0	0	0	0	0	0	0	0	0	0	0	0	0	0	0	0	0	0	0	0	0	0	0	0	0	0	0	0	0	0	0	0	0	0	0	0	0	0	0	0	0	0	0	0	0	0	0	0	0	0	0	0	0	0	0	0	0	0	0	0	0	0	0	0	0	0	0	0	0	0	0	0	0	0	0	0	0	0	59904	59904	59904	59904	59904	59904	59904	59904	59904	59904	60416	60416	0	0	0	0	0	0	0	0	0	0	0	64000	64000	64000	0	0	0	62976	62976	62976	62976	62976	62976	62976	62976	62976	62976	62976	62976	62976	62976	62976	63488	63488	63488	62976	62976	62976	62976	62976	62976	62464	62464	62464	62464	61952	61952	61952	61952	61952	61952	61952	61952	61952	61952	61952	0	0	0	62976	62976	62976	62976	62976	62976	62976	62976	62976	62976	62976	62976	62976	62976	62464	62464	62464	62464	62464	62464	62976	62976	62976	62976	62976	62976	63488	63488	63488	63488	63488	63488	0	0	0	0	0	0	0	0	0	0	0	0	0	0	0	0	0	0	0	61440	61440	61440	1536	21504	2048	38400	9728	38400	2048	23552	1536
0	0	0	0	0	0	0	0	0	0	0	0	0	0	0	0	0	0	0	0	0	0	0	0	0	0	0	0	0	0	0	0	0	0	0	0	0	0	0	0	0	0	0	0	0	0	0	0	0	0	0	0	0	0	0	0	0	0	0	0	0	0	0	0	0	0	0	0	0	0	0	0	0	0	0	0	0	0	0	0	0	0	0	0	0	0	0	0	0	0	0	0	0	0	0	0	0	0	0	0	0	0	0	0	0	0	0	0	23552	23040	23040	23040	23040	22528	22528	22528	22528	22528	22528	22528	22528	22528	22528	22528	22016	22016	22016	22016	22016	21504	21504	21504	21504	21504	21504	21504	21504	21504	21504	21504	21504	21504	22016	22016	22528	22528	23040	23040	23552	24064	24064	24576	24576	24576	25600	25600	25600	25600	25600	25600	25600	25600	25600	25600	25600	25600	26112	26112	26112	26112	26112	26112	26112	26112	26112	26624	26624	26624	26624	26624	26624	26624	27136	27648	28160	29184	30208	31744	32768	33280	33792	34304	34816	34816	34816	34816	34816	34816	34816	34816	34816	34816	34816	35328	35328	35328	35328	35328	35328	35328	0	0	0	46080	46080	46080	46080	49152	49152	52224	55808	58880	58880	58880	55808	52224	49152	49152	46080	40448	37376	31232	28160	22528	22528	16896	16896	13824	11264	8192	8192	8192	8192	8192	8192	8192	8192	8192	5632	5632	0	0	60416	54784	49664	44544	39424	36864	32256	24576	22528	17408	17408	17408	17408	19968	22528	24576	32256	39424	47104	57856	0	3072	13824	25600	34304	40448	43008	49152	52224	55808	55808	58880	58880	61952	61952	65024	3072	6144	9216	9216	9216	12800	12800	12800	15872	23040	29696	36864	44032	47616	54784	54784	54784	54784	51200	47616	40448	29696	26112	19456	12800	6144	61952	52224	46080	40448	34304	31232	28160	25600	25600	25600	25600	28160	28160	31232	31232	28160	25600	22528	19456	16896	13824	11264	8192	8192	8192	11264	11264	11264	11264	13824	16896	19456	22528	28160	31232	37376	40448	46080	55808	34304	28160	19456	8192	5632	0	60416	57856	54784	54784	54784	54784	54784	57856	60416	60416	62976	0	3072	5632	8192	11264	13824	16896	19456	22528	25600	34304	37376	37376	40448	43008	46080	46080	46080	43008	43008	40448	34304	31232	25600	16896	11264	5632	0	57856	52224	49664	47104	44544	44544	44544	44544	47104	47104	47104	44544	44544	41984	41984	39424	36864	36864	34304	34304	36864	36864	39424	41984	47104	54784	0	11264	19456	25600	37376	46080	0	0	0	0	0	0	0	0	0	0	0	0	0	0	0	0	0	0	0	0	0	0	0	0	0	0	0	0	0	0	0	0	0	0	0	0	0	0	0	0	0	0	0	0	0	0	0	0	0	0	0	0	0	0	0	0	0	0	0	0	0	0	0	0	0	0	0	0	0	0	0	0	0	0	0	0	0	0	0	0	0	0	0	0	0	0	0	0	0	0	0	0	0	2560	2560	2560	2560	0	0	0	0	0	0	0	0	0	0	0	0	0	0	0	0	0	0	0	0	0	0	0	0	0	0	0	0	0	59904	59904	59904	59904	59904	59904	59904	59904	59904	59904	59904	59904	59904	0	0	0	0	0	0	0	0	0	0	64000	64000	63488	63488	0	0	62464	62464	62464	62464	62464	62464	62464	62464	62976	62976	62976	62976	62976	62976	62976	62976	62976	62976	62976	62976	62976	62976	62464	62464	62464	62464	62464	61952	61952	61952	61952	61952	61952	61952	61952	61952	61952	61952	61952	0	62464	62464	62464	62976	62976	62976	62976	62976	62976	62976	62976	62976	62976	62976	62976	62464	62464	62464	62464	62464	62464	62464	62976	62976	62976	62976	62976	62976	63488	63488	63488	63488	63488	63488	0	0	0	0	0	0	0	0	0	0	0	0	0	0	0	0	0	0	0	4096	4096	4096	15872	1536	21504	21504	2048	21504	23552	23552	15872
0	0	0	0	0	0	0	0	0	0	0	0	0	0	0	0	0	0	0	0	0	0	0	0	0	0	0	0	0	0	0	0	0	0	0	0	0	0	0	0	0	0	0	0	0	0	0	0	0	0	0	0	0	0	0	0	0	0	0	0	0	0	0	0	0	0	0	0	0	0	0	0	0	0	0	0	0	0	0	0	0	0	0	0	0	0	0	0	0	0	0	0	0	0	0	0	0	0	0	0	0	0	0	0	0	0	0	0	0	0	23040	22528	22528	22528	22528	22528	22528	22528	22528	22016	22016	22016	22016	22016	22016	22016	22016	22016	22016	21504	21504	21504	21504	21504	20992	20992	20992	20992	21504	21504	21504	21504	22016	22016	22528	22528	23040	23040	23552	24064	24576	24576	25088	25088	25600	25600	25600	25600	25600	25600	25600	26112	26112	26112	26112	26112	26112	26112	26112	26112	26112	26112	26112	26112	26112	26624	26624	26624	26624	26624	26624	27136	27136	27648	28160	29184	30208	32256	32768	33792	33792	34304	34816	34816	34816	34816	34816	34816	34816	34816	34816	34816	34816	35328	35328	35328	35328	35328	35840	36352	0	0	0	43008	43008	43008	43008	46080	46080	49152	52224	52224	52224	52224	49152	49152	46080	43008	40448	34304	31232	28160	22528	19456	19456	16896	16896	13824	11264	8192	8192	8192	8192	8192	8192	8192	8192	8192	5632	3072	0	62976	57856	49664	47104	41984	39424	32256	27136	24576	19968	17408	17408	15360	15360	17408	19968	22528	27136	34304	44544	54784	3072	3072	11264	22528	34304	40448	43008	49152	52224	52224	55808	55808	58880	61952	61952	65024	3072	6144	6144	9216	9216	12800	12800	12800	15872	19456	29696	36864	44032	47616	51200	54784	54784	54784	51200	44032	40448	33280	26112	19456	12800	6144	61952	52224	46080	40448	34304	31232	28160	25600	25600	25600	25600	28160	28160	31232	31232	28160	22528	19456	16896	13824	8192	5632	3072	3072	3072	3072	3072	3072	3072	5632	8192	8192	13824	16896	19456	37376	40448	46080	0	34304	28160	0	62976	57856	54784	52224	49664	49664	52224	52224	52224	54784	57856	60416	60416	62976	0	3072	3072	5632	8192	11264	13824	16896	19456	25600	28160	31232	37376	40448	40448	40448	43008	43008	40448	37376	34304	31232	25600	19456	11264	5632	0	57856	52224	47104	44544	39424	36864	36864	39424	39424	39424	41984	44544	41984	41984	39424	39424	36864	34304	34304	34304	34304	34304	34304	36864	39424	44544	52224	62976	5632	13824	22528	34304	46080	0	0	0	0	0	0	0	0	0	0	0	0	0	0	0	0	0	0	0	0	0	0	0	0	0	0	0	0	0	0	0	0	0	0	0	0	0	0	0	0	0	0	0	0	0	0	0	0	0	0	0	0	0	0	0	0	0	0	0	0	0	0	0	0	0	0	0	0	0	0	0	0	0	0	0	0	0	0	0	0	0	0	0	0	0	0	2560	2560	0	0	0	2560	2560	2560	2560	2560	2560	2560	2560	2560	2560	2560	0	0	0	0	0	0	0	0	0	0	0	0	0	0	0	0	0	0	0	0	0	0	59904	59904	59904	59904	59904	59904	59904	59904	59904	59904	59904	59904	59904	59904	59904	59904	0	0	0	0	0	0	0	0	0	0	64000	63488	63488	0	0	62464	62464	62464	62464	62464	62464	62464	62464	62464	62464	62976	62976	62976	62976	62976	62976	62976	62976	62976	62976	62976	62464	62464	62464	62464	62464	61952	61952	61952	61952	61952	61952	61952	61952	61952	61952	61952	61952	61952	0	62464	62464	62464	62464	62464	62976	62976	62976	62976	62976	62976	62976	62976	62976	62976	62464	62464	62464	61952	61952	61952	62464	0	0	62976	62976	62976	62976	0	0	63488	63488	63488	63488	0	0	0	0	0	0	0	0	0	0	0	0	0	0	0	0	0	0	34304	34304	25600	36864	61440	61440	1536	1536	23552	23552	23552	1536	15872
0	0	0	0	0	0	0	0	0	0	0	0	0	0	0	0	0	0	0	0	0	0	0	0	0	0	0	0	0	0	0	0	0	0	0	0	0	0	0	0	0	0	0	0	0	0	0	0	0	0	0	0	0	0	0	0	0	0	0	0	0	0	0	0	0	0	0	0	0	0	0	0	0	0	0	0	0	0	0	0	0	0	0	0	0	0	0	0	0	0	0	0	0	0	0	0	0	0	0	0	0	0	0	0	0	0	0	0	0	0	22528	22528	22528	22528	22528	22528	22528	22016	22016	22016	22016	22016	22016	22016	22016	22016	22016	22016	21504	21504	21504	21504	21504	20992	20992	20992	20992	20992	20992	20992	21504	21504	21504	22016	22016	22528	22528	23040	23552	24064	24576	25088	25088	25600	25600	25600	26112	26112	26112	26112	26112	26112	26112	26112	26112	26112	26112	26112	26112	26112	26112	26112	26112	26112	26112	26112	26112	26624	26624	26624	26624	26624	27136	27648	28160	29696	30720	32256	33280	33792	34304	34304	34816	34816	34816	34816	34816	34816	34816	34816	34816	34816	34816	35328	35328	35328	35840	35840	35840	36352	0	0	0	40448	40448	40448	43008	43008	43008	46080	46080	46080	49152	46080	46080	43008	40448	37376	34304	31232	28160	22528	22528	19456	19456	16896	16896	13824	11264	11264	11264	11264	11264	13824	13824	11264	11264	8192	5632	3072	0	60416	57856	49664	47104	41984	36864	32256	27136	24576	19968	17408	17408	15360	15360	17408	19968	22528	27136	34304	44544	54784	3072	11264	11264	22528	31232	37376	43008	46080	49152	52224	55808	55808	58880	61952	61952	65024	3072	6144	6144	6144	9216	9216	12800	12800	15872	19456	26112	33280	44032	47616	51200	54784	54784	51200	47616	44032	40448	33280	26112	15872	12800	3072	61952	49152	43008	40448	34304	31232	28160	25600	25600	25600	25600	25600	25600	28160	28160	25600	19456	16896	13824	8192	5632	0	62976	62976	60416	60416	60416	60416	60416	62976	62976	62976	0	3072	5632	0	0	0	0	62976	57856	54784	52224	49664	49664	44544	44544	44544	47104	49664	49664	54784	54784	57856	57856	62976	62976	3072	3072	3072	5632	8192	11264	11264	19456	22528	25600	28160	31232	31232	37376	37376	37376	37376	37376	31232	28160	22528	19456	13824	5632	62976	57856	49664	41984	39424	34304	32256	29696	29696	29696	29696	32256	34304	36864	36864	36864	36864	36864	34304	34304	34304	32256	32256	34304	34304	36864	39424	44544	49664	60416	5632	8192	19456	28160	40448	0	0	0	0	0	0	0	0	0	0	0	0	0	0	0	0	0	0	0	0	0	0	0	0	0	0	0	0	0	0	0	0	0	0	0	0	0	0	0	0	0	0	0	0	0	0	0	0	0	0	0	0	0	0	0	0	0	0	0	0	0	0	0	0	0	0	0	0	0	0	0	0	0	0	0	0	0	0	0	0	0	0	0	2560	2560	0	2560	2560	0	2560	2560	2560	2560	2560	2560	2560	2560	2560	2048	2048	2560	2560	0	0	0	0	0	0	0	0	0	0	0	0	0	0	0	0	0	0	0	0	0	0	59904	59904	59904	59904	59904	59904	59904	59904	59904	59904	59904	59904	59904	59904	59904	59904	0	0	0	0	0	0	0	0	0	0	0	0	0	0	0	62464	62464	62464	62464	62464	62464	62464	62464	62464	62464	62464	62464	62464	62464	62464	62976	62976	62976	62464	62464	62464	62464	62464	62464	62464	61952	61952	61952	61952	61952	61440	61440	61440	61440	61440	61440	61952	61952	61952	61952	62464	62464	62464	62464	62464	62464	62464	62976	62976	62976	62976	62464	62464	62976	62464	62464	62464	62464	61952	61952	61952	0	0	0	61440	61440	0	0	0	0	0	0	0	0	0	0	0	0	0	0	0	0	0	0	0	0	0	0	0	0	0	26624	26624	36352	59904	34304	25600	36864	4096	4096	61440	61440	61440	61440	4096
0	0	0	0	0	0	0	0	0	0	0	0	0	0	0	0	0	0	0	0	0	0	0	0	0	0	0	0	0	0	0	0	0	0	0	0	0	0	0	0	0	0	0	0	0	0	0	0	0	0	0	0	0	0	0	0	0	0	0	0	0	0	0	0	0	0	0	0	0	0	0	0	0	0	0	0	0	0	0	0	0	0	0	0	0	0	0	0	0	0	0	0	0	0	0	0	0	0	0	0	0	0	0	0	0	0	0	0	0	0	22528	22528	22528	22528	22016	22016	22016	22016	22016	22016	22016	22016	22016	22016	22016	22016	21504	21504	21504	21504	21504	21504	20992	20992	20992	20992	20992	20992	20992	20992	21504	21504	21504	21504	22016	22016	22528	23040	23552	24064	25088	25088	25600	25600	26112	26112	26112	26112	26112	26112	26112	26112	26112	26112	26112	26112	26112	26112	26112	26112	26112	26112	26112	26112	26112	26112	26112	26624	26624	26624	26624	26624	27136	27136	27648	29696	30720	32768	33792	33792	34304	34304	34816	34816	34816	34816	34816	34816	34816	34816	34816	34816	34816	35328	35328	35840	35840	0	0	0	0	0	0	40448	40448	40448	40448	40448	40448	40448	43008	43008	43008	43008	40448	37376	37376	34304	31232	28160	25600	22528	19456	19456	19456	16896	16896	16896	16896	16896	16896	16896	16896	16896	16896	16896	11264	8192	5632	3072	0	60416	57856	52224	47104	44544	36864	34304	29696	27136	22528	22528	19968	19968	17408	17408	19968	24576	29696	36864	44544	54784	3072	13824	13824	22528	31232	37376	43008	46080	49152	52224	58880	58880	61952	65024	65024	3072	6144	6144	6144	6144	9216	9216	12800	12800	15872	23040	26112	33280	40448	47616	47616	47616	51200	47616	47616	40448	36864	29696	23040	15872	6144	65024	58880	49152	43008	34304	31232	28160	25600	25600	25600	22528	22528	22528	25600	25600	25600	22528	19456	16896	13824	5632	3072	62976	60416	57856	57856	57856	57856	54784	54784	57856	54784	54784	57856	57856	60416	60416	60416	60416	60416	52224	49664	47104	47104	44544	44544	44544	44544	44544	47104	49664	49664	54784	54784	57856	57856	62976	62976	3072	3072	3072	5632	8192	8192	11264	13824	16896	16896	22528	22528	28160	28160	31232	28160	28160	28160	25600	19456	13824	8192	3072	60416	54784	47104	41984	34304	29696	29696	24576	24576	24576	24576	24576	27136	27136	32256	32256	34304	34304	34304	34304	34304	32256	32256	32256	34304	34304	34304	39424	44544	49664	57856	0	5632	13824	22528	40448	0	0	0	0	0	0	0	0	0	0	0	0	0	0	0	0	0	0	0	0	0	0	0	0	0	0	0	0	0	0	0	0	0	0	0	0	0	0	0	0	0	0	0	0	0	0	0	0	0	0	0	0	0	0	0	0	0	0	0	0	0	0	0	0	0	0	0	0	0	0	0	0	0	0	0	0	0	0	0	0	0	0	0	2560	2560	0	0	0	0	2560	2560	2560	2560	2560	2560	2560	2048	2048	2048	2048	0	0	0	0	0	0	0	0	0	0	0	0	0	0	0	0	0	0	0	0	0	0	0	0	0	59904	59904	59904	59904	59904	59904	59904	59904	59904	59904	59904	59904	59904	59904	59904	59904	0	0	0	0	0	0	0	0	0	0	0	0	0	0	62464	62464	62464	62464	62464	62464	62464	62464	62464	62464	62464	62464	62464	62464	62464	62464	62464	62464	62464	62464	62464	62464	62464	62464	61952	61952	61952	61952	61952	61440	61440	61440	61440	61440	61440	61440	61440	61440	61952	61952	62464	62464	62464	62464	62464	62464	62464	62464	62464	62464	62464	62464	62464	62464	62464	62464	62464	0	0	0	0	0	0	0	61440	61440	0	0	0	0	0	0	0	0	0	0	0	0	0	0	0	0	0	0	0	0	0	0	45056	5120	5120	45056	45056	29696	26624	36352	34304	34304	25600	25600	36864	36864	36864	25600	25600
0	0	0	0	0	0	0	0	0	0	0	0	0	0	0	0	0	0	0	0	0	0	0	0	0	0	0	0	0	0	0	0	0	0	0	0	0	0	0	0	0	0	0	0	0	0	0	0	0	0	0	0	0	0	0	0	0	0	0	0	0	0	0	0	0	0	0	0	0	0	0	0	0	0	0	0	0	0	0	0	0	0	0	0	0	0	0	0	0	0	0	0	0	0	0	0	0	0	0	0	0	0	0	0	0	0	0	0	0	0	0	22528	22528	22016	22016	22016	22016	22016	22016	22016	21504	21504	21504	21504	21504	21504	21504	21504	21504	21504	21504	20992	20992	20992	20992	20992	20992	20992	20992	20992	20992	21504	21504	21504	22016	22016	22528	23040	23552	24576	25600	25600	25600	26112	26112	26112	26112	26112	26112	26112	26112	26112	26112	25600	25600	25600	25600	25600	25600	26112	26112	26112	26112	26112	26112	26112	26112	26112	26112	26624	26624	26624	26624	27136	27136	29696	30720	33280	33792	33792	34304	34816	34816	34816	34816	34816	34816	34816	34816	34816	34816	34816	34816	35328	35328	35840	0	0	0	0	0	0	0	37376	37376	37376	37376	37376	37376	37376	37376	37376	37376	37376	34304	31232	31232	31232	28160	25600	25600	22528	19456	19456	19456	19456	19456	19456	19456	19456	19456	19456	19456	19456	19456	16896	16896	11264	8192	3072	0	62976	57856	52224	47104	44544	41984	36864	34304	32256	29696	27136	24576	24576	24576	24576	27136	32256	36864	44544	52224	60416	5632	19456	28160	28160	34304	40448	46080	49152	52224	55808	58880	65024	65024	3072	3072	6144	6144	9216	6144	6144	9216	9216	12800	15872	19456	26112	29696	33280	36864	44032	44032	44032	44032	44032	40448	36864	29696	23040	19456	9216	3072	61952	52224	46080	40448	34304	31232	28160	25600	25600	22528	22528	19456	19456	22528	22528	22528	19456	16896	13824	11264	5632	3072	62976	57856	57856	54784	54784	52224	49664	49664	49664	49664	49664	49664	49664	49664	49664	49664	47104	47104	44544	41984	41984	41984	41984	44544	44544	44544	47104	49664	52224	54784	54784	57856	60416	62976	0	0	3072	3072	3072	5632	8192	8192	11264	11264	13824	16896	16896	22528	22528	22528	22528	22528	22528	19456	13824	8192	3072	62976	57856	49664	41984	36864	32256	24576	19968	19968	17408	15360	15360	15360	17408	17408	19968	22528	24576	27136	29696	29696	32256	32256	32256	32256	32256	32256	32256	34304	36864	39424	47104	52224	60416	3072	8192	22528	0	0	0	0	0	0	0	0	0	0	0	0	0	0	0	0	0	0	0	0	0	0	0	0	0	0	0	0	0	0	0	0	0	0	0	0	0	0	0	0	0	0	0	0	0	0	0	0	0	0	0	0	0	0	0	0	0	0	0	0	0	0	0	0	0	0	0	0	0	0	0	0	0	0	0	0	0	0	0	2048	2048	2048	2048	2560	0	0	0	0	0	2560	2560	2560	2560	2560	2560	2560	2048	2048	2048	2048	2048	0	0	0	0	0	0	0	0	0	0	0	0	0	0	0	0	0	0	0	0	0	0	0	0	0	59392	59392	59392	59392	59392	59392	59392	59392	59392	59392	59904	59904	59904	59904	59904	59904	0	0	0	0	0	0	0	0	0	0	0	0	0	0	62464	62464	61952	61952	0	0	61952	61952	62464	62464	62464	62464	62464	62464	62464	62464	62464	62464	62464	62464	62464	62464	61952	61952	61952	61952	61952	61952	61440	61440	61440	61440	61440	61440	61440	61440	61440	61440	61440	61952	0	62464	62464	62464	62464	62464	62464	62464	62464	62464	62464	62464	62464	62464	0	0	0	0	0	0	0	0	0	0	0	0	0	0	0	0	0	0	0	0	0	0	0	0	0	0	0	0	0	0	0	0	0	0	19456	19456	19456	40448	40448	5120	29696	29696	36352	36352	36352	36352	59904	59904	36352	36352	26624
0	0	0	0	0	0	0	0	0	0	0	0	0	0	0	0	0	0	0	0	0	0	0	0	0	0	0	0	0	0	0	0	0	0	0	0	0	0	0	0	0	0	0	0	0	0	0	0	0	0	0	0	0	0	0	0	0	0	0	0	0	0	0	0	0	0	0	0	0	0	0	0	0	0	0	0	0	0	0	0	0	0	0	0	0	0	0	0	0	0	0	0	0	0	0	0	0	0	0	0	0	0	0	0	0	0	0	0	0	0	0	0	0	22016	22016	22016	22016	22016	22016	21504	21504	21504	21504	21504	21504	21504	21504	21504	21504	20992	20992	20992	20992	20992	20992	20992	20992	20992	20992	20992	20992	20992	21504	21504	22016	22016	22528	23040	23552	24576	25088	25600	25600	26112	26112	26112	26112	26112	26112	26112	26112	26112	25600	25600	25600	25600	25600	25600	25600	25600	25600	25600	26112	26112	26112	26112	26112	26112	26112	26112	26112	26624	26624	26624	27136	0	33280	33280	34304	34304	34816	34816	34816	34816	34816	34816	34816	34816	34816	34816	34816	34816	35328	35328	35840	36352	36352	36352	36864	37376	0	0	0	34304	34304	34304	34304	34304	34304	31232	31232	31232	34304	31232	28160	28160	28160	28160	25600	25600	22528	22528	22528	22528	22528	25600	25600	25600	25600	25600	25600	22528	22528	22528	22528	19456	16896	11264	8192	5632	3072	0	60416	54784	52224	49664	44544	41984	39424	34304	34304	32256	32256	32256	32256	34304	36864	41984	47104	54784	62976	5632	16896	25600	34304	40448	40448	46080	49152	55808	58880	58880	65024	65024	3072	3072	3072	3072	6144	6144	6144	6144	6144	9216	9216	15872	23040	26112	29696	33280	36864	36864	36864	36864	36864	33280	29696	26112	23040	15872	12800	6144	65024	58880	52224	43008	40448	34304	31232	28160	25600	22528	22528	22528	19456	19456	19456	19456	19456	19456	13824	11264	8192	3072	0	60416	57856	54784	49664	47104	47104	41984	41984	41984	41984	41984	41984	41984	41984	41984	41984	41984	41984	41984	41984	41984	41984	41984	44544	44544	44544	49664	52224	54784	57856	60416	62976	62976	0	0	3072	3072	3072	3072	5632	8192	8192	8192	8192	11264	13824	13824	16896	16896	16896	13824	13824	13824	8192	3072	62976	54784	49664	44544	36864	32256	27136	22528	17408	15360	12800	10752	10752	10752	10752	10752	10752	12800	17408	17408	22528	24576	24576	27136	32256	32256	32256	32256	32256	32256	34304	36864	39424	47104	52224	60416	3072	8192	0	0	0	0	0	0	0	0	0	0	0	0	0	0	0	0	0	0	0	0	0	0	0	0	0	0	0	0	0	0	0	0	0	0	0	0	0	0	0	0	0	0	0	0	0	0	0	0	0	0	0	0	0	0	0	0	0	0	0	0	0	0	0	0	0	0	0	0	0	0	0	0	0	0	0	0	0	0	0	0	2048	2048	2048	2048	2048	2048	2048	2560	2560	2560	2560	2560	2560	2560	2560	2048	2048	2048	2048	1536	1536	1536	1024	1024	0	0	0	0	0	0	0	0	0	0	0	0	0	0	0	0	0	0	0	0	0	0	59392	59392	59392	59392	59392	59392	59392	59392	59392	59392	59392	59392	59392	59392	59392	59392	59392	0	0	0	0	0	0	0	0	0	0	0	0	0	0	0	0	61952	61952	61952	61952	61952	61952	61952	61952	61952	61952	62464	62464	62464	62464	62464	62464	62464	62464	62464	61952	61952	61952	61952	61952	61952	61440	61440	61440	61440	61440	61440	61440	61440	61440	61440	61440	61440	61952	61952	61952	61952	62464	62464	62464	62464	62464	62464	62464	62464	62464	0	0	0	0	0	0	59904	59904	59904	59904	59904	0	0	0	0	0	0	0	0	0	0	0	0	0	0	0	0	0	0	0	0	0	0	0	0	0	1024	1024	1024	1024	19456	40448	5120	5120	45056	45056	45056	45056	45056	45056	45056	5120	5120
0	0	0	0	0	0	0	0	0	0	0	0	0	0	0	0	0	0	0	0	0	0	0	0	0	0	0	0	0	0	0	0	0	0	0	0	0	0	0	0	0	0	0	0	0	0	0	0	0	0	0	0	0	0	0	0	0	0	0	0	0	0	0	0	0	0	0	0	0	0	0	0	0	0	0	0	0	0	0	0	0	0	0	0	0	0	0	0	0	0	0	0	0	0	0	0	0	0	0	0	0	0	0	0	0	0	0	0	0	0	0	0	0	0	0	0	0	0	0	21504	21504	21504	21504	21504	21504	21504	21504	21504	21504	20992	20992	20992	20992	20992	20992	20992	20992	20992	20992	20992	20992	20992	21504	21504	21504	22016	22528	23040	23552	24064	25088	25600	26112	26112	26112	26112	26112	26112	26112	26112	26112	25600	25600	25600	25600	25600	25600	25600	25600	25600	25600	25600	25600	25600	25600	26112	26112	26112	26112	26112	26112	26112	26624	26624	27136	0	34816	34304	34304	34816	34816	34816	34816	34816	34816	35328	35328	35328	34816	34816	35328	35328	35328	35328	35840	36352	36352	36352	36864	37376	0	0	0	34304	34304	34304	31232	31232	28160	28160	28160	28160	25600	25600	25600	25600	25600	25600	25600	22528	22528	22528	22528	22528	22528	25600	28160	28160	28160	28160	28160	22528	22528	22528	22528	19456	16896	13824	11264	8192	5632	3072	62976	57856	54784	52224	49664	47104	44544	41984	41984	41984	41984	41984	41984	44544	47104	52224	60416	0	8192	16896	28160	37376	43008	49152	52224	52224	58880	61952	61952	65024	65024	65024	3072	3072	65024	65024	65024	3072	65024	65024	65024	6144	9216	15872	23040	26112	29696	36864	36864	36864	36864	33280	29696	26112	23040	19456	15872	9216	6144	61952	58880	55808	49152	43008	40448	34304	31232	28160	25600	22528	19456	16896	16896	13824	13824	16896	16896	13824	11264	8192	5632	3072	60416	54784	52224	47104	41984	39424	36864	32256	32256	29696	29696	29696	29696	32256	32256	34304	39424	39424	41984	41984	41984	41984	41984	44544	44544	47104	47104	49664	54784	60416	62976	0	0	3072	5632	8192	8192	5632	5632	5632	5632	8192	8192	8192	8192	8192	8192	11264	11264	8192	8192	8192	5632	3072	62976	57856	52224	44544	39424	32256	29696	24576	22528	17408	15360	12800	10752	8192	8192	8192	10752	10752	10752	10752	12800	17408	17408	22528	22528	27136	29696	29696	32256	32256	34304	36864	36864	39424	44544	47104	54784	60416	0	0	0	0	0	0	0	0	0	0	0	0	0	0	0	0	0	0	0	0	0	0	0	0	0	0	0	0	0	0	0	0	0	0	0	0	0	0	0	0	0	0	0	0	0	0	0	0	0	0	0	0	0	0	0	0	0	0	0	0	0	0	0	0	0	0	0	0	0	0	0	0	0	0	0	0	0	0	0	0	2048	2048	2048	2048	2048	2048	2048	2048	2048	2048	2048	2048	2048	2560	2048	2048	2048	2048	2048	2048	1536	1536	1536	1024	1024	512	512	512	512	0	0	0	0	0	0	0	0	0	0	0	0	0	0	0	0	0	0	0	59392	59392	59392	59392	59392	59392	59392	59392	59392	59392	59392	59392	59392	59392	59392	59392	59392	0	0	0	0	0	0	0	0	0	0	0	0	0	0	0	0	61952	61952	61952	61952	61952	61952	61952	61952	61952	61952	61952	61952	61952	61952	61952	61952	61952	61952	61952	61952	61952	61952	61952	61952	61440	61440	61440	61440	61440	61440	61440	61440	61440	61440	61440	61440	61440	0	61952	61952	61952	62464	62464	62464	62464	62464	0	0	0	0	0	0	0	59392	59392	59392	59392	59392	59392	59392	59392	0	0	0	0	0	0	0	0	0	0	0	0	0	0	0	0	0	0	0	0	0	0	0	0	0	2560	2560	2560	2560	1024	6144	19456	40448	40448	40448	40448	40448	19456	19456	19456	6144	1024
0	0	0	0	0	0	0	0	0	0	0	0	0	0	0	0	0	0	0	0	0	0	0	0	0	0	0	0	0	0	0	0	0	0	0	0	0	0	0	0	0	0	0	0	0	0	0	0	0	0	0	0	0	0	0	0	0	0	0	0	0	0	0	0	0	0	0	0	0	0	0	0	0	0	0	0	0	0	0	0	0	0	0	0	0	0	0	0	0	0	0	0	0	0	0	0	0	0	0	0	0	0	0	0	0	0	0	0	0	0	0	0	0	0	0	0	0	0	0	0	0	0	0	0	21504	21504	21504	21504	21504	20992	20992	20992	20992	20992	20992	20992	20992	20992	20992	20992	20992	21504	21504	21504	21504	22016	22528	23040	23552	24064	25088	25600	26112	26112	26112	26112	26112	26112	26112	26112	26112	25600	25600	25600	25600	25600	25600	25600	25600	25600	25600	25600	25600	25600	25600	26112	26112	26112	26112	26112	26112	26112	26112	26112	0	0	34816	34816	34816	34816	35328	35328	35328	35328	35328	35328	35328	35328	35328	35328	35328	35328	35328	35328	35840	36352	36352	36352	36864	37376	0	0	0	34304	31232	31232	31232	28160	28160	25600	25600	22528	22528	22528	22528	19456	19456	22528	22528	22528	22528	22528	22528	22528	25600	28160	28160	28160	28160	28160	28160	25600	25600	22528	22528	19456	19456	16896	13824	11264	8192	5632	0	62976	60416	57856	54784	52224	52224	52224	49664	49664	52224	52224	54784	54784	60416	0	5632	13824	22528	31232	40448	46080	52224	58880	61952	61952	61952	65024	65024	65024	65024	65024	65024	61952	61952	61952	61952	61952	61952	65024	65024	3072	6144	15872	19456	26112	29696	36864	36864	36864	36864	33280	29696	26112	23040	19456	12800	6144	3072	61952	58880	55808	49152	43008	40448	37376	31232	28160	25600	22528	19456	16896	13824	11264	11264	11264	11264	8192	8192	5632	5632	0	60416	54784	49664	47104	39424	34304	29696	27136	24576	22528	22528	24576	24576	27136	29696	29696	34304	39424	41984	41984	44544	47104	47104	49664	49664	52224	52224	57856	62976	3072	5632	8192	8192	11264	13824	13824	13824	11264	5632	5632	5632	8192	8192	8192	8192	8192	8192	8192	8192	5632	3072	0	0	60416	57856	52224	47104	39424	34304	29696	24576	22528	19968	17408	12800	12800	10752	8192	8192	8192	10752	10752	10752	10752	12800	17408	17408	22528	22528	27136	29696	29696	34304	36864	36864	39424	41984	44544	47104	0	0	0	0	0	0	0	0	0	0	0	0	0	0	0	0	0	0	0	0	0	0	0	0	0	0	0	0	0	0	0	0	0	0	0	0	0	0	0	0	0	0	0	0	0	0	0	0	0	0	0	0	0	0	0	0	0	0	0	0	0	0	0	0	0	0	0	0	0	0	0	0	0	0	0	0	0	0	0	0	0	0	2048	2048	2048	2048	2048	2048	2048	2048	2048	2048	2048	2048	2048	2048	2048	2048	2048	2048	2048	2048	1536	1536	1536	1024	1024	1024	512	512	512	512	512	0	0	0	0	0	0	0	0	0	0	0	0	0	0	0	0	0	0	0	59392	59392	59392	59392	59392	59392	59392	59392	59392	59392	59392	59392	59392	59392	59392	59392	0	0	0	0	0	0	0	0	0	0	0	0	0	0	0	0	61952	61440	61440	61440	61440	61952	61952	61952	61952	61952	61952	61952	61952	61952	61952	61952	61952	61952	61952	61952	61952	61952	61952	61440	61440	61440	61440	61440	61440	61440	60928	60928	60928	60928	60928	60928	0	0	0	0	0	62464	62464	0	0	0	0	0	0	0	60416	59904	59392	59392	59392	59392	59392	59392	59392	59392	59392	59392	0	0	0	0	0	0	0	0	0	0	0	0	0	0	0	0	1536	1536	0	0	0	0	0	0	10752	10752	2560	2560	1024	6144	19456	40448	40448	19456	6144	6144	1024	1024	2560	10752	25088
0	0	0	0	0	0	0	0	0	0	0	0	0	0	0	0	0	0	0	0	0	0	0	0	0	0	0	0	0	0	0	0	0	0	0	0	0	0	0	0	0	0	0	0	0	0	0	0	0	0	0	0	0	0	0	0	0	0	0	0	0	0	0	0	0	0	0	0	0	0	0	0	0	0	0	0	0	0	0	0	0	0	0	0	0	0	0	0	0	0	0	0	0	0	0	0	0	0	0	0	0	0	0	0	0	0	0	0	0	0	0	0	0	0	0	0	0	0	0	0	0	0	0	0	21504	21504	21504	21504	21504	21504	20992	20992	20992	20992	20992	20992	20992	20992	20992	20992	20992	21504	21504	21504	21504	22016	22528	23040	24576	24576	25088	25600	26112	26112	26112	26112	26112	26112	26112	26112	25600	25600	25600	25600	25600	25600	25600	25600	25600	25600	25600	25600	25600	25600	25600	25600	25600	25600	25600	26112	26112	26112	26112	26112	0	0	0	35328	35328	35328	35328	35328	35328	35328	35328	35328	35328	35328	35328	35328	35328	35328	35328	35840	35840	36352	36352	36352	36864	37376	0	0	0	37376	31232	31232	31232	28160	28160	22528	22528	22528	19456	19456	19456	19456	19456	19456	22528	22528	22528	22528	22528	25600	28160	28160	28160	28160	28160	28160	28160	25600	25600	22528	22528	22528	19456	16896	13824	11264	11264	8192	5632	3072	0	62976	60416	60416	60416	57856	57856	57856	60416	62976	0	3072	5632	13824	19456	25600	34304	43008	49152	55808	61952	65024	65024	65024	65024	65024	65024	65024	61952	61952	58880	58880	58880	58880	58880	58880	58880	58880	58880	65024	3072	12800	19456	26112	29696	36864	40448	44032	40448	36864	29696	26112	23040	19456	12800	6144	3072	61952	58880	55808	52224	46080	43008	37376	34304	28160	25600	22528	19456	16896	13824	8192	8192	5632	5632	3072	0	0	0	60416	54784	52224	47104	41984	36864	32256	29696	22528	22528	22528	19968	19968	19968	22528	24576	27136	29696	34304	39424	41984	47104	49664	49664	54784	54784	57856	62976	0	5632	11264	16896	16896	19456	19456	22528	19456	19456	16896	11264	11264	13824	13824	11264	11264	11264	11264	11264	8192	8192	5632	3072	0	0	60416	54784	49664	44544	39424	32256	27136	24576	22528	19968	17408	12800	12800	12800	10752	10752	10752	10752	10752	12800	12800	15360	17408	17408	22528	22528	27136	32256	36864	41984	41984	47104	47104	49664	54784	0	0	0	0	0	0	0	0	0	0	0	0	0	0	0	0	0	0	0	0	0	0	0	0	0	0	0	0	0	0	0	0	0	0	0	0	0	0	0	0	0	0	0	0	0	0	0	0	0	0	0	0	0	0	0	0	0	0	0	0	0	0	0	0	0	0	0	0	0	0	0	0	0	0	0	0	0	0	0	0	0	0	0	2048	2048	2048	2048	2048	2048	2048	2048	2048	2048	2048	2048	2048	2048	2048	2048	2048	2048	1536	1536	1536	1536	1024	1024	1024	512	512	512	512	512	512	512	512	0	0	0	0	0	0	0	0	0	0	0	0	0	0	0	0	0	0	59392	59392	59392	59392	59392	59392	59392	59392	59392	59392	59392	59392	59392	59392	0	0	0	0	0	0	0	0	0	0	0	0	0	0	0	0	0	0	61440	61440	61440	61440	61440	61440	61440	61440	61952	61952	61952	61952	61952	61952	61952	61952	61952	61952	61952	61952	61952	61440	61440	61440	61440	61440	61440	60928	60928	60928	60928	60928	60928	60928	60928	0	0	0	0	0	0	0	0	0	0	0	0	0	0	60416	59904	59392	59392	59392	59392	59392	59392	59392	59392	59392	59392	0	0	0	0	0	0	0	0	1024	1024	1024	1024	1024	1024	1536	1536	1536	1536	1536	0	0	0	0	0	25088	25088	10752	2560	1024	6144	19456	40448	40448	19456	6144	6144	2560	2560	10752	44544	4096
0	0	0	0	0	0	0	0	0	0	0	0	0	0	0	0	0	0	0	0	0	0	0	0	0	0	0	0	0	0	0	0	0	0	0	0	0	0	0	0	0	0	0	0	0	0	0	0	0	0	0	0	0	0	0	0	0	0	0	0	0	0	0	0	0	0	0	0	0	0	0	0	0	0	0	0	0	0	0	0	0	0	0	0	0	0	0	0	0	0	0	0	0	0	0	0	0	0	0	0	0	0	0	0	0	0	0	0	0	0	0	0	0	0	0	0	0	0	0	0	0	0	0	0	21504	21504	21504	21504	21504	21504	21504	20992	20992	20992	20992	20992	20992	20992	20992	21504	21504	21504	21504	21504	21504	22016	22528	23040	0	25088	25088	25600	26112	26112	26112	26112	26112	26112	26112	25600	25600	25600	25600	25600	25600	25600	25088	25088	25600	25600	25600	25600	25600	25600	25600	25600	25600	25600	25600	25600	25600	25600	26112	0	0	0	0	35840	35840	35840	35840	35840	35840	35840	35840	35328	35328	35328	35328	35328	35328	35328	35328	35840	36352	36352	36352	36864	36864	37376	0	0	0	40448	34304	31232	31232	28160	28160	22528	22528	19456	16896	16896	16896	16896	16896	19456	19456	19456	22528	22528	22528	25600	25600	28160	28160	28160	28160	28160	25600	22528	22528	19456	19456	19456	16896	13824	13824	11264	11264	8192	8192	8192	3072	3072	3072	0	0	0	0	3072	3072	5632	8192	11264	16896	22528	28160	34304	40448	46080	55808	61952	65024	3072	3072	3072	3072	65024	65024	61952	58880	58880	55808	55808	55808	52224	52224	52224	55808	55808	55808	58880	65024	6144	15872	23040	29696	36864	40448	44032	44032	40448	40448	33280	29696	23040	19456	9216	6144	65024	61952	58880	55808	52224	43008	40448	37376	31232	28160	25600	19456	16896	13824	8192	5632	3072	3072	0	0	62976	60416	57856	54784	47104	44544	39424	34304	29696	24576	22528	19968	17408	17408	17408	17408	19968	19968	24576	27136	34304	39424	41984	47104	49664	52224	57856	62976	0	5632	11264	16896	19456	22528	28160	28160	28160	28160	28160	25600	16896	16896	16896	16896	13824	13824	13824	13824	13824	13824	13824	11264	8192	5632	3072	0	60416	54784	49664	44544	41984	32256	27136	27136	24576	19968	19968	17408	17408	17408	15360	15360	15360	15360	12800	12800	12800	15360	17408	17408	19968	22528	27136	32256	36864	44544	47104	49664	52224	57856	60416	0	0	0	0	0	0	0	0	0	0	0	0	0	0	0	0	0	0	0	0	0	0	0	0	0	0	0	0	0	0	0	0	0	0	0	0	0	0	0	0	0	0	0	0	0	0	0	0	0	0	0	0	0	0	0	0	0	0	0	0	0	0	0	0	0	0	0	0	0	0	0	0	0	0	0	0	0	0	0	0	0	0	0	0	2048	2048	1536	1536	1536	2048	2048	2048	2048	2048	2048	2048	2048	2048	2048	2048	1536	1536	1536	1536	1024	1024	1024	1024	512	512	512	512	512	512	512	512	512	0	0	0	0	0	0	0	0	0	0	0	0	0	0	0	0	0	0	59392	59392	59392	59392	59392	59392	59392	59392	59392	59392	59392	59392	59392	0	0	0	0	0	0	0	0	0	0	0	0	0	0	0	0	0	0	0	61440	61440	61440	61440	61440	61440	61440	61440	61440	61440	61440	61952	61952	61952	61952	61952	61952	61440	61440	61440	61440	61440	61440	61440	61440	60928	60928	60928	60928	60928	60928	60928	60928	60928	60928	60928	0	0	0	0	0	0	0	0	0	0	0	0	0	59392	59392	59392	59392	59392	58880	58880	58880	58880	58880	58880	0	0	0	0	0	0	0	1024	1024	1024	1024	1024	1024	1024	1536	1536	1536	1536	1536	1536	0	0	0	0	25088	25088	10752	2560	6144	19456	19456	5120	5120	40448	6144	6144	2560	2560	25088	44544	4096
0	0	0	0	0	0	0	0	0	0	0	0	0	0	0	0	0	0	0	0	0	0	0	0	0	0	0	0	0	0	0	0	0	0	0	0	0	0	0	0	0	0	0	0	0	0	0	0	0	0	0	0	0	0	0	0	0	0	0	0	0	0	0	0	0	0	0	0	0	0	0	0	0	0	0	0	0	0	0	0	0	0	0	0	0	0	0	0	0	0	0	0	0	0	0	0	0	0	0	0	0	0	0	0	0	0	0	0	0	0	0	0	0	0	0	0	0	0	0	0	0	0	0	0	0	0	21504	21504	21504	21504	21504	21504	21504	21504	21504	21504	21504	21504	21504	21504	21504	21504	21504	21504	21504	22016	22528	23040	0	25088	25088	25600	26112	26112	26112	26112	26112	26112	25600	25600	25600	25600	25600	25088	25088	25088	25088	25088	25088	25088	25088	25088	25600	25600	25600	25600	25600	25600	25600	25600	25600	25600	0	0	0	0	35840	35840	35840	35840	35840	35840	35840	35840	35840	35840	35840	35328	35328	35328	35328	35840	35840	35840	36352	36352	36352	36352	36864	36864	0	0	0	40448	37376	34304	34304	31232	28160	22528	22528	19456	16896	16896	16896	16896	16896	19456	19456	19456	22528	22528	22528	25600	25600	28160	28160	28160	25600	25600	22528	22528	19456	19456	16896	13824	13824	13824	11264	11264	8192	8192	8192	5632	5632	3072	3072	3072	3072	3072	5632	5632	8192	11264	13824	16896	22528	28160	34304	40448	46080	52224	58880	65024	6144	6144	6144	6144	3072	3072	65024	61952	58880	55808	52224	49152	49152	49152	49152	49152	49152	49152	52224	55808	61952	3072	9216	19456	26112	29696	36864	44032	44032	40448	40448	36864	36864	29696	23040	15872	9216	6144	3072	65024	61952	52224	49152	43008	40448	34304	31232	25600	22528	19456	13824	8192	5632	3072	3072	0	62976	60416	60416	57856	54784	47104	44544	39424	32256	27136	22528	19968	17408	17408	15360	15360	15360	19968	19968	24576	27136	34304	39424	41984	49664	54784	57856	0	8192	11264	16896	22528	25600	31232	34304	34304	34304	37376	37376	34304	25600	22528	22528	22528	22528	19456	19456	19456	19456	19456	19456	16896	13824	11264	8192	5632	3072	62976	60416	54784	52224	41984	36864	32256	27136	24576	24576	22528	17408	17408	19968	17408	17408	15360	15360	15360	15360	15360	15360	17408	17408	17408	19968	24576	29696	36864	44544	47104	49664	54784	60416	0	0	0	0	0	0	0	0	0	0	0	0	0	0	0	0	0	0	0	0	0	0	0	0	0	0	0	0	0	0	0	0	0	0	0	0	0	0	0	0	0	0	0	0	0	0	0	0	0	0	0	0	0	0	0	0	0	0	0	0	0	0	0	0	0	0	0	0	0	0	0	0	0	0	0	0	0	0	0	0	0	0	0	0	0	1536	1536	1536	1536	1536	1536	1536	1536	2048	2048	2048	2048	2048	1536	1536	1536	1536	1536	1536	1536	1024	1024	1024	512	512	512	512	512	512	512	512	512	512	0	0	0	0	0	0	0	0	0	0	0	0	0	0	0	0	0	0	0	0	0	0	0	59392	59392	59392	59392	59392	59392	59392	0	0	0	0	0	0	0	0	0	0	0	0	0	0	0	0	0	0	0	0	61440	61440	61440	61440	61440	61440	61440	61440	61440	61440	61440	61440	61440	61440	61440	61440	61440	61440	61440	61440	61440	61440	61440	61440	60928	60928	60928	60928	60928	60928	60928	60416	60416	60416	60416	60416	0	0	0	0	0	0	0	0	0	0	0	0	0	59392	58880	58880	58880	58880	58880	58880	58880	58880	58880	58880	0	0	0	0	0	0	1024	1024	1024	1024	1024	1024	1536	1536	1536	1536	1536	1536	1536	1536	1536	0	0	0	0	2560	2560	1024	19456	40448	5120	29696	45056	5120	19456	6144	1024	2560	25088	44544	4096
