2559	2562	2569	2572	2576	2579	2582	2586	2586	2589	2593	2593	2589	2586	2586	2586	2579	2572	2569	2569	2569	2566	2566	2562	2556	2552	2552	2546	2546	2543	2539	2539	2539	2539	2543	2543	2543	2539	2539	2536	2533	2533	2526	2526	2523	2523	2520	2520	2517	2513	2507	2507	2504	2501	2501	2501	2504	2501	2501	2501	2501	2498	2498	2494	2491	2485	2482	2479	2473	2469	2466	2463	2460	2457	2457	2454	2454	2454	2451	2454	2454	2457	2457	2457	2460	2469	2476	2485	2494	2507	2513	2523	2536	2549	2559	2566	2572	2576	2582	2582	2586	2586	2579	2579	2576	2579	0	0	0	2566	2556	0	0	2501	2485	2473	2466	2463	2460	2457	2457	2457	2463	2466	2469	2473	2476	2476	2482	2485	2488	2488	2488	2488	2488	2488	2485	2485	2485	2485	2485	2485	2488	2488	2488	2491	2491	2494	2498	2498	2498	2498	2498	2498	2498	2498	2498	2501	2504	2510	2513	2523	2536	0	2546	2562	2576	2599	2613	2624	2631	2641	2645	2648	2652	2648	2648	2645	2638	2634	2627	2617	2596	2586	2576	2569	2562	2552	2543	2539	2533	2526	2523	2520	2517	2513	2507	2507	2501	2498	2501	2498	2498	2498	2501	2501	2504	2507	2507	2510	2510	2510	2510	2510	2510	2510	2510	2513	2513	2520	2526	2533	2539	2543	2549	2549	2549	2549	2546	2543	2536	2530	2530	2523	2523	2520	2517	2513	2510	2510	2510	2507	2507	2482	2476	2476	2476	2476	2473	2466	2463	2460	2457	2454	2451	2445	2442	2439	2442	2442	2442	2442	2442	2445	2445	2445	2448	2445	2448	2448	0	0	0	0	0	0	0	0	0	0	1485	1484	1483	1483	1482	1485	1489	1491	1494	1494	1495	1497	1497	1498	1497	1493	1486	1482	1478	1472	1467	1461	1455	1450	1442	1439	1437	1435	1433	1432	1431	1429	1429	1428	1427	1427	1426	1426	1426	1426	1426	1427	1427	1428	1429	1431	1432	1433	1435	1437	1439	1441	1443	1444	1446	1448	1449	1450	1452	1454	1455	1456	1458	1460	1461	1463	1466	1469	1471	1474	1476	1481	0	1491	1501	0	0	1542	0	1558	1578	1591	1593	1596	1597	1598	1597	1596	1589	1583	1575	1563	1556	1549	1545	1541	1539	1536	1534	1531	1529	1527	1524	1521	1514	1509	1506	1502	1499	1495	1493	1491	1489	1488	1485	1484	1482	1480	1476	1471	1468	1464	1461	1458	1456	1454	1452	1450	1449	1448	1448	1448	1448	1449	1449	1450	1452	1453	1455	1456	1457	1459	1460	1462	1464	1467	1469	1471	1473	1476	1479	1481	1482	1483	1485	1486	1489	1489	1489	0	0	0	0	0	0	0	0	0	0	0	0	0	0	0	0	0	0	0	0	2494	2494	2498	2501	2501	2504	2507	2507	2510	2510	2513	2520	2523	2523	2523	2520	2517	2517	2513	2510	2510	2510	2510	2510	2513	2513	2517	2517	2517	2517	2517	2513	2510	2507	2504	2501	2498	2491	2491	2479	2476	2476	2479	2479	2485	2485	2491	2498	2504	2513	2520	2526	2533	2543	2552	2556	2566	2566	2566	2562	2562	2559	2552	2546	2523	2517	2507	2501	2498	2491	2488	2485	2482	2479	2479	2476	2473	2469	2466	2463	2463	2463	2463	2463	2463	2463	2463	2466	2469	2473	2476	2479	2482	2485	2491	2491	2494	2494	2498	2494	2494	2491	2494	2494	2498	2501	2504	2510	2517	2523	2530	2536	2539	2546	2549	2552	2556	2559	2562	2566	2569	2572	2576	2576	2579	2582	2586	2589	2593	2599	2603	2606	2613	2617	2617	2617	2617	2610	2599	2589	2579	2572	2562	2556	2539	2533	2530	2526	2526	2526	2526	2526	2526	2530	2530	2530	2533	2533	2536	2539	2539	2539	2539	2539	2543	2543	2543	2543	2546	2546	2546	2552	2556	2556	2559	2566	2572	2576	2576	2582	2582	2586	2586	2586	2586	2582	2579	2572	2569	2562	2556	2549	2543	2539	2533	2533	2533	2536	2536	2539	2539	2539	2539	2543	2543	2543	2546	2546
2562	2566	2569	2576	2576	2579	2582	2586	2586	2586	2586	2586	2582	2582	2576	2576	2572	2566	2562	2562	2566	2562	2562	2559	2559	2556	2552	2552	2549	2549	2546	2543	2543	2543	2546	2546	2546	2543	2543	2539	2536	2530	2526	2523	2520	2520	2513	2513	2501	2501	2498	2494	2494	2494	2491	2498	2498	2501	2498	2501	2501	2501	2501	2498	2491	2491	2485	2482	2479	2473	2466	2463	2460	2457	2457	2454	2451	2451	2451	2451	2451	2451	2454	2457	0	2463	2473	2485	2494	2504	2517	2526	2543	2556	2569	2576	2586	2589	2593	2596	2599	2599	2599	2596	2593	2596	0	0	0	2576	2566	2552	2530	2513	2498	2488	2482	2479	2476	2469	2469	2469	2473	2476	2479	2482	2482	2485	2485	2491	2491	2491	2488	2488	2488	2485	2482	2482	2482	2482	2479	2479	2479	2482	2485	2485	2488	2488	2491	2491	2494	2491	2491	2491	2491	2494	2494	2494	2494	2501	2507	2513	2523	2536	0	2549	2562	2582	2596	2606	2617	2627	2634	2638	2638	2638	2634	2631	2624	2617	2610	2589	2579	2569	2559	2552	2546	2539	2533	2526	2520	2513	2513	2510	2507	2501	2501	2494	2494	2491	2488	2488	2488	2491	2491	2491	2494	2494	2498	2498	2501	2501	2501	2501	2501	2498	2501	2501	2504	2507	2510	2517	2520	2526	2530	2533	2533	2530	2530	2523	2517	2513	2510	2507	2501	2498	2494	2491	2466	2469	2466	2466	2463	2463	2460	2460	2460	2457	2457	2454	2454	2451	2445	2442	2442	2439	2436	2433	2433	2433	2433	2433	2436	2439	2439	2439	2442	2442	2442	2442	2442	2442	0	0	0	0	0	0	0	1478	1481	1480	1479	1480	1479	1482	1489	1491	0	0	1498	1499	1500	1501	1499	1497	1489	1484	1479	1474	1468	1462	1456	1452	1446	1441	1439	1437	1435	1434	1433	1432	1431	1429	1428	1427	1427	1427	1426	1426	1426	1427	1427	1429	1431	1432	1433	1435	1437	1439	1441	1443	1444	1446	1448	1450	1452	1453	1454	1455	1457	1458	1460	1462	1463	1466	1468	1470	1473	1475	1478	1482	0	1492	1503	1514	0	1541	0	1557	1574	1586	1588	1591	1592	1593	1592	1591	1586	1579	1574	1562	1554	1549	1545	1542	1539	1536	1534	1533	1530	1527	1524	1521	1514	1510	1506	1502	1499	1495	1493	1491	1489	1488	1486	1484	1482	1480	1478	1471	1468	1464	1461	1458	1456	1453	1452	1450	1449	1449	1448	1448	1449	1450	1452	1453	1454	1456	1457	1458	1460	1461	1462	1464	1467	1469	1470	1472	1474	1476	1479	1480	1482	1483	1484	1485	1488	1489	0	0	0	0	0	0	0	0	0	0	0	0	0	0	0	0	0	0	0	0	0	2482	2482	2485	2488	2488	2494	2494	2498	2501	2504	2507	2510	2513	2517	2517	2517	2517	2513	2510	2510	2510	2510	2507	2510	2507	2507	2507	2507	2507	2507	2504	2501	2501	2494	2491	2479	2479	2476	2473	2469	2469	2469	2469	2473	2476	0	2482	2485	2498	2507	2513	2520	2530	2536	2546	2556	2559	2562	2562	2559	2559	2552	2549	2543	2520	2513	2507	2504	2498	2491	2488	2485	2482	2482	2482	2479	2476	2473	2469	2466	2463	2463	2463	2463	2463	2463	2466	2466	2469	2473	2473	2476	2479	2482	2482	2485	2485	2485	2482	2482	2482	2485	2485	2485	2488	2491	2498	2504	2510	2520	2526	2530	2536	2539	2543	2546	2549	2556	2559	2559	2562	2562	2566	2569	2569	2576	2579	2582	2589	2596	2603	2610	2617	2620	2617	2620	2620	2613	2603	2593	2582	2576	2566	2559	2549	2533	2530	2530	2526	2526	2526	2526	2526	2526	2530	2530	2530	2533	2533	2533	2536	2536	2536	2539	2539	2539	2539	2539	2543	2546	2546	2549	2556	2559	2562	2569	2572	2576	2582	2586	2586	2586	2586	2586	2586	2582	2579	2572	2566	2559	2552	2546	2543	2536	2530	2530	2526	2533	2536	2536	2536	2536	2536	2543	2539	2539	2539	2539
2562	2566	2569	2572	2572	2576	2579	2576	2579	2579	2576	2572	2572	2569	2566	2562	2562	2556	2556	2556	2559	2562	2566	2566	2562	2562	2562	2559	2556	2556	2552	2549	2552	2552	2552	2549	2549	2546	2543	2543	2536	2533	2526	2523	2520	2513	2510	2498	2494	2491	2488	2488	2488	2488	2488	2491	2498	2501	2501	2504	2504	2504	2504	2501	2498	2494	2491	2485	2482	2476	2469	2466	2460	2460	2457	2454	2451	2448	2445	2445	2448	2451	2451	2454	2460	0	2469	2482	2491	2504	2517	2530	2546	2562	2576	2586	2593	2599	2603	2610	2613	2613	2606	2606	2603	2603	2603	0	0	0	2569	2546	2536	2523	2510	2501	2494	2491	2488	2482	2482	2485	2488	2491	2491	2491	2494	2494	2498	2498	2498	2494	2491	2491	2488	2485	2482	2479	2476	2476	2473	2476	2476	2476	2479	2479	2482	2482	2485	2488	2488	2488	2488	2488	2488	2488	2488	2488	2491	2494	2498	2504	2510	2520	2533	2546	0	2559	2576	2586	2596	2606	2613	2617	2617	2617	2617	2613	2610	2593	2586	2576	2566	2556	2549	2539	2533	2526	2520	2517	2510	2507	2504	2504	2498	2494	2491	2488	2485	2482	2482	2479	2479	2479	2479	2482	2482	2482	2485	2488	2488	2488	2488	2488	2488	2485	2485	2485	2488	2491	2494	2501	2504	2510	2513	2517	2513	2513	2510	2507	2504	2501	2494	2476	2473	2466	2460	2457	2457	2454	2451	2451	2451	2451	0	2448	2451	2448	2448	2445	2445	2442	2439	2439	2436	2433	2430	2430	2430	2427	2427	2427	2430	2430	2433	2433	2436	2433	2436	2433	2436	2439	0	0	0	0	0	0	1453	1459	0	1464	1466	1468	1474	0	1485	1491	0	1498	1499	0	1503	1502	1502	1499	1495	1485	1480	1475	1469	1463	1457	1453	1447	1445	1441	1439	1437	1436	1435	1434	1433	1432	1431	1429	1428	1427	1427	1427	1427	1427	1428	1429	1431	1432	1433	1435	1437	1440	1442	1444	1445	1447	1449	1452	1453	1454	1455	1457	1458	1459	1461	1463	1466	1467	1469	1471	1473	1476	1479	1483	0	1493	1503	1514	1524	1540	0	1553	1569	1579	1582	1583	1584	1586	1586	1584	1579	1574	1570	1559	1554	1548	1545	1542	1539	1536	1534	1533	1530	1527	1524	1522	1514	1510	1507	1503	1500	1497	1493	1491	1489	1488	1486	1484	1483	1481	1478	1471	1468	1464	1461	1458	1456	1454	1452	1450	1450	1449	1449	1450	1452	1453	1454	1455	1456	1458	1459	1460	1462	1463	1464	1467	1468	1470	1471	1473	1475	1478	1479	1481	1482	1482	1484	1485	1486	1488	0	0	0	0	0	0	0	0	0	0	0	0	0	0	0	0	0	0	0	0	2469	2473	2476	2476	2479	2482	2482	2488	2488	2494	2498	2501	2510	2510	2513	2517	2517	2513	2513	2510	2510	2507	2504	2504	2504	2501	2501	2501	2501	2501	2501	2491	2488	2485	2482	2479	2476	2473	2469	2469	2463	2463	2466	2466	2466	2473	2476	0	2482	2491	2501	2507	2513	2520	2533	2539	2546	2552	2556	2556	2552	2549	2546	2539	2536	2520	2513	2507	2504	2501	2494	2494	2488	2485	2485	2482	2482	2476	2476	2473	2469	2466	2466	2466	2466	2463	2466	2466	2469	2469	2473	2473	2473	2476	2476	2479	2479	2476	2476	2476	2476	2473	2473	2476	2476	2482	2485	2491	2498	2507	2517	2523	2530	2533	2536	2539	2543	2546	2546	2549	2552	2552	2552	2556	2559	2562	2566	2569	2572	2579	2586	2596	2606	2610	2620	2617	2620	2620	2610	2603	2593	2586	2576	2566	2559	2552	2536	2533	2530	2526	2526	2526	2523	2526	2526	2526	2526	2526	2530	2530	2530	2533	2533	2533	2533	2533	2533	2533	2533	2533	2536	2543	2549	2549	2556	2559	2566	2569	2576	2579	2579	2582	2586	2586	2586	2586	2586	2579	2569	2566	2556	2549	2543	2539	2533	2530	2526	2526	2530	2533	2533	2533	2536	2536	2539	2536	2536	2536	2536
2556	2559	2562	2566	2566	2572	2569	2572	2569	2569	2566	2566	2562	2562	2556	2556	2552	2552	2552	2552	2556	2562	2562	2566	2569	2569	2566	2566	2562	2562	2562	2559	2559	2559	2559	2556	2552	2549	2546	2543	2536	2530	2523	2520	2517	2510	2501	2491	2488	2485	2482	2482	2482	2485	2488	2494	2498	2501	2504	2507	2507	2507	2507	2504	2501	2501	2494	2491	2485	2482	2476	2469	2466	2463	2460	2457	2454	2451	2448	2448	2448	2451	2451	2457	2460	0	2469	2476	2488	2504	2513	2530	2546	2566	2579	2589	2599	2606	2613	2613	2617	2613	2606	2606	2603	2596	2596	2589	2579	2569	2562	2543	2536	2526	2517	2507	2504	2501	2498	2498	2494	2494	2498	2501	2501	2501	2501	2504	2504	2501	2501	2498	2494	2491	2488	2485	2482	2479	2476	2473	2473	2473	2473	2473	2473	2476	2476	2476	2482	2482	2482	2482	2482	2482	2485	2482	2482	2482	2485	2485	2491	2494	2501	2507	2517	2530	2539	2552	0	2562	2572	2582	2593	2596	2599	2599	2596	2596	2582	2572	2566	2559	2549	2543	2536	2526	2520	2517	2513	2510	2504	2501	2498	2498	2494	2494	2488	2485	2479	2476	2476	2473	2473	2473	2469	2469	2469	2469	2469	2469	2469	2469	2469	2473	2473	2473	2473	2473	2476	2479	2485	2488	2494	2501	2504	2501	2501	2501	2485	2482	2479	2473	2469	2463	2457	2454	2451	2445	2442	2439	2439	2436	2439	2439	2439	2439	2439	2439	2439	2436	2436	2433	2433	2433	2430	2427	2427	2427	2421	2421	2421	2421	2421	2424	2424	2424	2427	2430	2430	2430	2430	2433	0	0	0	0	0	0	0	0	0	0	1452	1455	1469	0	1484	1494	0	1501	1502	1502	1506	1505	1505	1501	1498	1488	1482	1476	1470	1464	1458	1454	1449	1446	1443	1441	1440	1438	1437	1436	1435	1434	1432	1431	1429	1429	1428	1428	1428	1428	1428	1429	1431	1433	1435	1437	1439	1441	1443	1445	1446	1449	1450	1453	1454	1455	1456	1458	1459	1461	1462	1464	1467	1469	1471	1473	1475	1478	1480	1484	0	1494	1503	1513	1523	1535	1548	0	1562	1569	1574	1574	1577	1577	1578	1577	1573	1569	1560	1557	1552	1548	1543	1541	1539	1536	1534	1533	1529	1528	1524	1522	1514	1510	1507	1502	1500	1497	1493	1491	1490	1488	1486	1485	1483	1481	1478	1472	1468	1466	1462	1459	1457	1454	1453	1452	1450	1450	1450	1452	1453	1455	1456	1457	1458	1460	1461	1462	1464	1466	1467	1468	1469	1471	1472	1473	1475	1476	1479	1480	1481	1482	1484	1485	1485	0	0	0	0	0	0	0	0	0	0	0	0	0	0	0	0	0	0	2463	2466	2463	2466	2466	2473	2473	2473	2476	2479	2482	2488	2491	2498	2501	2507	2510	2513	2513	2513	2513	2510	2510	2507	2504	2504	2501	2504	2498	2498	2491	2491	2491	2488	2488	2482	2482	2479	2476	2469	2469	2466	2460	2460	2457	2457	2460	2463	2463	2469	2473	2482	0	2491	2498	2507	2513	2520	2530	2536	2539	2543	2543	2543	2543	2539	2533	2530	2517	2510	2507	2504	2501	2498	2494	2491	2488	2488	2485	2482	2479	2476	2473	2473	2469	2466	2466	2466	2466	2469	2466	2469	2473	2473	2469	2473	2473	2473	2473	2473	2469	2466	2466	2469	2466	2466	2469	2473	2476	2482	2488	2498	2504	2513	2520	2526	2530	2533	2536	2536	2539	2543	2543	2543	2546	2543	2546	2546	2546	2552	2552	2559	2562	2569	2579	2586	2596	2599	2606	2606	2606	2599	2596	2586	2579	2572	2566	2556	2549	2536	2530	2526	2526	2526	2523	2523	2523	2523	2523	2523	2523	2523	2523	2526	2526	2523	2523	2523	2523	2523	2523	2523	2526	2530	2536	2536	2543	2549	2552	2562	2566	2572	2572	2576	2579	2579	2579	2579	2582	2579	2572	2566	2559	2552	2546	2539	2533	2530	2526	2526	2526	2526	2530	2533	2533	2533	2536	2536	2533	2533	2523	2520
2543	2546	2549	2552	2556	2556	2556	2559	2559	2559	2559	2556	2552	2549	2549	2546	2546	2546	2546	2549	2552	2559	2562	2566	2569	2569	2569	2569	2569	2566	2566	2566	2562	2562	2562	2559	2556	2549	2546	2539	2533	2526	2520	2517	2510	2504	2491	2485	2479	2476	2476	2476	2476	2476	2485	2491	2498	2501	2504	2507	2507	2510	2510	2507	2507	2504	2501	2494	2491	2488	2482	2476	2473	2469	2466	2463	2460	2457	2454	2454	2454	2454	2454	2457	2460	0	2469	2476	2485	2498	2510	2526	2539	2559	2576	2589	2596	2603	2610	2613	2613	2610	2599	2596	2589	2586	2582	2576	2566	2556	2549	2533	2530	2523	2517	2510	2510	2510	2507	2507	2507	2507	2510	2510	2513	2513	2510	2507	2507	2504	2501	2498	2494	2491	2485	2482	2479	2476	2473	2469	2469	2469	2469	2469	2469	2473	2473	2476	2476	2476	2476	2476	2476	2479	2479	2479	2476	2479	2479	2482	2485	2488	2494	2498	2504	2513	2523	2536	2543	2552	2562	0	2569	2576	2576	2576	2572	2569	2559	2549	2543	2536	2533	2526	2520	2513	2510	2507	2504	2501	2498	2494	2494	2491	2491	2485	2485	2479	2473	2473	2473	2466	2466	2466	2463	2460	2457	2460	2457	2457	2457	2454	2454	2457	2460	2460	2463	2466	2469	2473	2476	2482	2485	2491	2482	2482	2482	2479	2476	2473	2469	2463	2460	2454	2448	2442	2439	2433	2433	2430	2430	2430	2430	2430	2430	2430	2433	2430	2430	2430	2430	2430	2430	2427	2424	2424	2424	2421	2421	2421	2421	2418	2418	2421	2421	2421	2421	2424	2424	2424	2427	0	0	0	0	0	0	0	0	0	0	0	1437	1445	1462	0	1483	1497	1501	1502	1505	1505	1507	1507	1506	1502	1500	1489	1483	1478	1471	1466	1459	1455	1449	1447	1446	1443	1442	1441	1440	1439	1437	1436	1434	1433	1432	1431	1429	1428	1428	1429	1429	1431	1433	1434	1435	1437	1440	1442	1444	1446	1448	1449	1453	1454	1455	1456	1458	1459	1461	1462	1464	1467	1469	1471	1473	1475	1478	1479	1482	1485	0	1494	1503	1512	1520	1531	1543	0	1556	1563	1567	1567	1569	1570	1570	1569	1567	1560	1557	1553	1551	1546	1542	1541	1539	1536	1534	1531	1529	1527	1524	1521	1515	1512	1507	1503	1500	1498	1494	1492	1490	1489	1488	1486	1484	1482	1479	1475	1469	1467	1463	1460	1457	1455	1454	1453	1452	1452	1453	1453	1455	1456	1457	1459	1460	1461	1463	1464	1466	1467	1468	1469	1471	1472	1472	1474	1475	1478	1479	1480	1481	1482	1483	1483	0	0	0	0	0	0	0	0	0	0	0	0	0	0	0	0	0	0	2457	2460	2460	2463	2463	2466	2466	2469	2469	2473	2476	2482	2485	2488	2494	2498	2504	2507	2510	2510	2510	2513	2510	2510	2507	2504	2501	2498	2494	2491	2491	2488	2488	2485	2485	2482	2479	2476	2476	2469	2466	2466	2457	2457	2454	2454	2454	2451	2454	2460	2463	2466	2476	2482	0	2491	2498	2504	2510	2517	2523	2530	2530	2530	2530	2530	2530	2526	2523	2513	2510	2507	2504	2501	2498	2494	2491	2491	2488	2485	2482	2482	2479	2476	2473	2469	2469	2469	2469	2469	2469	2469	2469	2469	2469	2466	2469	2466	2469	2466	2463	2463	2463	2463	2460	2460	2460	2463	2466	2469	2476	2485	2494	2504	2510	2520	2523	2526	2530	2533	2533	2533	2536	2536	2536	2536	2533	2536	2536	2533	2539	2539	2543	2546	2552	2559	2569	2572	2579	2582	2586	2586	2586	2582	2579	2569	2562	2559	2552	2543	2533	2526	2523	2523	2520	2520	2520	2517	2517	2517	2513	2517	2513	2517	2517	2517	2517	2517	2517	2520	2520	2520	2520	2523	2526	2533	2533	2539	2543	2549	2552	2559	2566	2566	2566	2569	2569	2572	2572	2569	2569	2566	2559	2552	2546	2539	2536	2530	2526	2523	2523	2523	2523	2530	2533	2530	2533	2530	2526	2523	2513	2494	2485
2530	2533	2533	2536	2539	2546	2546	2546	2546	2546	2546	2546	2543	2543	2539	2539	2543	2543	2543	2546	2552	2556	2559	2566	2566	2569	2569	2572	2566	2566	2566	2566	2562	2562	2562	2559	2552	2546	2543	2533	2526	2520	2513	2507	2501	2488	2482	2476	2469	2466	2463	2466	2466	2473	2479	2485	2494	2501	2507	2510	2510	2510	2513	2510	2507	2507	2504	2498	2494	2491	2485	2479	2476	2473	2469	2466	2463	2460	2457	2457	2454	2454	2454	2457	2460	0	2466	2469	2479	2491	2504	2520	2533	2552	2566	2579	2589	2596	2599	2599	2599	2596	2589	2582	2576	2569	2562	2559	2549	2533	2530	2523	2520	2517	2513	2510	2513	2513	2513	2517	2517	2517	2517	2520	2520	2517	2513	2510	2507	2504	2501	2498	2491	2488	2485	2479	2476	2473	2469	2466	2466	2466	2466	2463	2463	2466	2466	2469	2469	2473	2473	2473	2473	2473	2473	2473	2473	2473	2473	2479	2479	2485	2485	2491	2494	2501	2507	2517	2523	2533	2539	2546	2549	2552	2549	2549	2546	2539	2533	2523	2517	2510	2507	2504	2498	2494	2491	2491	2488	2488	2488	2485	2485	2482	2482	2482	2476	2476	2469	2466	2463	2460	2457	2457	2451	2454	2451	2451	2448	2448	2445	2445	2445	2448	2451	2454	2454	2457	2463	2457	2460	2466	2469	2469	2473	2473	2473	2469	2466	2463	2460	2454	2448	2445	2439	2433	2427	2427	2424	2421	2424	2421	2424	2424	2424	2424	2424	2424	2427	2424	2424	2427	2427	2424	2424	2421	2421	2421	2421	2418	2418	2418	2418	2418	2418	2418	2421	2421	2421	2424	2424	0	0	0	0	0	0	0	0	1412	0	0	0	1434	1457	0	1480	1495	1500	1502	1503	1503	1506	1507	1506	1502	1500	1489	1483	1478	1471	1466	1459	1455	1450	1448	1447	1446	1444	1443	1442	1441	1439	1438	1436	1434	1432	1432	1431	1429	1429	1429	1429	1431	1432	1434	1436	1438	1441	1443	1445	1447	1449	1452	1454	1455	1456	1458	1459	1461	1462	1464	1467	1469	1471	1473	1475	1478	1480	1481	1483	0	1488	1497	1503	1512	1520	1529	1540	1549	0	1557	1558	1559	1559	1562	1562	1559	1557	1554	1553	1551	1548	1545	1542	1539	1537	1535	1533	1530	1528	1526	1524	1522	1515	1512	1508	1505	1502	1499	1495	1493	1492	1491	1489	1486	1485	1483	1480	1476	1470	1468	1463	1461	1458	1456	1455	1454	1453	1453	1454	1455	1456	1457	1459	1460	1461	1463	1464	1466	1467	1468	1469	1470	1471	1472	1473	1475	1476	1478	1479	1480	1480	1481	1482	1483	0	0	0	0	0	0	0	0	0	0	0	0	0	0	0	0	0	0	2460	2460	2460	2460	2460	2463	2466	2466	2469	2469	2476	2476	2482	2488	2491	2498	2501	2504	2510	2510	2510	2510	2507	2507	2504	2501	2498	2494	2494	2491	2488	2485	2485	2485	2482	2479	2476	2476	2473	2469	2466	2463	2454	2451	2451	2448	2448	2451	2451	2454	2457	2460	2469	2476	2482	2485	0	2491	2498	2501	2510	2513	2517	2520	2520	2523	2520	2523	2520	2517	2513	2510	2507	2504	2501	2498	2494	2491	2488	2488	2482	2482	2479	2476	2476	2473	2469	2473	2469	2469	2469	2473	2473	2473	2469	2469	2466	2466	2463	2463	2463	2460	2460	2457	2457	2457	2457	2460	2463	2466	2476	2485	2491	2501	2510	2517	2523	2526	2530	2530	2530	2530	2530	2530	2530	2526	2523	2523	2523	2520	2520	2523	2523	2530	2536	2539	2546	2552	2556	2562	2566	2569	2569	2569	2566	2559	2556	2549	2543	2533	2526	2523	2517	2517	2513	2513	2510	2510	2510	2510	2507	2507	2507	2504	2504	2507	2507	2507	2507	2510	2510	2510	2513	2520	2523	2526	2530	2536	2539	2539	2549	2556	2556	2556	2559	2559	2559	2559	2559	2559	2556	2552	2549	2543	2539	2536	2530	2530	2523	2523	2523	2523	2523	2526	2526	2526	2523	2520	2517	2491	2479	2466	2457
2520	2517	2520	2523	2526	2530	2530	2533	2533	2533	2536	2533	2533	2533	2530	2533	2533	2536	2539	2543	2546	2552	2559	2562	2566	2566	2566	2569	2566	2566	2562	2562	2562	2559	2556	2552	2546	2539	2533	2523	2517	2510	2504	2498	2485	2479	2476	2466	2460	2457	2454	2457	2457	2466	2473	2482	2491	2498	2504	2510	2513	2517	2517	2513	2510	2507	2504	2501	2498	2494	2488	2485	2479	2473	2469	2466	2463	2463	2457	2457	2457	2454	2454	2454	2457	2460	0	2466	2473	2485	2494	2507	2523	2539	2556	2566	2579	2582	2586	2589	2586	2579	2576	2569	2559	2552	2549	2543	2526	2520	2513	2510	2510	2507	2507	2507	2504	2510	2513	2517	2517	2517	2517	2517	2517	2517	2510	2507	2504	2498	2494	2491	2485	2482	2479	2476	2473	2469	2463	2463	2463	2463	2460	2460	2460	2460	2460	2463	2463	2463	2466	2466	2466	2466	2469	2469	2466	2469	2469	2473	2476	2479	2482	2482	2485	2491	2494	2501	2507	2513	2517	2523	2523	2526	2526	2520	2517	2510	2507	2498	2491	2488	2485	2479	2479	2476	2473	2473	2473	2476	2473	2473	2473	2476	2476	2473	2469	2469	2466	2460	2457	2457	2451	2448	2445	2445	2442	2442	2439	2436	2436	2436	2436	2439	2442	2436	2439	2445	2445	2451	2454	2457	2460	2463	2463	2463	2463	2463	2460	2454	2451	2445	2442	2436	2430	2424	2421	2418	2415	2418	2415	2418	2415	2415	2418	2418	2421	2421	2421	2421	2424	2424	2424	2424	2424	2424	2421	2421	2418	2418	2418	2418	2418	2421	2421	2421	2421	2421	2421	2424	0	0	0	0	0	0	0	0	1393	1397	1403	1412	0	0	0	0	0	1492	1498	1501	1501	1503	1505	1506	1503	1501	1499	1489	1483	1478	1471	1466	1460	1456	1452	1449	1448	1448	1447	1445	1444	1443	1442	1440	1437	1435	1434	1433	1431	1429	1428	1429	1429	1431	1432	1434	1436	1439	1441	1444	1446	1448	1450	1453	1455	1456	1458	1459	1461	1463	1464	1467	1470	1472	1474	1476	1479	0	1481	1482	1483	1485	1490	1498	1506	1513	1520	1528	1536	1545	1551	1553	1552	1553	1553	1554	1553	1552	1551	1549	1548	1547	1545	1542	1540	1537	1535	1534	1531	1529	1527	1526	1523	1521	1518	1513	1509	1506	1503	1501	1498	1495	1493	1492	1490	1489	1486	1484	1481	1478	1471	1468	1464	1462	1459	1457	1456	1455	1455	1455	1455	1456	1458	1459	1460	1462	1462	1464	1466	1467	1468	1469	1470	1471	1472	1473	1474	1475	1476	1478	1479	1480	1480	1481	1482	1483	0	0	0	0	0	0	0	0	0	0	0	0	0	0	0	0	0	0	2463	2460	2463	2460	2460	2463	2463	2466	2466	2469	2473	2476	2482	2485	2488	2494	2501	2501	2501	2501	2501	2504	2504	2504	2501	2498	2498	2494	2491	2488	2488	2485	2485	2482	2482	2479	2476	2476	2469	2466	2463	2460	2454	2448	2445	2445	2445	2445	2445	2448	2451	2454	2460	2466	2469	2476	2482	2485	2488	0	2498	2501	2504	2507	2510	2513	2513	2513	2513	2510	2507	2507	2504	2501	2501	2498	2491	2488	2488	2485	2485	2482	2479	2476	2476	2473	2473	2473	2469	2469	2473	2473	2473	2473	2469	2466	2463	2463	2463	2460	2457	2454	2454	2454	2454	2454	2457	2460	2463	2469	2479	2488	2494	2504	2510	2517	2523	2523	2526	2526	2526	2523	2526	2523	2520	2520	2513	2510	2510	2507	2507	2510	2507	2510	2517	2523	2526	2536	2539	2543	2546	2552	2552	2552	2549	2549	2546	2539	2530	2523	2517	2513	2510	2507	2504	2504	2501	2501	2501	2498	2498	2498	2494	2494	2494	2494	2494	2494	2498	2498	2504	2507	2507	2513	2517	2523	2526	2533	2533	2539	2546	2546	2549	2552	2552	2552	2552	2552	2549	2546	2546	2543	2539	2536	2530	2526	2523	2523	2520	2520	2520	2520	2520	2520	2517	2517	2510	2507	2491	2479	2460	2448	2436
2510	2507	2510	2510	2513	2513	2513	2513	2520	2523	2523	2523	2523	2523	2526	2526	2530	2533	2536	2539	2546	2549	2556	2562	2562	2562	2566	2562	2562	2559	2556	2556	2552	2552	2546	2543	2536	2530	2523	2517	2507	2501	2494	2482	2476	2473	2466	2460	2454	2451	2448	2448	2451	2460	2469	2479	2488	2498	2507	2510	2513	2517	2517	2513	2510	2510	2507	2504	2501	2498	2491	2485	2479	2476	2469	2466	2463	2460	2457	2454	2454	2451	2451	2451	2454	2457	2463	0	2469	2479	2488	2501	2517	2530	2546	2556	2562	2569	2572	2572	2572	2566	2559	2552	2546	2539	2526	2523	2517	2510	2504	2501	2494	2494	2494	2494	2494	2498	2501	2501	2504	2504	2507	2507	2507	2507	2501	2498	2491	2491	2485	2482	2476	2473	2469	2469	2466	2460	2460	2457	2457	2457	2457	2454	2454	2454	2454	2457	2457	2457	2457	2457	2460	2460	2463	2463	2463	2463	2466	2469	2473	2473	2476	2476	2476	2479	2482	2485	2488	2491	2494	2498	2501	2501	2498	2491	2488	2485	2479	2476	2469	2466	2463	2460	2460	2457	2457	2460	2460	2460	2460	2463	2466	2466	2469	2466	2463	2463	2460	2457	2451	2448	2445	2442	2439	2436	2433	2433	2430	2430	2421	2421	2421	2424	2427	2433	2433	2436	2442	2442	2448	2451	2454	2454	2457	2457	2457	2451	2451	2445	2442	2439	2433	2430	2424	2418	2415	2415	2412	2412	2412	2412	2415	2415	2415	2415	2418	2421	2421	2421	2421	2424	2424	2424	2424	2421	2421	2421	2421	2421	2421	2421	2421	2424	2424	2424	2424	2424	2427	0	0	0	0	0	0	0	0	0	0	1389	1394	0	0	0	0	0	0	0	1494	1498	1499	1501	1503	1505	1502	1500	1498	1488	1482	1478	1471	1466	1460	1457	1453	1452	1450	1449	1449	1448	1448	1445	1443	1441	1439	1437	1434	1433	1431	1429	1428	1428	1428	1429	1432	1433	1436	1439	1442	1445	1447	1449	1452	1454	1456	1458	1459	1461	1463	1466	1468	1470	1472	1475	0	1478	1479	1482	1483	1485	1486	1488	1492	1500	1507	1514	1520	1527	1534	1541	1547	1549	1548	1548	1548	1549	1548	1548	1547	1546	1545	1543	1542	1541	1537	1536	1534	1531	1529	1528	1526	1524	1523	1521	1518	1513	1510	1508	1506	1502	1500	1498	1495	1493	1492	1490	1488	1485	1482	1479	1475	1469	1466	1463	1460	1459	1457	1457	1457	1457	1457	1458	1459	1460	1462	1463	1464	1466	1467	1468	1468	1469	1470	1471	1472	1473	1474	1475	1476	1478	1479	1480	1480	1481	1481	1481	0	0	0	0	0	0	0	0	0	0	0	0	0	0	0	0	0	2466	2466	2466	2463	2463	2463	2463	2463	2463	2466	2469	2469	2476	2479	2485	2485	2488	2491	2494	2494	2498	2498	2498	2498	2498	2494	2494	2494	2491	2491	2488	2488	2485	2485	2485	2482	2479	2476	2473	2469	2466	2463	2451	2451	2448	2445	2442	2442	2442	2442	2442	2445	2448	2454	2457	2463	2466	2469	2476	2479	2485	2488	2491	2498	2498	2501	2504	2507	2507	2507	2507	2504	2504	2501	2498	2494	2491	2488	2488	2485	2482	2479	2479	2476	2476	2476	2473	2473	2469	2469	2469	2469	2469	2469	2466	2466	2463	2460	2460	2460	2460	2457	2457	2454	2454	2454	2457	2457	2460	2466	2473	2482	2491	2501	2507	2513	2517	2520	2523	2523	2523	2520	2520	2517	2517	2513	2510	2507	2504	2501	2498	2498	2498	2498	2501	2501	2507	2513	2517	2520	2526	2530	2533	2536	2536	2536	2536	2533	2526	2520	2517	2507	2504	2501	2498	2494	2494	2491	2491	2491	2488	2488	2485	2485	2482	2482	2485	2485	2488	2488	2491	2494	2501	2504	2510	2517	2520	2523	2526	2530	2533	2536	2539	2539	2539	2539	2539	2539	2539	2539	2536	2533	2530	2526	2523	2520	2517	2513	2510	2510	2510	2510	2510	2510	2510	2507	2504	2501	2485	2469	2460	2442	2433	2421
2501	2501	2498	2501	2501	2501	2504	2504	2507	2510	2513	2513	2517	2520	2520	2523	2523	2526	2530	2536	2539	2546	2552	2556	2559	2559	2559	2559	2556	2552	2549	2546	2543	2539	2536	2530	2523	2517	2510	2504	2498	2482	2479	2473	2469	2463	2457	2451	2448	2445	2442	2442	2448	2454	2463	2476	2485	2498	2504	2510	2513	2517	2517	2517	2513	2510	2507	2504	2501	2498	2494	2485	2479	2473	2466	2463	2460	2457	2454	2451	2454	2451	2451	2448	2454	2457	2460	2466	0	2473	2482	2491	2507	2520	2530	2539	2546	2552	2552	2552	2549	2546	2539	2533	2526	2513	2510	2504	2498	2491	2485	2482	2482	2479	2482	2479	2482	2482	2485	2485	2485	2488	2491	2494	2491	2491	2488	2485	2482	2479	2476	2469	2466	2466	2463	2460	2457	2457	2454	2451	2451	2451	2451	2451	2448	2448	2448	2451	2451	2451	2451	2451	2454	2454	2457	2457	2460	2460	2463	2466	2466	2469	2469	2469	2469	2469	2469	2473	2473	2473	2476	2476	2476	2476	2473	2469	2466	2463	2457	2454	2451	2451	2448	2448	2445	2445	2445	2448	2451	2451	2454	2460	2460	2463	2463	2463	2460	2457	2454	2451	2448	2445	2439	2436	2433	2427	2424	2421	2418	2421	2418	2418	2421	2421	2424	2427	2430	2433	2436	2439	2442	2442	2445	2448	2448	2448	2448	2445	2442	2439	2436	2433	2427	2421	2418	2415	2415	2415	2415	2415	2415	2415	2418	2418	2418	2421	2421	2424	2424	2424	2424	2424	2424	2424	2424	2424	2424	2424	2424	2424	2424	2424	2427	2427	2427	2427	2430	2427	0	0	0	0	0	0	0	0	0	0	0	0	1389	0	0	0	0	0	0	0	1492	1497	1497	1499	1501	1503	1501	1499	1497	1488	1482	1476	1471	1466	1461	1458	1454	1453	1452	1450	1450	1450	1449	1448	1445	1443	1440	1438	1435	1433	1431	1429	1428	1428	1428	1431	1432	1434	1437	1440	1442	1446	1448	1450	1454	1456	1458	1459	1461	1463	1466	1468	1470	1472	1475	0	1478	1480	1482	1484	1486	1488	1489	1491	1494	1502	1509	1516	1522	1529	1535	1541	1546	1547	1546	1546	1546	1546	1546	1545	1545	1543	1543	1542	1541	1539	1536	1535	1533	1530	1528	1527	1526	1523	1522	1521	1518	1514	1512	1509	1507	1505	1502	1500	1498	1495	1494	1492	1490	1486	1484	1481	1478	1471	1468	1464	1462	1461	1459	1459	1458	1459	1460	1460	1461	1462	1463	1464	1464	1466	1467	1467	1468	1469	1470	1471	1472	1473	1474	1475	1476	1478	1479	1479	1480	1481	1481	1481	0	0	0	0	0	0	0	0	0	0	0	0	0	0	0	0	0	2469	2466	2469	2466	2463	2463	2463	2463	2463	2463	2463	2466	2473	2479	2482	2482	2485	2488	2491	2491	2494	2494	2491	2491	2491	2491	2491	2491	2491	2488	2488	2488	2488	2488	2485	2482	2482	2476	2473	2469	2463	2460	2451	2448	2445	2442	2439	2439	2439	2439	2439	2442	2445	2448	2454	2454	2457	2460	2463	2463	2469	2473	2476	2479	2482	2485	2485	2488	2491	2494	2491	2494	2494	2491	2491	2488	2485	2485	2479	2479	2479	2476	2473	2473	2473	2473	2473	2469	2469	2469	2466	2466	2466	2463	2463	2460	2460	2457	2457	2457	2457	2454	2454	2454	2457	2457	2460	2463	2466	2473	2479	2488	2494	2504	2507	2510	2517	2517	2520	2520	2517	2517	2513	2510	2510	2507	2501	2498	2494	2491	2488	2485	2488	2488	2491	2494	0	2501	2504	2507	2510	2513	2517	2520	2523	2520	2520	2517	2513	2510	2504	2498	2494	2491	2488	2488	2485	2485	2482	2482	2479	2479	2476	2476	2476	2479	2476	2479	2479	2485	2485	2491	2498	2501	2507	2513	2517	2520	2523	2526	2530	2530	2530	2530	2526	2526	2520	2520	2517	2517	2513	2510	2510	2504	2501	2501	2498	2498	2501	2498	2498	2498	2498	2498	2498	2494	2491	2479	2469	2454	2442	2427	2418	2406
2498	2494	2491	2494	2494	2494	2498	2501	2504	2507	2507	2513	2513	2517	2520	2523	2523	2523	2530	2533	2536	2543	2549	2549	2552	2556	2552	2552	2546	2543	2536	2533	2530	2523	2520	2513	2507	2504	2498	2491	2479	2476	2469	2466	2460	2454	2451	2445	2439	2439	2436	2439	2442	2451	2460	2473	2485	2494	2507	2510	2513	2517	2517	2513	2510	2510	2507	2504	2501	2498	2491	2485	2479	2469	2466	2463	2460	2457	2454	2451	2451	2448	2448	2448	2451	2451	2454	2457	2466	0	2476	2485	2494	2504	2517	2520	2526	2530	2533	2533	2533	2526	2513	2510	2504	2498	2491	2485	2479	2473	2466	2463	2460	2460	2463	2463	2463	2463	2469	2473	2473	2476	2479	2479	2479	2476	2473	2469	2469	2466	2466	2460	2460	2457	2454	2451	2451	2448	2448	2448	2445	2445	2445	2442	2445	2442	2442	2445	2448	2445	2445	2445	2448	2451	2451	2454	2454	2454	2457	2460	2463	2466	2466	2463	2466	2463	2463	2460	2460	2457	2457	2457	2457	2454	2451	2448	2448	2445	2442	2439	2436	2436	2433	2433	2436	2436	2436	2439	2442	2445	2451	2454	2457	2457	2457	2457	2454	2454	2448	2445	2439	2436	2430	2427	2427	2424	2421	2421	2421	2421	2418	2418	2421	2421	2424	2427	2430	2430	2433	2433	2436	2439	2442	2442	2442	2442	2442	2439	2436	2433	2430	2427	2424	2421	2418	2415	2415	2415	2415	2415	2418	2418	2418	2421	2421	2421	2424	2424	2424	2424	2424	2424	2424	2424	2424	2424	2424	2427	2427	2427	2427	2430	2430	2433	2433	2433	2433	2433	0	0	0	0	0	0	0	0	0	0	0	0	1383	0	0	0	0	0	0	1489	1493	1497	1498	1499	1501	1502	1500	1497	1494	1486	1482	1476	1472	1468	1462	1459	1456	1454	1453	1453	1452	1452	1450	1449	1446	1444	1441	1439	1436	1435	1432	1431	1429	1429	1429	1432	1433	1435	1438	1441	1444	1448	1450	1453	1455	1458	1459	1461	1463	1466	1468	1470	1472	0	1475	1478	1480	1482	1484	1486	1489	1490	1492	1493	1497	1503	1510	1516	1523	1529	1534	1540	1543	1545	1543	1543	1543	1545	1543	1543	1543	1543	1542	1542	1541	1539	1536	1534	1531	1529	1528	1526	1524	1523	1522	1520	1518	1515	1513	1510	1509	1506	1503	1502	1499	1498	1497	1493	1491	1488	1485	1482	1479	1475	1470	1467	1464	1463	1461	1461	1461	1461	1462	1462	1463	1463	1464	1466	1466	1467	1467	1468	1469	1470	1470	1471	1473	1473	1474	1475	1476	1478	1479	1480	1479	1480	1481	1481	0	0	0	0	0	0	0	0	0	0	0	0	0	0	0	0	0	2473	2473	2466	2466	2466	2463	2463	2463	2460	2460	2460	2466	2469	2473	2476	2479	2482	2485	2485	2485	2488	2488	2488	2488	2488	2488	2491	2488	2488	2488	2488	2488	2488	2488	2485	2482	2482	2479	2473	2469	2463	2457	2448	2445	2442	2442	2439	2436	2436	2436	2436	2439	2442	2442	2445	2448	2448	2451	2451	2454	2457	2460	2460	2463	2466	2469	2473	2473	2476	2479	2482	2479	2479	2479	2479	2479	2476	2476	2469	2469	2466	2469	2469	2466	2466	2466	2466	2466	2466	2463	2463	2460	2460	2460	2457	2454	2454	2454	2454	2454	2454	2454	2454	2454	2457	2460	2463	2466	2473	2476	2482	2488	2498	2501	2507	2513	2513	2513	2517	2517	2513	2510	2507	2507	2501	2501	2494	2491	2488	2482	2479	2479	2479	2479	2479	2485	2488	2491	2491	2494	2498	2501	2501	2501	2504	2504	2501	2501	2501	2498	2491	2488	2485	2482	2479	2479	2476	2476	2476	2476	2473	2473	2469	2469	2469	2469	2473	2476	2479	2482	2488	2491	2498	2501	2507	2513	2517	2520	2523	2523	2526	2526	2523	2523	2517	2513	2510	2504	2498	2494	2491	2491	2488	2482	2482	2479	2479	2482	2482	2485	2485	2485	2485	2485	2485	2479	2473	2466	2454	2442	2430	2415	2406	2398
2491	2488	2488	2488	2488	2491	2491	2494	2501	2504	2507	2510	2513	2517	2517	2520	2523	2523	2526	2533	2533	2536	2539	2543	2546	2546	2546	2543	2539	2533	2533	2526	2523	2517	2510	2504	2501	2491	2488	2482	2469	2466	2463	2457	2454	2448	2445	2442	2439	2436	2433	2436	2442	2451	2460	2473	2485	2498	2507	2510	2513	2513	2517	2513	2510	2510	2507	2504	2498	2491	2488	2482	2473	2469	2463	2460	2457	2454	2454	2451	2448	2448	2451	2448	2448	2448	2451	2454	2460	2466	2476	0	2482	2491	2498	2504	2510	2510	2513	2513	2507	2501	2498	2488	2485	2479	2473	2466	2463	2454	2451	2448	2445	2445	2445	2448	2448	2448	2454	2457	2460	2463	2463	2463	2466	2463	2457	2457	2454	2454	2451	2451	2445	2448	2445	2445	2442	2442	2442	2439	2439	2439	2439	2436	2439	2439	2439	2439	2439	2439	2442	2442	2442	2445	2445	2451	2451	2454	2454	2457	2460	2463	2460	2460	2460	2457	2454	2454	2451	2448	2445	2442	2442	2439	2436	2433	2430	2430	2427	2424	2424	2424	2424	2424	2424	2427	2430	2433	2436	2439	2445	2448	2451	2454	2454	2448	2448	2445	2445	2439	2433	2433	2430	2427	2424	2424	2421	2421	2421	2418	2418	2421	2421	2424	2427	2430	2430	2433	2433	2433	2433	2436	2436	2436	2436	2436	2436	2433	2430	2430	2427	2427	2424	2424	2421	2418	2418	2421	2418	2421	2421	2421	2421	2421	2424	2421	2421	2421	2421	2421	2418	2421	2421	2421	2421	2421	2424	2427	2430	2430	2433	2436	2439	2442	2442	2442	2442	2442	0	0	0	0	0	0	0	0	0	0	0	1378	1382	0	0	1431	0	0	1478	1494	1498	1499	1499	1499	1500	1500	1499	1495	1493	1486	1482	1478	1473	1469	1464	1461	1458	1456	1455	1455	1454	1453	1453	1452	1450	1446	1442	1440	1437	1436	1433	1432	1429	1429	1431	1432	1434	1436	1439	1443	1446	1449	1453	1454	1456	1459	1461	1463	1466	1468	1470	1472	0	1474	1478	1480	1482	1483	1485	1488	1490	1491	1493	1495	1499	1506	1512	1518	1523	1529	1535	1540	1543	1545	1543	1543	1545	1545	1545	1543	1543	1545	1543	1542	1541	1539	1536	1534	1533	1529	1527	1526	1524	1523	1522	1521	1518	1515	1513	1512	1509	1507	1505	1502	1501	1499	1497	1495	1492	1490	1486	1483	1480	1476	1472	1470	1468	1466	1464	1464	1464	1464	1464	1464	1466	1466	1467	1467	1468	1468	1469	1469	1470	1471	1471	1472	1473	1474	1475	1476	1478	1478	1479	1480	1480	1480	1480	1481	0	0	0	0	0	0	0	0	0	0	0	0	0	0	0	0	2476	2476	2473	2469	2469	2466	2463	2463	2460	2460	2460	2463	2466	2469	2473	2479	2482	2485	2485	2485	2485	2485	2485	2485	2485	2485	2485	2485	2488	2485	2485	2485	2485	2485	2488	2485	2482	2482	2476	2473	2466	2463	2457	2448	2445	2442	2439	2439	2436	2436	2433	2436	2436	2439	2439	2439	2439	2439	2442	2442	2442	2445	2448	2448	2451	2454	2457	2460	2460	2466	2469	2469	2466	2466	2463	2460	2457	2457	2454	2451	2451	2451	2454	2457	2460	2460	2463	2463	2463	2463	2460	2460	2457	2457	2454	2454	2451	2448	2448	2451	2451	2454	2454	2457	2457	2460	2466	2469	2473	2479	2482	2488	2494	2501	2504	2507	2510	2513	2513	2513	2513	2510	2507	2504	2504	2498	2494	2491	2488	2482	2476	2476	2473	2473	2473	2473	2476	2476	2479	2479	2482	2482	2485	2485	2485	2485	2485	2488	2488	2485	2485	2482	2479	2476	2476	2473	2473	2469	2469	2469	2469	2469	2469	2466	2466	2466	2466	2473	2473	2476	2479	2488	2491	2498	2501	2507	2513	2517	2520	2520	2523	2523	2520	2520	2513	2510	2504	2498	2491	2485	2482	2476	2473	2469	2466	2463	2463	2463	2466	2466	2469	2469	2469	2469	2469	2469	2463	2457	2454	2445	2430	2418	2409	2398	2392
2488	2485	2485	2485	2488	2488	2491	2494	2501	2504	2507	2510	2513	2517	2517	2520	2523	2523	2526	2526	2530	2533	2533	2533	2536	2536	2536	2533	2533	2530	2526	2523	2517	2513	2507	2501	2494	2488	2482	2473	2466	2460	2454	2451	2448	2445	2442	2436	2433	2433	2433	2439	2442	2451	2460	2473	2482	2494	2504	2507	2510	2513	2513	2510	2510	2507	2504	2498	2494	2488	2482	2479	2469	2463	2460	2457	2451	2451	2451	2448	2445	2448	2445	2445	2445	2445	2448	2451	2454	2460	2466	2473	2479	2482	2488	2491	2494	2494	2494	2491	2488	2485	2476	2473	2469	2460	2457	2454	2448	2442	2436	2436	2433	2430	2433	2436	2436	2439	2442	2448	2448	2451	2451	2451	2451	2451	2448	2445	2442	2445	2442	2439	2439	2439	2439	2436	2436	2436	2436	2433	2433	2433	2433	2433	2433	2433	2433	2433	2436	2436	2436	2436	2439	2442	2445	2448	2448	2451	2454	2457	2460	2460	2460	2460	2457	2457	2454	2448	2448	2442	2439	2436	2433	2430	2427	2424	2421	2418	2415	2412	2412	2412	2415	2415	2415	2418	2424	2427	2430	2433	2439	2439	2442	2445	2445	2442	2442	2442	2436	2436	2430	2427	2427	2424	2424	2421	2421	2421	2421	2421	2424	2424	2427	2430	2430	2433	2433	2433	2433	2433	2436	2433	2433	2433	2433	2433	2430	2430	2430	2427	2424	2427	2424	2424	2421	2421	2421	2421	2421	2421	2421	2418	2418	2421	2418	2418	2415	2415	2415	2415	2412	2412	2415	2415	2418	2418	2424	2427	2433	2436	2442	2442	2448	2451	2451	2451	2451	2448	0	0	0	0	0	0	0	0	0	0	1412	1415	1416	0	0	1456	1476	0	1490	1501	1500	1499	1499	1499	1499	1499	1497	1494	1492	1485	1482	1478	1473	1470	1467	1463	1460	1458	1457	1456	1456	1455	1454	1453	1452	1447	1443	1441	1438	1437	1434	1433	1431	1431	1432	1434	1436	1438	1441	1444	1447	1450	1454	1456	1458	1460	1462	1464	1467	1469	0	1472	1474	1476	1479	1481	1483	1485	1486	1489	1490	1492	1494	1497	1501	1507	1514	1520	1524	1531	1536	1541	1545	1546	1546	1546	1546	1547	1547	1547	1546	1547	1546	1545	1542	1541	1537	1536	1533	1531	1529	1527	1524	1523	1522	1521	1518	1517	1514	1513	1510	1509	1507	1506	1503	1501	1499	1497	1494	1491	1489	1484	1481	1479	1476	1472	1470	1469	1469	1468	1467	1468	1468	1467	1468	1468	1468	1469	1469	1470	1470	1470	1471	1472	1473	1474	1475	1475	1476	1478	1479	1480	1480	1480	1480	1481	1481	1481	0	0	0	0	0	0	0	0	0	0	0	0	0	0	2485	2482	2479	2479	2476	2476	2469	2469	2466	2463	2460	2460	2460	2463	2469	2469	2476	2479	2482	2482	2485	2485	2485	2482	2485	2485	2482	2482	2482	2482	2482	2482	2482	2482	2482	2482	2485	2485	2482	2479	2476	2473	2466	2460	2454	2445	2442	2439	2436	2436	2433	2433	2433	2430	2430	2430	2433	2433	2433	2433	2436	2433	2433	2436	2439	2439	2442	2445	2445	2448	2451	2454	2457	2454	2454	2451	2445	2442	2439	2436	2436	2433	2433	2433	2439	2445	2451	2454	2454	2454	2457	2457	2457	2457	2454	2454	2448	2448	2448	2445	2445	2448	2448	2451	2454	2457	2460	2466	2469	2476	2479	2485	2488	2491	2498	2504	2507	2510	2510	2510	2510	2510	2510	2507	2504	2501	2498	2498	2491	2488	2488	2479	2473	2473	2473	2469	2469	2466	2466	2469	2469	2469	2469	2469	2469	2469	2473	2473	2473	2476	2476	2476	2473	2473	2473	2469	2469	2466	2466	2463	2466	2466	2466	2466	2463	2463	2463	2463	2466	2469	2469	2476	2479	2485	2491	2501	2507	2510	2517	2520	2520	2520	2523	2520	2517	2513	2507	2501	2494	2491	2482	2476	2466	2463	2460	2457	2451	2451	2448	2451	2451	2454	2460	2460	2460	2460	2460	2457	2454	2448	2442	2430	2418	2409	2398	2392	2389
2485	2485	2482	2485	2485	2485	2488	2491	2498	2504	2507	2510	2510	2517	2517	2517	2520	2520	2523	2523	2523	2526	2526	2526	2526	2526	2526	2526	2526	2523	2517	2517	2510	2504	2498	2491	2485	2479	2469	2466	2460	2457	2451	2448	2445	2445	2442	2439	2436	2436	2436	2439	2445	2454	2463	2473	2482	2494	2501	2507	2510	2510	2510	2507	2507	2504	2501	2494	2488	2485	2479	2473	2466	2463	2457	2451	2448	2445	2445	2445	2442	2442	2445	2442	2442	2445	2445	2445	2448	2454	2457	2460	2466	2469	2473	2476	2479	2479	2479	2476	2476	2469	2466	2463	2457	2451	2448	2445	2445	2436	2430	2430	2427	2424	2427	2430	2427	2430	2436	2439	2442	2445	2445	2445	2442	2442	2439	2439	2439	2436	2433	2433	2433	2430	2430	2430	2427	2430	2430	2430	2430	2430	2430	2427	2427	2427	2430	2430	2430	2433	2433	2433	2436	2439	2442	2445	2448	2451	2454	2457	2460	2463	2463	2463	2460	2457	2454	2451	2445	2442	2436	2433	2427	2424	2421	2415	2412	2406	2406	2406	2406	2406	2406	2409	2409	2412	2415	2421	2424	2427	2433	2436	2439	2439	2439	2439	2439	2436	2433	2430	2430	2427	2424	2424	2424	2424	2421	2424	2424	2424	2427	2430	2433	2433	2433	2436	2436	2436	2436	2433	2433	2430	2430	2430	2427	2427	2427	2427	2427	2424	2427	2424	2424	2427	2424	2424	2424	2421	2421	2421	2421	2418	2418	2415	2415	2412	2409	2406	2406	2406	2403	2403	2406	2409	2412	2415	2421	2427	2433	2442	2445	2451	2454	2460	2460	2457	2460	2457	0	0	0	0	0	0	0	0	0	0	0	0	0	0	0	0	0	0	0	1505	1502	0	1499	1499	1499	1498	1495	1492	1490	1484	1481	1478	1474	1471	1468	1464	1462	1460	1459	1459	1457	1457	1456	1454	1453	1450	1445	1443	1440	1438	1435	1434	1433	1433	1434	1435	1437	1440	1444	1445	1449	1453	1456	1458	1460	1461	1464	1467	0	1469	1471	1473	1475	1478	1480	1482	1484	1486	1488	1489	1491	1492	1495	1498	1502	1508	1514	1521	1527	1533	1537	1543	1547	1548	1547	1548	1549	1549	1549	1549	1549	1549	1548	1547	1546	1543	1541	1537	1536	1533	1530	1528	1526	1524	1522	1521	1520	1518	1514	1513	1512	1510	1508	1507	1505	1503	1500	1499	1495	1492	1490	1486	1483	1480	1478	1478	1473	1472	1471	1470	1471	1471	1471	1470	1470	1470	1470	1471	1471	1472	1472	1473	1473	1474	1475	1476	1478	1479	1479	1480	1480	1480	1482	1482	1481	1481	0	0	0	0	0	0	0	0	0	0	0	0	0	0	0	2482	2482	2482	2479	2479	2479	2476	2473	2469	2466	2466	2463	2460	2463	2463	2466	2473	2476	2479	2485	2485	2485	2485	2485	2485	2485	2482	2479	2479	2479	2479	2479	2479	2479	2476	2479	2482	2482	2482	2482	2479	2476	2473	2466	2460	2457	2445	2442	2439	2436	2436	2433	2433	2430	2430	2430	2430	2430	2430	2430	2430	2430	2427	2427	2430	2430	2433	2433	2433	2436	2439	2439	2442	2442	2442	2439	2433	2427	2421	2415	2412	2409	2409	2409	2415	2424	2433	2439	2445	2448	2451	2451	2451	2454	2454	2451	2448	2445	2445	2442	2445	2442	2445	2448	2451	2454	2457	2463	2469	2476	2482	2485	2491	2494	2498	2504	2507	2510	2510	2510	2510	2510	2510	2507	2504	2501	2501	2501	2498	2494	2494	2491	2485	2479	2476	2476	2473	2469	2469	2469	2469	2466	2466	2463	2460	2460	2460	2460	2463	2463	2463	2466	2466	2466	2466	2466	2466	2463	2463	2460	2460	2463	2466	2463	2466	2466	2463	2463	2469	2469	2469	2473	2476	2482	2488	2498	2501	2510	2513	2517	2520	2520	2520	2520	2517	2517	2510	2504	2498	2488	2482	2476	2466	2460	2454	2445	2442	2442	2442	2442	2442	2445	2448	2451	2451	2451	2454	2451	2451	2445	2442	2436	2424	2412	2406	2398	2392	2389
2485	2482	2482	2479	2482	2485	2488	2491	2494	2501	2507	2510	2513	2513	2517	2520	2520	2520	2520	2520	2520	2517	2517	2517	2513	2513	2513	2513	2513	2510	2507	2504	2504	2498	2491	2485	2479	2466	2463	2460	2454	2451	2451	2448	2445	2445	2442	2442	2439	2439	2442	2442	2451	2457	2466	2476	2485	2494	2504	2507	2510	2510	2510	2507	2507	2501	2501	2498	2488	2482	2476	2469	2463	2454	2451	2445	2442	2442	2442	2442	2439	2439	2442	2439	2442	2442	2442	2445	2448	2448	2451	2454	2457	2460	2463	2466	2466	2469	2469	2466	2463	2460	2457	2454	2451	2445	2445	2442	2439	2436	2433	2427	2427	2427	2427	2427	2427	2430	2433	2433	2436	2439	2436	2436	2433	2433	2433	2430	2430	2427	2430	2427	2427	2427	2427	2427	2424	2424	2427	2427	2427	2427	2427	2427	2424	2427	2427	2427	2430	2430	2430	2433	2433	2436	2439	2445	2445	2451	2454	2457	2460	2463	2466	2463	2463	2457	2454	2448	2445	2442	2436	2430	2424	2421	2409	2409	2403	2400	2398	2398	2398	2395	2398	2403	2406	2409	2415	2421	2424	2427	2433	2433	2436	2439	2439	2436	2433	2433	2430	2427	2427	2427	2424	2424	2424	2424	2421	2424	2424	2427	2430	2433	2433	2436	2439	2439	2439	2436	2433	2433	2430	2430	2430	2427	2427	2427	2427	2427	2427	2424	2424	2427	2427	2427	2424	2427	2424	2424	2421	2421	2418	2415	2412	2412	2409	2406	2403	2400	2398	2398	2395	2395	2398	2400	2403	2406	2415	2421	2430	2436	2445	2451	2454	2460	2460	2460	2460	2457	2460	2457	0	0	0	0	0	0	0	0	0	0	0	0	0	0	0	0	0	0	1506	1503	1501	1500	1499	1498	1494	1492	1486	1484	1481	1478	1475	1472	1470	1467	1464	1463	1462	1461	1460	1459	1457	1456	1454	1453	1446	1444	1442	1439	1438	1436	1435	1435	1436	1437	1440	1442	1444	1448	1452	1455	1457	1459	1460	1463	1466	0	1468	1470	1472	1474	1476	1479	1481	1483	1484	1486	1488	1489	1491	1493	1495	1499	1503	1509	1515	1521	1528	1534	1540	1546	1549	1551	1549	1551	1552	1552	1553	1553	1553	1553	1552	1551	1548	1546	1543	1541	1537	1535	1533	1530	1528	1526	1523	1522	1521	1518	1515	1514	1513	1512	1509	1508	1506	1505	1503	1501	1498	1495	1492	1489	1486	1483	1481	1480	1479	1476	1474	1474	1474	1473	1473	1473	1473	1473	1472	1473	1473	1473	1474	1474	1475	1476	1478	1480	1481	1480	1480	1482	1482	1483	1483	1483	1483	0	0	0	0	0	0	0	0	0	0	0	0	0	0	2479	2482	2482	2479	2479	2479	2479	2479	2476	2473	2469	2469	2466	2463	2460	2463	2466	2469	2473	2476	2482	2485	2485	2485	2485	2485	2485	2485	2482	2479	2479	2476	2476	2476	2476	2473	2473	2476	2476	2479	2479	2479	2476	2473	2469	2466	2460	2454	2445	2442	2439	2436	2433	2433	2430	2427	2427	2427	2427	2424	2424	2424	2424	2424	2424	2424	2424	2424	2427	2427	2424	2427	2430	2430	2430	2430	2427	2418	2415	2406	2400	2395	2389	2389	2392	2395	2398	2409	2415	2427	2436	2442	2445	2448	2448	2448	2451	2448	2448	2445	2442	2442	2442	2439	2445	2445	2451	2454	2460	2466	2473	2479	2485	2491	2494	2501	2504	2507	2510	2510	2510	2510	2507	2507	2507	2504	2501	2501	2501	2498	2498	2498	2494	2494	2491	2488	2488	2482	2479	2479	2476	2473	2473	2466	2463	2463	2457	2454	2454	2454	2454	2454	2454	2457	2460	2460	2460	2460	2463	2460	2460	2460	2460	2460	2463	2466	2466	2466	2466	2466	2469	2469	2473	2476	2479	2482	2491	2498	2501	2507	2513	2517	2520	2520	2520	2517	2517	2513	2507	2501	2491	2482	2476	2466	2457	2451	2442	2439	2436	2433	2436	2436	2439	2439	2442	2442	2445	2448	2448	2448	2445	2442	2436	2430	2421	2412	2409	2400	2400	2398
2482	2479	2476	2479	2479	2482	2485	2488	2494	2498	2504	2507	2510	2510	2513	2517	2520	2517	2517	2513	2513	2510	2507	2504	2501	2501	2498	2498	2494	2494	2491	2488	2485	2482	2482	2476	2473	2466	2460	2457	2454	2454	2451	2448	2451	2448	2448	2445	2445	2445	2445	2448	2454	2463	2469	2479	2488	2498	2504	2510	2513	2510	2510	2510	2507	2504	2501	2494	2488	2482	2476	2469	2460	2451	2445	2439	2436	2433	2436	2436	2433	2436	2436	2436	2439	2439	2442	2442	2442	2445	2448	2451	2451	2454	2457	2457	2460	2460	2457	2457	2454	2454	2451	2448	2448	2442	2442	2442	2439	2433	2433	2427	2424	2424	2427	2427	2427	2427	2430	2433	2433	2433	2433	2433	2430	2430	2430	2427	2427	2427	2424	2424	2424	2424	2424	2424	2424	2424	2424	2424	2424	2427	2427	2427	2427	2427	2430	2430	2430	2430	2433	2433	2433	2436	2439	2445	2445	2451	2454	2460	2463	2466	2466	2466	2466	2460	2457	2451	2445	2439	2436	2430	2421	2415	2409	2403	2398	2395	2392	2392	2395	2398	2400	2403	2409	2415	2418	2424	2427	2430	2430	2433	2433	2433	2433	2433	2433	2430	2427	2424	2424	2424	2421	2421	2421	2424	2421	2424	2427	2430	2433	2436	2439	2439	2442	2442	2439	2439	2436	2430	2430	2427	2424	2424	2421	2421	2421	2421	2421	2424	2421	2424	2424	2427	2427	2427	2424	2424	2421	2418	2415	2412	2409	2406	2403	2400	2395	2392	2389	2386	2386	2386	2386	2389	2392	2395	2406	2412	2421	2430	2439	2448	2454	2460	2460	2457	2457	2457	2457	2457	0	0	0	0	0	0	0	0	0	0	0	1509	1510	1510	1512	1513	1510	0	1509	1507	1503	1502	1500	1498	1494	1492	1486	1484	1482	1479	1476	1474	1472	1469	1468	1466	1464	1464	1462	1461	1460	1458	1456	1454	1448	1446	1443	1441	1440	1439	1437	1437	1438	1440	1442	1444	1447	1449	1453	1456	1459	1460	1462	1464	0	1467	1469	1471	1473	1475	1478	1480	1482	1483	1485	1486	1488	1489	1491	1493	1497	1499	1502	1509	1514	1521	1528	1534	1540	1546	1549	1551	1551	1553	1553	0	1556	1556	1556	1556	1554	1553	1552	1548	1547	1543	1541	1537	1535	1531	1529	1527	1526	1523	1521	1520	1518	1515	1513	1512	1510	1509	1508	1507	1505	1503	1501	1499	1494	1492	1489	1486	1484	1483	1481	1480	1479	1478	1476	0	1476	1475	1475	1475	1475	1475	1475	1476	1476	1478	1478	1479	1480	1482	1482	1483	1484	1485	1484	1485	1485	1485	0	0	0	0	0	0	0	0	0	0	0	0	0	0	2479	2479	2476	2479	2479	2479	2476	2476	2476	2473	2473	2469	2466	2463	2463	2463	2463	2466	2469	2473	2479	2482	2485	2485	2488	2485	2485	2485	2482	2482	2479	2476	2476	2473	2473	2469	2469	2469	2469	2473	2476	2476	2476	2476	2469	2469	2466	2460	2457	2445	2442	2439	2436	2433	2430	2427	2427	2424	2424	2421	2421	2421	2421	2421	2421	2421	2418	2418	2418	2418	2418	2418	2421	2418	2418	2418	2415	2409	2400	2392	2389	2380	2374	2372	2374	2374	2377	2383	2395	2400	2418	2427	2433	2439	2442	2445	2445	2448	2448	2445	2445	2442	2442	2439	2439	2442	2445	2448	2454	2457	2466	2473	2479	2485	2491	2494	2498	2501	2504	2507	2504	2507	2504	2507	2504	2501	2501	2498	2498	2498	2498	2498	2501	2501	2498	2498	2494	2494	2491	2485	2485	2482	2479	2473	2469	2463	2460	2454	2451	2448	2445	2445	2448	2451	2454	2454	2457	2457	2457	2457	2457	2460	2460	2463	2466	2466	2469	2469	2469	2469	2469	2469	2473	2473	2476	2479	2485	2491	2498	2504	2507	2513	2517	2520	2517	2520	2517	2513	2510	2504	2494	2488	2479	2469	2463	2454	2442	2436	2436	2433	2430	2430	2430	2433	2436	2436	2439	2442	2442	2442	2442	2442	2439	2436	2430	2427	2421	2412	2412	2409	2409
2473	2473	2473	2473	2476	2482	2485	2488	2491	2498	2504	2507	2510	2513	2513	2517	2517	2513	2510	2507	2504	2504	2498	2494	2491	2488	2485	2482	2479	2476	2476	2473	2469	2469	2463	2460	2460	2460	2457	2454	2451	2451	2451	2451	2448	2451	2451	2451	2448	2448	2448	2451	2457	2463	2473	2479	2488	2498	2504	2510	2510	2510	2510	2507	2507	2504	2501	2498	2488	2479	2476	2466	2460	2451	2442	2439	2430	2430	2433	2433	2430	2433	2433	2433	2436	2436	2436	2439	2439	2439	2442	2442	2445	2445	2448	2448	2448	2448	2448	2448	2448	2445	2445	2445	2442	2442	2442	2442	2439	2433	2433	2430	2427	2424	2427	2424	2427	2427	2430	2430	2430	2433	2433	2430	2430	2427	2427	2427	2424	2424	2424	2424	2424	2424	2424	2424	2424	2424	2424	2427	2427	2430	2430	2430	2433	2433	2433	2433	2433	2436	2436	2436	2439	2439	2439	2445	2445	2451	2457	2460	2466	2469	2473	2469	2469	2463	2460	2454	2448	2445	2439	2430	2424	2418	2403	2400	2398	2395	2392	2392	2395	2398	2403	2406	2412	2418	2424	2427	2430	2430	2430	2433	2433	2433	2433	2430	2430	2427	2424	2424	2424	2421	2421	2421	2421	2421	2421	2427	2430	2433	2436	2439	2442	2442	2442	2442	2439	2436	2433	2430	2427	2424	2418	2415	2415	2412	2415	2415	2418	2418	2421	2421	2424	2424	2424	2427	2424	2424	2418	2418	2412	2409	2403	2400	2398	2392	2386	2383	2380	2377	2377	2374	2377	2377	2383	2386	2395	2403	2412	2421	2430	2439	2442	2451	2454	2454	2454	2454	2454	2457	0	0	0	0	0	0	0	1492	1494	1497	1499	1502	1506	1508	1510	1514	1514	1514	1513	1509	1507	1503	1501	1498	1494	1491	1486	1484	1482	1480	1478	1476	1474	1472	1471	1469	1468	1467	1467	1464	1463	1460	1458	1456	1454	1448	1445	1443	1442	1441	1440	1439	1441	1442	1444	1447	1449	1453	1455	1458	1461	1463	1464	0	1467	1469	1471	1473	1475	1476	1479	1481	1482	1484	1485	1486	1488	1489	1490	1492	1495	1499	1502	1508	1514	1520	1527	1533	1539	1545	1548	1551	1551	1553	0	1556	1556	1557	1558	1557	1557	1556	1554	1552	1548	1546	1543	1541	1537	1534	1531	1529	1527	1524	1522	1521	1520	1515	1514	1513	1512	1512	1510	1509	1507	1506	1505	1502	1499	1495	1493	1490	1488	1486	1484	1483	1482	1482	1481	1480	1480	1478	1478	1478	1478	1478	1478	1479	1479	1480	1481	1481	1483	1484	1485	1486	1488	1486	1488	1488	1489	1489	0	0	0	0	0	0	0	0	0	0	0	0	0	0	2476	2476	2476	2476	2473	2476	2476	2473	2473	2473	2469	2469	2466	2463	2463	2463	2466	2469	2469	2476	2479	2482	2485	2488	2488	2485	2482	2482	2482	2479	2476	2473	2469	2469	2466	2466	2466	2463	2463	2466	2469	2473	2473	2473	2469	2466	2463	2460	2457	2451	2442	2439	2436	2433	2430	2427	2424	2424	2421	2421	2421	2421	2418	2418	2418	2418	2415	2418	2418	2418	2415	2415	2412	2415	2412	2406	2403	2395	2389	2380	2374	2363	2363	2363	2366	2369	0	2374	2383	2395	2403	2418	2427	2433	2439	2442	2445	2445	2445	2445	2442	2442	2439	2439	2442	2442	2442	2448	2451	2457	2463	2469	2476	2482	2488	2491	2491	2494	2498	2498	2498	2498	2498	2498	2498	2494	2494	2494	2494	2494	2498	2501	2501	2504	2504	2507	2504	2501	2498	2498	2491	2485	2479	2476	2469	2466	2460	2454	2448	2442	2442	2442	2445	2445	2448	2448	2451	2454	2457	2457	2460	2460	2460	2463	2466	2469	2469	2469	2473	2473	2473	2473	2473	2476	2479	2482	2485	2491	2498	2501	2507	2510	2513	2513	2517	2513	2510	2510	2504	2498	2491	2482	2473	2463	2454	2439	2436	2430	2430	2427	2427	2427	2430	2430	2433	2433	2436	2436	2439	2439	2442	2439	2439	2436	2433	2430	2424	2421	2418	2418	2418
2466	2469	2469	2473	2479	2482	2488	2488	2494	2498	2504	2507	2510	2510	2513	2513	2513	2510	2507	2504	2498	2494	2488	2485	2482	2479	2473	2469	2466	2460	2457	2457	2451	2451	2451	2451	2451	2454	2451	2451	2451	2448	2448	2451	2451	2454	2454	2454	2451	2448	2448	2454	2457	2463	2469	2479	2488	2498	2504	2507	2510	2510	2510	2507	2507	2504	2501	2494	2488	2479	2473	2466	2457	2448	2442	2436	2430	2430	2430	2430	2430	2430	2433	2430	2433	2433	2433	2436	2436	2436	2436	2436	2436	2439	2439	2439	2442	2442	2442	2442	2442	2442	2442	2442	2442	2442	2442	2442	2439	2436	2433	2433	2430	2430	2430	2430	2427	2430	2433	2433	2433	2433	2433	2430	2430	2430	2424	2424	2424	2424	2424	2424	2421	2424	2424	2424	2424	2424	2427	2430	2430	2430	2433	2436	2439	2439	2442	2442	2445	2442	2442	2442	2439	2442	2442	2445	2448	2451	2457	2463	2466	2469	2473	2473	2473	2469	2463	2460	2454	2448	2442	2433	2430	2421	2412	2403	2400	2398	2395	2395	2398	2400	2403	2409	2412	2418	2424	2427	2430	2430	2430	2430	2433	2430	2427	2427	2427	2424	2421	2418	2418	2418	2415	2415	2418	2418	2421	2424	2427	2433	2436	2439	2442	2442	2442	2442	2442	2439	2433	2427	2424	2418	2415	2412	2409	2406	2406	2409	2412	2415	2415	2418	2421	2424	2424	2424	2424	2421	2418	2412	2409	2403	2400	2395	2389	2386	2380	2374	2372	2369	2366	2366	2366	2369	2372	2374	2383	2392	2400	2409	2418	2427	2433	2442	2445	2445	2448	2448	2451	2451	0	0	0	0	0	0	1495	1498	1499	1500	1502	1506	1510	1513	1515	1517	1517	1517	1516	1512	1509	1505	1500	1498	1494	1491	1486	1485	1483	1482	1480	1479	1476	1475	1473	1472	1470	1470	1469	1467	1464	1462	1460	1458	1455	1453	1448	1446	1445	1444	1443	1443	1444	1445	1447	1449	1453	1455	1458	1460	0	1463	1464	1467	1468	1470	1472	1473	1475	1478	1479	1481	1482	1484	1485	1486	1488	1489	1490	1492	1494	1498	1502	1507	1513	1518	1524	1531	1537	1541	1545	1548	1548	1551	1554	0	1556	1558	1558	1559	1559	1558	1557	1554	1551	1548	1546	1542	1540	1536	1534	1530	1529	1526	1524	1522	1520	1518	1515	1514	1513	1512	1512	1512	1510	1509	1508	1506	1503	1501	1499	1494	1492	1491	1489	1488	1486	1484	1484	1482	1482	1481	1480	1479	1479	1480	1480	1480	1481	1482	1483	1484	1485	1486	1488	1488	1489	1490	1491	0	1492	1491	0	0	0	0	0	0	0	0	0	0	0	0	0	2469	2473	2473	2469	2469	2469	2466	2469	2469	2469	2469	2466	2466	2463	2463	2463	2463	2466	2469	2469	2476	2479	2485	2485	2485	2482	2482	2479	2479	2476	2473	2473	2469	2466	2463	2460	2460	2460	2460	2460	2460	2463	2466	2469	2466	2466	2466	2463	2463	2457	2454	2445	2442	2439	2436	2430	2427	2424	2421	2421	2418	2418	2418	2418	2418	2418	2418	2415	2415	2418	2415	2412	2412	2409	2409	2406	2400	2395	2386	2380	2372	2360	2355	2352	2355	2357	2363	2372	0	2377	2389	2400	2412	2424	2430	2436	2439	2442	2442	2445	2445	2442	2442	2442	2439	2439	2442	2442	2445	2448	2454	2460	2466	2473	2476	2479	2482	2485	2485	2485	2488	2485	2488	2488	2485	2485	2482	2485	2485	2485	2491	2491	2498	2501	2504	2507	2510	2507	2507	2504	2501	2498	2485	2479	2476	2469	2460	2457	2451	2442	2439	2436	2436	2439	2439	2442	2442	2445	2448	2451	2454	2454	2457	2457	2463	2463	2469	2469	2469	2469	2469	2473	2473	2473	2476	2479	2482	2485	2491	2494	2501	2504	2507	2507	2510	2510	2510	2510	2504	2501	2494	2485	2476	2466	2457	2451	2436	2430	2427	2424	2424	2424	2424	2424	2427	2427	2430	2433	2436	2436	2439	2439	2439	2439	2436	2433	2433	2430	2427	2427	2427	2427
2460	2463	2466	2473	2476	2482	2488	2491	2494	2498	2501	2507	2507	2507	2507	2507	2504	2504	2498	2494	2488	2482	2479	2473	2469	2463	2463	2454	2451	2445	2439	2436	2436	2436	2436	2436	2439	2442	2442	2445	2445	2445	2451	2451	2454	2454	2454	2454	2451	2448	2451	2451	2457	2460	2466	2476	2485	2491	2504	2504	2510	2507	2510	2507	2504	2501	2498	2491	2485	2476	2469	2463	2457	2445	2439	2433	2427	2427	2427	2427	2427	2427	2430	2430	2430	2430	2430	2433	2433	2433	2430	2430	2430	2430	2430	2433	2433	2433	2433	2436	2439	2439	2439	2439	2439	2439	2439	2442	2439	2436	2436	2436	2433	2433	2436	2433	2433	2433	2436	2436	2436	2436	2436	2436	2433	2430	2430	2427	2427	2424	2424	2424	2424	2424	2424	2424	2427	2427	2427	2430	2433	2433	2439	2439	2442	2445	2448	2448	2448	2448	2448	2445	2445	2442	2445	2445	2448	2451	2457	2460	2466	2469	2469	2473	2473	2469	2466	2463	2457	2451	2445	2439	2430	2421	2415	2406	2400	2400	2398	2398	2400	2400	2406	2409	2415	2421	2424	2427	2430	2430	2427	2427	2427	2427	2421	2421	2418	2418	2415	2412	2415	2412	2412	2412	2415	2415	2418	2421	2427	2430	2436	2439	2439	2442	2445	2445	2442	2436	2430	2424	2418	2412	2409	2403	2403	2398	2400	2400	2403	2409	2412	2415	2418	2421	2421	2424	2421	2418	2415	2412	2406	2400	2395	2389	2383	2380	2372	2366	2363	2360	2357	2357	2357	2360	2363	2366	2372	2380	2389	2398	2406	2415	2421	2430	2436	2436	2439	2442	2445	0	0	0	0	0	0	0	1494	1495	1497	1498	1501	1505	1508	1512	1515	1516	1517	1517	1517	1514	1509	1505	1501	1498	1494	1491	1486	1485	1484	1482	1481	1480	1479	1478	1476	1474	1473	1472	1471	1469	1467	1464	1462	1459	1458	1456	1453	1449	1448	1447	1447	1447	1448	1449	1452	1454	1456	1458	1460	0	1463	1466	1468	1469	1470	1471	1473	1474	1476	1479	1480	1481	1483	1484	1485	1486	1486	1488	1489	1491	1493	1497	1501	1506	1512	1517	1523	1528	1534	1540	1543	1545	1547	1548	0	1554	1557	1559	1560	1559	1560	1559	1558	1556	1553	1551	1548	1545	1541	1539	1535	1533	1530	1528	1526	1523	1521	1520	1515	1515	1514	1513	1513	1514	1513	1513	1512	1510	1509	1507	1503	1499	1497	1494	1492	1490	1489	1488	1485	1484	1484	1483	1481	1481	1480	1481	1481	1482	1483	1484	1485	1486	0	1489	1490	1490	1492	1492	1493	0	1495	1497	1503	0	0	0	0	0	0	0	0	0	0	0	0	2469	2466	2466	2466	2463	2463	2463	2463	2463	2463	2463	2463	2463	2460	2460	2460	2463	2463	2460	2463	2466	2466	2473	2473	2469	2469	2469	2469	2466	2466	2463	2463	2460	2460	2457	2457	2454	2451	2451	2451	2454	2457	2460	2463	2466	2466	2466	2463	2463	2460	2457	2454	2445	2442	2436	2433	2427	2424	2421	2421	2418	2418	2418	2415	2415	2418	2418	2418	2415	2418	2415	2412	2412	2409	2406	2400	2398	2386	2377	2372	2366	2355	2349	2352	2352	2357	2360	2369	0	2377	2386	2398	2406	2418	2427	2433	2436	2442	2445	2445	2445	2445	2445	2442	2442	2439	2442	2442	2445	2448	2451	2457	2460	2466	2469	2473	2473	2476	2476	2476	2476	2476	2476	2473	2473	2473	2473	2473	2473	2476	2482	2485	2494	2501	2507	2510	2513	2510	2510	2507	2504	2498	2485	2479	2473	2466	2460	2454	2448	2442	2436	2430	2430	2433	2433	2436	2436	2442	2445	2448	2451	2451	2454	2457	2460	2466	2466	2469	2469	2469	2469	2469	2469	2473	2473	2473	2479	2479	2485	2488	2491	2498	2501	2504	2507	2504	2507	2504	2501	2494	2491	2482	2473	2463	2454	2448	2433	2430	2427	2424	2424	2421	2424	2424	2427	2427	2430	2433	2433	2436	2436	2439	2439	2439	2439	2436	2436	2436	2436	2436	2436	2436
2454	2460	2463	2469	2476	2482	2488	2488	2494	2494	2501	2501	2504	2501	2501	2501	2498	2491	2488	2482	2476	2469	2466	2460	2457	2454	2451	2445	2436	2427	2427	2421	2421	2424	2424	2427	2427	2433	2439	2439	2442	2442	2445	2448	2448	2448	2451	2448	2445	2445	2445	2445	2451	2454	2460	2469	2476	2485	2494	2501	2501	2501	2501	2501	2498	2494	2491	2485	2479	2469	2463	2457	2451	2442	2433	2430	2424	2424	2424	2424	2421	2424	2427	2427	2427	2427	2427	2427	2427	2427	2424	2424	2421	2421	2424	2424	2424	2424	2427	2430	2430	2433	2436	2439	2439	2439	2442	2442	2442	2439	2439	2436	2436	2433	2436	2433	2433	2433	2436	2436	2439	2439	2439	2436	2436	2436	2433	2430	2427	2427	2424	2424	2424	2424	2427	2427	2427	2427	2430	2433	2433	2436	2439	2442	2445	2448	2451	2451	2451	2451	2448	2445	2445	2442	2442	2445	2445	2448	2448	2454	2457	2463	2466	2469	2473	2469	2466	2460	2457	2454	2448	2439	2430	2424	2418	2409	2403	2403	2400	2400	2400	2403	2406	2412	2415	2421	2424	2427	2427	2427	2424	2424	2421	2421	2421	2418	2415	2412	2412	2412	2409	2409	2409	2409	2409	2412	2412	2418	2421	2424	2430	2430	2433	2436	2439	2436	2433	2430	2421	2415	2409	2403	2400	2395	2395	2392	2395	2398	0	2403	2406	2412	2412	2415	2418	2418	2418	2415	2412	2409	2400	2395	2392	2383	2377	2374	2366	2360	2357	2355	2352	2352	2349	2352	2355	2357	2363	2369	2377	2383	2392	2400	2409	2418	2424	2424	2430	2433	0	0	0	0	0	0	0	1493	1493	1493	1497	1497	1500	1502	1507	1510	1513	1515	1516	1516	1516	1513	1509	1505	1500	1497	1493	1490	1486	1485	1484	1483	1482	1481	1481	1480	1479	1478	1476	1475	1473	1471	1469	1467	1464	1461	1460	1457	1456	1455	1454	1453	1452	1452	1452	1454	1455	1457	0	1459	1461	1462	1466	1468	1470	1471	1472	1473	1474	1476	1478	1479	1480	1482	1483	1484	1485	1486	1488	1488	1489	1491	1493	1497	1501	1506	1512	1517	1522	1529	1534	1540	1543	1545	1547	1549	0	1554	1558	1559	1562	1560	1560	1559	1559	1557	1554	1552	1549	1547	1543	1541	1537	1534	1531	1529	1527	1524	1522	1521	1518	1516	1515	1514	1514	1515	1515	1515	1516	1516	1514	1512	1509	1506	1500	1499	1495	1493	1491	1490	1488	1486	1485	1484	1482	1481	1481	1481	1482	1482	1484	1485	0	1486	1489	1491	1493	1493	1495	1502	0	0	1508	1510	1512	0	0	0	0	0	0	0	0	0	0	0	0	0	2463	2460	2460	2457	2457	2457	2457	2457	2457	2457	2457	2457	2457	2457	2457	2454	2454	2454	2454	2454	2454	2454	2457	2454	2457	2454	2454	2454	2454	2454	2454	2451	2451	2448	2445	2445	2445	2445	2445	2445	2451	2454	2460	2463	2463	2463	2463	2463	2460	2460	2454	2445	2442	2436	2433	2427	2424	2421	2418	2418	2415	2415	2415	2418	2415	2415	2415	2412	2415	2412	2406	2403	2400	2400	2395	2389	2377	2372	2363	2355	2352	2349	2349	2352	2355	2363	0	2372	2377	2386	2398	2406	2418	2424	2430	2433	2439	2442	2442	2445	2445	2442	2442	2442	2442	2442	2442	2442	2445	2448	2451	2457	2457	2460	2463	2463	2463	2466	2463	2463	2463	2463	2463	2463	2463	2463	2463	2466	2469	2476	2479	2488	2494	2501	2504	2507	2507	2504	2504	2501	2494	2482	2476	2466	2463	2457	2451	2442	2436	2430	2430	2427	2427	2430	2430	2433	2436	2439	2445	2448	2451	2454	2454	2457	2463	2463	2466	2469	2466	2466	2469	2466	2466	2466	2466	2469	2473	2476	2482	2482	2485	2491	2494	2494	2498	2498	2494	2494	2488	2485	2476	2469	2460	2451	2442	2430	2427	2424	2421	2421	2421	2421	2421	2421	2424	2427	2430	2433	2436	2436	2439	2439	2439	2439	2439	2439	2439	2442	2439	2442	2445
2448	2457	2463	2469	2476	2482	2488	2488	2491	2494	2498	2498	2498	2498	2494	2494	2488	2482	2476	2469	2463	2460	2454	2451	2448	2445	2442	2427	2424	2418	2415	2412	2409	2412	2412	2415	2418	2424	2430	2433	2439	2436	2442	2442	2442	2445	2445	2445	2442	2436	2439	2439	2442	2445	2451	2457	2466	2476	2485	2485	2491	2491	2491	2488	2485	2482	2479	2476	2469	2463	2457	2451	2445	2436	2430	2424	2421	2421	2421	2421	2421	2424	2424	2424	2424	2424	2424	2424	2424	2421	2421	2418	2418	2415	2415	2418	2418	2418	2421	2421	2424	2430	2433	2433	2436	2436	2439	2439	2436	2436	2433	2433	2433	2430	2430	2433	2433	2430	2433	2433	2436	2436	2436	2433	2433	2433	2433	2433	2430	2427	2424	2424	2424	2424	2427	2427	2427	2427	2430	2433	2436	2439	2439	2442	2448	2451	2451	2454	2451	2451	2448	2445	2442	2436	2436	2436	2439	2439	2445	2448	2451	2457	2463	2466	2463	2466	2463	2457	2454	2451	2445	2439	2430	2424	2415	2415	2406	2406	2403	2403	2403	2406	2409	2412	2415	2421	2421	2424	2424	2424	2421	2421	2418	2418	2415	2415	2412	2409	2412	2409	2406	2406	2406	2403	2406	2406	2409	2412	2415	2421	2424	2427	2430	2430	2430	2427	2424	2418	2412	2406	2400	2395	2389	2386	2383	2386	2389	2392	2398	2400	2406	2409	2412	0	2415	2415	2412	2412	2406	2403	2398	2392	2386	2380	2374	2369	2360	2357	2352	2349	2346	2346	2343	2346	2346	2349	2355	2357	2363	2372	2380	2389	2395	2403	2409	2412	2415	0	0	0	0	0	0	0	0	1493	1493	1494	1494	1495	1498	1500	1505	1508	1510	1513	1514	1515	1515	1512	1509	1505	1500	1497	1493	1491	1486	1485	1484	1483	1483	1482	1482	1482	1482	1481	1480	1479	1476	1475	1473	1470	1468	1466	1463	1461	1460	1458	1457	1457	1457	1456	1456	1457	1458	1459	1461	1462	1464	1466	1468	1470	1472	1473	1474	1474	1476	1478	1480	1481	1482	1483	1484	1485	1486	1486	1488	1489	1491	1492	1494	1498	1502	1507	1512	1517	1523	1528	1535	1539	1543	1546	1548	1551	0	1556	1559	1560	1562	1562	1562	1562	1560	1558	1556	1553	1551	1548	1546	1542	1540	1536	1534	1530	1528	1526	1524	1522	1521	1518	1517	1516	1517	1517	1518	1518	1518	1518	1517	1516	1514	1509	1505	1501	1498	1495	1493	1491	1490	1488	1485	1484	1482	1481	1481	1481	1482	1482	1483	1484	1485	1488	1490	1493	1495	1499	1502	1505	0	0	0	1517	1518	0	0	0	0	0	0	0	0	0	0	0	0	0	2457	2454	2451	2451	2448	2451	2448	2448	2448	2448	2448	2448	2448	2448	2445	2442	2442	2439	2439	2439	2439	2439	2439	2439	2439	2439	2436	2439	2439	2439	2439	2442	2439	2436	2436	2436	2439	2439	2439	2442	2448	2454	2457	2460	2463	2463	2463	2463	2463	2460	2457	2451	2442	2436	2430	2427	2424	2418	2418	2415	2415	2415	2415	2415	2415	2412	2412	2409	2409	2403	2398	2395	2389	2386	2380	2374	2369	2363	2357	2352	2352	2349	2349	2352	2360	2366	0	2374	2380	2389	2398	2406	2415	2421	2427	2430	2433	2439	2442	2442	2442	2442	2442	2439	2439	2439	2442	2442	2442	2445	2445	2448	2451	2451	2451	2451	2454	2454	2454	2451	2454	2451	2451	2448	2451	2451	2451	2454	2457	2460	2463	2473	2482	2488	2491	2498	2498	2494	2494	2491	2488	2476	2469	2463	2457	2451	2445	2439	2433	2427	2424	2424	2427	2427	2427	2430	2433	2436	2439	2442	2445	2448	2451	2451	2454	2457	2460	2457	2454	2454	2451	2451	2451	2448	2448	2451	2454	2460	2463	2466	2469	2476	2482	2485	2485	2485	2485	2485	2482	2476	2466	2460	2448	2442	2427	2424	2418	2415	2415	2412	2415	2415	2418	2418	2421	2424	2427	2430	2433	2436	2436	2439	2439	2439	2439	2439	2439	2442	2442	2445	2445
2448	2454	2463	2469	2476	2482	2485	2488	2491	2494	2494	2498	2494	2494	2488	2485	2482	2473	2466	2460	2454	2448	2445	2442	2436	2433	2424	2421	2412	2406	2400	2400	2400	2400	2400	2403	2412	2415	2418	2427	2427	2427	2430	2427	2433	2430	2433	2433	2430	2427	2430	2430	2433	2436	2442	2448	2454	2460	2469	2473	2476	2479	2479	2476	2473	2469	2469	2463	2460	2454	2451	2445	2439	2433	2427	2424	2421	2418	2418	2418	2424	2424	2424	2424	2424	2424	2424	2424	2421	2418	2415	2415	2412	2412	2409	2409	2409	2409	2412	2412	2415	2418	2424	2424	2424	2424	2427	2427	2427	2427	2427	2427	2427	2427	2424	2427	2427	2427	2427	2430	2430	2433	2433	2433	2433	2433	2430	2430	2427	2427	2424	2424	2424	2424	2424	2424	2427	2427	2430	2430	2433	2439	2439	2442	2445	2448	2448	2451	2445	2445	2439	2436	2433	2433	2430	2430	2430	2433	2439	2442	2445	2451	2454	2457	2457	2460	2457	2454	2451	2448	2442	2436	2430	2421	2418	2412	2409	2406	2406	2406	2406	2412	2412	2415	2418	2418	2421	2421	2421	2421	2418	2418	2415	2412	2409	2409	2406	2406	2406	2403	2403	2403	2403	2403	2403	2403	2406	2409	2409	2412	2415	2415	2415	2418	2415	2415	2406	2403	2398	2392	2389	2380	2377	2377	2377	2380	2383	2386	2392	2398	2403	2406	2406	2409	2412	2412	2409	2409	2406	2400	2398	2389	2383	2380	2372	2363	2357	2355	2349	2346	2343	2341	2341	2341	2341	2343	2346	2349	2355	2360	2366	2372	2380	2386	2392	2395	0	0	0	0	0	0	0	0	1491	1492	1492	1493	1493	1493	1497	1499	1503	1507	1509	1512	1514	1515	1514	1513	1509	1505	1500	1498	1494	1491	1489	1486	1485	1484	1484	1483	1483	1483	1483	1483	1482	1482	1481	1479	1476	1474	1471	1469	1467	1466	1463	1461	1461	1461	1460	1460	1460	1460	1461	1463	1464	1466	1468	1469	1470	1472	1474	1475	1476	1478	1479	1480	1481	1483	1484	1485	1486	1488	1488	1490	1490	1491	1492	1493	1497	1499	1502	1507	1512	1518	1524	1530	1536	1541	1545	1547	1549	0	1553	1558	1560	1563	1563	1563	1563	1563	1562	1559	1557	1554	1552	1549	1547	1545	1541	1539	1535	1533	1529	1528	1526	1523	1522	1521	1520	1518	1518	0	1520	1521	1522	1522	1522	1521	1518	1514	1509	1505	1500	1498	1494	1492	1490	1488	1485	1483	1483	1482	1480	1480	1480	1481	1482	1484	0	1486	1490	1494	1497	1500	1505	1508	1512	0	0	0	1526	1526	0	0	0	0	0	0	0	0	0	0	0	0	0	2448	2445	2445	2442	2439	2439	2439	2439	2436	2436	2436	2436	2436	2433	2430	2427	2427	2424	2421	2421	2421	2418	2421	2418	2421	2421	2424	2424	2427	2424	2427	2424	2424	2430	2430	2430	2436	2436	2439	2445	2451	2454	2457	2460	2460	2463	2463	2463	2460	2457	2454	2442	2436	2430	2424	2421	2418	2415	2415	2412	2415	2412	2412	2412	2409	2406	2403	2398	2392	2386	2383	2374	2372	2369	2363	2355	2349	2349	2349	2349	2349	2352	2355	2363	0	2369	2374	2383	2389	2398	2403	2412	2418	2421	2424	2430	2433	2436	2439	2439	2442	2439	2439	2439	2439	2439	2436	2439	2439	2439	2439	2439	2442	2442	2439	2439	2442	2442	2439	2439	2439	2439	2442	2442	2442	2442	2448	2448	2454	0	2463	2469	2476	2479	2482	2485	2485	2482	2482	2473	2469	2463	2454	2448	2442	2439	2433	2427	2421	2421	2421	2421	2421	2424	2427	2427	2430	2433	2436	2439	2442	2445	2445	2448	2448	2448	2448	2442	2436	2436	2433	2427	2424	2421	2424	2424	2430	2436	2439	2448	2454	2463	2466	2469	2473	2469	2466	2463	2457	2451	2442	2427	2421	2418	2412	2409	2406	2406	2406	2409	2409	2409	2412	2415	2418	2421	2427	2427	2430	2433	2433	2436	2436	2436	2436	2439	2442	2445	2445	2445
2448	2457	2463	2469	2476	2482	2485	2488	2491	2491	2494	2494	2494	2488	2485	2482	2473	2463	2457	2451	2445	2439	2436	2433	2430	2424	2418	2412	2403	2398	2395	2392	2392	2392	2392	2395	2398	2403	2406	2412	2415	2412	2415	2415	2418	2418	2421	2421	2418	2418	2421	2421	2424	2424	2430	2433	2439	2445	2454	2457	2460	2460	2460	2460	2457	2457	2454	2448	2448	2442	2439	2436	2433	2427	2424	2421	2421	2421	2418	2421	2421	2424	2421	2424	2421	2424	2421	2421	2418	2415	2412	2409	2406	2406	2403	2403	2403	2400	2403	2403	2403	2409	2412	2412	2412	2415	2415	2418	2418	2418	2418	2418	2418	2415	2418	2418	2418	2421	2421	2421	2424	2427	2427	2427	2427	2427	2427	2427	2424	2424	2421	2421	2421	2421	2424	2424	2424	2427	2427	2430	2430	2433	2436	2433	2436	2436	2439	2439	2439	2436	2433	2430	2427	2424	2421	2424	2424	2427	2430	2433	2436	2442	2445	2448	2448	2448	2445	2445	2439	2436	2433	2430	2427	2418	2415	2412	2409	2409	2409	2409	2409	2412	2412	2415	2415	2418	2418	2418	2418	2418	2415	2412	2409	2409	2406	2403	2403	2403	2400	2400	2398	2400	2400	2398	2398	2398	2398	2400	2403	2403	2403	2403	2403	2400	2400	2395	2392	2383	2380	2374	2374	2372	2369	2372	2372	2377	2380	2386	2389	2392	2398	2400	2403	2403	2406	2406	2406	2403	2400	2395	2392	2386	2380	2374	2369	2363	2355	2352	2346	2343	2341	2338	2335	2338	2335	2338	2341	2341	2346	2349	2355	2363	2366	2372	2377	2380	2380	0	0	0	0	0	0	0	1491	1492	1492	1493	1493	1493	1495	1500	1503	1507	1509	1512	1513	1514	1514	1512	1509	1505	1501	1498	1494	1492	1489	1486	1485	1484	1484	1484	1484	1484	1484	1484	1484	1483	1483	1481	1479	1476	1474	1472	1470	1468	1467	1464	1464	1463	1463	1463	1463	1463	1464	1466	1467	1468	1469	1471	1472	1473	1475	1476	1478	1479	1480	1481	1483	1484	1485	1488	1489	1489	1490	1491	1492	1493	1494	1494	1497	1499	1503	1509	1515	1521	1528	1534	1539	1542	1547	1549	0	1552	1556	1560	1563	1564	1564	1565	1564	1564	1563	1560	1558	1556	1554	1552	1548	1546	1543	1540	1536	1534	1531	1529	1527	1526	1523	1522	1521	1521	1520	1521	1522	1523	1523	1524	1526	1526	1523	1520	1514	1508	1503	1500	1497	1494	1492	1489	1488	1485	1484	1483	1482	1480	1480	1480	1482	1483	0	1485	1490	1494	1498	1502	1507	1512	1515	1520	1524	1528	1530	1531	1531	0	0	0	0	0	0	0	0	0	0	0	0	2442	2436	2433	2433	2433	2430	2427	2427	2424	2424	2424	2421	2421	2418	2418	2415	2415	2412	2409	2406	2406	2406	2403	2406	2406	2409	2409	2409	2409	2412	2415	2415	2415	2418	2421	2424	2427	2433	2436	2442	2448	2451	2454	2457	2460	2460	2463	2460	2460	2457	2451	2442	2433	2430	2424	2421	2418	2412	2412	2409	2412	2412	2412	2406	2403	2400	2392	2383	2377	2372	2366	2360	2355	2352	2343	2343	2341	2343	2346	2349	2352	2352	2357	0	2366	2372	2380	2386	2389	2395	2403	2406	2412	2415	2421	2424	2427	2433	2436	2436	2439	2439	2436	2436	2436	2433	2433	2430	2430	2430	2430	2430	2427	2424	2424	2427	2427	2427	2427	2427	2427	2427	2430	2433	2433	2433	2436	2436	2442	2448	2454	2457	2463	2466	2466	2469	2469	2466	2466	2460	2457	2451	2445	2439	2436	2430	2427	2421	2418	2415	2418	2421	2418	2418	2421	2421	2424	2427	2430	2430	2433	2436	2436	2439	2439	2436	2430	2424	2418	2415	2409	2406	2400	2400	2400	2403	2409	2412	2415	2424	2430	2436	2442	2445	2445	2445	2442	2442	2436	2424	2418	2415	2409	2406	2400	2400	2400	2398	2398	2400	2400	2403	2403	2406	2409	2415	2421	2421	2424	2427	2430	2433	2433	2436	2436	2436	2442	2442	2445	2448
2445	2454	2463	2469	2476	2482	2485	2488	2491	2491	2491	2491	2491	2485	2482	2476	2466	2460	2451	2442	2436	2433	2427	2424	2418	2418	2412	2406	2400	2395	2389	2389	2386	2386	2386	2392	2395	2395	2400	2406	2409	2406	2406	2406	2409	2409	2409	2412	2409	2409	2412	2412	2409	2412	2415	2418	2421	2427	2433	2439	2439	2442	2442	2445	2442	2442	2439	2433	2433	2430	2430	2424	2421	2418	2418	2418	2418	2418	2418	2421	2421	2424	2424	2424	2421	2421	2421	2418	2418	2412	2409	2406	2403	2400	2398	2395	2395	2395	2395	2395	2395	2400	2398	2403	2403	2406	2406	2409	2409	2406	2406	2409	2406	2403	2406	2406	2406	2406	2409	2412	2412	2418	2421	2421	2421	2424	2424	2424	2421	2418	2418	2418	2418	2418	2418	2418	2418	2421	2415	2415	2418	2418	2424	2424	2427	2427	2430	2430	2427	2424	2424	2421	2418	2415	2415	2415	2415	2418	2421	2424	2430	2430	2433	2433	2436	2436	2436	2430	2430	2430	2427	2424	2421	2415	2412	2412	2412	2412	2412	2412	2412	2412	2415	2415	2415	2418	2415	2415	2415	2412	2412	2409	2406	2403	2400	2398	2398	2395	2395	2395	2395	2392	2392	2392	2389	2389	2389	2392	2389	2389	2392	2392	2389	2389	2386	2380	2377	2369	2369	2366	2366	2366	2366	2369	2372	2374	2377	2383	2386	2389	2392	2395	2398	2398	2400	2400	2398	2398	2395	2389	2386	2380	2374	2369	2363	2357	2352	2346	2343	2341	2338	2335	2332	2332	2332	2332	2335	2338	2338	2341	2346	2352	2355	2360	2363	2366	2369	2372	0	0	0	0	0	0	0	1492	1493	1493	1493	1493	1497	1501	1505	1508	1509	1512	1513	1514	1514	1512	1508	1505	1501	1499	1495	1492	1490	1486	1486	1485	1485	1484	1485	1485	1485	1485	1485	1484	1484	1482	1482	1479	1476	1474	1473	1471	1470	1467	1467	1466	1466	1466	1466	1466	1466	1467	1468	1469	1470	1471	1473	1475	1476	1479	1480	1481	1482	1483	1484	1486	1488	1490	1490	1492	1492	1493	1494	1495	1495	1498	1499	1500	1505	1512	1517	1526	1531	1536	1541	1546	0	1549	1553	1554	1558	1563	1564	1565	1567	1567	1565	1565	1564	1560	1558	1557	1554	1552	1549	1547	1543	1541	1539	1536	1533	1530	1528	1527	1526	1524	1523	1522	1523	1523	1524	1526	1526	1527	1528	1528	1528	1522	1516	1512	1507	1503	1500	1497	1494	1491	1492	1490	1488	1486	1483	1482	1480	1481	1481	1483	0	1486	1490	1494	1499	1503	1508	1514	1518	1523	1528	1531	1534	1536	1537	0	0	0	0	0	0	0	0	0	0	0	0	0	2430	2424	2421	2421	2418	2418	2415	2412	2409	2409	2409	2409	2406	2403	2403	2403	2398	2398	2398	2395	2395	2395	2395	2392	2392	2392	2395	2395	2400	2400	2400	2403	2409	2412	2418	2421	2427	2433	2436	2442	2448	2451	2454	2457	2457	2460	2457	2457	2454	2451	2439	2433	2427	2424	2418	2415	2412	2412	2406	2406	2406	2403	2398	2392	2386	2374	2369	2357	2352	2346	2335	2332	2332	2332	2332	2332	2338	2341	2349	2352	2355	0	2363	2369	2377	2383	2389	2392	2398	2400	2406	2409	2415	2415	2421	2424	2427	2430	2436	2433	2433	2433	2433	2430	2430	2427	2424	2421	2421	2415	2415	2412	2412	2412	2412	2412	2412	2415	2412	2415	2418	2421	2421	2424	2427	2430	2430	2436	2439	2442	2445	2448	2451	2451	2454	2454	2451	2451	2448	2445	2439	2433	2430	2424	2421	2418	2415	2412	2412	2412	2415	2415	2415	2415	2415	2415	2418	2421	2421	2421	2424	2424	2424	2424	2418	2412	2406	2403	2398	2386	2383	2383	2383	2386	2389	2395	2398	2400	0	2409	2415	2421	2424	2424	2424	2424	2418	2415	2409	2403	2400	2398	2395	2392	2389	2389	2389	2389	2392	2392	2395	2395	2398	2400	2406	2412	2415	2418	2421	2424	2427	2427	2430	2433	2436	2439	2439	2445	2445
2439	2448	2460	2466	2476	2479	2482	2485	2488	2488	2491	2491	2488	2485	2479	2473	2466	2454	2448	2439	2433	2427	2421	2418	2415	2415	2412	2403	2398	2392	2389	2383	2386	2386	2383	2386	2389	2392	2395	2398	2400	2400	2398	2398	2398	2400	2403	2403	2400	2400	2400	2400	2403	2403	2403	2403	2409	2412	2415	2418	2421	2424	2424	2427	2424	2424	2421	2418	2415	2415	2415	2412	2412	2412	2415	2415	2418	2418	2418	2421	2424	2427	2427	2424	2424	2424	2421	2418	2415	2412	2406	2403	2400	2398	2392	2389	2389	2386	2383	2386	2386	2386	2392	2389	2392	2395	2398	2398	2398	2400	2400	2400	2398	2398	2398	2395	2395	2395	0	2400	2403	2406	2409	2412	2415	2415	2418	2415	2415	2415	2412	2412	2412	2403	2403	2403	2403	2403	2403	2406	2406	2409	2412	2412	2412	2415	2418	2418	2418	2415	2412	2406	2406	2406	2406	2406	2406	2409	2409	2415	2415	2418	2418	2418	2418	2418	2418	2418	2415	2415	2415	2415	2415	2409	2409	2409	2409	2409	2412	2412	2412	2412	2415	2415	2415	2415	2415	2415	2412	2409	2406	2403	2400	2398	2395	2395	2392	2386	2386	2386	2383	2383	2383	2380	2380	2380	2377	2377	2377	2380	2380	2380	2377	2374	2369	2363	2363	2360	2360	2360	2363	2360	2363	2366	2369	2374	2380	2383	2386	2389	2392	2392	2395	2395	2395	2395	2392	2392	2389	2386	2380	2374	2369	2366	2357	2355	2349	2343	2341	2335	2335	2332	2330	2330	2327	2327	2330	2330	2332	2332	2338	2341	2346	2352	2352	2357	2360	2363	2366	0	0	0	0	0	0	0	1494	1495	1495	1497	1499	1503	1507	1509	1512	1513	1514	1514	1514	1513	1509	1506	1502	1499	1495	1493	1491	1490	1486	1486	1486	1485	1485	1485	1486	1485	1486	1485	1485	1484	1483	1481	1480	1476	1475	1473	1472	1470	1469	1468	1467	1467	1467	1467	1467	1468	1469	1470	1471	1472	1474	1475	1478	1480	1481	1482	1484	1485	1486	1489	1490	1492	1493	1493	1495	1495	1497	1498	1499	1499	1501	1503	1507	1514	1522	1529	1535	1541	1545	0	1551	1553	1556	1558	1562	1565	1567	1568	1568	1568	1568	1567	1567	1564	1559	1558	1556	1553	1551	1548	1545	1542	1540	1536	1534	1531	1529	1528	1527	1527	1526	1526	1524	1526	1527	1528	1529	1529	1530	1530	1530	1524	1520	1514	1510	1510	1508	1505	1501	1499	1495	1493	1491	1489	1486	1484	1482	1481	1482	1483	0	1488	1491	1495	1500	1506	1512	1515	1521	1526	1530	1534	1536	1537	1540	1541	0	0	0	0	0	0	0	0	0	0	0	0	0	2415	2409	2412	2409	2406	2403	2400	2400	2400	2398	2398	2395	2395	2392	2389	2392	2389	2389	2389	2386	2383	2383	2383	2386	2383	2386	2389	2389	2392	2398	2398	2403	0	2409	2415	2421	2427	2433	2439	2442	2445	2448	2451	2451	2454	2454	2454	2451	2442	2436	2430	2424	2421	2418	2412	2412	2409	2406	2406	2403	2400	2392	2386	2374	2363	2357	2346	2332	2327	2321	2321	2321	2321	2324	2327	2332	2338	2346	2352	2357	0	2366	2374	2380	2386	2392	2398	2398	2400	2406	2406	2409	2412	2415	2418	2424	2427	2430	2430	2427	2427	2427	2424	2421	2418	2418	2412	2409	2406	2403	2403	2400	2400	2403	2403	2403	2406	2406	2409	2412	2415	2418	2418	2421	2424	2424	2430	2430	2433	2436	2436	2436	2439	2439	2439	2439	2436	2436	2430	2430	2424	2421	2418	2415	2412	2409	2406	2406	2406	2409	2409	2406	2406	2406	2409	2409	2409	2409	2409	2409	2406	2409	2406	2400	2395	2389	2383	2377	2374	2372	2369	2369	2369	2374	2377	2380	2383	2389	2398	2400	2403	2403	2403	2406	2403	2403	2400	2395	2392	2392	2386	2383	2383	2380	2380	2380	2380	2383	2383	2386	2389	2389	2395	2398	2400	2406	2412	2415	2418	2424	2424	2430	2430	2433	2433	2436	2436	2439
2433	2442	2451	2460	2466	2473	2476	2479	2482	2485	2488	2488	2485	2482	2476	2469	2463	2454	2442	2436	2430	2424	2415	2415	2415	2412	2412	2403	2398	2389	2386	2380	2383	2380	2380	2380	2383	2386	2392	2392	2395	2395	2395	2392	2392	2395	2398	2395	2395	2395	2395	2395	2392	2392	2395	2395	2395	2398	2400	2403	2403	2406	2403	2406	2406	2406	2406	2403	2403	2403	2403	2403	2406	2409	2412	2415	2418	2421	2421	2424	2424	2427	2427	2424	2424	2424	2424	2421	2418	2412	2406	2403	2398	2395	2392	2389	2383	2383	2377	2377	2377	2380	2377	2383	2383	2386	2386	2389	2389	2389	2392	2389	2389	2389	2389	2389	2389	2389	2392	2395	2398	2400	2403	2406	2406	2409	2412	2409	2400	2400	2398	2395	2395	2395	2395	2395	2395	2395	2395	2395	2398	2398	2398	2398	2398	2400	2400	2400	2400	2400	2398	2395	2392	2395	2395	2395	2398	2398	2400	2400	2400	2400	2400	2398	2400	2398	2398	2398	2398	2400	2403	2403	2403	2403	2403	2403	2406	2406	2409	2409	2412	2412	2415	2415	2415	2418	2415	2415	2412	2409	2406	2403	2400	2395	2392	2386	2383	2380	2377	2374	2372	2372	2366	2366	2363	2363	2363	2363	2363	2366	2366	2366	2366	2366	2357	2355	2355	2352	2352	2352	2355	2360	2360	2366	2372	2374	2380	2383	2386	2386	2389	2389	2389	2392	2392	2389	2386	2383	2380	2377	2374	2369	2363	2357	2352	2349	2343	2341	2335	2332	2330	2330	2327	2324	2324	2324	2324	2324	2327	2330	2332	2338	2341	2346	2349	2352	2355	2360	2357	2360	0	0	0	0	0	0	1500	1500	1501	1501	1505	1509	1512	1512	1513	1514	1514	1515	1515	1513	1509	1507	1503	1500	1497	1494	1492	1490	1489	1486	1486	1485	1485	1485	1486	1486	1486	1485	1485	1484	1484	1482	1481	1479	1478	1474	1473	1471	1470	1469	1469	1468	1468	1467	1468	1468	1469	1469	1471	1472	1474	1475	1478	1480	1482	1483	1485	1486	1489	1490	1492	1494	1495	1497	1498	1499	1500	1501	1503	1505	1503	1506	1512	1518	1526	1533	1539	1543	0	1549	1553	1556	1559	1560	1564	1568	1569	1569	1570	1569	1569	1568	1568	1565	1560	1559	1557	1554	1552	1549	1546	1543	1540	1537	1535	1531	1530	1529	1528	1528	1528	1527	1527	1528	1529	1530	1530	1531	1531	1533	1531	1533	1526	1521	1517	1516	1512	1509	1506	1502	1499	1497	1494	1492	1489	1486	1484	1483	1482	1483	1484	1488	1492	1497	1501	1507	1512	1517	1523	1528	1531	1534	1536	1539	1540	1541	1543	0	0	0	0	0	0	0	0	0	0	0	0	0	2400	2400	2398	2395	2392	2392	2389	2389	2389	2389	2386	2386	2386	2386	2386	2383	2383	2383	2380	2380	2380	2380	2380	2380	2380	2380	2386	2386	2386	2392	2398	2400	0	2409	2412	2418	2421	2427	2433	2436	2439	2442	2445	2445	2445	2445	2445	2439	2433	2427	2421	2418	2415	2412	2412	2409	2406	2403	2400	2395	2389	2377	2366	2355	2343	2330	2321	2319	2313	2313	2313	2313	2316	2321	2330	2335	2343	2352	0	2360	2369	2377	2383	2389	2392	2395	2398	2400	2403	2406	2409	2409	2409	2412	2415	2418	2421	2418	2421	2418	2415	2415	2415	2412	2406	2403	2400	2398	2395	2395	2392	2392	2395	2395	2398	2400	2400	2403	2406	2412	2412	2415	2418	2421	2421	2424	2424	2424	2424	2424	2424	2427	2427	2427	2427	2427	2427	2424	2424	2418	2415	2412	2409	2409	2406	2403	2403	2400	2403	2400	2398	2398	2398	2398	2398	2400	2398	2395	2392	2392	2389	2386	2383	2374	2372	2369	2366	2363	2360	2357	2357	2360	2363	2363	2369	2372	2374	2380	2383	2386	2386	2389	2389	2389	2389	2386	2383	2380	2377	2374	2374	2372	2374	2372	2372	2372	2374	2374	2377	2380	2383	2386	2389	2395	2400	2406	2409	2415	2418	2418	2421	2424	2427	2430	2430	2430	2433
2424	2433	2442	2451	2460	2463	2469	2476	2479	2482	2485	2488	2485	2482	2476	2469	2460	2451	2445	2436	2427	2421	2415	2412	2412	2412	2409	2403	2395	2389	2383	2380	2377	2377	2377	2377	2380	2383	2383	2389	2392	2389	2389	2389	2389	2389	2392	2389	2389	2386	2386	2386	2386	2386	2383	2380	2383	2383	2386	2386	2386	2389	2389	2386	2386	2389	2386	2386	2389	2392	2395	2398	2400	2406	2412	2415	2418	2421	2421	2424	2424	2427	2427	2427	2424	2424	2421	2421	2418	2415	2409	2403	2398	2395	2389	2383	2380	2377	2374	2372	2372	2372	2372	2372	2372	2374	2377	2377	2380	2383	2383	2383	2383	2383	2383	2383	2380	2380	2380	2386	2389	2392	2395	2386	2389	2389	2392	2392	2392	2389	2389	2386	2386	2386	2386	2386	2383	2383	2383	2386	2386	2386	2386	2386	2383	2386	2386	2386	2386	2386	2383	2380	2380	2380	2380	2383	2383	2383	2383	2383	2380	2380	2380	2377	2377	2377	0	2383	2386	2389	0	2392	2395	2398	2398	2400	2403	2406	2406	2409	2409	2412	2415	2418	2418	2418	2418	2418	2415	2412	2409	2403	2400	2395	2389	2380	2374	2372	2366	2363	2357	2357	2355	2349	2346	2346	2346	2346	2346	2349	2355	2355	2352	2349	2346	2346	2343	2343	2343	2346	2349	2355	2357	2363	2369	2374	2377	2380	2383	2386	2386	2386	2389	2389	2386	2383	2383	2380	2374	2372	2369	2363	2360	2355	2349	2346	2341	2335	2335	2332	2330	2327	2324	2324	2321	2321	2324	2324	2327	2330	2332	0	2338	2343	2346	2349	2352	2355	2355	2357	2360	2360	0	0	0	0	0	1509	1508	1509	1513	1516	1516	1517	1516	1516	1516	1516	1516	1513	1510	1507	1505	1501	1498	1495	1493	1491	1489	1486	1486	1486	1485	1486	1485	1485	1486	1486	1485	1485	1485	1483	1482	1480	1478	1475	1474	1472	1471	1470	1469	1469	1468	1468	1469	1468	1470	1471	1471	1473	1475	1476	1479	1482	1483	1485	1486	1489	1491	1492	1494	1497	1498	1500	1501	1502	1503	1506	1507	1508	1509	1512	0	0	0	0	0	0	1547	1553	1557	1559	1563	1563	1567	1570	1572	1572	1572	1570	1570	1569	1568	1567	1563	1559	1558	1556	1553	1549	1546	1543	1540	1537	1535	1533	1530	1529	1529	1529	1528	1528	1528	1529	1530	1531	1531	1531	1531	1533	1533	1531	1526	1523	1521	1520	1516	1514	1512	1508	1505	1501	1498	1495	1492	1489	1486	1485	1484	1484	1485	1489	1493	1498	1502	1507	1513	1517	1523	1528	1531	1534	1536	1539	1540	1542	1543	0	0	0	0	0	0	0	0	0	0	0	0	0	2392	2392	2389	2389	2383	2383	2383	2380	2380	2380	2380	2380	2380	2380	2380	2380	2380	2377	2377	2374	2377	2377	2377	2377	2377	2380	2380	2383	2386	2386	2392	2395	2398	2406	0	2412	2415	2424	2427	2433	2433	2439	2439	2439	2439	2439	2436	2433	2430	2424	2421	2415	2415	2412	2409	2406	2406	2403	2398	2392	2383	2372	2363	2352	2341	2321	2316	2311	2308	2308	2308	2311	2313	2316	2324	2332	2341	2352	0	2360	2366	2374	2383	2389	2392	2392	2395	2400	2403	2403	2403	2403	2406	2406	2409	2409	2409	2409	2409	2406	2409	2406	2403	2403	2398	2398	2395	2392	2389	2386	2386	2386	2389	2389	2392	2395	2398	2400	2406	2409	2412	2415	2418	2421	2421	2424	2421	2421	2421	2418	2418	2418	2418	2418	2418	2421	2418	2418	2418	2412	2412	2409	2409	2406	2406	2400	2398	2395	2395	2392	2389	2389	2389	2389	2389	2386	2383	2380	2380	2377	2377	2372	2369	2366	2363	2363	2357	2355	2352	2352	2352	2352	2355	2355	2357	2360	2363	2369	2372	2374	2377	2377	2374	2377	2374	2374	2372	2369	2369	2369	2366	2366	2366	2366	2363	2363	2366	2369	2372	2374	2374	2377	2383	2389	2395	2395	2398	2403	2406	2412	2415	2418	2418	2421	2424	2424	2427
2412	2424	2433	2442	2451	2457	2463	2466	2473	2479	2482	2485	2482	2479	2476	2473	2460	2451	2445	2436	2430	2424	2415	2415	2412	2415	2409	2406	2398	2389	2386	2380	2380	2377	2377	2380	2380	2383	2386	2386	2389	2389	2389	2389	2389	2389	2389	2389	2386	2383	2383	2380	2377	2377	2374	2372	2372	2369	2372	2372	2372	2372	2372	2372	2374	2374	2374	2374	2377	2383	2389	2392	2398	2403	2409	2415	2418	2421	2421	2427	2427	2427	2430	2427	2427	2424	2424	2421	2418	2415	2409	2403	2398	2392	2389	2383	2377	2374	2372	2366	2366	2363	2360	2363	2363	2366	2366	2369	2372	2372	2372	2374	2374	2374	2374	2374	2372	2374	2372	2369	2372	2374	2374	2377	2380	2380	2383	2386	2383	2386	2380	2380	2377	2377	2377	2377	2374	2374	2374	2374	2374	2374	2374	2374	2374	2374	2374	2374	2374	2374	2372	2372	2372	2369	2369	2369	2369	2369	2369	2369	2366	2366	2366	2366	2366	2366	2372	2374	2377	2383	2386	2389	2392	2392	2395	2400	2403	2403	2406	2409	2412	2415	2418	2421	2421	2424	2421	2421	2418	2415	2409	2406	2400	2392	2386	2374	2366	2363	2357	2352	2346	2343	2338	2335	2332	2332	2335	2338	2341	2341	2341	2343	2341	2338	2338	2338	2335	2338	2338	2341	2346	2352	2357	2363	2369	2374	2377	2380	2383	2383	2383	2383	2386	2386	2383	2380	2377	2374	2372	2369	2363	2360	2355	2352	2346	2343	2338	2335	2332	2330	2327	2327	2324	2324	2321	2321	2321	2324	2327	0	2330	0	2335	2338	2343	2346	2349	2352	2352	2357	2355	2357	0	0	0	0	0	0	1523	1523	1524	1526	1523	1523	1521	1521	1520	1518	1517	1514	1512	1508	1505	1502	1500	1497	1494	1492	1490	1489	1486	1485	1485	1486	1485	1485	1486	1485	1486	1485	1485	1484	1482	1481	1479	1476	1475	1473	1472	1471	1470	1469	1469	1468	1469	1469	1469	1470	1472	1473	1475	1478	1480	1482	1484	1485	1488	1491	1492	1494	1497	1499	1501	1503	1505	1506	1508	1509	1512	1514	1513	1515	0	0	0	0	0	0	1551	1556	1559	1562	1564	1565	1568	1570	1572	1572	1572	1572	1570	1570	1569	1567	1564	1559	1557	1554	1552	1549	1546	1543	1540	1536	1534	1531	1530	1529	1529	1529	1528	1528	1528	1529	1529	1530	1529	1530	1530	1529	1530	1528	1527	1523	1522	1521	1520	1516	1515	1512	1508	1506	1501	1498	1495	1492	1489	1486	1486	1485	1486	1490	1493	1498	1502	1507	1513	1517	1523	1528	1531	1535	1536	1537	1539	1541	1543	0	0	0	0	0	0	0	0	0	0	0	0	0	2380	2380	2380	2377	2377	2374	2374	2374	2374	2374	2374	2374	2374	2374	2374	2374	2374	2374	2374	2374	2374	2374	2377	2374	2374	2374	2377	2377	2380	2380	2383	2389	2392	2395	2400	2406	2412	0	2418	2421	2424	2430	2433	2433	2433	2433	2433	2427	2424	2421	2415	2415	2412	2409	2406	2406	2403	2400	2395	2389	2377	2366	2357	2346	2335	2319	2313	2308	2305	2305	2305	2308	2311	2316	2321	2330	2338	2349	0	2357	2366	2372	2380	2383	2386	2389	2389	2392	2395	2398	2395	2398	2395	2398	2400	2398	2400	2400	2398	2398	2398	2398	2395	2395	2389	2389	2389	2383	2380	2377	2377	2377	2380	2386	2386	2389	2392	2395	2403	2409	2409	2415	2418	2421	2421	2424	2421	2421	2421	2418	2418	2415	2415	2415	2415	2415	2415	2415	2412	2412	2409	2409	2406	2403	2400	2398	2395	2392	2389	2386	2380	2380	2377	2377	2374	2369	2369	2369	2363	2363	2363	2357	2360	2357	2357	2355	2355	2352	2349	2349	2346	2346	2349	2352	2352	2355	2357	2360	2363	2366	2366	2366	2366	2369	2369	2366	2366	2366	2363	2363	2363	2360	2360	2360	2360	2360	2363	2366	2369	2366	2369	2369	2374	2377	2383	2386	2392	2398	2400	2406	2409	2409	2412	2412	2415	2418	2418
2403	2412	2424	2436	2445	2448	2454	2460	2469	2476	2479	2482	2482	2482	2476	2469	2463	2457	2448	2439	2433	2430	2424	2415	2415	2415	2412	2406	2398	2392	2386	2383	2380	2380	2380	2380	2383	2386	2386	2389	2389	2392	2389	2389	2389	2389	2389	2389	2386	2383	2380	2377	2374	2372	2366	2363	2360	2360	2360	2360	2360	2360	2360	2360	2360	2363	2363	2366	2372	2380	2383	2389	2395	2403	2409	2415	2418	2424	2424	2427	2427	2430	2430	2427	2427	2427	2424	2424	2418	2415	2409	2403	2398	2392	2389	2383	2377	2369	2366	2363	2360	2357	2357	2357	2357	2357	0	2363	2363	2366	2366	2366	2366	2363	2360	2360	2360	2363	2363	2366	2366	2369	2372	2372	2374	2374	2377	2377	2377	2377	2377	2372	2372	2369	2369	2369	2366	2366	2363	2363	2363	2363	2363	2366	2366	2366	2363	2363	2363	2363	2360	2357	2360	2357	2357	2357	2357	2355	2357	2357	2357	2357	2357	2357	2360	2363	2366	2369	2374	2380	2383	2386	2389	2389	2395	2398	2400	2406	2406	2409	2412	2418	2421	2424	2427	2427	2427	2427	2424	2418	2412	2406	2400	2389	2380	2369	2357	2352	2349	2341	2338	2332	2324	2321	2321	2321	2321	2324	2327	2327	2327	2330	2327	2327	2327	2324	2327	2327	2332	2335	2343	2346	2355	2363	2366	2374	2377	2380	2380	2380	2380	2380	2380	2380	2377	2377	2372	2369	2369	2363	2357	2355	2349	2346	2343	2338	2335	2332	2330	2327	2327	2324	2324	2324	2324	2324	2321	2324	2324	2327	2330	2332	2335	0	2341	2343	2349	2352	2352	2352	2355	2352	0	0	0	0	0	0	0	0	1545	1541	1539	1535	1528	1526	1523	1521	1520	1516	1513	1509	1507	1503	1501	1498	1495	1493	1491	1489	1488	1486	1486	1485	1485	1486	1485	1485	1486	1486	1485	1484	1483	1482	1479	1476	1475	1473	1472	1470	1469	1469	1469	1468	1468	1468	1468	1470	1471	1472	1474	1478	1480	1482	1484	1486	1489	1491	1493	1495	1499	1501	1503	1506	1507	1509	1512	1513	1515	1517	1517	0	0	0	0	0	0	1548	1552	1557	1560	1563	1565	1565	1568	1570	1572	1572	1572	1572	1570	1570	1569	1568	1564	1559	1557	1554	1552	1549	1546	1542	1539	1535	1533	1531	1529	1528	1528	1528	1528	1527	1528	1528	1529	1528	1527	1527	1527	1527	1526	1524	1522	1521	1521	1520	1520	1517	1516	1514	1510	1508	1505	1501	1498	1494	1491	1489	1489	1488	1488	1491	1494	1498	1502	1507	1512	1516	1521	1527	1529	1533	1535	1536	1537	1541	1542	0	0	0	0	0	0	0	0	0	0	0	0	0	2372	2372	2372	2372	2372	2369	2366	2366	2366	2366	2366	2366	2369	2369	2372	2372	2372	2372	2372	2372	2374	2374	2374	2374	2374	2374	2374	2372	2374	2374	2377	2377	2380	2383	2389	2392	2398	2403	2409	2412	2415	2421	2421	2424	2427	2427	2424	2424	2418	2415	2415	2412	2412	2409	2406	2403	2400	2398	2392	2386	2374	2363	2355	2343	2335	2319	2311	2308	2308	2305	2305	2308	2311	2313	2319	2327	2332	2341	2349	0	2357	2366	2372	2377	2380	2380	2383	2386	2389	2389	2389	2389	2389	2389	2389	2389	2389	2389	2389	2386	2389	2389	2386	2383	2383	2383	2380	2374	2374	2372	2372	2372	2377	2377	2380	2386	2389	2392	2398	2403	2409	2412	2415	2421	2421	2424	2424	2421	2421	2418	2415	2418	2418	2415	2415	2415	2415	2415	2415	2412	2409	2409	2403	2400	2395	2392	2383	2377	2372	2366	2366	2363	2360	2352	2355	2352	2346	2349	2352	2349	2352	2349	2349	2352	2352	2352	2352	2349	2346	2346	2346	2346	2349	2349	2349	2352	2352	2355	2355	2357	2360	2357	2360	2360	2360	2360	2357	2357	2357	2360	2357	2357	2357	2355	2355	2357	2360	2360	2360	2363	2366	2366	2372	2374	2380	2383	2389	2392	2395	2400	2403	2406	2406	2406	2406	2409	2409
2398	2406	2415	2427	2436	2442	2448	2451	2463	2469	2476	2479	2479	2482	2479	2469	2466	2457	2451	2445	2439	2433	2427	2421	2418	2418	2415	2406	2400	2395	2389	2383	2386	2386	2383	2383	2383	2386	2389	2389	2392	2389	2392	2392	2392	2392	2389	2389	2386	2380	2377	2374	2372	2363	2355	2352	2349	2352	2349	2349	2349	2349	2346	2346	2349	2352	2355	2357	2366	2372	2380	2386	2392	2400	2409	2418	2421	2424	2427	2427	2430	2433	2430	2430	2427	2427	2427	2424	2418	2412	2409	2403	2398	2392	2389	2380	2374	2372	2363	2357	2357	2355	2352	2352	2352	2355	2355	2357	2357	2352	2352	2352	2352	2355	2355	2357	2357	2360	2360	2360	2363	2366	2369	2369	2372	2372	2372	2374	2374	2372	2372	2369	2366	2363	2360	2360	2357	2357	2355	2355	2355	2355	2355	2352	2352	2355	2352	2352	2352	2352	2349	2346	2349	2346	2346	2346	2346	2346	2346	2349	2349	2349	2349	2352	2355	2357	2360	2366	2369	2377	2380	2386	2389	2389	2392	2398	2403	2406	2409	2412	0	2418	2421	2427	2430	2433	2433	2430	2427	2421	2415	2409	2400	2386	2374	2363	2349	2343	2341	2332	2321	2321	2313	2313	2311	2311	2311	2311	2313	2313	2313	2319	2316	2316	2316	2316	2319	2321	2324	2330	2335	2343	2352	2357	2366	2372	2374	2374	2374	2377	2377	2374	2377	2374	2372	2369	2366	2363	2360	2357	2352	2349	2343	2343	2338	2335	2332	2330	2327	2327	2324	2324	2324	2324	2321	2321	2321	2324	2324	2327	2330	2330	2335	2338	0	2341	0	2346	2349	2349	2352	2352	0	0	0	0	0	0	1568	1565	1560	1556	1549	1545	1541	1530	1527	1523	1521	1517	1515	1512	1509	1506	1502	1499	1497	1494	1492	1491	1490	1488	1486	1486	1486	1486	1485	1485	1485	1485	1485	1484	1483	1481	1479	1478	1475	1473	1472	1470	1469	1468	1468	1466	1467	1467	1467	1469	1470	1472	1474	1476	1480	1482	1484	1486	1490	1492	1494	1497	1500	1503	1506	1507	1509	1512	1513	1515	1517	1518	1518	1520	0	0	0	0	1543	1548	1552	1556	1559	1560	1563	1563	1564	1568	1570	1572	1572	1572	1570	1570	1570	1568	1564	1559	1557	1554	1551	1547	1543	1541	1536	1535	1531	1529	1529	1528	1527	1527	1526	1526	1526	1526	1527	1526	1524	1524	1523	1522	1521	1520	1517	1517	1517	1518	1517	1517	1516	1515	1513	1510	1507	1503	1500	1497	1493	1491	1490	1490	1490	1492	1495	1498	1502	1506	1510	1515	1520	1524	1528	1530	1533	1534	1536	1539	0	0	0	0	0	0	0	0	0	0	0	0	0	2366	2366	2366	2363	2366	2366	2363	2363	2360	2363	2363	2363	2360	2363	2363	2363	2366	2369	2369	2369	2369	2372	2372	2374	2372	2372	2372	2372	2369	2369	2369	2369	2369	2369	2372	2374	2377	2380	2386	2392	2398	2400	2403	2409	2412	2415	2415	2415	2415	2412	2412	2409	2409	2409	2406	2406	2403	2403	2398	2395	2386	2374	2366	2355	2343	2338	2321	2313	2311	2311	2308	2308	2308	2311	2313	2319	2324	2332	2338	2346	2352	0	2360	2366	2369	2372	2374	2377	2377	2380	2383	2380	2383	2380	2383	2383	2383	2383	2383	2380	2380	2380	2377	2377	2377	2374	2372	2372	2369	2366	2363	2363	2363	2366	2369	2372	2380	2383	2386	2392	2398	2403	2409	2412	2415	2418	2418	2424	2424	2421	2421	2418	2418	2418	2418	2415	2415	2415	2415	2415	2412	2406	2403	2400	2395	2386	2380	2372	2363	2357	2346	2341	2341	2341	2338	2338	2335	2335	2335	2335	2338	2341	2343	2343	2346	2349	2352	2349	2349	2349	2346	2349	2349	2349	2349	2346	2349	2352	2352	2352	2352	2355	2355	2357	2355	2357	2357	2355	2357	2357	2355	2357	2355	2355	2355	2355	2357	2357	2360	2363	2363	2363	2366	2369	2372	2374	2380	2383	2386	2392	2395	2398	2398	2398	2398	2398	2400	2400
